ply
format ascii 1.0
element vertex 2184
property float32 x
property float32 y
property float32 z
end_header
-4.9081 7.5970 2.0185
-5.5035 7.1773 2.0185
-6.0633 6.7111 2.0185
-6.5837 6.2014 2.0185
-7.0614 5.6514 2.0185
-7.4934 5.0648 2.0185
-7.8767 4.4453 2.0185
-8.2089 3.7970 2.0185
-8.4878 3.1241 2.0185
-8.7117 2.4309 2.0185
-8.8791 1.7219 2.0185
-8.9888 1.0017 2.0185
-9.0403 0.2751 2.0185
-9.0331 -0.4534 2.0185
-8.9673 -1.1789 2.0185
-8.8434 -1.8967 2.0185
-8.6620 -2.6023 2.0185
-8.4245 -3.2910 2.0185
-8.1323 -3.9583 2.0185
-7.7874 -4.5999 2.0185
-7.3920 -5.2117 2.0185
-6.9485 -5.7897 2.0185
-6.4601 -6.3301 2.0185
-5.9297 -6.8295 2.0185
-5.3608 -7.2845 2.0185
-4.7572 -7.6923 2.0185
-4.1227 -8.0502 2.0185
-3.4614 -8.3559 2.0185
-2.7777 -8.6074 2.0185
-2.0760 -8.8030 2.0185
-1.3609 -8.9415 2.0185
-0.5376 -7.6156 1.7038
0.0769 -7.6211 1.7009
0.6933 -7.6266 1.7091
1.5411 -8.9122 2.0185
2.2533 -8.7593 2.0185
2.9510 -8.5495 2.0185
3.6294 -8.2843 2.0185
3.9609 -7.3639 1.8661
4.2920 -6.6367 1.7639
5.0910 -6.6331 1.8661
5.6083 -6.2019 1.8661
6.0937 -5.7346 1.8674
6.5606 -5.2457 1.8746
6.9857 -4.7170 1.8811
7.3653 -4.1523 1.8869
7.6961 -3.5556 1.8920
7.9750 -2.9312 1.8962
8.1997 -2.2839 1.8996
8.3679 -1.6188 1.9021
8.4782 -0.9409 1.9037
8.5295 -0.2556 1.9044
8.5213 0.4316 1.9042
8.4538 1.1153 1.9030
8.3276 1.7901 1.9009
8.1438 2.4507 1.8980
7.9042 3.0919 1.8942
7.6110 3.7088 1.8895
7.2669 4.2969 1.8841
6.8749 4.8518 1.8779
6.4359 5.3675 1.8703
5.9628 5.8482 1.8639
5.4791 6.3163 1.8661
4.9530 6.7368 1.8661
4.3948 7.1136 1.8661
3.9741 7.7689 1.9475
3.4576 8.3575 2.0185
2.7738 8.6086 2.0185
2.0720 8.8040 2.0185
1.3568 8.9422 2.0185
0.6327 9.0223 2.0185
-0.0954 9.0440 2.0185
-0.8230 9.0070 2.0185
-1.5452 8.9115 2.0185
-2.2573 8.7583 2.0185
-2.9549 8.5482 2.0185
-3.6332 8.2827 2.0185
-4.2880 7.9634 2.0185
-4.9150 7.5925 2.0185
-5.5101 7.1723 2.0185
-6.0694 6.7056 2.0185
-6.5894 6.1954 2.0185
-7.0666 5.6450 2.0185
-7.4980 5.0580 2.0185
-7.8807 4.4382 2.0185
-8.2123 3.7895 2.0185
-8.4907 3.1163 2.0185
-8.7139 2.4229 2.0185
-8.8806 1.7138 2.0185
-8.9898 0.9935 2.0185
-9.0406 0.2668 2.0185
-9.0327 -0.4616 2.0185
-8.9663 -1.1870 2.0185
-8.8416 -1.9048 2.0185
-8.6597 -2.6102 2.0185
-8.4215 -3.2986 2.0185
-8.1287 -3.9657 2.0185
-7.7832 -4.6070 2.0185
-0.5692 -7.9604 2.0185
0.0733 -7.9804 2.0185
0.7153 -7.9486 2.0185
1.3527 -7.8652 2.0185
1.9813 -7.7309 2.0185
2.5970 -7.5463 2.0185
3.1959 -7.3129 2.0185
3.7741 -7.0319 2.0185
4.0071 -6.2084 1.8689
4.4869 -5.8570 1.8661
4.9437 -5.4769 1.8661
5.3684 -5.0613 1.8661
5.7584 -4.6128 1.8661
6.1157 -4.1377 1.8675
6.4463 -3.6419 1.8726
6.7342 -3.1186 1.8770
6.9770 -2.5716 1.8807
7.1725 -2.0049 1.8836
7.3191 -1.4228 1.8858
7.4153 -0.8298 1.8872
7.4605 -0.2304 1.8878
7.4540 0.3708 1.8876
7.3961 0.9689 1.8866
7.2872 1.5595 1.8848
7.1284 2.1380 1.8823
6.9210 2.7000 1.8789
6.6670 3.2413 1.8749
6.3684 3.7578 1.8702
6.0320 4.2488 1.8661
5.6705 4.7204 1.8661
5.2722 5.1615 1.8661
4.8397 5.5690 1.8661
4.3759 5.9405 1.8661
3.9677 6.4092 1.9065
3.6410 7.1017 2.0185
3.0577 7.3717 2.0185
2.4545 7.5939 2.0185
1.8354 7.7668 2.0185
1.2044 7.8893 2.0185
0.5656 7.9606 2.0185
-0.0769 7.9804 2.0185
-0.7189 7.9483 2.0185
-1.3563 7.8646 2.0185
-1.9848 7.7300 2.0185
-2.6004 7.5452 2.0185
-3.1992 7.3114 2.0185
-3.7773 7.0302 2.0185
-4.3308 6.7034 2.0185
-4.8562 6.3332 2.0185
-5.3502 5.9218 2.0185
-5.8094 5.4720 2.0185
-6.2309 4.9867 2.0185
-6.6120 4.4691 2.0185
-6.9502 3.9225 2.0185
-7.2434 3.3504 2.0185
-7.4895 2.7566 2.0185
-7.6871 2.1449 2.0185
-7.8348 1.5193 2.0185
-7.9316 0.8839 2.0185
-7.9770 0.2427 2.0185
-7.9707 -0.4001 2.0185
-7.9126 -1.0402 2.0185
-7.8033 -1.6737 2.0185
-7.6432 -2.2962 2.0185
-7.4337 -2.9039 2.0185
-7.1758 -3.4927 2.0185
-6.8715 -4.0589 2.0185
-6.5225 -4.5987 2.0185
-6.1313 -5.1087 2.0185
-5.7003 -5.5856 2.0185
-5.2323 -6.0262 2.0185
-4.7303 -6.4278 2.0185
-4.1977 -6.7876 2.0185
-3.6378 -7.1034 2.0185
-3.0543 -7.3731 2.0185
-2.4510 -7.5950 2.0185
-1.8319 -7.7676 2.0185
-1.2008 -7.8899 2.0185
-0.5619 -7.9609 2.0185
0.0806 -7.9803 2.0185
0.7225 -7.9479 2.0185
1.3598 -7.8640 2.0185
1.9883 -7.7290 2.0185
2.6039 -7.5440 2.0185
3.2026 -7.3100 2.0185
3.7805 -7.0285 2.0185
4.0066 -6.1955 1.8661
4.4922 -5.8529 1.8661
4.9487 -5.4724 1.8661
5.3731 -5.0564 1.8661
5.7626 -4.6076 1.8661
6.1197 -4.1323 1.8676
6.4498 -3.6362 1.8726
6.7372 -3.1126 1.8770
6.9795 -2.5653 1.8807
7.1745 -1.9984 1.8836
7.3205 -1.4161 1.8858
7.4161 -0.8230 1.8872
7.4607 -0.2236 1.8878
7.4537 0.3775 1.8876
7.3952 0.9756 1.8866
7.2857 1.5661 1.8848
7.1263 2.1445 1.8822
6.9184 2.7062 1.8789
6.6638 3.2472 1.8749
6.3648 3.7635 1.8701
6.0281 4.2543 1.8661
5.6662 4.7256 1.8661
5.2675 5.1663 1.8661
4.8347 5.5734 1.8661
4.3704 5.9444 1.8661
3.9673 6.4217 1.9091
3.6346 7.1050 2.0185
3.0510 7.3745 2.0185
2.4476 7.5961 2.0185
1.8283 7.7685 2.0185
1.1972 7.8904 2.0185
0.5583 7.9612 2.0185
-0.0842 7.9803 2.0185
-0.7262 7.9476 2.0185
-1.3634 7.8634 2.0185
-1.9918 7.7282 2.0185
-2.6073 7.5428 2.0185
-3.2059 7.3085 2.0185
-3.7837 7.0268 2.0185
-4.3369 6.6995 2.0185
-4.8620 6.3287 2.0185
-5.3555 5.9169 2.0185
-5.8144 5.4667 2.0185
-6.2355 4.9811 2.0185
-6.6161 4.4631 2.0185
-6.9538 3.9162 2.0185
-7.2464 3.3438 2.0185
-7.4920 2.7498 2.0185
-7.6890 2.1379 2.0185
-7.8361 1.5122 2.0185
-7.9324 0.8767 2.0185
-7.9772 0.2354 2.0185
-7.9703 -0.4073 2.0185
-7.9117 -1.0474 2.0185
-7.8017 -1.6808 2.0185
-7.6412 -2.3032 2.0185
-7.4310 -2.9106 2.0185
-7.1727 -3.4992 2.0185
-6.8678 -4.0651 2.0185
-0.5085 -7.1119 2.0185
0.0655 -7.1298 2.0185
0.6391 -7.1014 2.0185
1.2085 -7.0269 2.0185
1.7701 -6.9069 2.0185
2.3202 -6.7420 2.0185
2.8553 -6.5334 2.0185
3.3718 -6.2824 2.0185
3.8239 -5.9248 1.9963
4.0163 -5.2429 1.8696
4.4168 -4.8932 1.8661
4.7962 -4.5219 1.8661
5.1446 -4.1212 1.8661
5.4596 -3.6938 1.8661
5.7391 -3.2424 1.8661
5.9786 -2.7687 1.8652
6.1928 -2.2826 1.8684
6.3653 -1.7792 1.8710
6.4945 -1.2625 1.8730
6.5793 -0.7362 1.8742
6.6191 -0.2044 1.8747
6.6135 0.3289 1.8746
6.5625 0.8597 1.8737
6.4666 1.3839 1.8721
6.3266 1.8975 1.8698
6.1438 2.3968 1.8669
5.9283 2.8821 1.8661
5.6771 3.3499 1.8661
5.3891 3.7959 1.8661
5.0661 4.2173 1.8661
4.7103 4.6113 1.8661
4.3239 4.9755 1.8661
3.9601 5.3760 1.8902
3.7530 6.0624 2.0185
3.2529 6.3448 2.0185
2.7318 6.5860 2.0185
2.1929 6.7845 2.0185
1.6398 6.9390 2.0185
1.0760 7.0484 2.0185
0.5053 7.1121 2.0185
-0.0687 7.1297 2.0185
-0.6423 7.1011 2.0185
-1.2117 7.0264 2.0185
-1.7732 6.9061 2.0185
-2.3233 6.7410 2.0185
-2.8582 6.5321 2.0185
-3.3747 6.2809 2.0185
-3.8692 5.9889 2.0185
-4.3386 5.6581 2.0185
-4.7799 5.2906 2.0185
-5.1902 4.8888 2.0185
-5.5668 4.4552 2.0185
-5.9073 3.9928 2.0185
-6.2094 3.5044 2.0185
-6.4713 2.9933 2.0185
-6.6912 2.4628 2.0185
-6.8677 1.9163 2.0185
-6.9997 1.3574 2.0185
-7.0862 0.7897 2.0185
-7.1268 0.2168 2.0185
-7.1211 -0.3574 2.0185
-7.0692 -0.9293 2.0185
-6.9715 -1.4953 2.0185
-6.8286 -2.0515 2.0185
-6.6413 -2.5944 2.0185
-6.4110 -3.1204 2.0185
-6.1391 -3.6261 2.0185
-5.8273 -4.1086 2.0185
-5.4778 -4.5642 2.0185
-5.0927 -4.9902 2.0185
-4.6746 -5.3839 2.0185
-4.2261 -5.7426 2.0185
-3.7502 -6.0641 2.0185
-3.2500 -6.3463 2.0185
-2.7288 -6.5872 2.0185
-2.1898 -6.7855 2.0185
-1.6366 -6.9397 2.0185
-1.0728 -7.0489 2.0185
-0.5020 -7.1124 2.0185
0.0720 -7.1297 2.0185
0.6455 -7.1008 2.0185
1.2149 -7.0258 2.0185
1.7764 -6.9053 2.0185
2.3263 -6.7399 2.0185
2.8612 -6.5308 2.0185
3.3775 -6.2794 2.0185
3.8245 -5.9139 1.9938
4.0179 -5.2345 1.8682
4.4212 -4.8891 1.8661
4.8004 -4.5175 1.8661
5.1483 -4.1165 1.8661
5.4629 -3.6888 1.8661
5.7421 -3.2372 1.8661
5.9813 -2.7633 1.8652
6.1950 -2.2770 1.8685
6.3670 -1.7735 1.8711
6.4957 -1.2566 1.8730
6.5800 -0.7302 1.8742
6.6193 -0.1984 1.8747
6.6132 0.3350 1.8745
6.5617 0.8657 1.8737
6.4653 1.3898 1.8721
6.3248 1.9033 1.8698
6.1415 2.4023 1.8669
5.9256 2.8875 1.8661
5.6740 3.3551 1.8661
5.3856 3.8008 1.8661
5.0623 4.2219 1.8661
4.7061 4.6156 1.8661
4.3193 4.9794 1.8661
3.9598 5.3858 1.8924
3.7475 6.0658 2.0185
3.2472 6.3478 2.0185
2.7258 6.5885 2.0185
2.1867 6.7865 2.0185
1.6334 6.9404 2.0185
1.0696 7.0494 2.0185
0.4988 7.1126 2.0185
-0.0752 7.1297 2.0185
-0.6488 7.1005 2.0185
-1.2181 7.0252 2.0185
-1.7795 6.9044 2.0185
-2.3294 6.7388 2.0185
-2.8642 6.5295 2.0185
-3.3804 6.2778 2.0185
-3.8746 5.9854 2.0185
-4.3438 5.6542 2.0185
-4.7847 5.2863 2.0185
-5.1946 4.8841 2.0185
-5.5708 4.4501 2.0185
-5.9109 3.9874 2.0185
-6.2126 3.4988 2.0185
-6.4741 2.9874 2.0185
-6.6935 2.4567 2.0185
-6.8695 1.9101 2.0185
-7.0009 1.3510 2.0185
-7.0869 0.7832 2.0185
-7.1270 0.2103 2.0185
-7.1208 -0.3639 2.0185
-7.0684 -0.9358 2.0185
-6.9702 -1.5016 2.0185
-6.8267 -2.0577 2.0185
-6.6390 -2.6004 2.0185
-6.4082 -3.1263 2.0185
-6.1358 -3.6319 2.0185
-0.4588 -6.4170 2.0185
0.0591 -6.4331 2.0185
0.5766 -6.4075 2.0185
1.0904 -6.3403 2.0185
1.5971 -6.2319 2.0185
2.0935 -6.0832 2.0185
2.5763 -5.8950 2.0185
3.0423 -5.6685 2.0185
3.4886 -5.4053 2.0185
3.8365 -5.0080 1.9794
3.9852 -4.4150 1.8661
4.3276 -4.0800 1.8661
4.6419 -3.7185 1.8661
4.9261 -3.3328 1.8661
5.1783 -2.9256 1.8661
5.3970 -2.4994 1.8661
5.5806 -2.0569 1.8661
5.7280 -1.6011 1.8661
5.8383 -1.1349 1.8661
5.9107 -0.6614 1.8661
5.9448 -0.1835 1.8661
5.9403 0.2954 1.8661
5.8972 0.7726 1.8661
5.8159 1.2446 1.8661
5.6969 1.7087 1.8661
5.5409 2.1616 1.8661
5.3490 2.6005 1.8661
5.1223 3.0226 1.8661
4.8625 3.4250 1.8661
4.5711 3.8052 1.8661
4.2500 4.1607 1.8661
3.9515 4.5470 1.8901
3.8155 5.1797 2.0185
3.3863 5.4700 2.0185
2.9351 5.7248 2.0185
2.4648 5.9424 2.0185
1.9786 6.1215 2.0185
1.4795 6.2609 2.0185
0.9709 6.3597 2.0185
0.4559 6.4172 2.0185
-0.0620 6.4331 2.0185
-0.5795 6.4072 2.0185
-1.0933 6.3398 2.0185
-1.6000 6.2312 2.0185
-2.0962 6.0822 2.0185
-2.5789 5.8938 2.0185
-3.0449 5.6672 2.0185
-3.4911 5.4037 2.0185
-3.9147 5.1052 2.0185
-4.3128 4.7736 2.0185
-4.6830 4.4111 2.0185
-5.0228 4.0199 2.0185
-5.3300 3.6026 2.0185
-5.6027 3.1620 2.0185
-5.8390 2.7008 2.0185
-6.0374 2.2222 2.0185
-6.1966 1.7291 2.0185
-6.3157 1.2247 2.0185
-6.3938 0.7125 2.0185
-6.4304 0.1956 2.0185
-6.4253 -0.3225 2.0185
-6.3785 -0.8385 2.0185
-6.2903 -1.3491 2.0185
-6.1613 -1.8510 2.0185
-5.9924 -2.3409 2.0185
-5.7845 -2.8155 2.0185
-5.5392 -3.2719 2.0185
-5.2579 -3.7071 2.0185
-4.9425 -4.1182 2.0185
-4.5950 -4.5026 2.0185
-4.2178 -4.8578 2.0185
-3.8131 -5.1815 2.0185
-3.3838 -5.4715 2.0185
-2.9325 -5.7261 2.0185
-2.4621 -5.9436 2.0185
-1.9758 -6.1224 2.0185
-1.4767 -6.2616 2.0185
-0.9680 -6.3601 2.0185
-0.4530 -6.4174 2.0185
0.0649 -6.4330 2.0185
0.5825 -6.4069 2.0185
1.0962 -6.3393 2.0185
1.6028 -6.2305 2.0185
2.0990 -6.0813 2.0185
2.5816 -5.8926 2.0185
3.0475 -5.6657 2.0185
3.4936 -5.4021 2.0185
3.8370 -4.9992 1.9773
3.9892 -4.4114 1.8661
4.3313 -4.0760 1.8661
4.6453 -3.7143 1.8661
4.9291 -3.3284 1.8661
5.1810 -2.9209 1.8661
5.3992 -2.4945 1.8661
5.5825 -2.0518 1.8661
5.7295 -1.5959 1.8661
5.8394 -1.1296 1.8661
5.9113 -0.6560 1.8661
5.9449 -0.1781 1.8661
5.9400 0.3009 1.8661
5.8965 0.7779 1.8661
5.8148 1.2499 1.8661
5.6953 1.7139 1.8661
5.5389 2.1666 1.8661
5.3466 2.6054 1.8661
5.1196 3.0272 1.8661
4.8594 3.4294 1.8661
4.5676 3.8094 1.8661
4.2462 4.1646 1.8661
3.9513 4.5551 1.8919
3.8108 5.1832 2.0185
3.3813 5.4731 2.0185
2.9299 5.7275 2.0185
2.4594 5.9447 2.0185
1.9730 6.1233 2.0185
1.4738 6.2623 2.0185
0.9651 6.3605 2.0185
0.4501 6.4176 2.0185
-0.0679 6.4330 2.0185
-0.5854 6.4067 2.0185
-1.0991 6.3388 2.0185
-1.6056 6.2298 2.0185
-2.1018 6.0803 2.0185
-2.5843 5.8915 2.0185
-3.0501 5.6644 2.0185
-3.4960 5.4005 2.0185
-3.9193 5.1017 2.0185
-4.3172 4.7697 2.0185
-4.6870 4.4068 2.0185
-5.0265 4.0153 2.0185
-5.3333 3.5977 2.0185
-5.6055 3.1569 2.0185
-5.8414 2.6955 2.0185
-6.0394 2.2167 2.0185
-6.1982 1.7234 2.0185
-6.3168 1.2190 2.0185
-6.3944 0.7067 2.0185
-6.4305 0.1898 2.0185
-6.4250 -0.3283 2.0185
-6.3777 -0.8443 2.0185
-6.2891 -1.3549 2.0185
-6.1596 -1.8566 2.0185
-5.9902 -2.3464 2.0185
-5.7820 -2.8208 2.0185
-5.5362 -3.2770 2.0185
-0.4173 -5.8365 2.0185
0.0537 -5.8511 2.0185
0.5245 -5.8278 2.0185
0.9918 -5.7667 2.0185
1.4526 -5.6682 2.0185
0.6978 -2.0277 0.7397
2.3432 -5.3617 2.0185
2.7671 -5.1557 2.0185
3.1731 -4.9163 2.0185
3.5584 -4.6450 2.0185
3.8443 -4.2589 1.9791
3.9361 -3.7109 1.8661
4.2220 -3.3821 1.8661
4.4805 -3.0314 1.8661
4.7099 -2.6609 1.8661
4.9088 -2.2733 1.8661
5.0758 -1.8708 1.8661
5.2099 -1.4563 1.8661
5.3102 -1.0323 1.8661
5.3760 -0.6016 1.8661
5.4070 -0.1670 1.8661
5.4029 0.2687 1.8661
5.3637 0.7027 1.8661
5.2898 1.1321 1.8661
5.1815 1.5541 1.8661
5.0397 1.9660 1.8661
4.8651 2.3652 1.8661
4.6590 2.7491 1.8661
4.4226 3.1152 1.8661
4.1576 3.4610 1.8661
3.9421 3.8592 1.9030
3.8382 4.4166 2.0185
3.4703 4.7112 2.0185
3.0799 4.9752 2.0185
2.6696 5.2069 2.0185
2.2419 5.4049 2.0185
1.7996 5.5678 2.0185
1.3457 5.6945 2.0185
0.8830 5.7844 2.0185
0.4147 5.8367 2.0185
-0.0564 5.8511 2.0185
-0.5271 5.8276 2.0185
-0.9944 5.7663 2.0185
-1.4552 5.6675 2.0185
-1.9066 5.5320 2.0185
-2.3456 5.3607 2.0185
-2.7694 5.1545 2.0185
-3.1753 4.9149 2.0185
-3.5605 4.6434 2.0185
-3.9227 4.3418 2.0185
-4.2594 4.0120 2.0185
-4.5684 3.6562 2.0185
-4.8479 3.2767 2.0185
-5.0958 2.8759 2.0185
-5.3108 2.4565 2.0185
-5.4912 2.0211 2.0185
-5.6361 1.5727 2.0185
-5.7444 1.1140 2.0185
-5.8154 0.6481 2.0185
-5.8487 0.1779 2.0185
-5.8440 -0.2933 2.0185
-5.8015 -0.7627 2.0185
-5.7213 -1.2271 2.0185
-5.6039 -1.6836 2.0185
-5.4503 -2.1291 2.0185
-5.2613 -2.5608 2.0185
-5.0381 -2.9759 2.0185
-4.7823 -3.3717 2.0185
-4.4954 -3.7457 2.0185
-4.1794 -4.0953 2.0185
-3.8362 -4.4184 2.0185
-3.4682 -4.7128 2.0185
-3.0777 -4.9766 2.0185
-2.6672 -5.2081 2.0185
-2.2394 -5.4059 2.0185
-1.7971 -5.5686 2.0185
-1.3431 -5.6951 2.0185
-0.8804 -5.7848 2.0185
-0.4120 -5.8368 2.0185
0.0591 -5.8511 2.0185
0.5298 -5.8273 2.0185
0.9970 -5.7658 2.0185
1.4578 -5.6669 2.0185
0.6997 -2.0271 0.7398
2.3481 -5.3596 2.0185
2.7718 -5.1532 2.0185
3.1775 -4.9134 2.0185
3.5626 -4.6418 2.0185
3.8447 -4.2516 1.9773
3.9395 -3.7073 1.8661
4.2250 -3.3782 1.8661
4.4832 -3.0273 1.8661
4.7123 -2.6566 1.8661
4.9108 -2.2688 1.8661
5.0775 -1.8662 1.8661
5.2112 -1.4515 1.8661
5.3111 -1.0274 1.8661
5.3766 -0.5967 1.8661
5.4072 -0.1620 1.8661
5.4027 0.2737 1.8661
5.3631 0.7075 1.8661
5.2888 1.1369 1.8661
5.1801 1.5588 1.8661
5.0379 1.9707 1.8661
4.8629 2.3697 1.8661
4.6565 2.7534 1.8661
4.4198 3.1192 1.8661
4.1544 3.4647 1.8661
3.9418 3.8661 1.9046
3.8342 4.4201 2.0185
3.4661 4.7143 2.0185
3.0754 4.9780 2.0185
2.6648 5.2094 2.0185
2.2369 5.4069 2.0185
1.7945 5.5694 2.0185
1.3405 5.6958 2.0185
0.8778 5.7852 2.0185
0.4094 5.8370 2.0185
-0.0617 5.8510 2.0185
-0.5324 5.8271 2.0185
-0.9997 5.7654 2.0185
-1.4604 5.6662 2.0185
-1.9117 5.5303 2.0185
-2.3505 5.3585 2.0185
-2.7741 5.1520 2.0185
-3.1798 4.9120 2.0185
-3.5648 4.6402 2.0185
-3.9266 4.3382 2.0185
-4.2630 4.0082 2.0185
-4.5718 3.6521 2.0185
-4.8508 3.2723 2.0185
-5.0985 2.8713 2.0185
-5.3130 2.4517 2.0185
-5.4931 2.0161 2.0185
-5.6375 1.5675 2.0185
-5.7454 1.1087 2.0185
-5.8160 0.6428 2.0185
-5.8488 0.1726 2.0185
-5.8437 -0.2986 2.0185
-5.8008 -0.7680 2.0185
-5.7201 -1.2323 2.0185
-5.6024 -1.6887 2.0185
-5.4483 -2.1341 2.0185
-5.2589 -2.5656 2.0185
-5.0354 -2.9805 2.0185
-0.1401 -1.9587 0.7399
0.0180 -1.9636 0.7399
0.1760 -1.9558 0.7399
0.3329 -1.9354 0.7399
0.4876 -1.9025 0.7400
0.6392 -1.8573 0.7401
2.1453 -4.9089 2.0185
2.5334 -4.7204 2.0185
2.9051 -4.5012 2.0185
3.2579 -4.2528 2.0185
3.5896 -3.9768 2.0185
3.8483 -3.6281 1.9927
3.8816 -3.1093 1.8739
4.1021 -2.7754 1.8661
4.3121 -2.4362 1.8661
4.4942 -2.0813 1.8661
4.6471 -1.7129 1.8661
4.7699 -1.3333 1.8661
4.8617 -0.9451 1.8661
4.9220 -0.5508 1.8661
4.9504 -0.1529 1.8661
4.9466 0.2460 1.8661
4.9108 0.6433 1.8661
4.8431 1.0365 1.8661
4.7440 1.4229 1.8661
4.6141 1.8000 1.8661
4.4542 2.1655 1.8661
4.2655 2.5170 1.8661
4.0491 2.8521 1.8661
3.9315 3.2728 1.9274
3.8281 3.7477 2.0185
3.5141 4.0436 2.0185
3.1773 4.3133 2.0185
2.8199 4.5550 2.0185
2.4441 4.7672 2.0185
0.7595 1.8310 0.7469
0.6097 1.8864 0.7470
0.4560 1.9296 0.7470
0.2992 1.9601 0.7471
0.3796 5.3438 2.0185
-0.0516 5.3570 2.0185
-0.1786 1.9749 0.7471
-0.3370 1.9540 0.7471
-0.4931 1.9204 0.7470
-0.6460 1.8742 0.7469
-2.1476 4.9080 2.0185
-2.5356 4.7192 2.0185
-2.9071 4.4999 2.0185
-3.2599 4.2513 2.0185
-3.5914 3.9752 2.0185
-3.8997 3.6732 2.0185
-4.1826 3.3475 2.0185
-4.4385 3.0000 2.0185
-4.6655 2.6331 2.0185
-4.8623 2.2491 2.0185
-5.0275 1.8504 2.0185
-5.1601 1.4398 2.0185
-5.2593 1.0199 2.0185
-5.3243 0.5933 2.0185
-5.3548 0.1629 2.0185
-5.3505 -0.2686 2.0185
-5.3115 -0.6983 2.0185
-5.2381 -1.1235 2.0185
-5.1307 -1.5414 2.0185
-4.9900 -1.9493 2.0185
-4.8170 -2.3446 2.0185
-4.6126 -2.7246 2.0185
-4.3784 -3.0870 2.0185
-4.1158 -3.4294 2.0185
-3.8264 -3.7494 2.0185
-3.5123 -4.0453 2.0185
-3.1753 -4.3148 2.0185
-2.8178 -4.5563 2.0185
-2.4420 -4.7683 2.0185
-0.7518 -1.8148 0.7401
-0.6032 -1.8692 0.7400
-0.4508 -1.9115 0.7400
-0.2955 -1.9414 0.7399
-0.1383 -1.9588 0.7399
0.0198 -1.9636 0.7399
0.1778 -1.9556 0.7399
0.3346 -1.9351 0.7399
0.4893 -1.9021 0.7400
0.6409 -1.8567 0.7401
2.1498 -4.9070 2.0185
2.5377 -4.7181 2.0185
2.9092 -4.4985 2.0185
3.2618 -4.2498 2.0185
3.5932 -3.9735 2.0185
3.8486 -3.6218 1.9912
3.8826 -3.1043 1.8730
4.1046 -2.7716 1.8661
4.3144 -2.4323 1.8661
4.4961 -2.0772 1.8661
4.6487 -1.7086 1.8661
4.7711 -1.3290 1.8661
4.8626 -0.9407 1.8661
4.9225 -0.5463 1.8661
4.9505 -0.1484 1.8661
4.9464 0.2505 1.8661
4.9102 0.6478 1.8661
4.8421 1.0409 1.8661
4.7427 1.4272 1.8661
4.6124 1.8042 1.8661
4.4523 2.1696 1.8661
4.2632 2.5208 1.8661
4.0465 2.8558 1.8661
3.9313 3.2787 1.9287
3.8247 3.7512 2.0185
3.5104 4.0469 2.0185
3.1734 4.3162 2.0185
2.8157 4.5576 2.0185
2.4398 4.7694 2.0185
0.7578 1.8317 0.7469
0.6080 1.8870 0.7470
0.4542 1.9300 0.7470
0.2974 1.9604 0.7471
0.3748 5.3441 2.0185
-0.0565 5.3569 2.0185
-0.1804 1.9747 0.7471
-0.3387 1.9537 0.7471
-0.4948 1.9199 0.7470
-0.6477 1.8736 0.7469
-2.1520 4.9060 2.0185
-2.5399 4.7169 2.0185
-2.9112 4.4972 2.0185
-3.2637 4.2483 2.0185
-3.5950 3.9719 2.0185
-3.9030 3.6697 2.0185
-4.1857 3.3437 2.0185
-4.4412 2.9960 2.0185
-4.6679 2.6288 2.0185
-4.8643 2.2446 2.0185
-5.0292 1.8459 2.0185
-5.1614 1.4351 2.0185
-5.2602 1.0151 2.0185
-5.3248 0.5885 2.0185
-5.3549 0.1580 2.0185
-5.3503 -0.2734 2.0185
-5.3109 -0.7031 2.0185
-5.2371 -1.1283 2.0185
-5.1293 -1.5461 2.0185
-4.9882 -1.9538 2.0185
-4.8148 -2.3489 2.0185
-4.6102 -2.7288 2.0185
-0.1290 -1.8038 0.7402
0.0166 -1.8084 0.7401
0.1621 -1.8012 0.7402
0.3065 -1.7824 0.7402
0.4490 -1.7521 0.7403
0.5886 -1.7104 0.7403
0.7245 -1.6577 0.7404
2.3323 -4.3455 2.0185
2.6744 -4.1437 2.0185
2.9992 -3.9151 2.0185
3.3046 -3.6610 2.0185
3.5885 -3.3832 2.0185
3.8491 -3.0834 2.0185
3.8732 -2.6205 1.9139
3.9697 -2.2428 1.8661
4.1373 -1.9160 1.8661
4.2781 -1.5768 1.8661
4.3911 -1.2274 1.8661
4.4757 -0.8700 1.8661
4.5312 -0.5070 1.8661
4.5573 -0.1407 1.8661
4.5538 0.2265 1.8661
4.5208 0.5922 1.8661
4.4585 0.9542 1.8661
4.3673 1.3099 1.8661
4.2477 1.6571 1.8661
4.1005 1.9936 1.8661
3.9395 2.3246 1.8721
3.9198 2.7610 1.9623
3.7904 3.1553 2.0185
3.5242 3.4501 2.0185
3.2351 3.7226 2.0185
2.9250 3.9708 2.0185
2.5959 4.1933 2.0185
2.2500 4.3887 2.0185
0.6989 1.6850 0.7466
0.5611 1.7360 0.7467
0.4196 1.7757 0.7468
0.2754 1.8038 0.7468
0.1293 1.8202 0.7468
-0.0176 1.8247 0.7468
-0.1644 1.8173 0.7468
-0.3101 1.7981 0.7468
-0.4538 1.7672 0.7467
-0.5944 1.7248 0.7466
-0.7312 1.6711 0.7465
-2.3342 4.3445 2.0185
-2.6763 4.1425 2.0185
-3.0010 3.9137 2.0185
-3.3062 3.6595 2.0185
-3.5900 3.3815 2.0185
-3.8505 3.0817 2.0185
-4.0860 2.7618 2.0185
-4.2950 2.4240 2.0185
-4.4762 2.0705 2.0185
-4.6283 1.7035 2.0185
-4.7504 1.3255 2.0185
-4.8416 0.9389 2.0185
-4.9015 0.5462 2.0185
-4.9296 0.1500 2.0185
-4.9256 -0.2472 2.0185
-4.8898 -0.6428 2.0185
-4.8222 -1.0343 2.0185
-4.7233 -1.4190 2.0185
-4.5938 -1.7945 2.0185
-4.4344 -2.1584 2.0185
-4.2464 -2.5083 2.0185
-4.0307 -2.8419 2.0185
-3.7889 -3.1571 2.0185
-3.5226 -3.4517 2.0185
-3.2334 -3.7240 2.0185
-2.9232 -3.9722 2.0185
-2.5940 -4.1945 2.0185
-2.2480 -4.3897 2.0185
-0.6923 -1.6713 0.7404
-0.5555 -1.7214 0.7403
-0.4152 -1.7604 0.7402
-0.2721 -1.7879 0.7402
-0.1273 -1.8040 0.7402
0.0183 -1.8083 0.7401
0.1637 -1.8010 0.7402
0.3082 -1.7821 0.7402
0.4506 -1.7517 0.7403
0.5902 -1.7099 0.7403
0.7260 -1.6571 0.7404
2.3362 -4.3434 2.0185
2.6782 -4.1413 2.0185
3.0028 -3.9123 2.0185
3.3079 -3.6580 2.0185
3.5916 -3.3799 2.0185
3.8494 -3.0780 2.0172
3.8735 -2.6155 1.9129
3.9718 -2.2391 1.8661
4.1391 -1.9122 1.8661
4.2796 -1.5729 1.8661
4.3923 -1.2234 1.8661
4.4765 -0.8660 1.8661
4.5316 -0.5029 1.8661
4.5574 -0.1366 1.8661
4.5536 0.2306 1.8661
4.5203 0.5964 1.8661
4.4576 0.9582 1.8661
4.3661 1.3138 1.8661
4.2462 1.6609 1.8661
4.0987 1.9973 1.8661
3.9388 2.3290 1.8728
3.9196 2.7662 1.9635
3.7875 3.1588 2.0185
3.5210 3.4533 2.0185
3.2317 3.7255 2.0185
2.9214 3.9735 2.0185
2.5921 4.1957 2.0185
2.2460 4.3907 2.0185
0.6974 1.6856 0.7466
0.5595 1.7365 0.7467
0.4180 1.7760 0.7468
0.2737 1.8041 0.7468
0.1277 1.8203 0.7468
-0.0193 1.8247 0.7468
-0.1660 1.8172 0.7468
-0.3117 1.7978 0.7468
-0.4554 1.7668 0.7467
-0.5960 1.7242 0.7466
-0.7327 1.6704 0.7465
-2.3382 4.3423 2.0185
-2.6801 4.1401 2.0185
-3.0046 3.9110 2.0185
-3.3096 3.6565 2.0185
-3.5931 3.3783 2.0185
-3.8533 3.0781 2.0185
-4.0885 2.7580 2.0185
-4.2972 2.4201 2.0185
-4.4781 2.0664 2.0185
-4.6298 1.6993 2.0185
-4.7516 1.3212 2.0185
-4.8425 0.9345 2.0185
-4.9020 0.5418 2.0185
-4.9297 0.1455 2.0185
-4.9254 -0.2517 2.0185
-4.8892 -0.6473 2.0185
-4.8212 -1.0387 2.0185
-4.7220 -1.4233 2.0185
-4.5921 -1.7987 2.0185
-4.4325 -2.1624 2.0185
-4.2441 -2.5121 2.0185
-0.1193 -1.6688 0.7404
0.0154 -1.6730 0.7404
0.1500 -1.6664 0.7404
0.2836 -1.6490 0.7404
0.4154 -1.6209 0.7405
0.5446 -1.5824 0.7406
0.6702 -1.5336 0.7407
2.1570 -4.0189 2.0185
2.4734 -3.8323 2.0185
2.7738 -3.6208 2.0185
3.0562 -3.3858 2.0185
3.3188 -3.1289 2.0185
3.5598 -2.8517 2.0185
3.7778 -2.5559 2.0185
3.8681 -2.1853 1.9660
3.8853 -1.7992 1.8948
3.9566 -1.4583 1.8661
4.0611 -1.1352 1.8661
4.1393 -0.8047 1.8661
4.1907 -0.4689 1.8661
4.2148 -0.1301 1.8661
4.2116 0.2095 1.8661
4.1811 0.5477 1.8661
4.1234 0.8824 1.8661
4.0390 1.2114 1.8661
3.9345 1.5349 1.8689
3.9174 1.9045 1.9276
3.9067 2.3053 2.0074
3.7290 2.6266 2.0185
3.5055 2.9182 2.0185
3.2593 3.1908 2.0185
2.9919 3.4428 2.0185
2.7052 3.6724 2.0185
2.4008 3.8782 2.0185
0.7693 1.5006 0.7462
0.6462 1.5578 0.7464
0.5188 1.6050 0.7464
0.3879 1.6417 0.7465
0.2546 1.6677 0.7466
0.1196 1.6828 0.7466
-0.0163 1.6870 0.7466
-0.1520 1.6802 0.7466
-0.2867 1.6624 0.7465
-0.4195 1.6338 0.7465
-0.5496 1.5946 0.7464
-0.6761 1.5450 0.7463
-2.1588 4.0180 2.0185
-2.4752 3.8312 2.0185
-2.7755 3.6196 2.0185
-3.0577 3.3845 2.0185
-3.3202 3.1274 2.0185
-3.5611 2.8501 2.0185
-3.7789 2.5542 2.0185
-3.9722 2.2418 2.0185
-4.1398 1.9149 2.0185
-4.2805 1.5755 2.0185
-4.3934 1.2259 2.0185
-4.4778 0.8683 2.0185
-4.5331 0.5052 2.0185
-4.5591 0.1387 2.0185
-4.5554 -0.2287 2.0185
-4.5223 -0.5944 2.0185
-4.4597 -0.9568 2.0185
-4.3683 -1.3124 2.0185
-4.2485 -1.6597 2.0185
-4.1012 -1.9962 2.0185
-3.9272 -2.3198 2.0185
-3.7278 -2.6283 2.0185
-3.5042 -2.9198 2.0185
-3.2578 -3.1923 2.0185
-2.9904 -3.4441 2.0185
-2.7035 -3.6736 2.0185
-2.3991 -3.8793 2.0185
-0.7630 -1.4898 0.7407
-0.6405 -1.5462 0.7406
-0.5139 -1.5925 0.7405
-0.3841 -1.6286 0.7405
-0.2517 -1.6541 0.7404
-0.1178 -1.6690 0.7404
0.0169 -1.6730 0.7404
0.1515 -1.6662 0.7404
0.2851 -1.6487 0.7404
0.4169 -1.6206 0.7405
0.5460 -1.5819 0.7406
0.6716 -1.5330 0.7407
2.1606 -4.0170 2.0185
2.4769 -3.8301 2.0185
2.7771 -3.6183 2.0185
3.0593 -3.3831 2.0185
3.3216 -3.1259 2.0185
3.5624 -2.8484 2.0185
3.7801 -2.5525 2.0185
3.8683 -2.1808 1.9651
3.8854 -1.7950 1.8941
3.9579 -1.4548 1.8661
4.0622 -1.1315 1.8661
4.1401 -0.8009 1.8661
4.1911 -0.4651 1.8661
4.2149 -0.1263 1.8661
4.2114 0.2133 1.8661
4.1806 0.5515 1.8661
4.1226 0.8862 1.8661
4.0379 1.2151 1.8661
3.9341 1.5389 1.8694
3.9173 1.9089 1.9284
3.9066 2.3100 2.0084
3.7266 2.6300 2.0185
3.5029 2.9214 2.0185
3.2564 3.1938 2.0185
2.9888 3.4455 2.0185
2.7018 3.6749 2.0185
2.3973 3.8804 2.0185
0.7680 1.5013 0.7462
0.6448 1.5584 0.7464
0.5173 1.6055 0.7464
0.3865 1.6420 0.7465
0.2531 1.6679 0.7466
0.1180 1.6829 0.7466
-0.0178 1.6870 0.7466
-0.1535 1.6800 0.7466
-0.2882 1.6622 0.7465
-0.4210 1.6335 0.7465
-0.5510 1.5941 0.7464
-0.6775 1.5444 0.7463
-2.1625 4.0160 2.0185
-2.4786 3.8289 2.0185
-2.7788 3.6170 2.0185
-3.0608 3.3817 2.0185
-3.3231 3.1244 2.0185
-3.5637 2.8468 2.0185
-3.7813 2.5508 2.0185
-3.9743 2.2382 2.0185
-4.1415 1.9111 2.0185
-4.2819 1.5716 2.0185
-4.3945 1.2219 2.0185
-4.4786 0.8643 2.0185
-4.5336 0.5010 2.0185
-4.5592 0.1345 2.0185
-4.5552 -0.2328 2.0185
-4.5217 -0.5988 2.0185
-4.4589 -0.9607 2.0185
-4.3671 -1.3166 2.0185
-4.2470 -1.6635 2.0185
-4.0994 -1.9999 2.0185
-3.9251 -2.3233 2.0185
-0.1108 -1.5499 0.7406
0.0143 -1.5538 0.7406
0.1393 -1.5476 0.7406
0.2634 -1.5315 0.7407
0.3858 -1.5054 0.7407
0.5058 -1.4696 0.7408
0.6225 -1.4243 0.7409
0.7352 -1.3698 0.7410
2.2965 -3.5582 2.0185
2.5754 -3.3618 2.0185
2.8376 -3.1436 2.0185
3.0814 -2.9051 2.0185
3.3052 -2.6477 2.0185
3.5075 -2.3731 2.0185
3.6871 -2.0831 2.0185
3.8428 -1.7796 2.0185
3.8754 -1.4284 1.9686
3.8872 -1.0866 1.9238
3.8965 -0.7574 1.8920
3.9085 -0.4373 1.8746
3.9180 -0.1210 1.8683
3.9193 0.1949 1.8703
3.9123 0.5124 1.8806
3.9103 0.8369 1.9060
3.9068 1.1718 1.9440
3.9008 1.5217 1.9957
3.8086 1.8516 2.0185
3.6473 2.1522 2.0185
3.4622 2.4387 2.0185
3.2547 2.7094 2.0185
3.0261 2.9626 2.0185
2.7779 3.1965 2.0185
2.5116 3.4097 2.0185
2.2291 3.6008 2.0185
0.7141 1.3929 0.7460
0.5998 1.4460 0.7461
0.4815 1.4897 0.7462
0.3601 1.5238 0.7463
0.2363 1.5479 0.7463
0.1110 1.5620 0.7464
-0.0151 1.5658 0.7464
-0.1411 1.5595 0.7463
-0.2661 1.5430 0.7463
-0.3894 1.5165 0.7463
-0.5101 1.4801 0.7462
-0.6275 1.4341 0.7461
-0.7408 1.3788 0.7460
-2.2981 3.5571 2.0185
-2.5769 3.3606 2.0185
-2.8390 3.1423 2.0185
-3.0827 2.9037 2.0185
-3.3064 2.6462 2.0185
-3.5086 2.3715 2.0185
-3.6881 2.0814 2.0185
-3.8436 1.7779 2.0185
-3.9742 1.4628 2.0185
-4.0791 1.1382 2.0185
-4.1574 0.8062 2.0185
-4.2088 0.4690 2.0185
-4.2329 0.1288 2.0185
-4.2296 -0.2123 2.0185
-4.1988 -0.5520 2.0185
-4.1407 -0.8881 2.0185
-4.0558 -1.2185 2.0185
-3.9446 -1.5409 2.0185
-3.8078 -1.8534 2.0185
-3.6463 -2.1538 2.0185
-3.4611 -2.4403 2.0185
-3.2535 -2.7109 2.0185
-3.0248 -2.9639 2.0185
-2.7764 -3.1977 2.0185
-2.5101 -3.4108 2.0185
-2.2274 -3.6018 2.0185
-0.7086 -1.3836 0.7409
-0.5949 -1.4360 0.7408
-0.4773 -1.4790 0.7408
-0.3567 -1.5125 0.7407
-0.2338 -1.5362 0.7406
-0.1094 -1.5500 0.7406
0.0157 -1.5538 0.7406
0.1407 -1.5475 0.7406
0.2648 -1.5312 0.7407
0.3872 -1.5051 0.7407
0.5071 -1.4691 0.7408
0.6238 -1.4237 0.7409
0.7364 -1.3691 0.7410
2.2997 -3.5561 2.0185
2.5784 -3.3595 2.0185
2.8404 -3.1410 2.0185
3.0840 -2.9023 2.0185
3.3076 -2.6446 2.0185
3.5097 -2.3699 2.0185
3.6890 -2.0797 2.0185
3.8444 -1.7761 2.0185
3.8755 -1.4244 1.9680
3.8873 -1.0828 1.9234
3.8966 -0.7538 1.8917
3.9087 -0.4338 1.8744
3.9181 -0.1174 1.8683
3.9192 0.1985 1.8704
3.9121 0.5160 1.8808
3.9103 0.8406 1.9063
3.9067 1.1756 1.9445
3.9007 1.5258 1.9964
3.8069 1.8551 2.0185
3.6453 2.1555 2.0185
3.4600 2.4418 2.0185
3.2523 2.7124 2.0185
3.0234 2.9653 2.0185
2.7750 3.1990 2.0185
2.5085 3.4120 2.0185
2.2258 3.6028 2.0185
0.7128 1.3935 0.7460
0.5985 1.4466 0.7461
0.4802 1.4902 0.7462
0.3587 1.5241 0.7463
0.2349 1.5481 0.7463
0.1095 1.5621 0.7464
-0.0165 1.5658 0.7464
-0.1425 1.5594 0.7463
-0.2675 1.5428 0.7463
-0.3908 1.5162 0.7463
-0.5115 1.4797 0.7462
-0.6288 1.4335 0.7461
-0.7421 1.3781 0.7460
-2.3013 3.5550 2.0185
-2.5800 3.3583 2.0185
-2.8419 3.1398 2.0185
-3.0853 2.9009 2.0185
-3.3088 2.6432 2.0185
-3.5108 2.3683 2.0185
-3.6900 2.0781 2.0185
-3.8452 1.7744 2.0185
-3.9756 1.4591 2.0185
-4.0801 1.1345 2.0185
-4.1582 0.8024 2.0185
-4.2093 0.4652 2.0185
-4.2330 0.1249 2.0185
-4.2294 -0.2161 2.0185
-4.1983 -0.5558 2.0185
-4.1399 -0.8919 2.0185
-4.0547 -1.2221 2.0185
-3.9432 -1.5445 2.0185
-3.8061 -1.8568 2.0185
-3.6443 -2.1571 2.0185
-0.1033 -1.4442 0.7408
0.0133 -1.4478 0.7408
0.1298 -1.4421 0.7408
0.2454 -1.4270 0.7409
0.3595 -1.4027 0.7409
0.4712 -1.3693 0.7410
0.5800 -1.3271 0.7410
0.6850 -1.2763 0.7411
2.1393 -3.3146 2.0185
2.3991 -3.1317 2.0185
2.6433 -2.9284 2.0185
2.8704 -2.7062 2.0185
3.0789 -2.4664 2.0185
3.2674 -2.2106 2.0185
3.4347 -1.9405 2.0185
3.5798 -1.6578 2.0185
3.7016 -1.3643 2.0185
3.7994 -1.0620 2.0185
3.8725 -0.7528 2.0185
3.8803 -0.4342 1.9977
3.8851 -0.1200 1.9888
3.8878 0.1934 1.9917
3.8884 0.5094 2.0065
3.8576 0.8256 2.0185
3.7787 1.1333 2.0185
3.6752 1.4338 2.0185
3.5479 1.7249 2.0185
3.3976 2.0048 2.0185
3.2252 2.2718 2.0185
3.0319 2.5239 2.0185
2.8190 2.7598 2.0185
2.5877 2.9777 2.0185
2.3397 3.1763 2.0185
0.7672 1.2393 0.7458
0.6651 1.2972 0.7459
0.5586 1.3467 0.7460
0.4484 1.3874 0.7460
0.3354 1.4191 0.7461
0.2201 1.4416 0.7461
0.1033 1.4547 0.7462
-0.0141 1.4583 0.7462
-0.1314 1.4524 0.7462
-0.2478 1.4370 0.7461
-0.3626 1.4123 0.7461
-0.4751 1.3785 0.7460
-0.5844 1.3356 0.7459
-0.6899 1.2841 0.7458
-2.1408 3.3136 2.0185
-2.4005 3.1306 2.0185
-2.6447 2.9272 2.0185
-2.8717 2.7049 2.0185
-3.0800 2.4650 2.0185
-3.2684 2.2092 2.0185
-3.4356 1.9390 2.0185
-3.5805 1.6562 2.0185
-3.7022 1.3626 2.0185
-3.7998 1.0603 2.0185
-3.8728 0.7510 2.0185
-3.9207 0.4369 2.0185
-3.9432 0.1200 2.0185
-3.9400 -0.1977 2.0185
-3.9113 -0.5142 2.0185
-3.8573 -0.8273 2.0185
-3.7782 -1.1351 2.0185
-3.6746 -1.4354 2.0185
-3.5471 -1.7265 2.0185
-3.3967 -2.0064 2.0185
-3.2242 -2.2732 2.0185
-3.0308 -2.5253 2.0185
-2.8177 -2.7610 2.0185
-2.5864 -2.9789 2.0185
-2.3383 -3.1773 2.0185
-0.7620 -1.2321 0.7412
-0.6602 -1.2892 0.7411
-0.5543 -1.3380 0.7410
-0.4447 -1.3781 0.7409
-0.3324 -1.4093 0.7409
-0.2179 -1.4314 0.7408
-0.1019 -1.4443 0.7408
0.0146 -1.4478 0.7408
0.1311 -1.4420 0.7408
0.2467 -1.4268 0.7409
0.3608 -1.4024 0.7409
0.4725 -1.3689 0.7410
0.5812 -1.3266 0.7410
0.6862 -1.2757 0.7411
2.1423 -3.3126 2.0185
2.4019 -3.1295 2.0185
2.6460 -2.9260 2.0185
2.8729 -2.7036 2.0185
3.0812 -2.4636 2.0185
3.2694 -2.2077 2.0185
3.4365 -1.9374 2.0185
3.5813 -1.6545 2.0185
3.7028 -1.3610 2.0185
3.8003 -1.0585 2.0185
3.8732 -0.7493 2.0185
3.8803 -0.4307 1.9976
3.8852 -0.1164 1.9888
3.8879 0.1969 1.9918
3.8884 0.5130 2.0067
3.8569 0.8291 2.0185
3.7777 1.1368 2.0185
3.6739 1.4371 2.0185
3.5464 1.7281 2.0185
3.3958 2.0079 2.0185
3.2232 2.2747 2.0185
3.0296 2.5267 2.0185
2.8165 2.7623 2.0185
2.5850 2.9800 2.0185
2.3368 3.1784 2.0185
0.7661 1.2400 0.7458
0.6639 1.2978 0.7459
0.5574 1.3472 0.7460
0.4472 1.3878 0.7460
0.3341 1.4194 0.7461
0.2188 1.4418 0.7461
0.1020 1.4548 0.7462
-0.0154 1.4583 0.7462
-0.1327 1.4523 0.7462
-0.2491 1.4368 0.7461
-0.3639 1.4120 0.7461
-0.4763 1.3780 0.7460
-0.5856 1.3351 0.7459
-0.6911 1.2835 0.7458
-2.1438 3.3117 2.0185
-2.4034 3.1284 2.0185
-2.6473 2.9248 2.0185
-2.8741 2.7023 2.0185
-3.0823 2.4622 2.0185
-3.2704 2.2062 2.0185
-3.4374 1.9358 2.0185
-3.5820 1.6529 2.0185
-3.7034 1.3593 2.0185
-3.8008 1.0568 2.0185
-3.8735 0.7475 2.0185
-3.9211 0.4334 2.0185
-3.9433 0.1164 2.0185
-3.9399 -0.2013 2.0185
-3.9109 -0.5178 2.0185
-3.8565 -0.8308 2.0185
-3.7771 -1.1385 2.0185
-3.6733 -1.4388 2.0185
-3.5456 -1.7297 2.0185
-3.3949 -2.0095 2.0185
-0.0965 -1.3495 0.7410
0.0124 -1.3528 0.7410
0.1213 -1.3475 0.7410
0.2293 -1.3334 0.7410
0.3359 -1.3107 0.7411
0.4403 -1.2795 0.7411
0.5419 -1.2400 0.7412
0.6400 -1.1925 0.7413
0.7340 -1.1373 0.7414
2.2412 -2.9256 2.0185
2.4694 -2.7357 2.0185
2.6815 -2.5281 2.0185
2.8763 -2.3041 2.0185
3.0524 -2.0651 2.0185
3.2087 -1.8128 2.0185
3.3441 -1.5487 2.0185
3.4579 -1.2746 2.0185
3.5493 -0.9921 2.0185
3.6176 -0.7032 2.0185
3.6625 -0.4098 2.0185
3.6836 -0.1138 2.0185
3.6808 0.1831 2.0185
3.6541 0.4787 2.0185
3.6037 0.7712 2.0185
3.5300 1.0587 2.0185
3.4333 1.3394 2.0185
3.3144 1.6114 2.0185
3.1740 1.8729 2.0185
3.0130 2.1222 2.0185
2.8324 2.3578 2.0185
2.6334 2.5781 2.0185
2.4174 2.7817 2.0185
2.1857 2.9672 2.0185
0.7166 1.1575 0.7456
0.6212 1.2116 0.7457
0.5217 1.2578 0.7458
0.4188 1.2958 0.7459
0.3132 1.3254 0.7459
0.2055 1.3464 0.7460
0.0965 1.3586 0.7460
-0.0131 1.3620 0.7460
-0.1227 1.3565 0.7460
-0.2315 1.3421 0.7459
-0.3387 1.3191 0.7459
-0.4437 1.2874 0.7458
-0.5458 1.2474 0.7458
-0.6444 1.1993 0.7457
-0.7387 1.1434 0.7456
-2.2425 2.9245 2.0185
-2.4706 2.7346 2.0185
-2.6827 2.5269 2.0185
-2.8773 2.3028 2.0185
-3.0533 2.0638 2.0185
-3.2095 1.8113 2.0185
-3.3449 1.5472 2.0185
-3.4585 1.2730 2.0185
-3.5497 0.9905 2.0185
-3.6179 0.7016 2.0185
-3.6627 0.4082 2.0185
-3.6836 0.1121 2.0185
-3.6807 -0.1847 2.0185
-3.6539 -0.4803 2.0185
-3.6034 -0.7729 2.0185
-3.5295 -1.0604 2.0185
-3.4327 -1.3410 2.0185
-3.3137 -1.6129 2.0185
-3.1731 -1.8743 2.0185
-3.0120 -2.1236 2.0185
-2.8313 -2.3591 2.0185
-2.6323 -2.5793 2.0185
-2.4162 -2.7828 2.0185
-2.1844 -2.9682 2.0185
-0.7119 -1.1512 0.7414
-0.6169 -1.2046 0.7413
-0.5179 -1.2502 0.7412
-0.4156 -1.2877 0.7411
-0.3106 -1.3169 0.7411
-0.2036 -1.3375 0.7410
-0.0953 -1.3496 0.7410
0.0137 -1.3528 0.7410
0.1225 -1.3474 0.7410
0.2305 -1.3332 0.7410
0.3371 -1.3104 0.7411
0.4415 -1.2791 0.7411
0.5431 -1.2395 0.7412
0.6411 -1.1920 0.7413
0.7351 -1.1367 0.7414
2.2438 -2.9235 2.0185
2.4718 -2.7335 2.0185
2.6838 -2.5256 2.0185
2.8784 -2.3015 2.0185
3.0542 -2.0624 2.0185
3.2103 -1.8099 2.0185
3.3456 -1.5456 2.0185
3.4591 -1.2714 2.0185
3.5502 -0.9889 2.0185
3.6183 -0.7000 2.0185
3.6629 -0.4065 2.0185
3.6837 -0.1104 2.0185
3.6806 0.1864 2.0185
3.6537 0.4820 2.0185
3.6030 0.7745 2.0185
3.5290 1.0619 2.0185
3.4321 1.3425 2.0185
3.3129 1.6144 2.0185
3.1723 1.8758 2.0185
3.0110 2.1250 2.0185
2.8302 2.3604 2.0185
2.6311 2.5805 2.0185
2.4149 2.7839 2.0185
2.1830 2.9692 2.0185
0.7155 1.1582 0.7456
0.6201 1.2121 0.7457
0.5206 1.2582 0.7458
0.4177 1.2962 0.7459
0.3120 1.3257 0.7459
0.2043 1.3466 0.7460
0.0953 1.3587 0.7460
-0.0144 1.3620 0.7460
-0.1239 1.3564 0.7460
-0.2327 1.3419 0.7459
-0.3399 1.3188 0.7459
-0.4449 1.2870 0.7458
-0.5470 1.2469 0.7458
-0.6455 1.1987 0.7457
-0.7397 1.1427 0.7456
-2.2452 2.9225 2.0185
-2.4731 2.7323 2.0185
-2.6850 2.5244 2.0185
-2.8794 2.3002 2.0185
-3.0552 2.0610 2.0185
-3.2111 1.8084 2.0185
-3.3463 1.5441 2.0185
-3.4597 1.2698 2.0185
-3.5506 0.9873 2.0185
-3.6186 0.6983 2.0185
-3.6630 0.4048 2.0185
-3.6837 0.1087 2.0185
-3.6805 -0.1881 2.0185
-3.6535 -0.4837 2.0185
-3.6027 -0.7761 2.0185
-3.5285 -1.0636 2.0185
-3.4315 -1.3441 2.0185
-3.3122 -1.6159 2.0185
-3.1714 -1.8772 2.0185
-0.0904 -1.2640 0.7412
0.0116 -1.2671 0.7411
0.1136 -1.2621 0.7412
0.2148 -1.2489 0.7412
0.3146 -1.2276 0.7412
0.4124 -1.1984 0.7413
0.5076 -1.1614 0.7413
0.5995 -1.1170 0.7414
0.6875 -1.0652 0.7415
0.7711 -1.0066 0.7416
2.3124 -2.5618 2.0185
2.5111 -2.3674 2.0185
2.6934 -2.1576 2.0185
2.8583 -1.9339 2.0185
3.0047 -1.6976 2.0185
3.1316 -1.4502 2.0185
3.2381 -1.1935 2.0185
3.3237 -0.9290 2.0185
3.3877 -0.6586 2.0185
3.4297 -0.3838 2.0185
3.4494 -0.1065 2.0185
3.4468 0.1715 2.0185
3.4218 0.4483 2.0185
3.3747 0.7222 2.0185
3.3056 0.9914 2.0185
3.2151 1.2543 2.0185
3.1037 1.5089 2.0185
2.9722 1.7538 2.0185
2.8214 1.9873 2.0185
2.6523 2.2079 2.0185
2.4661 2.4143 2.0185
2.2638 2.6049 2.0185
0.7558 1.0261 0.7454
0.6709 1.0837 0.7455
0.5816 1.1343 0.7456
0.4884 1.1776 0.7457
0.3921 1.2132 0.7457
0.2932 1.2409 0.7458
0.1924 1.2605 0.7458
0.0904 1.2720 0.7458
-0.0123 1.2751 0.7458
-0.1149 1.2700 0.7458
-0.2167 1.2566 0.7458
-0.3171 1.2350 0.7457
-0.4154 1.2054 0.7457
-0.5110 1.1679 0.7456
-0.6033 1.1229 0.7455
-0.6916 1.0705 0.7454
-0.7754 1.0113 0.7453
-2.3136 2.5607 2.0185
-2.5121 2.3663 2.0185
-2.6944 2.1564 2.0185
-2.8592 1.9326 2.0185
-3.0055 1.6962 2.0185
-3.1322 1.4488 2.0185
-3.2387 1.1920 2.0185
-3.3241 0.9275 2.0185
-3.3880 0.6570 2.0185
-3.4299 0.3822 2.0185
-3.4495 0.1050 2.0185
-3.4467 -0.1730 2.0185
-3.4216 -0.4498 2.0185
-3.3743 -0.7237 2.0185
-3.3052 -0.9929 2.0185
-3.2145 -1.2557 2.0185
-3.1030 -1.5103 2.0185
-2.9714 -1.7552 2.0185
-2.8205 -1.9886 2.0185
-2.6513 -2.2092 2.0185
-2.4650 -2.4153 2.0185
-2.2626 -2.6059 2.0185
-0.7515 -1.0212 0.7416
-0.6668 -1.0782 0.7415
-0.5778 -1.1283 0.7414
-0.4851 -1.1710 0.7413
-0.3892 -1.2061 0.7413
-0.2909 -1.2334 0.7412
-0.1907 -1.2528 0.7412
-0.0892 -1.2640 0.7412
0.0128 -1.2671 0.7411
0.1147 -1.2620 0.7412
0.2159 -1.2487 0.7412
0.3157 -1.2273 0.7412
0.4135 -1.1980 0.7413
0.5086 -1.1610 0.7413
0.6005 -1.1164 0.7414
0.6885 -1.0646 0.7415
0.7720 -1.0059 0.7416
2.3147 -2.5597 2.0185
2.5132 -2.3651 2.0185
2.6954 -2.1552 2.0185
2.8601 -1.9313 2.0185
3.0063 -1.6948 2.0185
3.1329 -1.4474 2.0185
3.2392 -1.1905 2.0185
3.3245 -0.9260 2.0185
3.3883 -0.6555 2.0185
3.4300 -0.3807 2.0185
3.4495 -0.1034 2.0185
3.4467 0.1746 2.0185
3.4214 0.4514 2.0185
3.3740 0.7253 2.0185
3.3047 0.9944 2.0185
3.2139 1.2572 2.0185
3.1023 1.5118 2.0185
2.9706 1.7565 2.0185
2.8196 1.9899 2.0185
2.6503 2.2104 2.0185
2.4638 2.4165 2.0185
2.2614 2.6070 2.0185
0.7549 1.0268 0.7454
0.6699 1.0843 0.7455
0.5805 1.1349 0.7456
0.4874 1.1780 0.7457
0.3910 1.2135 0.7457
0.2921 1.2412 0.7458
0.1913 1.2607 0.7458
0.0892 1.2720 0.7458
-0.0135 1.2751 0.7458
-0.1160 1.2699 0.7458
-0.2178 1.2564 0.7458
-0.3182 1.2347 0.7457
-0.4165 1.2050 0.7457
-0.5121 1.1675 0.7456
-0.6043 1.1223 0.7455
-0.6926 1.0699 0.7454
-0.7763 1.0106 0.7453
-2.3159 2.5586 2.0185
-2.5143 2.3640 2.0185
-2.6964 2.1539 2.0185
-2.8610 1.9300 2.0185
-3.0070 1.6935 2.0185
-3.1336 1.4460 2.0185
-3.2398 1.1891 2.0185
-3.3249 0.9245 2.0185
-3.3886 0.6539 2.0185
-3.4302 0.3791 2.0185
-3.4496 0.1018 2.0185
-3.4466 -0.1761 2.0185
-3.4212 -0.4529 2.0185
-3.3737 -0.7268 2.0185
-3.3042 -0.9959 2.0185
-3.2134 -1.2586 2.0185
-3.1017 -1.5132 2.0185
-2.9698 -1.7579 2.0185
-0.0848 -1.1863 0.7413
0.0109 -1.1892 0.7413
0.1066 -1.1845 0.7413
0.2016 -1.1721 0.7413
0.2953 -1.1522 0.7414
0.3871 -1.1247 0.7414
0.4764 -1.0900 0.7415
0.5626 -1.0483 0.7416
0.6452 -0.9997 0.7416
0.7237 -0.9447 0.7417
2.1698 -2.4039 2.0185
2.3563 -2.2214 2.0185
2.5274 -2.0246 2.0185
2.6821 -1.8147 2.0185
2.8195 -1.5929 2.0185
2.9385 -1.3608 2.0185
3.0385 -1.1199 2.0185
3.1188 -0.8718 2.0185
3.1788 -0.6179 2.0185
3.2183 -0.3601 2.0185
3.2368 -0.1000 2.0185
3.2343 0.1609 2.0185
3.2109 0.4206 2.0185
3.1666 0.6777 2.0185
3.1018 0.9303 2.0185
3.0169 1.1769 2.0185
2.9124 1.4159 2.0185
2.7890 1.6457 2.0185
2.6475 1.8648 2.0185
2.4888 2.0718 2.0185
2.3140 2.2654 2.0185
0.7842 0.9023 0.7451
0.7091 0.9627 0.7453
0.6294 1.0168 0.7454
0.5456 1.0642 0.7454
0.4583 1.1048 0.7455
0.3679 1.1382 0.7456
0.2751 1.1642 0.7456
0.1805 1.1826 0.7457
0.0848 1.1933 0.7457
-0.0115 1.1963 0.7457
-0.1078 1.1915 0.7457
-0.2033 1.1789 0.7456
-0.2975 1.1586 0.7456
-0.3898 1.1309 0.7456
-0.4795 1.0957 0.7455
-0.5660 1.0535 0.7454
-0.6489 1.0044 0.7453
-0.7275 0.9488 0.7452
-2.1709 2.4029 2.0185
-2.3573 2.2204 2.0185
-2.5283 2.0235 2.0185
-2.6830 1.8134 2.0185
-2.8202 1.5916 2.0185
-2.9392 1.3595 2.0185
-3.0390 1.1186 2.0185
-3.1192 0.8704 2.0185
-3.1791 0.6165 2.0185
-3.2184 0.3587 2.0185
-3.2368 0.0985 2.0185
-3.2343 -0.1623 2.0185
-3.2107 -0.4221 2.0185
-3.1663 -0.6791 2.0185
-3.1014 -0.9317 2.0185
-3.0164 -1.1783 2.0185
-2.9118 -1.4172 2.0185
-2.7883 -1.6470 2.0185
-2.6467 -1.8660 2.0185
-2.4879 -2.0730 2.0185
-2.3130 -2.2665 2.0185
-0.7803 -0.8987 0.7418
-0.7053 -0.9584 0.7417
-0.6258 -1.0119 0.7416
-0.5423 -1.0589 0.7415
-0.4553 -1.0990 0.7415
-0.3653 -1.1320 0.7414
-0.2730 -1.1576 0.7413
-0.1789 -1.1758 0.7413
-0.0837 -1.1863 0.7413
0.0120 -1.1892 0.7413
0.1077 -1.1844 0.7413
0.2027 -1.1719 0.7413
0.2963 -1.1519 0.7414
0.3881 -1.1244 0.7414
0.4774 -1.0896 0.7415
0.5636 -1.0478 0.7416
0.6461 -0.9991 0.7416
0.7246 -0.9440 0.7417
2.1720 -2.4019 2.0185
2.3583 -2.2193 2.0185
2.5292 -2.0223 2.0185
2.6838 -1.8122 2.0185
2.8209 -1.5904 2.0185
2.9398 -1.3582 2.0185
3.0395 -1.1172 2.0185
3.1196 -0.8689 2.0185
3.1794 -0.6151 2.0185
3.2186 -0.3572 2.0185
3.2369 -0.0970 2.0185
3.2342 0.1638 2.0185
3.2105 0.4235 2.0185
3.1660 0.6806 2.0185
3.1010 0.9332 2.0185
3.0158 1.1797 2.0185
2.9111 1.4186 2.0185
2.7875 1.6482 2.0185
2.6458 1.8672 2.0185
2.4870 2.0741 2.0185
2.3120 2.2675 2.0185
0.7834 0.9031 0.7451
0.7082 0.9633 0.7453
0.6285 1.0173 0.7454
0.5447 1.0647 0.7454
0.4572 1.1052 0.7455
0.3668 1.1385 0.7456
0.2741 1.1644 0.7456
0.1795 1.1828 0.7457
0.0837 1.1934 0.7457
-0.0126 1.1963 0.7457
-0.1089 1.1914 0.7457
-0.2044 1.1787 0.7456
-0.2986 1.1584 0.7456
-0.3908 1.1305 0.7456
-0.4805 1.0953 0.7455
-0.5670 1.0530 0.7454
-0.6498 1.0038 0.7453
-0.7284 0.9481 0.7452
-2.1731 2.4009 2.0185
-2.3593 2.2183 2.0185
-2.5302 2.0212 2.0185
-2.6846 1.8110 2.0185
-2.8217 1.5891 2.0185
-2.9404 1.3568 2.0185
-3.0400 1.1158 2.0185
-3.1200 0.8675 2.0185
-3.1797 0.6136 2.0185
-3.2187 0.3557 2.0185
-3.2369 0.0955 2.0185
-3.2341 -0.1653 2.0185
-3.2103 -0.4250 2.0185
-3.1657 -0.6820 2.0185
-3.1006 -0.9345 2.0185
-3.0153 -1.1811 2.0185
-2.9105 -1.4199 2.0185
-2.7868 -1.6495 2.0185
-0.0797 -1.1153 0.7414
0.0103 -1.1181 0.7414
0.1002 -1.1136 0.7414
0.1895 -1.1020 0.7415
0.2776 -1.0832 0.7415
0.3639 -1.0574 0.7415
0.4479 -1.0248 0.7416
0.5289 -0.9855 0.7417
0.6066 -0.9399 0.7418
0.6804 -0.8881 0.7418
0.7497 -0.8306 0.7420
2.2149 -2.0881 2.0185
2.3757 -1.9031 2.0185
2.5212 -1.7057 2.0185
2.6503 -1.4973 2.0185
2.7622 -1.2792 2.0185
2.8562 -1.0527 2.0185
2.9316 -0.8195 2.0185
2.9881 -0.5809 2.0185
3.0251 -0.3385 2.0185
3.0425 -0.0940 2.0185
3.0402 0.1512 2.0185
3.0182 0.3954 2.0185
2.9766 0.6370 2.0185
2.9157 0.8745 2.0185
2.8358 1.1063 2.0185
2.7376 1.3310 2.0185
2.6216 1.5469 2.0185
2.4886 1.7529 2.0185
2.3395 1.9475 2.0185
2.1752 2.1295 2.0185
0.7370 0.8481 0.7450
0.6665 0.9048 0.7451
0.5916 0.9556 0.7452
0.5128 1.0002 0.7453
0.4307 1.0383 0.7454
0.3457 1.0697 0.7455
0.2586 1.0941 0.7455
0.1697 1.1114 0.7455
0.0797 1.1215 0.7455
-0.0108 1.1243 0.7455
-0.1013 1.1198 0.7455
-0.1911 1.1079 0.7455
-0.2796 1.0889 0.7455
-0.3663 1.0628 0.7454
-0.4506 1.0298 0.7454
-0.5320 0.9901 0.7453
-0.6099 0.9440 0.7452
-0.6838 0.8917 0.7451
-0.7532 0.8337 0.7450
-2.2158 2.0871 2.0185
-2.3766 1.9020 2.0185
-2.5219 1.7046 2.0185
-2.6510 1.4961 2.0185
-2.7628 1.2779 2.0185
-2.8566 1.0514 2.0185
-2.9320 0.8181 2.0185
-2.9883 0.5795 2.0185
-3.0253 0.3371 2.0185
-3.0426 0.0926 2.0185
-3.0402 -0.1526 2.0185
-3.0180 -0.3968 2.0185
-2.9763 -0.6384 2.0185
-2.9153 -0.8758 2.0185
-2.8353 -1.1076 2.0185
-2.7370 -1.3322 2.0185
-2.6209 -1.5481 2.0185
-2.4878 -1.7540 2.0185
-2.3386 -1.9485 2.0185
-2.1742 -2.1305 2.0185
-0.7335 -0.8449 0.7419
-0.6631 -0.9010 0.7418
-0.5883 -0.9513 0.7417
-0.5098 -0.9955 0.7416
-0.4280 -1.0332 0.7416
-0.3434 -1.0642 0.7415
-0.2567 -1.0883 0.7415
-0.1682 -1.1054 0.7414
-0.0787 -1.1153 0.7414
0.0113 -1.1181 0.7414
0.1012 -1.1135 0.7414
0.1905 -1.1018 0.7415
0.2786 -1.0830 0.7415
0.3649 -1.0571 0.7415
0.4488 -1.0244 0.7416
0.5298 -0.9850 0.7417
0.6075 -0.9393 0.7418
0.6812 -0.8875 0.7418
0.7505 -0.8299 0.7420
2.2168 -2.0861 2.0185
2.3775 -1.9009 2.0185
2.5227 -1.7035 2.0185
2.6516 -1.4949 2.0185
2.7633 -1.2767 2.0185
2.8571 -1.0501 2.0185
2.9324 -0.8168 2.0185
2.9886 -0.5781 2.0185
3.0254 -0.3358 2.0185
3.0426 -0.0912 2.0185
3.0401 0.1540 2.0185
3.0178 0.3981 2.0185
2.9760 0.6397 2.0185
2.9149 0.8772 2.0185
2.8348 1.1089 2.0185
2.7364 1.3334 2.0185
2.6202 1.5493 2.0185
2.4870 1.7552 2.0185
2.3377 1.9496 2.0185
2.1732 2.1315 2.0185
0.7362 0.8487 0.7450
0.6656 0.9054 0.7452
0.5907 0.9561 0.7452
0.5119 1.0007 0.7453
0.4297 1.0387 0.7454
0.3448 1.0700 0.7455
0.2576 1.0944 0.7455
0.1687 1.1116 0.7455
0.0787 1.1216 0.7455
-0.0119 1.1243 0.7455
-0.1023 1.1197 0.7455
-0.1921 1.1078 0.7455
-0.2806 1.0887 0.7455
-0.3673 1.0625 0.7454
-0.4515 1.0294 0.7454
-0.5329 0.9896 0.7453
-0.6107 0.9434 0.7452
-0.6846 0.8911 0.7451
-0.7539 0.8330 0.7450
-2.2177 2.0851 2.0185
-2.3783 1.8999 2.0185
-2.5235 1.7023 2.0185
-2.6523 1.4937 2.0185
-2.7639 1.2754 2.0185
-2.8576 1.0488 2.0185
-2.9327 0.8154 2.0185
-2.9889 0.5768 2.0185
-3.0256 0.3344 2.0185
-3.0427 0.0898 2.0185
-3.0400 -0.1553 2.0185
-3.0177 -0.3995 2.0185
-2.9757 -0.6411 2.0185
-2.9145 -0.8785 2.0185
-2.8343 -1.1102 2.0185
-2.7358 -1.3347 2.0185
-2.6195 -1.5505 2.0185
-0.0751 -1.0500 0.7415
0.0097 -1.0527 0.7415
0.0944 -1.0485 0.7415
0.1784 -1.0375 0.7416
0.2614 -1.0198 0.7416
0.3426 -0.9956 0.7416
0.4217 -0.9648 0.7417
0.4980 -0.9279 0.7418
0.5711 -0.8849 0.7419
0.6405 -0.8361 0.7419
0.7058 -0.7820 0.7420
0.7666 -0.7227 0.7422
2.2364 -1.7915 2.0185
2.3733 -1.6057 2.0185
2.4948 -1.4095 2.0185
2.6002 -1.2041 2.0185
2.6887 -0.9910 2.0185
2.7597 -0.7714 2.0185
2.8128 -0.5468 2.0185
2.8477 -0.3186 2.0185
2.8641 -0.0884 2.0185
2.8619 0.1423 2.0185
2.8412 0.3722 2.0185
2.8020 0.5997 2.0185
2.7447 0.8232 2.0185
2.6695 1.0414 2.0185
2.5771 1.2529 2.0185
2.4679 1.4562 2.0185
2.3427 1.6501 2.0185
2.2023 1.8333 2.0185
0.7556 0.7397 0.7448
0.6937 0.7982 0.7450
0.6273 0.8516 0.7451
0.5568 0.8994 0.7451
0.4827 0.9414 0.7452
0.4054 0.9773 0.7453
0.3254 1.0068 0.7453
0.2434 1.0298 0.7454
0.1597 1.0461 0.7454
0.0750 1.0556 0.7454
-0.0102 1.0582 0.7454
-0.0953 1.0539 0.7454
-0.1798 1.0428 0.7454
-0.2632 1.0249 0.7454
-0.3448 1.0003 0.7453
-0.4241 0.9693 0.7453
-0.5007 0.9319 0.7452
-0.5740 0.8885 0.7451
-0.6436 0.8393 0.7450
-0.7089 0.7847 0.7449
-0.7697 0.7250 0.7448
-2.2372 1.7905 2.0185
-2.3740 1.6046 2.0185
-2.4955 1.4084 2.0185
-2.6007 1.2030 2.0185
-2.6891 0.9898 2.0185
-2.7600 0.7702 2.0185
-2.8131 0.5455 2.0185
-2.8478 0.3174 2.0185
-2.8642 0.0871 2.0185
-2.8619 -0.1437 2.0185
-2.8410 -0.3735 2.0185
-2.8018 -0.6009 2.0185
-2.7443 -0.8245 2.0185
-2.6691 -1.0426 2.0185
-2.5765 -1.2540 2.0185
-2.4672 -1.4573 2.0185
-2.3419 -1.6512 2.0185
-2.2014 -1.8343 2.0185
-0.7525 -0.7373 0.7421
-0.6906 -0.7954 0.7420
-0.6243 -0.8483 0.7419
-0.5539 -0.8957 0.7418
-0.4800 -0.9373 0.7417
-0.4030 -0.9728 0.7417
-0.3233 -1.0020 0.7416
-0.2417 -1.0247 0.7416
-0.1584 -1.0408 0.7416
-0.0741 -1.0501 0.7415
0.0106 -1.0527 0.7415
0.0953 -1.0484 0.7415
0.1794 -1.0374 0.7416
0.2623 -1.0196 0.7416
0.3435 -0.9952 0.7416
0.4225 -0.9644 0.7417
0.4988 -0.9274 0.7418
0.5719 -0.8843 0.7419
0.6413 -0.8355 0.7419
0.7066 -0.7813 0.7420
0.7673 -0.7220 0.7422
2.2380 -1.7895 2.0185
2.3748 -1.6035 2.0185
2.4961 -1.4072 2.0185
2.6013 -1.2018 2.0185
2.6896 -0.9885 2.0185
2.7604 -0.7689 2.0185
2.8133 -0.5442 2.0185
2.8480 -0.3161 2.0185
2.8642 -0.0858 2.0185
2.8618 0.1449 2.0185
2.8409 0.3748 2.0185
2.8015 0.6022 2.0185
2.7439 0.8257 2.0185
2.6686 1.0439 2.0185
2.5759 1.2552 2.0185
2.4665 1.4585 2.0185
2.3412 1.6522 2.0185
2.2006 1.8353 2.0185
0.7549 0.7404 0.7448
0.6930 0.7989 0.7450
0.6265 0.8522 0.7451
0.5560 0.8999 0.7451
0.4818 0.9419 0.7452
0.4045 0.9777 0.7453
0.3245 1.0071 0.7453
0.2424 1.0300 0.7454
0.1587 1.0462 0.7454
0.0740 1.0556 0.7454
-0.0112 1.0582 0.7454
-0.0963 1.0538 0.7454
-0.1808 1.0426 0.7454
-0.2641 1.0246 0.7454
-0.3457 1.0000 0.7453
-0.4250 0.9689 0.7453
-0.5015 0.9314 0.7452
-0.5748 0.8880 0.7451
-0.6443 0.8387 0.7450
-0.7096 0.7840 0.7449
-0.7703 0.7243 0.7448
-2.2388 1.7885 2.0185
-2.3755 1.6025 2.0185
-2.4968 1.4061 2.0185
-2.6018 1.2006 2.0185
-2.6900 0.9873 2.0185
-2.7607 0.7676 2.0185
-2.8136 0.5430 2.0185
-2.8481 0.3148 2.0185
-2.8642 0.0845 2.0185
-2.8617 -0.1462 2.0185
-2.8407 -0.3761 2.0185
-2.8012 -0.6035 2.0185
-2.7436 -0.8269 2.0185
-2.6681 -1.0451 2.0185
-2.5753 -1.2564 2.0185
-2.4659 -1.4596 2.0185
-0.0708 -0.9898 0.7417
0.0091 -0.9923 0.7417
0.0889 -0.9883 0.7417
0.1682 -0.9780 0.7417
0.2464 -0.9613 0.7417
0.3230 -0.9384 0.7418
0.3975 -0.9095 0.7418
0.4694 -0.8746 0.7419
0.5383 -0.8341 0.7419
0.6038 -0.7881 0.7420
0.6653 -0.7371 0.7421
0.7226 -0.6812 0.7422
0.7752 -0.6210 0.7423
2.2368 -1.5134 2.0185
2.3514 -1.3284 2.0185
2.4507 -1.1349 2.0185
2.5340 -0.9340 2.0185
2.6010 -0.7270 2.0185
2.6511 -0.5153 2.0185
2.6839 -0.3003 2.0185
2.6994 -0.0834 2.0185
2.6974 0.1342 2.0185
2.6778 0.3508 2.0185
2.6409 0.5652 2.0185
2.5868 0.7759 2.0185
2.5160 0.9815 2.0185
2.4289 1.1808 2.0185
2.3259 1.3725 2.0185
2.2079 1.5552 2.0185
0.7657 0.6374 0.7447
0.7121 0.6971 0.7448
0.6537 0.7522 0.7449
0.5912 0.8025 0.7450
0.5247 0.8476 0.7450
0.4548 0.8872 0.7451
0.3820 0.9210 0.7452
0.3067 0.9488 0.7452
0.2293 0.9704 0.7453
0.1505 0.9858 0.7453
0.0707 0.9947 0.7453
-0.0096 0.9972 0.7453
-0.0898 0.9932 0.7453
-0.1695 0.9827 0.7453
-0.2480 0.9658 0.7453
-0.3249 0.9427 0.7452
-0.3997 0.9134 0.7452
-0.4718 0.8782 0.7451
-0.5409 0.8373 0.7450
-0.6065 0.7909 0.7449
-0.6681 0.7395 0.7448
-0.7253 0.6832 0.7447
-2.1085 1.6875 2.0185
-2.2375 1.5124 2.0185
-2.3520 1.3274 2.0185
-2.4512 1.1338 2.0185
-2.5345 0.9328 2.0185
