ply
format ascii 1.0
element vertex 2181
property float32 x
property float32 y
property float32 z
end_header
-4.2865 -1.5652 2.0383
-4.1484 -1.9061 2.0383
-3.9836 -2.2351 2.0383
-3.7929 -2.5501 2.0383
-3.5775 -2.8489 2.0383
-3.3388 -3.1297 2.0383
-3.0783 -3.3907 2.0383
-2.7976 -3.6301 2.0383
-2.4984 -3.8465 2.0383
-2.1826 -4.0383 2.0383
-0.6745 -1.5310 0.7422
-0.5492 -1.5803 0.7416
-0.4203 -1.6194 0.7410
-0.2888 -1.6481 0.7404
-0.1554 -1.6661 0.7399
-0.0209 -1.6734 0.7393
0.1136 -1.6700 0.7388
0.2475 -1.6557 0.7383
0.3798 -1.6308 0.7378
0.5097 -1.5953 0.7374
0.6364 -1.5496 0.7370
0.7590 -1.4939 0.7367
2.4267 -3.9538 2.0383
2.7381 -3.7486 2.0383
3.0320 -3.5186 2.0383
3.3065 -3.2656 2.0383
3.5596 -2.9910 2.0383
3.7898 -2.6966 2.0383
3.9954 -2.3845 2.0383
4.1750 -2.0567 2.0383
4.3275 -1.7153 2.0383
4.4519 -1.3626 2.0383
4.5472 -1.0010 2.0383
4.6129 -0.6328 2.0383
4.6484 -0.2605 2.0383
4.6537 0.1134 2.0383
4.6286 0.4865 2.0383
4.5734 0.8562 2.0383
4.4884 1.2201 2.0383
4.3741 1.5758 2.0383
4.2315 1.9210 2.0383
4.0615 2.2534 2.0383
3.8652 2.5707 2.0383
3.6440 2.8711 2.0383
3.3994 3.1523 2.0383
3.1330 3.4127 2.0383
2.8465 3.6506 2.0383
2.5421 3.8644 2.0383
2.2215 4.0529 2.0383
0.6895 1.5399 0.7447
0.5634 1.5903 0.7453
0.4338 1.6304 0.7459
0.3013 1.6599 0.7465
0.1668 1.6785 0.7471
0.0313 1.6863 0.7477
-0.1044 1.6831 0.7482
-0.2394 1.6690 0.7487
-0.3729 1.6440 0.7491
-0.5038 1.6083 0.7496
-0.6314 1.5622 0.7499
-0.7549 1.5059 0.7503
-2.3719 3.9100 2.0383
-2.6773 3.7041 2.0383
-2.9651 3.4745 2.0383
-3.2336 3.2228 2.0383
-3.4810 2.9506 2.0383
-3.7058 2.6597 2.0383
-3.9066 2.3518 2.0383
-4.0822 2.0290 2.0383
-4.2315 1.6932 2.0383
-4.3535 1.3467 2.0383
-4.4475 0.9916 2.0383
-4.5129 0.6302 2.0383
-4.5493 0.2647 2.0383
-4.5565 -0.1026 2.0383
-4.5343 -0.4693 2.0383
-4.4830 -0.8332 2.0383
-4.4028 -1.1919 2.0383
-4.2943 -1.5432 2.0383
-4.1580 -1.8849 2.0383
-3.9948 -2.2147 2.0383
-3.8057 -2.5306 2.0383
-3.5919 -2.8305 2.0383
-3.3546 -3.1125 2.0383
-3.0955 -3.3748 2.0383
-2.8160 -3.6156 2.0383
-2.5179 -3.8335 2.0383
-2.2031 -4.0269 2.0383
-0.6823 -1.5275 0.7423
-0.5572 -1.5775 0.7417
-0.4286 -1.6172 0.7411
-0.2972 -1.6466 0.7405
-0.1639 -1.6653 0.7399
-0.0295 -1.6733 0.7393
0.1051 -1.6705 0.7388
0.2391 -1.6569 0.7383
0.3715 -1.6327 0.7379
0.5016 -1.5979 0.7374
0.6285 -1.5528 0.7371
0.7514 -1.4977 0.7367
2.4065 -3.9660 2.0383
2.7189 -3.7623 2.0383
3.0140 -3.5339 2.0383
3.2897 -3.2822 2.0383
3.5442 -3.0090 2.0383
3.7759 -2.7158 2.0383
3.9831 -2.4048 2.0383
4.1644 -2.0779 2.0383
4.3187 -1.7373 2.0383
4.4448 -1.3853 2.0383
4.5420 -1.0241 2.0383
4.6096 -0.6563 2.0383
4.6471 -0.2842 2.0383
4.6543 0.0897 2.0383
4.6311 0.4629 2.0383
4.5778 0.8329 2.0383
4.4946 1.1973 2.0383
4.3822 1.5536 2.0383
4.2414 1.8995 2.0383
4.0731 2.2327 2.0383
3.8784 2.5511 2.0383
3.6587 2.8525 2.0383
3.4155 3.1351 2.0383
3.1504 3.3968 2.0383
2.8652 3.6362 2.0383
2.5618 3.8516 2.0383
2.2423 4.0417 2.0383
0.6973 1.5364 0.7447
0.5715 1.5874 0.7453
0.4421 1.6281 0.7459
0.3097 1.6583 0.7465
0.1754 1.6777 0.7471
0.0399 1.6861 0.7476
-0.0958 1.6836 0.7481
-0.2309 1.6702 0.7486
-0.3645 1.6459 0.7491
-0.4956 1.6109 0.7495
-0.6235 1.5654 0.7499
-0.7472 1.5097 0.7503
-2.3520 3.9223 2.0383
-2.6585 3.7179 2.0383
-2.9475 3.4897 2.0383
-3.2172 3.2394 2.0383
-3.4660 2.9684 2.0383
-3.6922 2.6786 2.0383
-3.8946 2.3717 2.0383
-4.0718 2.0498 2.0383
-4.2228 1.7148 2.0383
-4.3466 1.3690 2.0383
-4.4424 1.0143 2.0383
-4.5096 0.6532 2.0383
-4.5479 0.2879 2.0383
-4.5569 -0.0793 2.0383
-4.5366 -0.4462 2.0383
-4.4871 -0.8103 2.0383
-0.5023 -1.4703 0.7417
-0.3825 -1.5060 0.7412
-0.2602 -1.5320 0.7406
-0.1362 -1.5482 0.7401
-0.0113 -1.5543 0.7396
0.1137 -1.5505 0.7391
0.2379 -1.5366 0.7386
0.3607 -1.5128 0.7382
0.4811 -1.4793 0.7378
0.5986 -1.4362 0.7375
0.7122 -1.3838 0.7372
2.2715 -3.6582 2.0383
2.5594 -3.4660 2.0383
2.8309 -3.2511 2.0383
3.0843 -3.0148 2.0383
3.3178 -2.7587 2.0383
3.5299 -2.4845 2.0383
3.7191 -2.1939 2.0383
3.8842 -1.8888 2.0383
4.0241 -1.5713 2.0383
4.1377 -1.2434 2.0383
4.2244 -0.9074 2.0383
4.2836 -0.5655 2.0383
4.3148 -0.2199 2.0383
4.3180 0.1271 2.0383
4.2930 0.4731 2.0383
4.2400 0.8159 2.0383
4.1595 1.1532 2.0383
4.0519 1.4828 2.0383
3.9181 1.8024 2.0383
3.7588 2.1101 2.0383
3.5753 2.4038 2.0383
3.3687 2.6815 2.0383
3.1405 2.9414 2.0383
2.8921 3.1820 2.0383
2.6253 3.4015 2.0383
2.3418 3.5987 2.0383
0.7460 1.3771 0.7441
0.6329 1.4325 0.7446
0.5157 1.4787 0.7452
0.3951 1.5153 0.7458
0.2720 1.5420 0.7463
0.1471 1.5587 0.7469
0.0213 1.5653 0.7474
-0.1047 1.5617 0.7479
-0.2299 1.5479 0.7483
-0.3536 1.5241 0.7488
-0.4750 1.4903 0.7491
-0.5933 1.4469 0.7495
-0.7076 1.3941 0.7498
-2.2210 3.6203 2.0383
-2.5038 3.4277 2.0383
-2.7702 3.2133 2.0383
-3.0184 2.9783 2.0383
-3.2470 2.7243 2.0383
-3.4546 2.4530 2.0383
-3.6398 2.1661 2.0383
-3.8014 1.8654 2.0383
-3.9386 1.5529 2.0383
-4.0504 1.2304 2.0383
-4.1360 0.9001 2.0383
-4.1951 0.5640 2.0383
-4.2272 0.2242 2.0383
-4.2321 -0.1170 2.0383
-4.2098 -0.4576 2.0383
-4.1603 -0.7954 2.0383
-4.0841 -1.1283 2.0383
-3.9814 -1.4541 2.0383
-3.8531 -1.7708 2.0383
-3.6999 -2.0764 2.0383
-3.5226 -2.3688 2.0383
-3.3224 -2.6463 2.0383
-3.1006 -2.9070 2.0383
-2.8585 -3.1493 2.0383
-2.5977 -3.3715 2.0383
-2.3197 -3.5723 2.0383
-0.7385 -1.3669 0.7429
-0.6262 -1.4219 0.7423
-0.5098 -1.4677 0.7418
-0.3902 -1.5040 0.7412
-0.2680 -1.5307 0.7406
-0.1441 -1.5474 0.7401
-0.0192 -1.5542 0.7396
0.1057 -1.5510 0.7391
0.2301 -1.5378 0.7387
0.3530 -1.5146 0.7382
0.4736 -1.4817 0.7379
0.5912 -1.4392 0.7375
0.7051 -1.3874 0.7372
2.2527 -3.6695 2.0383
2.5416 -3.4789 2.0383
2.8143 -3.2654 2.0383
3.0689 -3.0304 2.0383
3.3037 -2.7755 2.0383
3.5172 -2.5024 2.0383
3.7079 -2.2127 2.0383
3.8745 -1.9085 2.0383
4.0160 -1.5917 2.0383
4.1313 -1.2645 2.0383
4.2197 -0.9289 2.0383
4.2807 -0.5873 2.0383
4.3137 -0.2418 2.0383
4.3186 0.1051 2.0383
4.2954 0.4513 2.0383
4.2442 0.7943 2.0383
4.1654 1.1320 2.0383
4.0595 1.4622 2.0383
3.9273 1.7825 2.0383
3.7696 2.0910 2.0383
3.5876 2.3856 2.0383
3.3825 2.6644 2.0383
3.1555 2.9255 2.0383
2.9084 3.1673 2.0383
2.6427 3.3883 2.0383
2.3602 3.5870 2.0383
0.7530 1.3732 0.7440
0.6402 1.4293 0.7446
0.5232 1.4761 0.7452
0.4028 1.5133 0.7458
0.2798 1.5406 0.7463
0.1550 1.5580 0.7468
0.0293 1.5652 0.7474
-0.0967 1.5622 0.7478
-0.2220 1.5491 0.7483
-0.3459 1.5259 0.7487
-0.4674 1.4928 0.7491
-0.5859 1.4500 0.7495
-0.7005 1.3977 0.7498
-2.2026 3.6318 2.0383
-2.4864 3.4406 2.0383
-2.7538 3.2275 2.0383
-3.0033 2.9938 2.0383
-3.2332 2.7410 2.0383
-3.4421 2.4707 2.0383
-3.6287 2.1847 2.0383
-3.7919 1.8849 2.0383
-3.9306 1.5730 2.0383
-4.0440 1.2511 2.0383
-4.1314 0.9212 2.0383
-4.1922 0.5854 2.0383
-4.2260 0.2458 2.0383
-4.2326 -0.0954 2.0383
-4.2120 -0.4361 2.0383
-4.1642 -0.7742 2.0383
-4.0897 -1.1074 2.0383
-3.9887 -1.4337 2.0383
-3.8620 -1.7511 2.0383
-3.7103 -2.0574 2.0383
-3.5345 -2.3507 2.0383
-3.3358 -2.6292 2.0383
-3.1153 -2.8910 2.0383
-2.8744 -3.1345 2.0383
-2.6147 -3.3581 2.0383
-2.3378 -3.5602 2.0383
-0.7455 -1.3631 0.7429
-0.6334 -1.4187 0.7424
-0.5173 -1.4651 0.7418
-0.3978 -1.5020 0.7412
-0.2758 -1.5293 0.7407
-0.1520 -1.5467 0.7401
-0.0272 -1.5541 0.7396
0.0978 -1.5515 0.7392
0.2222 -1.5389 0.7387
0.3452 -1.5164 0.7383
0.4660 -1.4841 0.7379
0.5839 -1.4422 0.7375
0.6980 -1.3910 0.7372
2.2339 -3.6808 2.0383
2.5238 -3.4916 2.0383
2.7975 -3.2796 2.0383
3.0533 -3.0459 2.0383
3.2894 -2.7922 2.0383
3.5043 -2.5202 2.0383
3.6965 -2.2315 2.0383
3.8647 -1.9282 2.0383
4.0078 -1.6121 2.0383
4.1248 -1.2855 2.0383
4.2149 -0.9504 2.0383
4.2776 -0.6090 2.0383
4.3124 -0.2638 2.0383
4.3191 0.0831 2.0383
4.2977 0.4294 2.0383
4.2483 0.7727 2.0383
4.1712 1.1109 2.0383
4.0670 1.4415 2.0383
3.9364 1.7626 2.0383
3.7804 2.0719 2.0383
3.5998 2.3674 2.0383
3.3961 2.6472 2.0383
3.1705 2.9095 2.0383
2.9246 3.1526 2.0383
2.6600 3.3749 2.0383
2.3785 3.5750 2.0383
0.7599 1.3694 0.7440
0.6474 1.4260 0.7446
0.5307 1.4734 0.7452
0.4105 1.5112 0.7457
0.2877 1.5392 0.7463
0.1630 1.5572 0.7468
0.0372 1.5650 0.7473
-0.0887 1.5627 0.7478
-0.2141 1.5502 0.7483
-0.3381 1.5276 0.7487
-0.4598 1.4952 0.7491
-0.5785 1.4530 0.7495
-0.6934 1.4013 0.7498
-2.1841 3.6431 2.0383
-2.4689 3.4534 2.0383
-2.7374 3.2416 2.0383
-2.9880 3.0091 2.0383
-3.2192 2.7575 2.0383
-3.4295 2.4883 2.0383
-3.6176 2.2033 2.0383
-3.7823 1.9042 2.0383
-3.9226 1.5931 2.0383
-4.0376 1.2717 2.0383
-4.1267 0.9423 2.0383
-4.1891 0.6068 2.0383
-4.2246 0.2674 2.0383
-4.2330 -0.0738 2.0383
-4.2141 -0.4146 2.0383
-4.1681 -0.7529 2.0383
-0.4679 -1.3700 0.7418
-0.3562 -1.4033 0.7413
-0.2422 -1.4276 0.7408
-0.1267 -1.4426 0.7403
-0.0104 -1.4483 0.7398
0.1061 -1.4447 0.7394
0.2219 -1.4318 0.7390
0.3363 -1.4096 0.7386
0.4485 -1.3784 0.7382
0.5579 -1.3382 0.7379
0.6638 -1.2894 0.7376
0.7654 -1.2323 0.7373
2.3837 -3.2275 2.0383
2.6365 -3.0273 2.0383
2.8724 -2.8072 2.0383
3.0897 -2.5687 2.0383
3.2871 -2.3133 2.0383
3.4632 -2.0427 2.0383
3.6169 -1.7586 2.0383
3.7470 -1.4630 2.0383
3.8528 -1.1577 2.0383
3.9335 -0.8449 2.0383
3.9886 -0.5266 2.0383
4.0177 -0.2048 2.0383
4.0207 0.1182 2.0383
3.9974 0.4404 2.0383
3.9482 0.7595 2.0383
3.8733 1.0736 2.0383
3.7732 1.3805 2.0383
3.6487 1.6782 2.0383
3.5005 1.9647 2.0383
3.3297 2.2382 2.0383
3.1375 2.4969 2.0383
2.9250 2.7390 2.0383
2.6939 2.9631 2.0383
2.4455 3.1678 2.0383
0.7957 1.2225 0.7435
0.6949 1.2825 0.7440
0.5896 1.3341 0.7446
0.4805 1.3771 0.7451
0.3682 1.4112 0.7456
0.2535 1.4360 0.7461
0.1372 1.4516 0.7466
0.0200 1.4577 0.7471
-0.0973 1.4543 0.7476
-0.2139 1.4415 0.7480
-0.3291 1.4193 0.7484
-0.4422 1.3879 0.7488
-0.5523 1.3475 0.7491
-0.6588 1.2984 0.7494
-0.7610 1.2408 0.7496
-2.3328 3.1943 2.0383
-2.5811 2.9945 2.0383
-2.8126 2.7756 2.0383
-3.0257 2.5390 2.0383
-3.2192 2.2862 2.0383
-3.3919 2.0188 2.0383
-3.5426 1.7386 2.0383
-3.6705 1.4473 2.0383
-3.7747 1.1467 2.0383
-3.8546 0.8388 2.0383
-3.9096 0.5256 2.0383
-3.9395 0.2089 2.0383
-3.9440 -0.1092 2.0383
-3.9232 -0.4266 2.0383
-3.8770 -0.7415 2.0383
-3.8059 -1.0517 2.0383
-3.7102 -1.3554 2.0383
-3.5905 -1.6505 2.0383
-3.4476 -1.9352 2.0383
-3.2823 -2.2077 2.0383
-3.0956 -2.4662 2.0383
-2.8888 -2.7090 2.0383
-2.6631 -2.9347 2.0383
-2.4199 -3.1417 2.0383
-2.1608 -3.3286 2.0383
-0.6880 -1.2736 0.7429
-0.5833 -1.3249 0.7424
-0.4749 -1.3676 0.7419
-0.3634 -1.4015 0.7413
-0.2495 -1.4263 0.7408
-0.1341 -1.4419 0.7403
-0.0177 -1.4482 0.7399
0.0987 -1.4452 0.7394
0.2146 -1.4329 0.7390
0.3291 -1.4113 0.7386
0.4415 -1.3806 0.7382
0.5511 -1.3410 0.7379
0.6572 -1.2928 0.7376
0.7591 -1.2362 0.7374
2.3672 -3.2395 2.0383
2.6210 -3.0406 2.0383
2.8580 -2.8217 2.0383
3.0765 -2.5843 2.0383
3.2752 -2.3299 2.0383
3.4527 -2.0602 2.0383
3.6078 -1.7770 2.0383
3.7395 -1.4820 2.0383
3.8468 -1.1773 2.0383
3.9292 -0.8649 2.0383
3.9859 -0.5469 2.0383
4.0166 -0.2253 2.0383
4.0213 0.0978 2.0383
3.9997 0.4200 2.0383
3.9521 0.7395 2.0383
3.8788 1.0539 2.0383
3.7803 1.3613 2.0383
3.6573 1.6596 2.0383
3.5106 1.9469 2.0383
3.3412 2.2213 2.0383
3.1503 2.4809 2.0383
2.9391 2.7242 2.0383
2.7090 2.9495 2.0383
2.4617 3.1554 2.0383
2.1987 3.3406 2.0383
0.7015 1.2789 0.7440
0.5964 1.3311 0.7445
0.4875 1.3747 0.7451
0.3754 1.4093 0.7456
0.2608 1.4347 0.7461
0.1446 1.4509 0.7466
0.0274 1.4576 0.7471
-0.0899 1.4548 0.7475
-0.2066 1.4426 0.7480
-0.3219 1.4210 0.7484
-0.4351 1.3902 0.7487
-0.5455 1.3503 0.7491
-0.6522 1.3017 0.7494
-0.7547 1.2447 0.7496
-2.3166 3.2063 2.0383
-2.5659 3.0078 2.0383
-2.7984 2.7900 2.0383
-3.0128 2.5545 2.0383
-3.2076 2.3027 2.0383
-3.3816 2.0362 2.0383
-3.5337 1.7567 2.0383
-3.6631 1.4660 2.0383
-3.7688 1.1660 2.0383
-3.8502 0.8585 2.0383
-3.9069 0.5455 2.0383
-3.9384 0.2290 2.0383
-3.9445 -0.0890 2.0383
-3.9253 -0.4066 2.0383
-3.8807 -0.7217 2.0383
-3.8111 -1.0322 2.0383
-3.7170 -1.3364 2.0383
-3.5988 -1.6321 2.0383
-3.4573 -1.9175 2.0383
-3.2934 -2.1908 2.0383
-3.1081 -2.4503 2.0383
-2.9025 -2.6942 2.0383
-2.6779 -2.9210 2.0383
-2.4358 -3.1291 2.0383
-2.1777 -3.3174 2.0383
-0.6944 -1.2701 0.7430
-0.5900 -1.3219 0.7424
-0.4818 -1.3652 0.7419
-0.3705 -1.3996 0.7414
-0.2568 -1.4250 0.7409
-0.1414 -1.4412 0.7404
-0.0251 -1.4481 0.7399
0.0914 -1.4457 0.7394
0.2073 -1.4340 0.7390
0.3219 -1.4130 0.7386
0.4344 -1.3828 0.7383
0.5442 -1.3438 0.7379
0.6506 -1.2961 0.7376
0.7527 -1.2400 0.7374
2.3506 -3.2514 2.0383
2.6054 -3.0538 2.0383
2.8435 -2.8362 2.0383
3.0633 -2.5999 2.0383
3.2633 -2.3465 2.0383
3.4421 -2.0777 2.0383
3.5987 -1.7953 2.0383
3.7319 -1.5010 2.0383
3.8408 -1.1969 2.0383
3.9247 -0.8849 2.0383
3.9831 -0.5671 2.0383
4.0155 -0.2457 2.0383
4.0217 0.0773 2.0383
4.0018 0.3997 2.0383
3.9559 0.7193 2.0383
3.8842 1.0342 2.0383
3.7873 1.3421 2.0383
3.6658 1.6410 2.0383
3.5206 1.9291 2.0383
3.3526 2.2043 2.0383
3.1630 2.4650 2.0383
2.9530 2.7093 2.0383
2.7241 2.9358 2.0383
2.4778 3.1430 2.0383
2.2158 3.3295 2.0383
0.7080 1.2753 0.7440
0.6032 1.3280 0.7445
0.4945 1.3722 0.7450
0.3825 1.4074 0.7456
0.2681 1.4334 0.7461
0.1520 1.4501 0.7466
0.0349 1.4575 0.7471
-0.0824 1.4553 0.7475
-0.1992 1.4437 0.7479
-0.3147 1.4227 0.7483
-0.4280 1.3924 0.7487
-0.5386 1.3531 0.7490
-0.6456 1.3051 0.7493
-0.7483 1.2485 0.7496
-2.3003 3.2182 2.0383
-2.5506 3.0209 2.0383
-2.7842 2.8044 2.0383
-2.9998 2.5699 2.0383
-3.1958 2.3191 2.0383
-3.3712 2.0535 2.0383
-3.5248 1.7748 2.0383
-3.6556 1.4847 2.0383
-3.7628 1.1853 2.0383
-3.8458 0.8782 2.0383
-3.9040 0.5655 2.0383
-3.9371 0.2491 2.0383
-3.9449 -0.0689 2.0383
-3.9272 -0.3865 2.0383
-3.8843 -0.7018 2.0383
-0.4370 -1.2802 0.7419
-0.3327 -1.3113 0.7415
-0.2262 -1.3339 0.7410
-0.1182 -1.3480 0.7405
-0.0095 -1.3534 0.7401
0.0993 -1.3500 0.7397
0.2075 -1.3379 0.7393
0.3144 -1.3172 0.7389
0.4193 -1.2880 0.7386
0.5215 -1.2505 0.7383
0.6204 -1.2049 0.7380
0.7153 -1.1515 0.7377
2.2265 -3.0140 2.0383
2.4625 -2.8270 2.0383
2.6827 -2.6214 2.0383
2.8856 -2.3987 2.0383
3.0699 -2.1601 2.0383
3.2342 -1.9074 2.0383
3.3777 -1.6421 2.0383
3.4992 -1.3661 2.0383
3.5979 -1.0811 2.0383
3.6732 -0.7890 2.0383
3.7247 -0.4918 2.0383
3.7519 -0.1913 2.0383
3.7547 0.1103 2.0383
3.7330 0.4111 2.0383
3.6871 0.7091 2.0383
3.6172 1.0024 2.0383
3.5238 1.2890 2.0383
3.4076 1.5670 2.0383
3.2693 1.8346 2.0383
3.1099 2.0900 2.0383
2.9305 2.3316 2.0383
2.7322 2.5579 2.0383
2.5164 2.7673 2.0383
2.2845 2.9585 2.0383
0.7434 1.1418 0.7435
0.6492 1.1978 0.7440
0.5509 1.2460 0.7445
0.4489 1.2861 0.7450
0.3441 1.3179 0.7455
0.2370 1.3412 0.7460
0.1283 1.3557 0.7464
0.0189 1.3614 0.7469
-0.0907 1.3583 0.7473
-0.1996 1.3463 0.7477
-0.3072 1.3256 0.7481
-0.4128 1.2963 0.7484
-0.5157 1.2585 0.7487
-0.6152 1.2126 0.7490
-0.7106 1.1588 0.7492
-2.1796 2.9851 2.0383
-2.4117 2.7984 2.0383
-2.6280 2.5939 2.0383
-2.8273 2.3729 2.0383
-3.0082 2.1366 2.0383
-3.1696 1.8868 2.0383
-3.3105 1.6249 2.0383
-3.4301 1.3526 2.0383
-3.5275 1.0717 2.0383
-3.6022 0.7839 2.0383
-3.6536 0.4911 2.0383
-3.6816 0.1951 2.0383
-3.6858 -0.1022 2.0383
-3.6662 -0.3989 2.0383
-3.6231 -0.6931 2.0383
-3.5565 -0.9830 2.0383
-3.4670 -1.2668 2.0383
-3.3551 -1.5426 2.0383
-3.2214 -1.8086 2.0383
-3.0668 -2.0632 2.0383
-2.8923 -2.3047 2.0383
-2.6990 -2.5316 2.0383
-2.4880 -2.7424 2.0383
-2.2607 -2.9357 2.0383
-0.7363 -1.1345 0.7435
-0.6426 -1.1901 0.7430
-0.5448 -1.2380 0.7425
-0.4435 -1.2779 0.7420
-0.3393 -1.3096 0.7415
-0.2330 -1.3328 0.7410
-0.1251 -1.3474 0.7405
-0.0164 -1.3533 0.7401
0.0924 -1.3505 0.7397
0.2007 -1.3389 0.7393
0.3077 -1.3188 0.7389
0.4127 -1.2901 0.7386
0.5151 -1.2531 0.7383
0.6142 -1.2080 0.7380
0.7094 -1.1551 0.7378
2.2111 -3.0252 2.0383
2.4480 -2.8394 2.0383
2.6693 -2.6350 2.0383
2.8733 -2.4133 2.0383
3.0588 -2.1757 2.0383
3.2244 -1.9238 2.0383
3.3692 -1.6593 2.0383
3.4921 -1.3839 2.0383
3.5923 -1.0994 2.0383
3.6692 -0.8077 2.0383
3.7221 -0.5107 2.0383
3.7509 -0.2104 2.0383
3.7552 0.0912 2.0383
3.7351 0.3921 2.0383
3.6907 0.6904 2.0383
3.6223 0.9840 2.0383
3.5304 1.2710 2.0383
3.4156 1.5496 2.0383
3.2787 1.8179 2.0383
3.1206 2.0742 2.0383
2.9424 2.3168 2.0383
2.7453 2.5440 2.0383
2.5306 2.7545 2.0383
2.2996 2.9469 2.0383
0.7492 1.1380 0.7434
0.6553 1.1945 0.7440
0.5572 1.2432 0.7445
0.4555 1.2839 0.7450
0.3508 1.3162 0.7455
0.2438 1.3400 0.7459
0.1352 1.3550 0.7464
0.0258 1.3613 0.7468
-0.0837 1.3587 0.7473
-0.1927 1.3473 0.7477
-0.3005 1.3272 0.7480
-0.4062 1.2984 0.7484
-0.5093 1.2612 0.7487
-0.6090 1.2158 0.7490
-0.7047 1.1625 0.7492
-2.1644 2.9963 2.0383
-2.3974 2.8108 2.0383
-2.6148 2.6074 2.0383
-2.8152 2.3873 2.0383
-2.9973 2.1520 2.0383
-3.1600 1.9030 2.0383
-3.3022 1.6418 2.0383
-3.4232 1.3701 2.0383
-3.5220 1.0897 2.0383
-3.5981 0.8023 2.0383
-3.6511 0.5098 2.0383
-3.6805 0.2140 2.0383
-3.6862 -0.0833 2.0383
-3.6682 -0.3801 2.0383
-3.6265 -0.6746 2.0383
-3.5614 -0.9648 2.0383
-3.4733 -1.2490 2.0383
-3.3628 -1.5254 2.0383
-3.2305 -1.7921 2.0383
-3.0772 -2.0475 2.0383
-2.9040 -2.2899 2.0383
-2.7118 -2.5177 2.0383
-2.5018 -2.7295 2.0383
-2.2755 -2.9240 2.0383
-0.7420 -1.1307 0.7435
-0.6487 -1.1868 0.7430
-0.5511 -1.2352 0.7425
-0.4500 -1.2756 0.7420
-0.3460 -1.3078 0.7415
-0.2398 -1.3315 0.7410
-0.1319 -1.3467 0.7406
-0.0233 -1.3532 0.7401
0.0856 -1.3509 0.7397
0.1939 -1.3399 0.7393
0.3010 -1.3203 0.7389
0.4061 -1.2922 0.7386
0.5087 -1.2557 0.7383
0.6081 -1.2111 0.7380
0.7035 -1.1586 0.7378
2.1956 -3.0363 2.0383
2.4335 -2.8518 2.0383
2.6557 -2.6485 2.0383
2.8609 -2.4278 2.0383
3.0476 -2.1912 2.0383
3.2146 -1.9401 2.0383
3.3607 -1.6764 2.0383
3.4850 -1.4016 2.0383
3.5867 -1.1176 2.0383
3.6650 -0.8263 2.0383
3.7195 -0.5296 2.0383
3.7498 -0.2295 2.0383
3.7557 0.0721 2.0383
3.7371 0.3731 2.0383
3.6942 0.6716 2.0383
3.6274 0.9656 2.0383
3.5369 1.2531 2.0383
3.4236 1.5323 2.0383
3.2881 1.8013 2.0383
3.1313 2.0584 2.0383
2.9543 2.3018 2.0383
2.7583 2.5301 2.0383
2.5447 2.7417 2.0383
2.3147 2.9353 2.0383
0.7550 1.1341 0.7434
0.6614 1.1911 0.7439
0.5635 1.2403 0.7444
0.4620 1.2815 0.7449
0.3575 1.3144 0.7454
0.2506 1.3387 0.7459
0.1422 1.3543 0.7464
0.0328 1.3612 0.7468
-0.0768 1.3592 0.7472
-0.1859 1.3483 0.7476
-0.2937 1.3287 0.7480
-0.3996 1.3004 0.7484
-0.5028 1.2638 0.7487
-0.6028 1.2189 0.7490
-0.6987 1.1661 0.7492
-2.1491 3.0074 2.0383
-2.3831 2.8231 2.0383
-2.6016 2.6208 2.0383
-2.8030 2.4017 2.0383
-2.9863 2.1673 2.0383
-3.1503 1.9191 2.0383
-3.2939 1.6587 2.0383
-3.4162 1.3876 2.0383
-3.5164 1.1077 2.0383
-3.5940 0.8207 2.0383
-3.6484 0.5284 2.0383
-3.6793 0.2328 2.0383
-3.6866 -0.0645 2.0383
-3.6700 -0.3614 2.0383
-3.6298 -0.6560 2.0383
-0.4091 -1.1991 0.7420
-0.3114 -1.2282 0.7416
-0.2116 -1.2494 0.7411
-0.1105 -1.2626 0.7407
-0.0087 -1.2676 0.7403
0.0932 -1.2645 0.7399
0.1946 -1.2532 0.7395
0.2947 -1.2338 0.7392
0.3929 -1.2064 0.7389
0.4886 -1.1712 0.7386
0.5813 -1.1285 0.7383
0.6702 -1.0785 0.7381
0.7548 -1.0215 0.7379
2.3057 -2.6464 2.0383
2.5117 -2.4539 2.0383
2.7016 -2.2454 2.0383
2.8740 -2.0220 2.0383
3.0279 -1.7855 2.0383
3.1621 -1.5371 2.0383
3.2757 -1.2788 2.0383
3.3681 -1.0120 2.0383
3.4387 -0.7386 2.0383
3.4868 -0.4604 2.0383
3.5123 -0.1792 2.0383
3.5149 0.1031 2.0383
3.4947 0.3847 2.0383
3.4517 0.6637 2.0383
3.3864 0.9382 2.0383
3.2990 1.2064 2.0383
3.1903 1.4667 2.0383
3.0609 1.7172 2.0383
2.9118 1.9564 2.0383
2.7439 2.1827 2.0383
2.5583 2.3945 2.0383
2.3564 2.5906 2.0383
0.7798 1.0096 0.7430
0.6962 1.0690 0.7435
0.6080 1.1214 0.7440
0.5159 1.1665 0.7444
0.4205 1.2041 0.7449
0.3223 1.2339 0.7454
0.2220 1.2556 0.7458
0.1203 1.2692 0.7462
0.0179 1.2746 0.7467
-0.0847 1.2716 0.7471
-0.1867 1.2604 0.7474
-0.2874 1.2410 0.7478
-0.3863 1.2136 0.7481
-0.4826 1.1783 0.7484
-0.5758 1.1353 0.7486
-0.6651 1.0849 0.7489
-0.7501 1.0276 0.7490
-2.2587 2.6214 2.0383
-2.4614 2.4299 2.0383
-2.6481 2.2228 2.0383
-2.8177 2.0016 2.0383
-2.9689 1.7675 2.0383
-3.1010 1.5222 2.0383
-3.2130 1.2671 2.0383
-3.3043 1.0039 2.0383
-3.3742 0.7344 2.0383
-3.4225 0.4600 2.0383
-3.4486 0.1827 2.0383
-3.4525 -0.0958 2.0383
-3.4342 -0.3738 2.0383
-3.3937 -0.6494 2.0383
-3.3313 -0.9210 2.0383
-3.2474 -1.1868 2.0383
-3.1425 -1.4452 2.0383
-3.0172 -1.6944 2.0383
-2.8723 -1.9328 2.0383
-2.7088 -2.1590 2.0383
-2.5276 -2.3714 2.0383
-2.3299 -2.5688 2.0383
-0.7727 -1.0037 0.7440
-0.6894 -1.0626 0.7435
-0.6017 -1.1147 0.7430
-0.5101 -1.1596 0.7425
-0.4152 -1.1970 0.7421
-0.3176 -1.2266 0.7416
-0.2180 -1.2483 0.7412
-0.1170 -1.2620 0.7407
-0.0152 -1.2676 0.7403
0.0868 -1.2649 0.7399
0.1882 -1.2541 0.7396
0.2884 -1.2352 0.7392
0.3867 -1.2084 0.7389
0.4827 -1.1737 0.7386
0.5755 -1.1314 0.7383
0.6646 -1.0819 0.7381
0.7496 -1.0253 0.7379
2.2921 -2.6581 2.0383
2.4991 -2.4666 2.0383
2.6901 -2.2590 2.0383
2.8636 -2.0366 2.0383
3.0187 -1.8008 2.0383
3.1542 -1.5532 2.0383
3.2692 -1.2954 2.0383
3.3629 -1.0291 2.0383
3.4349 -0.7561 2.0383
3.4844 -0.4781 2.0383
3.5113 -0.1970 2.0383
3.5154 0.0852 2.0383
3.4966 0.3669 2.0383
3.4551 0.6461 2.0383
3.3912 0.9209 2.0383
3.3052 1.1897 2.0383
3.1978 1.4505 2.0383
3.0697 1.7017 2.0383
2.9218 1.9416 2.0383
2.7551 2.1687 2.0383
2.5706 2.3816 2.0383
2.3696 2.5787 2.0383
0.7850 1.0056 0.7430
0.7016 1.0654 0.7434
0.6138 1.1183 0.7439
0.5219 1.1639 0.7444
0.4266 1.2020 0.7449
0.3286 1.2322 0.7453
0.2284 1.2545 0.7458
0.1268 1.2686 0.7462
0.0244 1.2745 0.7466
-0.0782 1.2721 0.7470
-0.1803 1.2614 0.7474
-0.2811 1.2425 0.7477
-0.3801 1.2156 0.7481
-0.4766 1.1807 0.7484
-0.5700 1.1382 0.7486
-0.6596 1.0883 0.7488
-0.7449 1.0314 0.7490
-2.2453 2.6330 2.0383
-2.4490 2.4425 2.0383
-2.6368 2.2364 2.0383
-2.8075 2.0160 2.0383
-2.9599 1.7827 2.0383
-3.0932 1.5380 2.0383
-3.2065 1.2835 2.0383
-3.2991 1.0208 2.0383
-3.3705 0.7516 2.0383
-3.4201 0.4775 2.0383
-3.4476 0.2004 2.0383
-3.4530 -0.0781 2.0383
-3.4360 -0.3562 2.0383
-3.3969 -0.6321 2.0383
-3.3359 -0.9040 2.0383
-3.2533 -1.1702 2.0383
-3.1497 -1.4291 2.0383
-3.0257 -1.6789 2.0383
-2.8821 -1.9180 2.0383
-2.7197 -2.1450 2.0383
-2.5396 -2.3584 2.0383
-2.3429 -2.5568 2.0383
-0.7778 -0.9997 0.7440
-0.6948 -1.0591 0.7435
-0.6074 -1.1116 0.7430
-0.5160 -1.1569 0.7426
-0.4213 -1.1948 0.7421
-0.3239 -1.2250 0.7416
-0.2244 -1.2472 0.7412
-0.1234 -1.2614 0.7408
-0.0216 -1.2675 0.7403
0.0803 -1.2653 0.7399
0.1818 -1.2550 0.7396
0.2821 -1.2367 0.7392
0.3806 -1.2103 0.7389
0.4767 -1.1761 0.7386
0.5697 -1.1343 0.7384
0.6591 -1.0852 0.7381
0.7443 -1.0291 0.7379
2.2785 -2.6696 2.0383
2.4865 -2.4793 2.0383
2.6785 -2.2726 2.0383
2.8532 -2.0511 2.0383
3.0094 -1.8161 2.0383
3.1462 -1.5692 2.0383
3.2625 -1.3120 2.0383
3.3576 -1.0462 2.0383
3.4310 -0.7735 2.0383
3.4820 -0.4958 2.0383
3.5103 -0.2149 2.0383
3.5158 0.0674 2.0383
3.4985 0.3491 2.0383
3.4584 0.6285 2.0383
3.3959 0.9037 2.0383
3.3113 1.1729 2.0383
3.2052 1.4342 2.0383
3.0784 1.6861 2.0383
2.9318 1.9268 2.0383
2.7662 2.1548 2.0383
2.5828 2.3685 2.0383
2.3828 2.5667 2.0383
0.7901 1.0016 0.7429
0.7071 1.0618 0.7434
0.6194 1.1151 0.7439
0.5278 1.1612 0.7444
0.4327 1.1998 0.7448
0.3349 1.2306 0.7453
0.2348 1.2533 0.7458
0.1333 1.2680 0.7462
0.0309 1.2743 0.7466
-0.0717 1.2725 0.7470
-0.1738 1.2623 0.7474
-0.2748 1.2439 0.7477
-0.3739 1.2175 0.7481
-0.4706 1.1832 0.7483
-0.5642 1.1411 0.7486
-0.6540 1.0917 0.7488
-0.7396 1.0352 0.7490
-2.2319 2.6445 2.0383
-2.4366 2.4550 2.0383
-2.6254 2.2499 2.0383
-2.7972 2.0303 2.0383
-2.9508 1.7978 2.0383
-3.0853 1.5538 2.0383
-3.1999 1.2999 2.0383
-3.2939 1.0377 2.0383
-3.3666 0.7688 2.0383
-3.4176 0.4950 2.0383
-3.4465 0.2180 2.0383
-3.4533 -0.0605 2.0383
-3.4378 -0.3386 2.0383
-3.4001 -0.6147 2.0383
-0.3838 -1.1254 0.7421
-0.2921 -1.1528 0.7417
-0.1985 -1.1727 0.7413
-0.1036 -1.1850 0.7409
-0.0080 -1.1898 0.7405
0.0877 -1.1868 0.7401
0.1828 -1.1762 0.7398
0.2767 -1.1580 0.7395
0.3689 -1.1323 0.7392
0.4588 -1.0993 0.7389
0.5457 -1.0592 0.7386
0.6291 -1.0122 0.7384
0.7085 -0.9587 0.7383
0.7834 -0.8990 0.7381
2.3566 -2.3020 2.0383
2.5346 -2.1063 2.0383
2.6963 -1.8968 2.0383
2.8406 -1.6748 2.0383
2.9664 -1.4419 2.0383
3.0730 -1.1995 2.0383
3.1597 -0.9493 2.0383
3.2258 -0.6929 2.0383
3.2710 -0.4319 2.0383
3.2949 -0.1682 2.0383
3.2974 0.0966 2.0383
3.2784 0.3608 2.0383
3.2382 0.6224 2.0383
3.1769 0.8799 2.0383
3.0950 1.1316 2.0383
2.9931 1.3757 2.0383
2.8718 1.6108 2.0383
2.7320 1.8352 2.0383
2.5745 2.0474 2.0383
2.4005 2.2463 2.0383
2.2111 2.4303 2.0383
0.7318 0.9472 0.7430
0.6534 1.0029 0.7435
0.5706 1.0521 0.7439
0.4842 1.0944 0.7444
0.3947 1.1297 0.7448
0.3026 1.1576 0.7452
0.2085 1.1780 0.7457
0.1131 1.1907 0.7461
0.0169 1.1957 0.7465
-0.0793 1.1930 0.7468
-0.1750 1.1825 0.7472
-0.2695 1.1643 0.7475
-0.3622 1.1385 0.7478
-0.4526 1.1054 0.7481
-0.5400 1.0651 0.7483
-0.6238 1.0179 0.7485
-0.7036 0.9640 0.7487
-2.1197 2.4605 2.0383
-2.3100 2.2808 2.0383
-2.4853 2.0865 2.0383
-2.6445 1.8788 2.0383
-2.7865 1.6591 2.0383
-2.9105 1.4288 2.0383
-3.0157 1.1894 2.0383
-3.1014 0.9424 2.0383
-3.1671 0.6893 2.0383
-3.2123 0.4318 2.0383
-3.2369 0.1715 2.0383
-3.2405 -0.0900 2.0383
-3.2233 -0.3509 2.0383
-3.1853 -0.6097 2.0383
-3.1267 -0.8647 2.0383
-3.0478 -1.1142 2.0383
-2.9493 -1.3566 2.0383
-2.8316 -1.5905 2.0383
-2.6956 -1.8143 2.0383
-2.5420 -2.0265 2.0383
-2.3719 -2.2259 2.0383
-2.1863 -2.4111 2.0383
-0.7250 -0.9420 0.7439
-0.6468 -0.9973 0.7435
-0.5645 -1.0462 0.7430
-0.4786 -1.0883 0.7426
-0.3895 -1.1234 0.7422
-0.2979 -1.1512 0.7417
-0.2044 -1.1716 0.7413
-0.1096 -1.1845 0.7409
-0.0140 -1.1897 0.7405
0.0816 -1.1872 0.7401
0.1768 -1.1771 0.7398
0.2708 -1.1593 0.7395
0.3632 -1.1341 0.7392
0.4532 -1.1016 0.7389
0.5403 -1.0619 0.7387
0.6240 -1.0154 0.7385
0.7036 -0.9623 0.7383
0.7788 -0.9030 0.7381
2.3448 -2.3139 2.0383
2.5238 -2.1191 2.0383
2.6866 -1.9104 2.0383
2.8320 -1.6892 2.0383
2.9590 -1.4570 2.0383
3.0669 -1.2151 2.0383
3.1548 -0.9653 2.0383
3.2222 -0.7093 2.0383
3.2687 -0.4485 2.0383
3.2940 -0.1849 2.0383
3.2978 0.0799 2.0383
3.2802 0.3441 2.0383
3.2413 0.6059 2.0383
3.1814 0.8638 2.0383
3.1008 1.1158 2.0383
3.0001 1.3605 2.0383
2.8801 1.5962 2.0383
2.7414 1.8213 2.0383
2.5850 2.0344 2.0383
2.4120 2.2341 2.0383
2.2235 2.4191 2.0383
0.7366 0.9435 0.7430
0.6585 0.9995 0.7434
0.5760 1.0491 0.7439
0.4898 1.0919 0.7443
0.4004 1.1276 0.7448
0.3085 1.1560 0.7452
0.2145 1.1769 0.7456
0.1191 1.1901 0.7460
0.0230 1.1956 0.7464
-0.0732 1.1934 0.7468
-0.1689 1.1834 0.7472
-0.2636 1.1657 0.7475
-0.3564 1.1404 0.7478
-0.4470 1.1077 0.7481
-0.5346 1.0678 0.7483
-0.6186 1.0210 0.7485
-0.6987 0.9676 0.7487
-2.1071 2.4714 2.0383
-2.2984 2.2926 2.0383
-2.4747 2.0992 2.0383
-2.6349 1.8923 2.0383
-2.7780 1.6734 2.0383
-2.9032 1.4437 2.0383
-3.0096 1.2048 2.0383
-3.0965 0.9582 2.0383
-3.1635 0.7055 2.0383
-3.2101 0.4482 2.0383
-3.2359 0.1880 2.0383
-3.2409 -0.0734 2.0383
-3.2250 -0.3345 2.0383
-3.1883 -0.5934 2.0383
-3.1310 -0.8487 2.0383
-3.0534 -1.0986 2.0383
-2.9561 -1.3415 2.0383
-2.8396 -1.5760 2.0383
-2.7047 -1.8004 2.0383
-2.5523 -2.0135 2.0383
-2.3831 -2.2137 2.0383
-2.1985 -2.3998 2.0383
-0.7298 -0.9382 0.7440
-0.6519 -0.9940 0.7435
-0.5698 -1.0433 0.7431
-0.4841 -1.0858 0.7426
-0.3952 -1.1214 0.7422
-0.3038 -1.1497 0.7418
-0.2104 -1.1706 0.7413
-0.1156 -1.1839 0.7409
-0.0201 -1.1896 0.7405
0.0756 -1.1876 0.7402
0.1708 -1.1779 0.7398
0.2649 -1.1607 0.7395
0.3574 -1.1359 0.7392
0.4475 -1.1038 0.7389
0.5349 -1.0646 0.7387
0.6188 -1.0185 0.7385
0.6987 -0.9658 0.7383
0.7742 -0.9069 0.7381
2.3329 -2.3257 2.0383
2.5129 -2.1319 2.0383
2.6768 -1.9240 2.0383
2.8233 -1.7036 2.0383
2.9515 -1.4720 2.0383
3.0606 -1.2307 2.0383
3.1498 -0.9814 2.0383
3.2186 -0.7256 2.0383
3.2664 -0.4651 2.0383
3.2930 -0.2017 2.0383
3.2982 0.0631 2.0383
3.2820 0.3274 2.0383
3.2444 0.5895 2.0383
3.1858 0.8476 2.0383
3.1065 1.1001 2.0383
3.0071 1.3453 2.0383
2.8882 1.5815 2.0383
2.7507 1.8074 2.0383
2.5954 2.0213 2.0383
2.4234 2.2219 2.0383
2.2359 2.4078 2.0383
0.7414 0.9397 0.7430
0.6635 0.9962 0.7434
0.5813 1.0462 0.7439
0.4954 1.0894 0.7443
0.4062 1.1256 0.7448
0.3143 1.1544 0.7452
0.2205 1.1758 0.7456
0.1252 1.1895 0.7460
0.0291 1.1955 0.7464
-0.0671 1.1938 0.7468
-0.1629 1.1842 0.7471
-0.2576 1.1670 0.7475
-0.3506 1.1422 0.7478
-0.4413 1.1100 0.7480
-0.5291 1.0706 0.7483
-0.6134 1.0242 0.7485
-0.6937 0.9712 0.7487
-0.7695 0.9119 0.7488
-2.2867 2.3044 2.0383
-2.4640 2.1119 2.0383
-2.6252 1.9058 2.0383
-2.7695 1.6876 2.0383
-2.8958 1.4585 2.0383
-3.0034 1.2202 2.0383
-3.0916 0.9740 2.0383
-3.1599 0.7216 2.0383
-3.2077 0.4646 2.0383
-3.2349 0.2045 2.0383
-3.2412 -0.0569 2.0383
-3.2266 -0.3180 2.0383
-3.1912 -0.5771 2.0383
-0.3606 -1.0581 0.7422
-0.2744 -1.0838 0.7418
-0.1864 -1.1025 0.7414
-0.0972 -1.1142 0.7410
-0.0073 -1.1186 0.7407
0.0826 -1.1158 0.7403
0.1720 -1.1058 0.7400
0.2603 -1.0887 0.7397
0.3470 -1.0645 0.7394
0.4315 -1.0335 0.7392
0.5132 -0.9958 0.7389
0.5916 -0.9516 0.7387
0.6663 -0.9013 0.7386
0.7367 -0.8452 0.7384
2.2149 -2.1632 2.0383
2.3822 -1.9793 2.0383
2.5341 -1.7824 2.0383
2.6696 -1.5738 2.0383
2.7878 -1.3549 2.0383
2.8880 -1.1272 2.0383
2.9694 -0.8921 2.0383
3.0315 -0.6511 2.0383
3.0740 -0.4059 2.0383
3.0964 -0.1581 2.0383
3.0988 0.0907 2.0383
3.0810 0.3389 2.0383
3.0432 0.5848 2.0383
2.9857 0.8267 2.0383
2.9088 1.0632 2.0383
2.8131 1.2927 2.0383
2.6991 1.5135 2.0383
2.5678 1.7244 2.0383
2.4199 1.9240 2.0383
2.2564 2.1109 2.0383
0.7573 0.8321 0.7426
0.6880 0.8902 0.7430
0.6142 0.9425 0.7435
0.5365 0.9887 0.7439
0.4553 1.0285 0.7443
0.3711 1.0616 0.7447
0.2845 1.0879 0.7451
0.1961 1.1070 0.7455
0.1064 1.1190 0.7459
0.0161 1.1237 0.7463
-0.0743 1.1211 0.7466
-0.1643 1.1113 0.7470
-0.2531 1.0942 0.7473
-0.3403 1.0700 0.7475
-0.4252 1.0389 0.7478
-0.5073 1.0010 0.7480
-0.5861 0.9566 0.7482
-0.6611 0.9060 0.7484
-0.7317 0.8496 0.7485
-2.1716 2.1445 2.0383
-2.3364 1.9618 2.0383
-2.4862 1.7666 2.0383
-2.6197 1.5600 2.0383
-2.7364 1.3435 2.0383
-2.8353 1.1184 2.0383
-2.9159 0.8861 2.0383
-2.9777 0.6481 2.0383
-3.0202 0.4059 2.0383
-3.0433 0.1611 2.0383
-3.0467 -0.0847 2.0383
-3.0305 -0.3301 2.0383
-2.9947 -0.5734 2.0383
-2.9395 -0.8131 2.0383
-2.8654 -1.0477 2.0383
-2.7727 -1.2757 2.0383
-2.6620 -1.4956 2.0383
-2.5340 -1.7060 2.0383
-2.3896 -1.9055 2.0383
-2.2296 -2.0929 2.0383
-0.7504 -0.8278 0.7443
-0.6814 -0.8856 0.7439
-0.6079 -0.9376 0.7435
-0.5305 -0.9836 0.7431
-0.4497 -1.0232 0.7426
-0.3660 -1.0562 0.7422
-0.2799 -1.0824 0.7418
-0.1920 -1.1016 0.7414
-0.1029 -1.1136 0.7411
-0.0130 -1.1185 0.7407
0.0769 -1.1162 0.7403
0.1664 -1.1067 0.7400
0.2548 -1.0900 0.7397
0.3416 -1.0663 0.7394
0.4262 -1.0357 0.7392
0.5081 -0.9984 0.7389
0.5868 -0.9546 0.7388
0.6617 -0.9047 0.7386
0.7323 -0.8489 0.7384
2.2038 -2.1744 2.0383
2.3720 -1.9913 2.0383
2.5249 -1.7952 2.0383
2.6615 -1.5873 2.0383
2.7809 -1.3691 2.0383
2.8822 -1.1419 2.0383
2.9648 -0.9071 2.0383
3.0282 -0.6665 2.0383
3.0719 -0.4215 2.0383
3.0956 -0.1738 2.0383
3.0992 0.0750 2.0383
3.0827 0.3232 2.0383
3.0462 0.5693 2.0383
2.9899 0.8116 2.0383
2.9142 1.0484 2.0383
2.8197 1.2784 2.0383
2.7069 1.4998 2.0383
2.5766 1.7114 2.0383
2.4297 1.9117 2.0383
2.2672 2.0994 2.0383
0.7615 0.8283 0.7426
0.6925 0.8867 0.7430
0.6190 0.9394 0.7434
0.5415 0.9860 0.7439
0.4605 1.0262 0.7443
0.3765 1.0597 0.7447
0.2901 1.0864 0.7451
0.2018 1.1060 0.7455
0.1122 1.1185 0.7459
0.0218 1.1237 0.7463
-0.0686 1.1215 0.7466
-0.1586 1.1121 0.7469
-0.2475 1.0955 0.7472
-0.3348 1.0717 0.7475
-0.4199 1.0410 0.7478
-0.5022 1.0036 0.7480
-0.5812 0.9596 0.7482
-0.6565 0.9094 0.7484
-0.7274 0.8533 0.7485
-2.1606 2.1556 2.0383
-2.3264 1.9738 2.0383
-2.4771 1.7793 2.0383
-2.6118 1.5734 2.0383
-2.7295 1.3575 2.0383
-2.8296 1.1328 2.0383
-2.9113 0.9010 2.0383
-2.9743 0.6633 2.0383
-3.0181 0.4214 2.0383
-3.0424 0.1767 2.0383
-3.0471 -0.0691 2.0383
-3.0321 -0.3146 2.0383
-2.9975 -0.5581 2.0383
-2.9436 -0.7981 2.0383
-2.8706 -1.0331 2.0383
-2.7791 -1.2615 2.0383
-2.6695 -1.4819 2.0383
-2.5426 -1.6929 2.0383
-2.3992 -1.8932 2.0383
-2.2402 -2.0814 2.0383
-0.7546 -0.8240 0.7444
-0.6859 -0.8821 0.7439
-0.6127 -0.9345 0.7435
-0.5356 -0.9809 0.7431
-0.4549 -1.0209 0.7427
-0.3714 -1.0543 0.7423
-0.2854 -1.0809 0.7419
-0.1976 -1.1005 0.7415
-0.1085 -1.1131 0.7411
-0.0187 -1.1184 0.7407
0.0712 -1.1166 0.7404
0.1607 -1.1075 0.7400
0.2492 -1.0912 0.7397
0.3362 -1.0680 0.7394
0.4209 -1.0378 0.7392
0.5030 -1.0009 0.7390
0.5819 -0.9576 0.7388
0.6571 -0.9080 0.7386
0.7280 -0.8526 0.7385
2.1927 -2.1855 2.0383
2.3618 -2.0033 2.0383
2.5157 -1.8080 2.0383
2.6534 -1.6008 2.0383
2.7738 -1.3832 2.0383
2.8763 -1.1565 2.0383
2.9601 -0.9222 2.0383
3.0247 -0.6819 2.0383
3.0697 -0.4371 2.0383
3.0947 -0.1896 2.0383
3.0996 0.0592 2.0383
3.0844 0.3075 2.0383
3.0491 0.5538 2.0383
2.9940 0.7964 2.0383
2.9196 1.0336 2.0383
2.8262 1.2640 2.0383
2.7145 1.4861 2.0383
2.5854 1.6983 2.0383
2.4395 1.8994 2.0383
2.2779 2.0879 2.0383
0.7657 0.8244 0.7426
0.6970 0.8832 0.7430
0.6238 0.9362 0.7434
0.5465 0.9832 0.7438
0.4657 1.0238 0.7443
0.3819 1.0578 0.7447
0.2956 1.0849 0.7451
0.2074 1.1050 0.7455
0.1179 1.1179 0.7459
0.0276 1.1235 0.7462
-0.0629 1.1219 0.7466
-0.1529 1.1129 0.7469
-0.2419 1.0967 0.7472
-0.3293 1.0734 0.7475
-0.4146 1.0432 0.7478
-0.4971 1.0061 0.7480
-0.5763 0.9626 0.7482
-0.6518 0.9128 0.7484
-0.7230 0.8570 0.7485
-2.1496 2.1667 2.0383
-2.3164 1.9857 2.0383
-2.4681 1.7919 2.0383
-2.6037 1.5868 2.0383
-2.7225 1.3714 2.0383
-2.8237 1.1473 2.0383
-2.9067 0.9158 2.0383
-2.9709 0.6785 2.0383
-3.0159 0.4368 2.0383
-3.0415 0.1922 2.0383
-3.0474 -0.0536 2.0383
-3.0336 -0.2991 2.0383
-3.0003 -0.5428 2.0383
-0.3394 -0.9962 0.7423
-0.2582 -1.0204 0.7419
-0.1753 -1.0381 0.7415
-0.0913 -1.0490 0.7412
-0.0067 -1.0532 0.7408
0.0779 -1.0506 0.7405
0.1621 -1.0412 0.7402
0.2453 -1.0250 0.7399
0.3269 -1.0023 0.7397
0.4064 -0.9731 0.7394
0.4833 -0.9376 0.7392
0.5572 -0.8960 0.7390
0.6275 -0.8486 0.7389
0.6937 -0.7958 0.7387
0.7555 -0.7378 0.7386
2.2423 -1.8627 2.0383
2.3852 -1.6774 2.0383
2.5127 -1.4811 2.0383
2.6239 -1.2751 2.0383
2.7181 -1.0608 2.0383
2.7947 -0.8395 2.0383
2.8532 -0.6128 2.0383
2.8931 -0.3821 2.0383
2.9143 -0.1488 2.0383
2.9165 0.0853 2.0383
2.8998 0.3188 2.0383
2.8643 0.5502 2.0383
2.8102 0.7779 2.0383
2.7378 1.0005 2.0383
2.6478 1.2164 2.0383
2.5406 1.4243 2.0383
2.4171 1.6228 2.0383
2.2779 1.8107 2.0383
0.7735 0.7235 0.7423
0.7129 0.7832 0.7427
0.6477 0.8379 0.7431
0.5783 0.8871 0.7435
0.5051 0.9306 0.7439
0.4287 0.9680 0.7443
0.3495 0.9992 0.7447
0.2680 1.0239 0.7450
0.1848 1.0419 0.7454
0.1004 1.0532 0.7458
0.0153 1.0576 0.7461
-0.0698 1.0552 0.7464
-0.1544 1.0459 0.7468
-0.2380 1.0298 0.7470
-0.3201 1.0071 0.7473
-0.4000 0.9777 0.7475
-0.4773 0.9421 0.7478
-0.5515 0.9003 0.7479
-0.6221 0.8527 0.7481
-0.6886 0.7996 0.7482
-0.7505 0.7413 0.7483
-2.1996 1.8472 2.0383
-2.3406 1.6634 2.0383
-2.4664 1.4689 2.0383
-2.5763 1.2650 2.0383
-2.6695 1.0530 2.0383
-2.7454 0.8343 2.0383
-2.8036 0.6102 2.0383
-2.8436 0.3822 2.0383
-2.8654 0.1517 2.0383
-2.8686 -0.0799 2.0383
-2.8533 -0.3109 2.0383
-2.8195 -0.5400 2.0383
-2.7676 -0.7658 2.0383
-2.6977 -0.9867 2.0383
-2.6104 -1.2013 2.0383
-2.5061 -1.4083 2.0383
-2.3856 -1.6064 2.0383
-2.2495 -1.7942 2.0383
-0.7668 -0.7200 0.7447
-0.7063 -0.7794 0.7443
-0.6413 -0.8338 0.7439
-0.5722 -0.8828 0.7435
-0.4993 -0.9261 0.7431
-0.4233 -0.9634 0.7427
-0.3444 -0.9944 0.7423
-0.2634 -1.0191 0.7419
-0.1806 -1.0371 0.7416
-0.0967 -1.0485 0.7412
-0.0121 -1.0531 0.7409
0.0726 -1.0509 0.7405
0.1568 -1.0419 0.7402
0.2401 -1.0262 0.7399
0.3218 -1.0039 0.7397
0.4015 -0.9751 0.7394
0.4786 -0.9400 0.7392
0.5526 -0.8988 0.7390
0.6231 -0.8518 0.7389
0.6896 -0.7993 0.7387
0.7518 -0.7416 0.7386
2.2327 -1.8741 2.0383
2.3766 -1.6895 2.0383
2.5051 -1.4938 2.0383
2.6174 -1.2884 2.0383
2.7127 -1.0746 2.0383
2.7904 -0.8537 2.0383
2.8500 -0.6273 2.0383
2.8912 -0.3968 2.0383
2.9135 -0.1637 2.0383
2.9169 0.0705 2.0383
2.9014 0.3041 2.0383
2.8671 0.5356 2.0383
2.8141 0.7636 2.0383
2.7429 0.9866 2.0383
2.6540 1.2030 2.0383
2.5479 1.4114 2.0383
2.4253 1.6106 2.0383
2.2872 1.7991 2.0383
0.7772 0.7195 0.7423
0.7169 0.7796 0.7427
0.6520 0.8345 0.7430
0.5828 0.8841 0.7434
0.5099 0.9280 0.7438
0.4336 0.9658 0.7442
0.3545 0.9974 0.7446
0.2732 1.0225 0.7450
0.1901 1.0410 0.7454
0.1057 1.0527 0.7457
0.0207 1.0576 0.7461
-0.0644 1.0556 0.7464
-0.1491 1.0467 0.7467
-0.2328 1.0310 0.7470
-0.3150 1.0087 0.7473
-0.3950 0.9798 0.7475
-0.4725 0.9445 0.7477
-0.5469 0.9032 0.7479
-0.6177 0.8559 0.7481
-0.6845 0.8031 0.7482
-0.7468 0.7452 0.7483
-2.1902 1.8585 2.0383
-2.3321 1.6754 2.0383
-2.4589 1.4815 2.0383
-2.5698 1.2782 2.0383
-2.6641 1.0667 2.0383
-2.7411 0.8483 2.0383
-2.8004 0.6245 2.0383
-2.8416 0.3967 2.0383
-2.8645 0.1663 2.0383
-2.8689 -0.0652 2.0383
-2.8548 -0.2963 2.0383
-2.8222 -0.5256 2.0383
-2.7714 -0.7516 2.0383
-2.7026 -0.9729 2.0383
-2.6164 -1.1879 2.0383
-2.5132 -1.3955 2.0383
-2.3937 -1.5942 2.0383
-2.2586 -1.7827 2.0383
-0.7704 -0.7160 0.7447
-0.7103 -0.7758 0.7443
-0.6456 -0.8305 0.7439
-0.5767 -0.8798 0.7435
-0.5040 -0.9235 0.7431
-0.4282 -0.9612 0.7427
-0.3495 -0.9927 0.7423
-0.2686 -1.0177 0.7419
-0.1859 -1.0362 0.7416
-0.1020 -1.0480 0.7412
-0.0175 -1.0530 0.7409
0.0672 -1.0513 0.7405
0.1515 -1.0427 0.7402
0.2348 -1.0274 0.7399
0.3167 -1.0055 0.7397
0.3965 -0.9771 0.7394
0.4738 -0.9424 0.7392
0.5480 -0.9016 0.7390
0.6188 -0.8549 0.7389
0.6856 -0.8028 0.7388
0.7480 -0.7454 0.7387
2.2231 -1.8853 2.0383
2.3679 -1.7015 2.0383
2.4974 -1.5066 2.0383
2.6108 -1.3017 2.0383
2.7072 -1.0884 2.0383
2.7860 -0.8679 2.0383
2.8468 -0.6418 2.0383
2.8891 -0.4114 2.0383
2.9127 -0.1785 2.0383
2.9173 0.0556 2.0383
2.9030 0.2893 2.0383
2.8698 0.5211 2.0383
2.8180 0.7493 2.0383
2.7480 0.9726 2.0383
2.6602 1.1895 2.0383
2.5551 1.3985 2.0383
2.4336 1.5982 2.0383
2.2964 1.7875 2.0383
0.7809 0.7156 0.7422
0.7209 0.7759 0.7426
0.6562 0.8312 0.7430
0.5873 0.8812 0.7434
0.5146 0.9254 0.7438
0.4385 0.9636 0.7442
0.3596 0.9956 0.7446
0.2784 1.0211 0.7450
0.1954 1.0400 0.7454
0.1111 1.0521 0.7457
0.0261 1.0574 0.7461
-0.0590 1.0559 0.7464
-0.1438 1.0475 0.7467
-0.2275 1.0322 0.7470
-0.3098 1.0103 0.7473
-0.3900 0.9818 0.7475
-0.4677 0.9470 0.7477
-0.5423 0.9060 0.7479
-0.6133 0.8591 0.7481
-0.6804 0.8066 0.7482
-0.7430 0.7490 0.7483
-2.1807 1.8697 2.0383
-2.3236 1.6873 2.0383
-2.4514 1.4941 2.0383
-2.5633 1.2914 2.0383
-2.6586 1.0803 2.0383
-2.7367 0.8623 2.0383
-2.7972 0.6388 2.0383
-2.8396 0.4112 2.0383
-2.8636 0.1809 2.0383
-2.8692 -0.0505 2.0383
-2.8562 -0.2817 2.0383
-2.8248 -0.5112 2.0383
-0.3197 -0.9391 0.7424
-0.2432 -0.9619 0.7420
-0.1651 -0.9785 0.7416
-0.0859 -0.9889 0.7413
-0.0062 -0.9928 0.7410
0.0736 -0.9903 0.7407
0.1530 -0.9815 0.7404
0.2314 -0.9662 0.7401
0.3083 -0.9448 0.7399
0.3833 -0.9173 0.7396
0.4558 -0.8838 0.7394
0.5254 -0.8446 0.7393
0.5916 -0.7999 0.7391
0.6541 -0.7501 0.7390
0.7123 -0.6954 0.7389
0.7660 -0.6362 0.7389
2.2478 -1.5806 2.0383
2.3679 -1.3956 2.0383
2.4727 -1.2015 2.0383
2.5615 -0.9996 2.0383
2.6336 -0.7911 2.0383
2.6887 -0.5774 2.0383
2.7263 -0.3600 2.0383
2.7463 -0.1403 2.0383
2.7484 0.0803 2.0383
2.7326 0.3003 2.0383
2.6992 0.5183 2.0383
2.6482 0.7329 2.0383
2.5801 0.9426 2.0383
2.4953 1.1461 2.0383
2.3944 1.3420 2.0383
2.2780 1.5291 2.0383
0.7815 0.6211 0.7420
0.7292 0.6818 0.7424
0.6720 0.7380 0.7427
0.6106 0.7895 0.7431
0.5451 0.8359 0.7435
0.4762 0.8769 0.7438
0.4041 0.9122 0.7442
0.3295 0.9416 0.7446
0.2527 0.9648 0.7449
0.1743 0.9818 0.7453
0.0947 0.9924 0.7456
0.0146 0.9966 0.7460
-0.0656 0.9943 0.7463
-0.1454 0.9856 0.7466
-0.2242 0.9704 0.7468
-0.3015 0.9490 0.7471
-0.3768 0.9214 0.7473
-0.4497 0.8878 0.7475
-0.5196 0.8484 0.7477
-0.5861 0.8036 0.7478
-0.6487 0.7535 0.7479
-0.7071 0.6986 0.7480
-0.7609 0.6391 0.7481
-2.2062 1.5681 2.0383
-2.3248 1.3848 2.0383
-2.4284 1.1926 2.0383
-2.5163 0.9927 2.0383
-2.5879 0.7865 2.0383
-2.6427 0.5752 2.0383
-2.6805 0.3602 2.0383
-2.7010 0.1429 2.0383
-2.7040 -0.0754 2.0383
-2.6896 -0.2932 2.0383
-2.6577 -0.5092 2.0383
-2.6087 -0.7220 2.0383
-2.5428 -0.9303 2.0383
-2.4604 -1.1326 2.0383
-2.3621 -1.3278 2.0383
-2.2484 -1.5145 2.0383
-0.7749 -0.6182 0.7450
-0.7226 -0.6787 0.7446
-0.6656 -0.7347 0.7442
-0.6044 -0.7860 0.7439
-0.5392 -0.8321 0.7435
-0.4705 -0.8730 0.7431
-0.3988 -0.9081 0.7427
-0.3245 -0.9374 0.7424
-0.2481 -0.9606 0.7420
-0.1701 -0.9777 0.7417
-0.0910 -0.9884 0.7413
-0.0112 -0.9927 0.7410
0.0686 -0.9907 0.7407
0.1480 -0.9822 0.7404
0.2265 -0.9674 0.7401
0.3035 -0.9463 0.7399
0.3786 -0.9192 0.7397
0.4513 -0.8861 0.7395
0.5211 -0.8472 0.7393
0.5875 -0.8029 0.7391
0.6502 -0.7534 0.7390
0.7088 -0.6990 0.7389
0.7628 -0.6401 0.7389
2.2397 -1.5919 2.0383
2.3608 -1.4076 2.0383
2.4665 -1.2140 2.0383
2.5563 -1.0126 2.0383
2.6296 -0.8044 2.0383
2.6857 -0.5911 2.0383
2.7245 -0.3739 2.0383
2.7455 -0.1543 2.0383
2.7488 0.0663 2.0383
2.7342 0.2864 2.0383
2.7018 0.5046 2.0383
2.6520 0.7194 2.0383
2.5849 0.9295 2.0383
2.5012 1.1334 2.0383
2.4012 1.3298 2.0383
2.2858 1.5175 2.0383
0.7847 0.6171 0.7420
0.7326 0.6780 0.7423
0.6758 0.7346 0.7427
0.6146 0.7864 0.7431
0.5494 0.8332 0.7434
0.4806 0.8745 0.7438
0.4088 0.9101 0.7442
0.3343 0.9399 0.7446
0.2576 0.9635 0.7449
0.1793 0.9809 0.7453
0.0998 0.9920 0.7456
0.0197 0.9966 0.7459
-0.0605 0.9947 0.7463
-0.1403 0.9863 0.7465
-0.2192 0.9716 0.7468
-0.2966 0.9505 0.7471
-0.3721 0.9233 0.7473
-0.4451 0.8901 0.7475
-0.5152 0.8511 0.7477
-0.5820 0.8066 0.7478
-0.6449 0.7568 0.7479
-0.7036 0.7022 0.7480
-0.7577 0.6430 0.7481
-2.1982 1.5794 2.0383
-2.3178 1.3967 2.0383
-2.4223 1.2050 2.0383
-2.5112 1.0056 2.0383
-2.5838 0.7997 2.0383
-2.6397 0.5887 2.0383
-2.6786 0.3739 2.0383
-2.7002 0.1567 2.0383
-2.7043 -0.0615 2.0383
-2.6910 -0.2795 2.0383
-2.6603 -0.4956 2.0383
-2.6123 -0.7087 2.0383
-2.5475 -0.9172 2.0383
-2.4661 -1.1200 2.0383
-2.3688 -1.3156 2.0383
-2.2561 -1.5029 2.0383
-0.7780 -0.6142 0.7450
-0.7260 -0.6749 0.7446
-0.6694 -0.7313 0.7443
-0.6084 -0.7829 0.7439
-0.5434 -0.8294 0.7435
-0.4750 -0.8705 0.7431
-0.4034 -0.9061 0.7428
-0.3293 -0.9357 0.7424
-0.2530 -0.9594 0.7420
-0.1751 -0.9768 0.7417
-0.0960 -0.9879 0.7413
-0.0163 -0.9927 0.7410
0.0635 -0.9910 0.7407
0.1430 -0.9829 0.7404
0.2215 -0.9685 0.7402
0.2987 -0.9479 0.7399
0.3739 -0.9211 0.7397
0.4467 -0.8883 0.7395
0.5167 -0.8499 0.7393
0.5834 -0.8059 0.7391
0.6464 -0.7567 0.7390
0.7052 -0.7026 0.7389
0.7595 -0.6440 0.7389
2.2315 -1.6033 2.0383
2.3535 -1.4196 2.0383
2.4603 -1.2266 2.0383
2.5511 -1.0255 2.0383
2.6254 -0.8178 2.0383
2.6827 -0.6047 2.0383
2.7225 -0.3877 2.0383
2.7447 -0.1682 2.0383
2.7491 0.0523 2.0383
2.7356 0.2725 2.0383
2.7044 0.4909 2.0383
2.6556 0.7059 2.0383
2.5897 0.9163 2.0383
2.5070 1.1207 2.0383
2.4080 1.3176 2.0383
2.2935 1.5059 2.0383
0.7878 0.6131 0.7420
0.7361 0.6743 0.7423
0.6795 0.7312 0.7427
0.6186 0.7833 0.7430
0.5536 0.8304 0.7434
0.4851 0.8720 0.7438
0.4134 0.9081 0.7442
0.3391 0.9382 0.7445
0.2625 0.9622 0.7449
0.1843 0.9800 0.7453
0.1049 0.9915 0.7456
0.0248 0.9965 0.7459
-0.0555 0.9950 0.7462
-0.1353 0.9870 0.7465
-0.2142 0.9727 0.7468
-0.2918 0.9520 0.7471
-0.3674 0.9252 0.7473
-0.4406 0.8923 0.7475
-0.5109 0.8537 0.7477
-0.5778 0.8096 0.7478
-0.6410 0.7601 0.7479
-0.7000 0.7058 0.7480
-0.7544 0.6469 0.7481
-2.1901 1.5907 2.0383
-2.3106 1.4085 2.0383
-2.4162 1.2174 2.0383
-2.5060 1.0184 2.0383
-2.5797 0.8129 2.0383
-2.6367 0.6022 2.0383
-2.6767 0.3876 2.0383
-2.6993 0.1705 2.0383
-2.7046 -0.0477 2.0383
-2.6923 -0.2657 2.0383
-2.6627 -0.4820 2.0383
-0.3015 -0.8861 0.7424
-0.2293 -0.9076 0.7421
-0.1556 -0.9233 0.7417
-0.0809 -0.9331 0.7414
-0.0057 -0.9368 0.7411
0.0696 -0.9344 0.7408
0.1445 -0.9261 0.7406
0.2185 -0.9117 0.7403
0.2911 -0.8915 0.7401
0.3618 -0.8655 0.7399
0.4302 -0.8339 0.7397
0.4959 -0.7969 0.7395
0.5584 -0.7548 0.7394
0.6173 -0.7078 0.7393
0.6722 -0.6562 0.7392
0.7229 -0.6003 0.7391
0.7689 -0.5406 0.7391
2.2337 -1.3163 2.0383
2.3325 -1.1333 2.0383
2.4163 -0.9428 2.0383
2.4843 -0.7462 2.0383
2.5362 -0.5447 2.0383
2.5717 -0.3396 2.0383
2.5905 -0.1324 2.0383
2.5925 0.0756 2.0383
2.5777 0.2831 2.0383
2.5462 0.4888 2.0383
2.4981 0.6911 2.0383
2.4339 0.8889 2.0383
2.3540 1.0809 2.0383
2.2588 1.2657 2.0383
0.7821 0.5248 0.7418
0.7374 0.5858 0.7421
0.6880 0.6431 0.7424
0.6341 0.6962 0.7428
0.5761 0.7448 0.7431
0.5144 0.7885 0.7435
0.4493 0.8272 0.7438
0.3814 0.8604 0.7442
0.3110 0.8881 0.7445
0.2385 0.9101 0.7449
0.1646 0.9261 0.7452
0.0895 0.9361 0.7455
0.0139 0.9401 0.7458
-0.0617 0.9379 0.7461
-0.1370 0.9296 0.7464
-0.2113 0.9154 0.7466
-0.2842 0.8951 0.7469
-0.3553 0.8691 0.7471
-0.4240 0.8374 0.7473
-0.4899 0.8003 0.7474
-0.5527 0.7580 0.7476
-0.6118 0.7108 0.7477
-0.6669 0.6590 0.7478
-0.7176 0.6029 0.7478
-0.7637 0.5429 0.7479
-2.1935 1.3067 2.0383
-2.2912 1.1253 2.0383
-2.3741 0.9367 2.0383
-2.4417 0.7421 2.0383
-2.4935 0.5427 2.0383
-2.5291 0.3399 2.0383
-2.5484 0.1348 2.0383
-2.5513 -0.0712 2.0383
-2.5376 -0.2768 2.0383
-2.5076 -0.4806 2.0383
-2.4613 -0.6814 2.0383
-2.3991 -0.8779 2.0383
-2.3213 -1.0689 2.0383
-2.2285 -1.2530 2.0383
-0.7755 -0.5225 0.7452
-0.7309 -0.5833 0.7449
-0.6816 -0.6403 0.7445
-0.6279 -0.6932 0.7442
-0.5701 -0.7416 0.7438
-0.5086 -0.7852 0.7435
-0.4438 -0.8237 0.7431
-0.3761 -0.8569 0.7428
-0.3060 -0.8845 0.7424
-0.2339 -0.9064 0.7421
-0.1603 -0.9225 0.7418
-0.0857 -0.9326 0.7414
-0.0104 -0.9367 0.7411
0.0649 -0.9348 0.7409
0.1398 -0.9268 0.7406
0.2138 -0.9128 0.7403
0.2865 -0.8929 0.7401
0.3574 -0.8673 0.7399
0.4259 -0.8361 0.7397
0.4918 -0.7994 0.7395
0.5545 -0.7576 0.7394
0.6137 -0.7109 0.7393
0.6689 -0.6596 0.7392
0.7198 -0.6040 0.7391
0.7661 -0.5445 0.7391
2.2270 -1.3276 2.0383
2.3267 -1.1451 2.0383
2.4114 -0.9551 2.0383
2.4805 -0.7588 2.0383
2.5334 -0.5576 2.0383
2.5700 -0.3527 2.0383
2.5898 -0.1456 2.0383
2.5929 0.0625 2.0383
2.5791 0.2700 2.0383
2.5487 0.4758 2.0383
2.5017 0.6784 2.0383
2.4385 0.8766 2.0383
2.3595 1.0689 2.0383
2.2653 1.2542 2.0383
0.7847 0.5208 0.7417
0.7404 0.5821 0.7421
0.6913 0.6396 0.7424
0.6376 0.6929 0.7427
0.5799 0.7418 0.7431
0.5184 0.7859 0.7434
0.4536 0.8249 0.7438
0.3858 0.8585 0.7442
0.3155 0.8866 0.7445
0.2432 0.9089 0.7448
0.1693 0.9253 0.7452
0.0943 0.9357 0.7455
0.0187 0.9400 0.7458
-0.0569 0.9382 0.7461
-0.1322 0.9303 0.7464
-0.2066 0.9164 0.7466
-0.2796 0.8966 0.7469
-0.3508 0.8709 0.7471
-0.4197 0.8396 0.7473
-0.4858 0.8028 0.7474
-0.5488 0.7608 0.7476
-0.6081 0.7139 0.7477
-0.6635 0.6624 0.7478
-0.7146 0.6066 0.7478
-0.7609 0.5468 0.7479
-2.1868 1.3179 2.0383
-2.2855 1.1371 2.0383
-2.3693 0.9489 2.0383
-2.4379 0.7546 2.0383
-2.4907 0.5555 2.0383
-2.5274 0.3528 2.0383
-2.5477 0.1478 2.0383
-2.5516 -0.0582 2.0383
-2.5390 -0.2638 2.0383
-2.5100 -0.4678 2.0383
-2.4647 -0.6688 2.0383
-2.4035 -0.8656 2.0383
-2.3267 -1.0570 2.0383
-2.2348 -1.2416 2.0383
-0.7782 -0.5185 0.7452
-0.7339 -0.5796 0.7449
-0.6849 -0.6368 0.7446
-0.6314 -0.6900 0.7442
-0.5738 -0.7387 0.7439
-0.5126 -0.7826 0.7435
-0.4480 -0.8214 0.7432
-0.3805 -0.8549 0.7428
-0.3105 -0.8829 0.7425
-0.2385 -0.9052 0.7421
-0.1650 -0.9217 0.7418
-0.0904 -0.9322 0.7415
-0.0152 -0.9366 0.7412
0.0601 -0.9351 0.7409
0.1351 -0.9275 0.7406
0.2092 -0.9139 0.7403
0.2820 -0.8944 0.7401
0.3529 -0.8691 0.7399
0.4217 -0.8382 0.7397
0.4877 -0.8019 0.7395
0.5506 -0.7604 0.7394
0.6100 -0.7140 0.7393
0.6655 -0.6630 0.7392
0.7167 -0.6076 0.7391
0.7633 -0.5483 0.7391
2.2202 -1.3389 2.0383
2.3209 -1.1569 2.0383
2.4065 -0.9673 2.0383
2.4766 -0.7714 2.0383
2.5306 -0.5704 2.0383
2.5681 -0.3658 2.0383
2.5891 -0.1588 2.0383
2.5932 0.0493 2.0383
2.5805 0.2569 2.0383
2.5511 0.4629 2.0383
2.5051 0.6657 2.0383
2.4429 0.8642 2.0383
2.3650 1.0569 2.0383
2.2717 1.2427 2.0383
0.7874 0.5168 0.7417
0.7433 0.5783 0.7420
0.6945 0.6361 0.7424
0.6412 0.6897 0.7427
0.5837 0.7389 0.7431
0.5224 0.7832 0.7434
0.4578 0.8226 0.7438
0.3901 0.8565 0.7441
0.3200 0.8849 0.7445
0.2478 0.9076 0.7448
0.1740 0.9244 0.7452
0.0991 0.9352 0.7455
0.0235 0.9399 0.7458
-0.0521 0.9385 0.7461
-0.1275 0.9310 0.7464
-0.2019 0.9175 0.7466
-0.2751 0.8980 0.7468
-0.3464 0.8727 0.7471
-0.4154 0.8417 0.7473
-0.4817 0.8053 0.7474
-0.5449 0.7636 0.7476
-0.6045 0.7170 0.7477
-0.6601 0.6658 0.7478
-0.7115 0.6102 0.7478
-0.7581 0.5507 0.7479
-2.1800 1.3291 2.0383
-2.2796 1.1487 2.0383
-2.3645 0.9610 2.0383
-2.4340 0.7671 2.0383
-2.4878 0.5682 2.0383
-2.5255 0.3657 2.0383
-2.5469 0.1608 2.0383
-2.5518 -0.0451 2.0383
-2.5403 -0.2508 2.0383
-2.5123 -0.4549 2.0383
-0.2845 -0.8367 0.7425
-0.2164 -0.8571 0.7422
-0.1468 -0.8719 0.7418
-0.0762 -0.8811 0.7415
-0.0052 -0.8846 0.7413
0.0659 -0.8824 0.7410
0.1366 -0.8745 0.7407
0.2065 -0.8609 0.7405
0.2750 -0.8418 0.7403
0.3418 -0.8173 0.7401
0.4064 -0.7874 0.7399
0.4684 -0.7525 0.7397
0.5274 -0.7127 0.7396
0.5830 -0.6683 0.7395
0.6349 -0.6196 0.7394
0.6827 -0.5669 0.7394
0.7262 -0.5104 0.7393
0.7649 -0.4507 0.7393
2.2021 -1.0697 2.0383
2.2811 -0.8900 2.0383
2.3453 -0.7044 2.0383
2.3943 -0.5142 2.0383
2.4278 -0.3207 2.0383
2.4456 -0.1251 2.0383
2.4475 0.0713 2.0383
2.4335 0.2672 2.0383
2.4037 0.4613 2.0383
2.3584 0.6523 2.0383
