ply
format ascii 1.0
element vertex 2170
property float32 x
property float32 y
property float32 z
end_header
1.7977 -10.3612 2.0380
2.6236 -10.1835 2.0380
3.4325 -9.9401 2.0380
3.9037 -8.9121 1.8856
4.6065 -8.5700 1.8856
4.3084 -6.6694 1.5387
5.9150 -7.7181 1.8845
6.5493 -7.2558 1.8943
-8.5984 -3.0752 2.0380
-8.3238 -3.7554 2.0380
-7.9956 -4.4114 2.0380
-7.6157 -5.0390 2.0380
-7.1866 -5.6340 2.0380
-6.7112 -6.1926 2.0380
-6.1925 -6.7112 2.0380
-5.6339 -7.1867 2.0380
-5.0388 -7.6158 2.0380
-4.4113 -7.9956 2.0380
-3.7553 -8.3239 2.0380
-3.0751 -8.5985 2.0380
-2.3750 -8.8175 2.0380
-1.6596 -8.9797 2.0380
-0.7823 -7.6134 1.7080
-0.1680 -7.6189 1.7007
0.4450 -7.6244 1.7044
1.0648 -7.6299 1.7193
1.9840 -8.9137 2.0380
2.6931 -8.7257 2.0380
3.3847 -8.4814 2.0380
3.8229 -7.7148 1.9215
3.9847 -6.6413 1.7285
4.9144 -6.8726 1.8856
5.4502 -6.4560 1.8856
5.9481 -5.9950 1.8847
6.4356 -5.5201 1.8922
6.8828 -5.0038 1.8991
7.2858 -4.4496 1.9052
7.6411 -3.8614 1.9107
7.9456 -3.2435 1.9153
8.1965 -2.6004 1.9191
8.3916 -1.9371 1.9220
8.5289 -1.2586 1.9240
8.6074 -0.5703 1.9251
8.6262 0.1225 1.9253
8.5852 0.8141 1.9246
8.4848 1.4993 1.9229
8.3259 2.1726 1.9203
8.1101 2.8288 1.9169
7.8392 3.4628 1.9126
7.5158 4.0699 1.9074
7.1427 4.6457 1.9016
6.7226 5.1853 1.8947
6.2603 5.6860 1.8874
5.7781 6.1642 1.8856
5.2647 6.6081 1.8856
4.7173 7.0093 1.8856
4.1467 7.3782 1.8888
3.8207 8.2941 2.0380
3.1426 8.5740 2.0380
2.4443 8.7986 2.0380
1.7302 8.9664 2.0380
1.0049 9.0763 2.0380
0.2731 9.1277 2.0380
-0.4604 9.1202 2.0380
-1.1909 9.0538 2.0380
-1.9138 8.9290 2.0380
-2.6243 8.7466 2.0380
-3.3179 8.5077 2.0380
-3.9901 8.2140 2.0380
-4.6365 7.8672 2.0380
-5.2530 7.4697 2.0380
-5.8356 7.0239 2.0380
-6.3805 6.5329 2.0380
-6.8843 5.9996 2.0380
-7.3437 5.4277 2.0380
-7.7556 4.8208 2.0380
-8.1176 4.1827 2.0380
-8.4271 3.5177 2.0380
-8.6822 2.8299 2.0380
-8.8814 2.1239 2.0380
-9.0232 1.4042 2.0380
-9.1068 0.6754 2.0380
-9.1316 -0.0578 2.0380
-9.0975 -0.7905 2.0380
-9.0047 -1.5182 2.0380
-8.8538 -2.2361 2.0380
-8.6458 -2.9395 2.0380
-8.3819 -3.6240 2.0380
-8.0640 -4.2850 2.0380
-7.6940 -4.9185 2.0380
-7.2744 -5.5202 2.0380
-6.8079 -6.0863 2.0380
-6.2974 -6.6130 2.0380
-5.7463 -7.0972 2.0380
-5.1581 -7.5355 2.0380
-4.5366 -7.9252 2.0380
-3.8858 -8.2638 2.0380
-3.2100 -8.5490 2.0380
-2.5135 -8.7791 2.0380
-1.8007 -8.9525 2.0380
-0.9035 -7.6123 1.7108
-0.2880 -7.6178 1.7013
0.3247 -7.6233 1.7028
0.9425 -7.6288 1.7155
1.8435 -8.9438 2.0380
2.5554 -8.7670 2.0380
3.2508 -8.5336 2.0380
3.8095 -8.0020 1.9779
3.9271 -6.7850 1.7496
4.8056 -6.9491 1.8856
5.3479 -6.5410 1.8856
5.8557 -6.0906 1.8856
6.3432 -5.6165 1.8908
6.7986 -5.1080 1.8978
7.2105 -4.5610 1.9041
7.5754 -3.9791 1.9097
7.8901 -3.3666 1.9144
8.1517 -2.7281 1.9184
8.3579 -2.0683 1.9215
8.5067 -1.3924 1.9237
8.5967 -0.7056 1.9250
8.6272 -0.0133 1.9254
8.5980 0.6790 1.9248
8.5091 1.3659 1.9233
8.3616 2.0419 1.9209
8.1567 2.7018 1.9176
7.8965 3.3406 1.9135
7.5831 3.9534 1.9085
7.2196 4.5356 1.9028
6.8094 5.0834 1.8964
6.3532 5.5904 1.8886
5.8744 6.0725 1.8856
5.3681 6.5244 1.8856
4.8271 6.9343 1.8856
4.2549 7.2993 1.8856
3.9507 8.2330 2.0380
3.2772 8.5235 2.0380
2.5824 8.7590 2.0380
1.8711 8.9380 2.0380
1.1476 9.0594 2.0380
0.4167 9.1223 2.0380
-0.3168 9.1263 2.0380
-1.0483 9.0714 2.0380
-1.7730 8.9580 2.0380
-2.4863 8.7868 2.0380
-3.1836 8.5589 2.0380
-3.8603 8.2757 2.0380
-4.5121 7.9392 2.0380
-5.1348 7.5514 2.0380
-5.7243 7.1149 2.0380
-6.2769 6.6325 2.0380
-6.7891 6.1072 2.0380
-7.2573 5.5426 2.0380
-7.6788 4.9422 2.0380
-8.0507 4.3099 2.0380
-8.3707 3.6498 2.0380
-8.6366 2.9662 2.0380
-8.8469 2.2634 2.0380
-9.0000 1.5460 2.0380
-9.0950 0.8186 2.0380
-9.1314 0.0859 2.0380
-9.1088 -0.6473 2.0380
-9.0275 -1.3763 2.0380
-8.8879 -2.0965 2.0380
-8.6909 -2.8031 2.0380
-8.4379 -3.4916 2.0380
-8.1304 -4.1576 2.0380
-7.7705 -4.7968 2.0380
-7.3604 -5.4050 2.0380
-6.9028 -5.9784 2.0380
-6.4007 -6.5131 2.0380
-5.8572 -7.0059 2.0380
-5.2760 -7.4534 2.0380
-4.6607 -7.8528 2.0380
-4.0154 -8.2016 2.0380
-3.3441 -8.4974 2.0380
-2.6513 -8.7384 2.0380
-1.9413 -8.9231 2.0380
-1.0251 -7.6112 1.7139
-0.4080 -7.6168 1.7023
0.2046 -7.6222 1.7017
0.8207 -7.6277 1.7121
1.7025 -8.9717 2.0380
2.4171 -8.8061 2.0380
3.1161 -8.5837 2.0380
3.7951 -8.3058 2.0380
3.9135 -7.0138 1.7924
4.6957 -7.0239 1.8856
5.2443 -6.6243 1.8856
5.7591 -6.1820 1.8856
6.2492 -5.7112 1.8893
6.7127 -5.2108 1.8965
7.1334 -4.6710 1.9029
7.5078 -4.0956 1.9086
7.8326 -3.4888 1.9136
8.1048 -2.8550 1.9177
8.3220 -2.1990 1.9210
8.4821 -1.5258 1.9233
8.5838 -0.8407 1.9248
8.6260 -0.1491 1.9254
8.6084 0.5437 1.9250
8.5312 1.2320 1.9237
8.3950 1.9106 1.9214
8.2013 2.5741 1.9183
7.9517 3.2174 1.9144
7.6485 3.8356 1.9095
7.2946 4.4241 1.9040
6.8930 4.9788 1.8976
6.4445 5.4933 1.8898
5.9624 5.9725 1.8834
5.4701 6.4391 1.8856
4.9356 6.8574 1.8856
4.3692 7.2315 1.8856
3.9728 7.9555 1.9845
3.4109 8.4709 2.0380
2.7200 8.7173 2.0380
2.0115 8.9075 2.0380
1.2900 9.0402 2.0380
0.5603 9.1146 2.0380
-0.1731 9.1302 2.0380
-0.9054 9.0868 2.0380
-1.6319 8.9848 2.0380
-2.3478 8.8248 2.0380
-3.0485 8.6079 2.0380
-3.7296 8.3354 2.0380
-4.3866 8.0092 2.0380
-5.0153 7.6313 2.0380
-5.6117 7.2041 2.0380
-6.1718 6.7304 2.0380
-6.6921 6.2133 2.0380
-7.1692 5.6561 2.0380
-7.6001 5.0625 2.0380
-7.9819 4.4361 2.0380
-8.3122 3.7811 2.0380
-8.5889 3.1017 2.0380
-8.8101 2.4023 2.0380
-8.9745 1.6874 2.0380
-9.0810 0.9616 2.0380
-9.1289 0.2296 2.0380
-9.1179 -0.5038 2.0380
-9.0480 -1.2341 2.0380
-8.9198 -1.9563 2.0380
-8.7340 -2.6660 2.0380
-8.4918 -3.3584 2.0380
-8.1948 -4.0292 2.0380
-7.8450 -4.6739 2.0380
-7.4445 -5.2885 2.0380
-6.9960 -5.8690 2.0380
-6.5024 -6.4116 2.0380
-5.9668 -6.9127 2.0380
-5.3926 -7.3695 2.0380
-4.7837 -7.7785 2.0380
-4.1439 -8.1374 2.0380
-3.4774 -8.4438 2.0380
-2.7885 -8.6956 2.0380
-2.0815 -8.8914 2.0380
-1.3611 -9.0298 2.0380
-0.5283 -7.6157 1.7037
0.0845 -7.6212 1.7009
0.6994 -7.6266 1.7092
1.5611 -8.9974 2.0380
2.2782 -8.8430 2.0380
2.9807 -8.6316 2.0380
3.6639 -8.3646 2.0380
4.0001 -7.4420 1.8856
4.2889 -6.6392 1.7639
5.1394 -6.7060 1.8856
5.6611 -6.2719 1.8856
-7.5871 -2.7135 2.0380
-7.3448 -3.3137 2.0380
-7.0552 -3.8926 2.0380
-6.7200 -4.4463 2.0380
-6.3414 -4.9713 2.0380
-5.9219 -5.4643 2.0380
-5.4642 -5.9220 2.0380
-4.9712 -6.3415 2.0380
-4.4462 -6.7200 2.0380
-3.8925 -7.0552 2.0380
-3.3136 -7.3449 2.0380
-2.7134 -7.5872 2.0380
-2.0957 -7.7805 2.0380
-1.4644 -7.9236 2.0380
-0.8237 -8.0155 2.0380
-0.1776 -8.0558 2.0380
0.4695 -8.0441 2.0380
1.1137 -7.9804 2.0380
1.7506 -7.8653 2.0380
2.3763 -7.6994 2.0380
2.9866 -7.4838 2.0380
3.5777 -7.2199 2.0380
3.8489 -6.4145 1.8921
4.3364 -6.0643 1.8856
4.8092 -5.6967 1.8856
5.2509 -5.2923 1.8856
5.6587 -4.8537 1.8856
6.0300 -4.3839 1.8856
6.3812 -3.8972 1.8911
6.6900 -3.3808 1.8958
6.9545 -2.8389 1.8998
7.1724 -2.2755 1.9031
7.3416 -1.6947 1.9057
7.4608 -1.1010 1.9074
7.5289 -0.4988 1.9084
7.5453 0.1071 1.9085
7.5098 0.7121 1.9079
7.4228 1.3116 1.9064
7.2850 1.9010 1.9042
7.0977 2.4757 1.9012
6.8626 3.0314 1.8975
6.5817 3.5641 1.8930
6.2574 4.0698 1.8879
5.9032 4.5533 1.8856
5.5187 5.0124 1.8856
5.0985 5.4392 1.8856
4.6455 5.8309 1.8856
4.1625 6.1849 1.8856
3.9479 7.0244 2.0380
3.3713 7.3186 2.0380
2.7730 7.5656 2.0380
2.1568 7.7637 2.0380
1.5267 7.9118 2.0380
0.8867 8.0088 2.0380
0.2410 8.0542 2.0380
-0.4062 8.0475 2.0380
-1.0509 7.9889 2.0380
-1.6887 7.8788 2.0380
-2.3156 7.7179 2.0380
-2.9276 7.5071 2.0380
-3.5208 7.2479 2.0380
-4.0912 6.9419 2.0380
-4.6352 6.5911 2.0380
-5.1492 6.1978 2.0380
-5.6301 5.7645 2.0380
-6.0746 5.2940 2.0380
-6.4799 4.7893 2.0380
-6.8434 4.2538 2.0380
-7.1628 3.6908 2.0380
-7.4359 3.1039 2.0380
-7.6611 2.4970 2.0380
-7.8368 1.8741 2.0380
-7.9619 1.2390 2.0380
-8.0357 0.5960 2.0380
-8.0576 -0.0510 2.0380
-8.0275 -0.6976 2.0380
-7.9456 -1.3396 2.0380
-7.8124 -1.9731 2.0380
-7.6289 -2.5938 2.0380
-7.3961 -3.1977 2.0380
-7.1155 -3.7811 2.0380
-6.7891 -4.3400 2.0380
-6.4188 -4.8709 2.0380
-6.0072 -5.3702 2.0380
-5.5567 -5.8353 2.0380
-5.0704 -6.2625 2.0380
-4.5514 -6.6492 2.0380
-4.0030 -6.9931 2.0380
-3.4288 -7.2918 2.0380
-2.8324 -7.5435 2.0380
-2.2178 -7.7465 2.0380
-1.5889 -7.8995 2.0380
-0.9497 -8.0016 2.0380
-0.3044 -8.0520 2.0380
0.3429 -8.0504 2.0380
0.9880 -7.9970 2.0380
1.6267 -7.8918 2.0380
2.2548 -7.7358 2.0380
2.8685 -7.5299 2.0380
3.4636 -7.2753 2.0380
3.8318 -6.6203 1.9346
4.2404 -6.1318 1.8856
4.7189 -5.7716 1.8856
5.1669 -5.3743 1.8856
5.5816 -4.9422 1.8856
5.9573 -4.4760 1.8846
6.3157 -3.9950 1.8901
6.6329 -3.4840 1.8949
6.9063 -2.9469 1.8991
7.1335 -2.3873 1.9025
7.3124 -1.8096 1.9052
7.4415 -1.2181 1.9071
7.5196 -0.6172 1.9083
7.5462 -0.0116 1.9086
7.5208 0.5939 1.9081
7.4438 1.1949 1.9068
7.3159 1.7866 1.9047
7.1382 2.3645 1.9019
6.9123 2.9242 1.8983
6.6402 3.4618 1.8939
6.3242 3.9731 1.8890
5.9741 4.4598 1.8856
5.5969 4.9249 1.8856
5.1835 5.3583 1.8856
4.7367 5.7571 1.8856
4.2593 6.1187 1.8856
3.9600 6.7935 1.9888
3.4861 7.2646 2.0380
2.8917 7.5210 2.0380
2.2787 7.7288 2.0380
1.6510 7.8868 2.0380
1.0126 7.9939 2.0380
0.3677 8.0494 2.0380
-0.2795 8.0529 2.0380
-0.9250 8.0045 2.0380
-1.5645 7.9044 2.0380
-2.1939 7.7533 2.0380
-2.8092 7.5522 2.0380
-3.4063 7.3024 2.0380
-3.9814 7.0054 2.0380
-4.5309 6.6632 2.0380
-5.0511 6.2781 2.0380
-5.5387 5.8524 2.0380
-5.9906 5.3889 2.0380
-6.4038 4.8907 2.0380
-6.7757 4.3609 2.0380
-7.1038 3.8030 2.0380
-7.3862 3.2205 2.0380
-7.6208 2.6173 2.0380
-7.8063 1.9972 2.0380
-7.9414 1.3642 2.0380
-8.0253 0.7223 2.0380
-8.0574 0.0758 2.0380
-8.0375 -0.5711 2.0380
-7.9657 -1.2144 2.0380
-7.8425 -1.8499 2.0380
-7.6687 -2.4734 2.0380
-7.4455 -3.0810 2.0380
-7.1742 -3.6686 2.0380
-6.8566 -4.2326 2.0380
-6.4947 -4.7693 2.0380
-6.0909 -5.2752 2.0380
-5.6479 -5.7471 2.0380
-5.1683 -6.1819 2.0380
-4.6555 -6.5768 2.0380
-4.1126 -6.9292 2.0380
-3.5431 -7.2370 2.0380
-2.9508 -7.4980 2.0380
-2.3395 -7.7107 2.0380
-1.7130 -7.8736 2.0380
-1.0755 -7.9856 2.0380
-0.4311 -8.0462 2.0380
0.2162 -8.0549 2.0380
0.8620 -8.0115 2.0380
1.5023 -7.9165 2.0380
2.1328 -7.7703 2.0380
2.7496 -7.5741 2.0380
3.3487 -7.3289 2.0380
3.8205 -6.8471 1.9831
4.1434 -6.1977 1.8856
4.6275 -5.8452 1.8856
5.0817 -5.4549 1.8856
5.5032 -5.0294 1.8856
5.8891 -4.5714 1.8856
6.2487 -4.0916 1.8891
6.5742 -3.5863 1.8941
6.8564 -3.0539 1.8983
7.0927 -2.4985 1.9019
7.2812 -1.9240 1.9048
7.4202 -1.3348 1.9068
7.5084 -0.7354 1.9081
7.5451 -0.1304 1.9086
7.5299 0.4756 1.9082
7.4630 1.0778 1.9071
7.3449 1.6716 1.9052
7.1769 2.2526 1.9025
6.9603 2.8162 1.8990
6.6970 3.3584 1.8948
6.3894 3.8752 1.8900
6.0436 4.3652 1.8856
5.6737 4.8363 1.8856
5.2672 5.2761 1.8856
4.8267 5.6818 1.8856
4.3551 6.0509 1.8856
3.9667 6.5652 1.9400
3.5999 7.2089 2.0380
3.0097 7.4746 2.0380
2.4000 7.6920 2.0380
1.7749 7.8598 2.0380
1.1383 7.9769 2.0380
0.4944 8.0426 2.0380
-0.1528 8.0563 2.0380
-0.7989 8.0181 2.0380
-1.4399 7.9280 2.0380
-2.0716 7.7869 2.0380
-2.6900 7.5955 2.0380
-3.2909 7.3551 2.0380
-3.8707 7.0672 2.0380
-4.4254 6.7337 2.0380
-4.9516 6.3568 2.0380
-5.4459 5.9388 2.0380
-5.9050 5.4825 2.0380
-6.3260 4.9909 2.0380
-6.7062 4.4670 2.0380
-7.0431 3.9143 2.0380
-7.3346 3.3364 2.0380
-7.5787 2.7369 2.0380
-7.7739 2.1198 2.0380
-7.9190 1.4890 2.0380
-8.0130 0.8485 2.0380
-8.0552 0.2026 2.0380
-8.0455 -0.4446 2.0380
-7.9838 -1.0889 2.0380
-7.8707 -1.7262 2.0380
-7.7067 -2.3524 2.0380
-7.4930 -2.9634 2.0380
-7.2310 -3.5553 2.0380
-6.9223 -4.1242 2.0380
-6.5689 -4.6665 2.0380
-6.1732 -5.1786 2.0380
-5.7376 -5.6575 2.0380
-5.2650 -6.0998 2.0380
-4.7584 -6.5027 2.0380
-4.2211 -6.8636 2.0380
-3.6565 -7.1803 2.0380
-3.0684 -7.4506 2.0380
-2.4605 -7.6729 2.0380
-1.8367 -7.8456 2.0380
-1.2010 -7.9677 2.0380
-0.5576 -8.0384 2.0380
0.0894 -8.0573 2.0380
0.7358 -8.0241 2.0380
1.3775 -7.9391 2.0380
2.0103 -7.8029 2.0380
2.6301 -7.6164 2.0380
3.2330 -7.3807 2.0380
3.8085 -7.0854 2.0345
4.0454 -6.2622 1.8856
4.5349 -5.9173 1.8856
4.9953 -5.5342 1.8856
-6.7784 -2.4243 2.0380
-6.5620 -2.9605 2.0380
-6.3032 -3.4777 2.0380
-6.0037 -3.9724 2.0380
-5.6655 -4.4414 2.0380
-5.2907 -4.8819 2.0380
-4.8818 -5.2908 2.0380
-4.4414 -5.6655 2.0380
-3.9723 -6.0038 2.0380
-3.4776 -6.3032 2.0380
-2.9604 -6.5620 2.0380
-2.4242 -6.7785 2.0380
-1.8723 -6.9512 2.0380
-1.3083 -7.0790 2.0380
-0.7359 -7.1612 2.0380
-0.1587 -7.1971 2.0380
0.4195 -7.1867 2.0380
0.9950 -7.1298 2.0380
1.5640 -7.0269 2.0380
2.1230 -6.8787 2.0380
2.6683 -6.6861 2.0380
3.1964 -6.4504 2.0380
3.7038 -6.1730 2.0380
3.8742 -5.4180 1.8856
4.2966 -5.0895 1.8856
4.6912 -4.7282 1.8856
5.0556 -4.3364 1.8856
5.3873 -3.9166 1.8856
5.6843 -3.4716 1.8856
5.9400 -3.0018 1.8841
6.1734 -2.5201 1.8877
6.3656 -2.0195 1.8906
6.5148 -1.5038 1.8928
6.6199 -0.9769 1.8943
6.6799 -0.4426 1.8952
6.6944 0.0950 1.8953
6.6632 0.6319 1.8948
6.5865 1.1639 1.8935
6.4651 1.6870 1.8915
6.3000 2.1974 1.8889
6.0926 2.6913 1.8856
5.8570 3.1716 1.8856
5.5835 3.6315 1.8856
5.2740 4.0680 1.8856
4.9305 4.4781 1.8856
4.5551 4.8594 1.8856
4.1504 5.2094 1.8856
3.9481 5.8663 2.0018
3.5271 6.2757 2.0380
3.0120 6.5385 2.0380
2.4774 6.7592 2.0380
1.9269 6.9362 2.0380
1.3640 7.0685 2.0380
0.7922 7.1552 2.0380
0.2153 7.1957 2.0380
-0.3629 7.1898 2.0380
-0.9388 7.1374 2.0380
-1.5087 7.0390 2.0380
-2.0688 6.8952 2.0380
-2.6156 6.7069 2.0380
-3.1455 6.4753 2.0380
-3.6551 6.2020 2.0380
-4.1411 5.8886 2.0380
-4.6004 5.5372 2.0380
-5.0300 5.1501 2.0380
-5.4271 4.7297 2.0380
-5.7893 4.2789 2.0380
-6.1140 3.8004 2.0380
-6.3993 3.2974 2.0380
-6.6434 2.7731 2.0380
-6.8445 2.2309 2.0380
-7.0015 1.6743 2.0380
-7.1133 1.1069 2.0380
-7.1792 0.5324 2.0380
-7.1988 -0.0455 2.0380
-7.1719 -0.6232 2.0380
-7.0987 -1.1968 2.0380
-6.9797 -1.7628 2.0380
-6.8157 -2.3173 2.0380
-6.6077 -2.8569 2.0380
-6.3571 -3.3780 2.0380
-6.0655 -3.8774 2.0380
-5.7347 -4.3517 2.0380
-5.3669 -4.7980 2.0380
-4.9644 -5.2133 2.0380
-4.5300 -5.5949 2.0380
-4.0663 -5.9405 2.0380
-3.5763 -6.2477 2.0380
-3.0633 -6.5146 2.0380
-2.5305 -6.7395 2.0380
-1.9814 -6.9208 2.0380
-1.4195 -7.0575 2.0380
-0.8485 -7.1487 2.0380
-0.2719 -7.1938 2.0380
0.3063 -7.1924 2.0380
0.8827 -7.1446 2.0380
1.4533 -7.0507 2.0380
2.0145 -6.9113 2.0380
2.5627 -6.7273 2.0380
3.0944 -6.4999 2.0380
3.6062 -6.2305 2.0380
3.8464 -5.5621 1.9144
4.2159 -5.1565 1.8856
4.6162 -4.8014 1.8856
4.9867 -4.4154 1.8856
5.3250 -4.0009 1.8856
5.6290 -3.5606 1.8856
5.8966 -3.0973 1.8856
6.1309 -2.6160 1.8870
6.3313 -2.1189 1.8900
6.4890 -1.6059 1.8924
6.6028 -1.0808 1.8941
6.6718 -0.5476 1.8951
6.6952 -0.0103 1.8954
6.6729 0.5270 1.8949
6.6051 1.0602 1.8938
6.4924 1.5854 1.8920
6.3357 2.0987 1.8894
6.1365 2.5961 1.8863
5.9061 3.0791 1.8856
5.6399 3.5432 1.8856
5.3373 3.9844 1.8856
5.0003 4.4000 1.8856
4.6310 4.7872 1.8856
4.2318 5.1434 1.8856
3.9540 5.6801 1.9592
3.6254 6.2194 2.0380
3.1145 6.4903 2.0380
2.5835 6.7194 2.0380
2.0358 6.9050 2.0380
1.4750 7.0462 2.0380
0.9047 7.1418 2.0380
0.3285 7.1914 2.0380
-0.2497 7.1946 2.0380
-0.8264 7.1513 2.0380
-1.3977 7.0619 2.0380
-1.9601 6.9269 2.0380
-2.5097 6.7473 2.0380
-3.0432 6.5241 2.0380
-3.5571 6.2587 2.0380
-4.0479 5.9530 2.0380
-4.5127 5.6089 2.0380
-4.9483 5.2286 2.0380
-5.3520 4.8145 2.0380
-5.7212 4.3694 2.0380
-6.0535 3.8961 2.0380
-6.3467 3.3977 2.0380
-6.5989 2.8773 2.0380
-6.8085 2.3384 2.0380
-6.9743 1.7843 2.0380
-7.0950 1.2188 2.0380
-7.1699 0.6453 2.0380
-7.1986 0.0677 2.0380
-7.1808 -0.5103 2.0380
-7.1167 -1.0850 2.0380
-7.0066 -1.6527 2.0380
-6.8514 -2.2098 2.0380
-6.6519 -2.7526 2.0380
-6.4095 -3.2776 2.0380
-6.1257 -3.7815 2.0380
-5.8024 -4.2610 2.0380
-5.4417 -4.7130 2.0380
-5.0459 -5.1345 2.0380
-4.6175 -5.5230 2.0380
-4.1593 -5.8758 2.0380
-3.6742 -6.1907 2.0380
-3.1655 -6.4656 2.0380
-2.6363 -6.6988 2.0380
-2.0901 -6.8888 2.0380
-1.5304 -7.0343 2.0380
-0.9609 -7.1345 2.0380
-0.3851 -7.1886 2.0380
0.1931 -7.1963 2.0380
0.7701 -7.1576 2.0380
1.3421 -7.0727 2.0380
1.9055 -6.9421 2.0380
2.4566 -6.7668 2.0380
2.9918 -6.5478 2.0380
3.5077 -6.2865 2.0380
3.8372 -5.7397 1.9545
4.1343 -5.2222 1.8856
4.5401 -4.8735 1.8856
4.9166 -4.4933 1.8856
5.2614 -4.0842 1.8856
5.5722 -3.6487 1.8856
5.8471 -3.1897 1.8856
6.0868 -2.7112 1.8863
6.2953 -2.2176 1.8895
6.4615 -1.7074 1.8920
6.5841 -1.1844 1.8938
6.6618 -0.6525 1.8949
6.6942 -0.1157 1.8954
6.6808 0.4219 1.8951
6.6219 0.9563 1.8941
6.5179 1.4834 1.8924
6.3698 1.9993 1.8900
6.1788 2.5000 1.8869
5.9539 2.9857 1.8856
5.6950 3.4540 1.8856
5.3994 3.9000 1.8856
5.0689 4.3208 1.8856
4.7058 4.7137 1.8856
4.3122 5.0762 1.8856
3.9597 5.5015 1.9189
3.7228 6.1616 2.0380
3.2162 6.4405 2.0380
2.6889 6.6779 2.0380
2.1442 6.8722 2.0380
1.5857 7.0221 2.0380
1.0170 7.1267 2.0380
0.4417 7.1853 2.0380
-0.1365 7.1976 2.0380
-0.7138 7.1634 2.0380
-1.2865 7.0830 2.0380
-1.8508 6.9569 2.0380
-2.4032 6.7859 2.0380
-2.9402 6.5711 2.0380
-3.4581 6.3139 2.0380
-3.9538 6.0160 2.0380
-4.4239 5.6792 2.0380
-4.8654 5.3058 2.0380
-5.2756 4.8982 2.0380
-5.6517 4.4589 2.0380
-5.9914 3.9909 2.0380
-6.2924 3.4971 2.0380
-6.5528 2.9808 2.0380
-6.7709 2.4452 2.0380
-6.9453 1.8938 2.0380
-7.0749 1.3303 2.0380
-7.1589 0.7581 2.0380
-7.1966 0.1810 2.0380
-7.1879 -0.3972 2.0380
-7.1329 -0.9729 2.0380
-7.0318 -1.5422 2.0380
-6.8853 -2.1017 2.0380
-6.6944 -2.6475 2.0380
-6.4603 -3.1763 2.0380
-6.1845 -3.6846 2.0380
-5.8688 -4.1691 2.0380
-5.5152 -4.6267 2.0380
-5.1260 -5.0545 2.0380
-4.7038 -5.4496 2.0380
-4.2512 -5.8096 2.0380
-3.7712 -6.1321 2.0380
-3.2668 -6.4151 2.0380
-2.7414 -6.6565 2.0380
-2.1982 -6.8551 2.0380
-1.6409 -7.0094 2.0380
-1.0730 -7.1185 2.0380
-0.4982 -7.1816 2.0380
0.0799 -7.1985 2.0380
0.6574 -7.1688 2.0380
1.2307 -7.0929 2.0380
1.7960 -6.9713 2.0380
2.3498 -6.8046 2.0380
2.8884 -6.5941 2.0380
3.4083 -6.3409 2.0380
3.8274 -5.9248 1.9968
4.0516 -5.2866 1.8856
4.4628 -4.9443 1.8856
-6.1161 -2.1873 2.0380
-5.9208 -2.6713 2.0380
-5.6872 -3.1379 2.0380
-5.4170 -3.5842 2.0380
-5.1119 -4.0074 2.0380
-4.7737 -4.4048 2.0380
-4.4048 -4.7738 2.0380
-4.0074 -5.1119 2.0380
-3.5841 -5.4171 2.0380
-3.1378 -5.6873 2.0380
-2.6711 -5.9208 2.0380
-2.1873 -6.1161 2.0380
-1.6893 -6.2719 2.0380
-1.1805 -6.3873 2.0380
-0.6640 -6.4614 2.0380
-0.1432 -6.4939 2.0380
0.3785 -6.4844 2.0380
0.8978 -6.4331 2.0380
1.4112 -6.3403 2.0380
1.9156 -6.2066 2.0380
2.4076 -6.0328 2.0380
2.8840 -5.8201 2.0380
3.3419 -5.5698 2.0380
3.7781 -5.2836 2.0380
3.8767 -4.5920 1.8856
4.2328 -4.2662 1.8856
4.5616 -3.9126 1.8856
4.8609 -3.5339 1.8856
5.1289 -3.1323 1.8856
5.3637 -2.7105 1.8856
5.5640 -2.2713 1.8856
5.7283 -1.8174 1.8856
5.8557 -1.3517 1.8856
5.9453 -0.8773 1.8856
5.9933 -0.3971 1.8845
6.0062 0.0853 1.8846
5.9783 0.5669 1.8841
5.9180 1.0457 1.8856
5.8150 1.5174 1.8856
5.6744 1.9792 1.8856
5.4973 2.4283 1.8856
5.2846 2.8617 1.8856
5.0379 3.2767 1.8856
4.7586 3.6704 1.8856
4.4487 4.0406 1.8856
4.1163 4.3913 1.8885
3.9418 4.9475 1.9847
3.6266 5.3887 2.0380
3.1824 5.6624 2.0380
2.7176 5.8996 2.0380
2.2354 6.0987 2.0380
1.7386 6.2584 2.0380
1.2307 6.3778 2.0380
0.7148 6.4560 2.0380
0.1943 6.4925 2.0380
-0.3275 6.4872 2.0380
-0.8471 6.4400 2.0380
-1.3613 6.3512 2.0380
-1.8667 6.2214 2.0380
-2.3600 6.0515 2.0380
-2.8381 5.8426 2.0380
-3.2979 5.5959 2.0380
-3.7365 5.3132 2.0380
-4.1509 4.9961 2.0380
-4.5385 4.6468 2.0380
-4.8968 4.2676 2.0380
-5.2236 3.8607 2.0380
-5.5166 3.4290 2.0380
-5.7740 2.9751 2.0380
-5.9942 2.5021 2.0380
-6.1757 2.0129 2.0380
-6.3173 1.5107 2.0380
-6.4182 0.9988 2.0380
-6.4777 0.4804 2.0380
-6.4953 -0.0411 2.0380
-6.4711 -0.5623 2.0380
-6.4050 -1.0799 2.0380
-6.2977 -1.5905 2.0380
-6.1497 -2.0909 2.0380
-5.9621 -2.5777 2.0380
-5.7359 -3.0480 2.0380
-5.4728 -3.4985 2.0380
-5.1743 -3.9265 2.0380
-4.8424 -4.3292 2.0380
-4.4793 -4.7039 2.0380
-4.0873 -5.0482 2.0380
-3.6689 -5.3600 2.0380
-3.2269 -5.6372 2.0380
-2.7640 -5.8780 2.0380
-2.2833 -6.0809 2.0380
-1.7878 -6.2446 2.0380
-1.2808 -6.3679 2.0380
-0.7656 -6.4502 2.0380
-0.2454 -6.4908 2.0380
0.2764 -6.4895 2.0380
0.7964 -6.4464 2.0380
1.3113 -6.3617 2.0380
1.8177 -6.2359 2.0380
2.3123 -6.0699 2.0380
2.7921 -5.8647 2.0380
3.2538 -5.6217 2.0380
3.6945 -5.3424 2.0380
3.8557 -4.7159 1.9112
4.1651 -4.3322 1.8856
4.4994 -3.9840 1.8856
4.8047 -3.6099 1.8856
5.0789 -3.2127 1.8856
5.3204 -2.7946 1.8856
5.5276 -2.3586 1.8856
5.6990 -1.9073 1.8856
5.8337 -1.4437 1.8856
5.9308 -0.9708 1.8856
5.9860 -0.4913 1.8844
6.0069 -0.0093 1.8847
5.9870 0.4728 1.8843
5.9338 0.9525 1.8856
5.8382 1.4257 1.8856
5.7049 1.8897 1.8856
5.5348 2.3415 1.8856
5.3290 2.7782 1.8856
5.0888 3.1970 1.8856
4.8158 3.5951 1.8856
4.5117 3.9701 1.8856
4.1785 4.3194 1.8856
3.9468 4.7970 1.9490
3.7110 5.3310 2.0380
3.2711 5.6117 2.0380
2.8102 5.8561 2.0380
2.3310 6.0628 2.0380
1.8369 6.2303 2.0380
1.3309 6.3576 2.0380
0.8163 6.4440 2.0380
0.2964 6.4887 2.0380
-0.2253 6.4915 2.0380
-0.7457 6.4525 2.0380
-1.2612 6.3718 2.0380
-1.7685 6.2500 2.0380
-2.2645 6.0879 2.0380
-2.7458 5.8865 2.0380
-3.2095 5.6471 2.0380
-3.6524 5.3713 2.0380
-4.0717 5.0608 2.0380
-4.4648 4.7177 2.0380
-4.8291 4.3441 2.0380
-5.1622 3.9425 2.0380
-5.4619 3.5154 2.0380
-5.7265 3.0657 2.0380
-5.9541 2.5961 2.0380
-6.1432 2.1098 2.0380
-6.2928 1.6099 2.0380
-6.4017 1.0997 2.0380
-6.4693 0.5823 2.0380
-6.4952 0.0611 2.0380
-6.4791 -0.4604 2.0380
-6.4212 -0.9790 2.0380
-6.3220 -1.4912 2.0380
-6.1819 -1.9938 2.0380
-6.0019 -2.4836 2.0380
-5.7832 -2.9573 2.0380
-5.5271 -3.4120 2.0380
-5.2354 -3.8446 2.0380
-4.9100 -4.2524 2.0380
-4.5528 -4.6328 2.0380
-4.1663 -4.9833 2.0380
-3.7528 -5.3016 2.0380
-3.3152 -5.5857 2.0380
-2.8561 -5.8338 2.0380
-2.3787 -6.0442 2.0380
-1.8859 -6.2157 2.0380
-1.3809 -6.3470 2.0380
-0.8670 -6.4373 2.0380
-0.3475 -6.4861 2.0380
0.1742 -6.4931 2.0380
0.6949 -6.4582 2.0380
1.2110 -6.3816 2.0380
1.7193 -6.2638 2.0380
2.2165 -6.1056 2.0380
2.6994 -5.9080 2.0380
3.1649 -5.6722 2.0380
3.6100 -5.3999 2.0380
3.8480 -4.8606 1.9451
4.0964 -4.3973 1.8856
4.4362 -4.0543 1.8856
4.7473 -3.6851 1.8856
5.0277 -3.2922 1.8856
5.2758 -2.8780 1.8856
5.4898 -2.4452 1.8856
5.6683 -1.9967 1.8856
5.8103 -1.5353 1.8856
5.9148 -1.0640 1.8856
5.9771 -0.5854 1.8843
6.0060 -0.1038 1.8847
5.9941 0.3786 1.8844
5.9480 0.8590 1.8856
5.8599 1.3336 1.8856
5.7339 1.7997 1.8856
5.5710 2.2541 1.8856
5.3721 2.6940 1.8856
5.1385 3.1165 1.8856
4.8718 3.5189 1.8856
4.5736 3.8986 1.8856
4.2459 4.2531 1.8856
3.9516 4.6517 1.9150
3.7944 5.2719 2.0380
3.3590 5.5595 2.0380
2.9020 5.8112 2.0380
2.4262 6.0253 2.0380
1.9347 6.2006 2.0380
1.4308 6.3359 2.0380
0.9176 6.4303 2.0380
0.3985 6.4832 2.0380
-0.1232 6.4943 2.0380
-0.6440 6.4634 2.0380
-1.1607 6.3909 2.0380
-1.6700 6.2771 2.0380
-2.1684 6.1228 2.0380
-2.6529 5.9290 2.0380
-3.1202 5.6969 2.0380
-3.5674 5.4281 2.0380
-3.9916 5.1243 2.0380
-4.3900 4.7873 2.0380
-4.7601 4.4195 2.0380
-5.0995 4.0232 2.0380
-5.4059 3.6009 2.0380
-5.6775 3.1554 2.0380
-5.9125 2.6895 2.0380
-6.1093 2.2062 2.0380
-6.2667 1.7088 2.0380
-6.3836 1.2003 2.0380
-6.4593 0.6840 2.0380
-6.4934 0.1633 2.0380
-6.4856 -0.3584 2.0380
-6.4359 -0.8778 2.0380
-6.3446 -1.3916 2.0380
-6.2125 -1.8963 2.0380
-6.0402 -2.3888 2.0380
-5.8290 -2.8659 2.0380
-5.5801 -3.3246 2.0380
-5.2953 -3.7617 2.0380
-4.9763 -4.1746 2.0380
-4.6251 -4.5606 2.0380
-4.2442 -4.9171 2.0380
-3.8358 -5.2419 2.0380
-3.4027 -5.5329 2.0380
-2.9476 -5.7881 2.0380
-2.4735 -6.0061 2.0380
-1.9834 -6.1852 2.0380
-1.4806 -6.3245 2.0380
-0.9682 -6.4229 2.0380
-0.4495 -6.4799 2.0380
0.0721 -6.4950 2.0380
0.5931 -6.4683 2.0380
1.1104 -6.3998 2.0380
1.6205 -6.2901 2.0380
2.1202 -6.1397 2.0380
2.6061 -5.9497 2.0380
3.0753 -5.7213 2.0380
3.5246 -5.4560 2.0380
3.8399 -5.0104 1.9806
4.0267 -4.4612 1.8856
-5.5628 -1.9895 2.0380
-5.3852 -2.4296 2.0380
-5.1728 -2.8540 2.0380
-4.9270 -3.2600 2.0380
-4.6494 -3.6449 2.0380
-4.3419 -4.0063 2.0380
-4.0063 -4.3419 2.0380
-3.6449 -4.6494 2.0380
-3.2599 -4.9270 2.0380
-2.8539 -5.1728 2.0380
-2.4295 -5.3852 2.0380
-0.7221 -2.0192 0.7398
-1.5365 -5.7045 2.0380
-1.0737 -5.8095 2.0380
-0.6039 -5.8769 2.0380
-0.1302 -5.9064 2.0380
0.3443 -5.8978 2.0380
0.8165 -5.8511 2.0380
1.2836 -5.7667 2.0380
1.7423 -5.6451 2.0380
2.1898 -5.4870 2.0380
2.6231 -5.2936 2.0380
3.0396 -5.0660 2.0380
3.4364 -4.8056 2.0380
3.8110 -4.5143 2.0380
3.8710 -3.9014 1.8959
4.1489 -3.5587 1.8856
4.4212 -3.2142 1.8856
4.6649 -2.8490 1.8856
4.8785 -2.4653 1.8856
5.0607 -2.0658 1.8856
5.2101 -1.6530 1.8856
5.3260 -1.2294 1.8856
5.4075 -0.7980 1.8856
5.4541 -0.3613 1.8856
5.4655 0.0776 1.8856
5.4416 0.5160 1.8856
5.3827 0.9511 1.8856
5.2890 1.3801 1.8856
5.1611 1.8002 1.8856
5.0000 2.2086 1.8856
4.8066 2.6028 1.8856
4.5821 2.9802 1.8856
4.3281 3.3384 1.8856
4.0462 3.6750 1.8856
3.9341 4.1969 1.9844
3.6813 4.6207 2.0380
3.2986 4.9012 2.0380
2.8945 5.1502 2.0380
2.4718 5.3659 2.0380
2.0331 5.5470 2.0380
1.5813 5.6923 2.0380
1.1193 5.8009 2.0380
0.6501 5.8720 2.0380
0.1767 5.9052 2.0380
-0.2978 5.9004 2.0380
-0.7705 5.8574 2.0380
-1.2381 5.7767 2.0380
-1.6978 5.6586 2.0380
-2.1465 5.5041 2.0380
-2.5814 5.3141 2.0380
-2.9996 5.0897 2.0380
-3.3984 4.8325 2.0380
-3.7754 4.5442 2.0380
-4.1279 4.2265 2.0380
-4.4538 3.8815 2.0380
-4.7510 3.5115 2.0380
-5.0175 3.1188 2.0380
-5.2517 2.7060 2.0380
-5.4519 2.2758 2.0380
-5.6170 1.8308 2.0380
-5.7458 1.3741 2.0380
-5.8376 0.9084 2.0380
-5.8917 0.4369 2.0380
-5.9077 -0.0374 2.0380
-5.8857 -0.5114 2.0380
-5.8256 -0.9822 2.0380
-5.7280 -1.4466 2.0380
-5.5934 -1.9017 2.0380
-5.4227 -2.3445 2.0380
-5.2170 -2.7722 2.0380
-4.9777 -3.1820 2.0380
-4.7062 -3.5713 2.0380
-4.4044 -3.9375 2.0380
-4.0741 -4.2783 2.0380
-3.7176 -4.5916 2.0380
-3.3370 -4.8752 2.0380
-2.9350 -5.1272 2.0380
-2.5140 -5.3463 2.0380
-0.7538 -2.0077 0.7398
-1.6261 -5.6797 2.0380
-1.1650 -5.7919 2.0380
-0.6963 -5.8667 2.0380
-0.2232 -5.9036 2.0380
0.2514 -5.9025 2.0380
0.7244 -5.8633 2.0380
1.1926 -5.7862 2.0380
1.6532 -5.6718 2.0380
0.7635 -2.0041 0.7398
2.5395 -5.3342 2.0380
2.9595 -5.1131 2.0380
3.3603 -4.8591 2.0380
3.7395 -4.5737 2.0380
3.8610 -4.0159 1.9217
4.0924 -3.6236 1.8856
4.3700 -3.2834 1.8856
4.6195 -2.9220 1.8856
4.8391 -2.5418 1.8856
5.0275 -2.1452 1.8856
5.1835 -1.7347 1.8856
5.3060 -1.3131 1.8856
5.3943 -0.8830 1.8856
5.4477 -0.4471 1.8856
5.4661 -0.0084 1.8856
5.4491 0.4303 1.8856
5.3970 0.8663 1.8856
5.3100 1.2967 1.8856
5.1888 1.7188 1.8856
5.0341 2.1297 1.8856
4.8469 2.5269 1.8856
4.6285 2.9078 1.8856
4.3801 3.2699 1.8856
4.1088 3.6155 1.8880
3.9384 4.0712 1.9540
3.7536 4.5622 2.0380
3.3753 4.8487 2.0380
2.9752 5.1040 2.0380
2.5559 5.3264 2.0380
2.1202 5.5143 2.0380
1.6707 5.6667 2.0380
1.2105 5.7825 2.0380
0.7425 5.8610 2.0380
0.2696 5.9017 2.0380
-0.2049 5.9043 2.0380
-0.6782 5.8688 2.0380
-1.1471 5.7954 2.0380
-1.6085 5.6847 2.0380
-2.0596 5.5372 2.0380
-2.4974 5.3540 2.0380
-2.9191 5.1363 2.0380
-3.3220 4.8854 2.0380
-3.7034 4.6030 2.0380
-4.0609 4.2909 2.0380
-4.3922 3.9511 2.0380
-4.6952 3.5858 2.0380
-4.9678 3.1974 2.0380
-5.2084 2.7883 2.0380
-5.4155 2.3613 2.0380
-5.5875 1.9190 2.0380
-5.7235 1.4643 2.0380
-5.8226 1.0002 2.0380
-5.8841 0.5295 2.0380
-5.9076 0.0556 2.0380
-5.8930 -0.4186 2.0380
-5.8404 -0.8904 2.0380
-5.7501 -1.3563 2.0380
-5.6226 -1.8135 2.0380
-5.4589 -2.2589 2.0380
-5.2600 -2.6898 2.0380
-5.0271 -3.1033 2.0380
-4.7618 -3.4968 2.0380
-4.4658 -3.8677 2.0380
-4.1409 -4.2137 2.0380
-3.7894 -4.5325 2.0380
-3.4133 -4.8220 2.0380
-3.0153 -5.0804 2.0380
-2.5978 -5.3061 2.0380
-0.7854 -1.9956 0.7398
-1.7153 -5.6534 2.0380
-1.2560 -5.7728 2.0380
-0.7885 -5.8550 2.0380
-0.3160 -5.8994 2.0380
0.1585 -5.9057 2.0380
0.6320 -5.8739 2.0380
1.1014 -5.8043 2.0380
1.5638 -5.6971 2.0380
0.7318 -2.0158 0.7398
2.4552 -5.3735 2.0380
2.8786 -5.1591 2.0380
3.2834 -4.9114 2.0380
3.6670 -4.6320 2.0380
3.8544 -4.1374 1.9506
4.0349 -3.6875 1.8856
4.3178 -3.3517 1.8856
4.5729 -2.9944 1.8856
4.7985 -2.6177 1.8856
4.9931 -2.2240 1.8856
5.1555 -1.8161 1.8856
5.2847 -1.3964 1.8856
5.3797 -0.9677 1.8856
5.4400 -0.5328 1.8856
5.4652 -0.0944 1.8856
5.4552 0.3445 1.8856
5.4099 0.7813 1.8856
5.3298 1.2130 1.8856
5.2152 1.6369 1.8856
5.0670 2.0502 1.8856
4.8861 2.4503 1.8856
4.6737 2.8346 1.8856
4.4311 3.2006 1.8856
4.1599 3.5459 1.8856
3.9425 3.9492 1.9250
3.8249 4.5025 2.0380
3.4512 4.7950 2.0380
3.0552 5.0566 2.0380
2.6394 5.2855 2.0380
2.2067 5.4803 2.0380
1.7597 5.6397 2.0380
1.3013 5.7627 2.0380
0.8346 5.8486 2.0380
0.3625 5.8967 2.0380
-0.1120 5.9068 2.0380
-0.5858 5.8788 2.0380
-1.0557 5.8128 2.0380
-1.5189 5.7093 2.0380
-1.9722 5.5689 2.0380
-2.4129 5.3927 2.0380
-2.8379 5.1816 2.0380
-3.2447 4.9371 2.0380
-3.6305 4.6607 2.0380
-3.9929 4.3543 2.0380
-4.3295 4.0198 2.0380
-4.6382 3.6593 2.0380
-4.9169 3.2752 2.0380
-5.1639 2.8699 2.0380
-5.3776 2.4462 2.0380
-5.5566 2.0067 2.0380
-5.6998 1.5542 2.0380
-5.8061 1.0917 2.0380
-5.8750 0.6221 2.0380
-5.9060 0.1486 2.0380
-5.8989 -0.3260 2.0380
-5.8537 -0.7984 2.0380
-5.7707 -1.2657 2.0380
-5.6505 -1.7247 2.0380
-5.4938 -2.1727 2.0380
-5.3017 -2.6067 2.0380
-5.0754 -3.0238 2.0380
-4.8163 -3.4214 2.0380
-4.5261 -3.7970 2.0380
-4.2067 -4.1480 2.0380
-3.8602 -4.4723 2.0380
-3.4888 -4.7677 2.0380
-3.0949 -5.0324 2.0380
-2.6809 -5.2645 2.0380
-2.2497 -5.4627 2.0380
-1.8040 -5.6257 2.0380
-1.3466 -5.7523 2.0380
-0.8806 -5.8419 2.0380
-0.4089 -5.8937 2.0380
0.0655 -5.9075 2.0380
0.5395 -5.8832 2.0380
1.0100 -5.8209 2.0380
1.4739 -5.7210 2.0380
0.7000 -2.0270 0.7398
2.3704 -5.4115 2.0380
2.7971 -5.2038 2.0380
3.2057 -4.9625 2.0380
3.5937 -4.6891 2.0380
3.8475 -4.2627 1.9808
-5.0930 -1.8215 2.0380
-4.9304 -2.2244 2.0380
-4.7359 -2.6130 2.0380
-4.5109 -2.9847 2.0380
-4.2568 -3.3371 2.0380
-3.9752 -3.6680 2.0380
-3.6680 -3.9753 2.0380
-3.3371 -4.2568 2.0380
-2.9846 -4.5110 2.0380
-2.6129 -4.7360 2.0380
-2.2243 -4.9304 2.0380
-0.6614 -1.8495 0.7401
-0.5108 -1.8964 0.7400
-0.3569 -1.9311 0.7399
-0.2007 -1.9534 0.7399
-0.0433 -1.9632 0.7399
0.1144 -1.9604 0.7399
0.2714 -1.9449 0.7399
0.4267 -1.9170 0.7400
0.5792 -1.8768 0.7400
0.7281 -1.8245 0.7401
2.4016 -4.8466 2.0380
2.7829 -4.6381 2.0380
3.1462 -4.3998 2.0380
3.4892 -4.1331 2.0380
3.8097 -3.8397 2.0380
3.8685 -3.3182 1.9203
4.0478 -2.9428 1.8856
4.2710 -2.6084 1.8856
4.4665 -2.2571 1.8856
4.6333 -1.8914 1.8856
4.7702 -1.5134 1.8856
4.8762 -1.1256 1.8856
4.9509 -0.7306 1.8856
4.9935 -0.3308 1.8856
5.0040 0.0710 1.8856
4.9821 0.4725 1.8856
4.9281 0.8708 1.8856
4.8423 1.2636 1.8856
4.7253 1.6482 1.8856
4.5777 2.0221 1.8856
4.4007 2.3830 1.8856
4.1952 2.7286 1.8856
3.9627 3.0565 1.8856
3.9251 3.5650 1.9978
3.6991 3.9463 2.0380
3.3705 4.2305 2.0380
3.0200 4.4873 2.0380
2.6501 4.7153 2.0380
2.2631 4.9128 2.0380
0.6822 1.8613 0.7469
0.5307 1.9103 0.7470
0.3757 1.9469 0.7471
0.2182 1.9709 0.7471
0.1618 5.4065 2.0380
-0.2727 5.4021 2.0380
-0.2586 1.9659 0.7471
-0.4155 1.9387 0.7470
-0.5697 1.8989 0.7470
-0.7202 1.8468 0.7469
-2.3634 4.8653 2.0380
-2.7463 4.6599 2.0380
-3.1115 4.4245 2.0380
-3.4565 4.1604 2.0380
-3.7793 3.8695 2.0380
-4.0777 3.5537 2.0380
-4.3498 3.2150 2.0380
-4.5938 2.8554 2.0380
-4.8082 2.4775 2.0380
-4.9915 2.0836 2.0380
-5.1427 1.6762 2.0380
-5.2606 1.2580 2.0380
-5.3446 0.8317 2.0380
-5.3941 0.4000 2.0380
-5.4088 -0.0342 2.0380
-5.3886 -0.4682 2.0380
-5.3337 -0.8993 2.0380
-5.2443 -1.3245 2.0380
-5.1211 -1.7411 2.0380
-4.9648 -2.1465 2.0380
-4.7765 -2.5381 2.0380
-4.5573 -2.9133 2.0380
-4.3088 -3.2697 2.0380
-4.0324 -3.6050 2.0380
-3.7301 -3.9170 2.0380
-3.4036 -4.2038 2.0380
-3.0552 -4.4634 2.0380
-2.6871 -4.6943 2.0380
-2.3017 -4.8948 2.0380
-0.6905 -1.8389 0.7401
-0.5406 -1.8882 0.7400
-0.3872 -1.9253 0.7399
-0.2314 -1.9501 0.7399
-0.0742 -1.9623 0.7399
0.0836 -1.9619 0.7399
0.2408 -1.9489 0.7399
0.3965 -1.9234 0.7399
0.5496 -1.8856 0.7400
0.6993 -1.8356 0.7401
2.3250 -4.8837 2.0380
2.7095 -4.6814 2.0380
3.0765 -4.4488 2.0380
3.4237 -4.1875 2.0380
3.7488 -3.8992 2.0380
3.8630 -3.4204 1.9440
4.0010 -3.0061 1.8856
4.2294 -2.6753 1.8856
4.4305 -2.3272 1.8856
4.6030 -1.9640 1.8856
4.7458 -1.5883 1.8856
4.8579 -1.2022 1.8856
4.9387 -0.8084 1.8856
4.9877 -0.4094 1.8856
5.0045 -0.0077 1.8856
4.9889 0.3940 1.8856
4.9412 0.7932 1.8856
4.8616 1.1872 1.8856
4.7506 1.5736 1.8856
4.6090 1.9498 1.8856
4.4376 2.3135 1.8856
4.2376 2.6622 1.8856
4.0103 2.9938 1.8856
3.9288 3.4571 1.9718
3.7608 3.8876 2.0380
3.4366 4.1769 2.0380
3.0903 4.4393 2.0380
2.7240 4.6730 2.0380
2.3401 4.8766 2.0380
0.7114 1.8503 0.7469
0.5607 1.9016 0.7470
0.4063 1.9407 0.7471
0.2492 1.9672 0.7471
0.2468 5.4033 2.0380
-0.1876 5.4057 2.0380
-0.2276 1.9698 0.7471
-0.3850 1.9450 0.7471
-0.5398 1.9077 0.7470
-0.6911 1.8580 0.7469
-2.2865 4.9019 2.0380
-2.6726 4.7025 2.0380
-3.0414 4.4729 2.0380
-3.3906 4.2143 2.0380
-3.7180 3.9286 2.0380
-4.0213 3.6174 2.0380
-4.2987 3.2830 2.0380
-4.5483 2.9274 2.0380
-4.7686 2.5529 2.0380
-4.9581 2.1619 2.0380
-5.1157 1.7569 2.0380
-5.2402 1.3407 2.0380
-5.3309 0.9157 2.0380
-5.3872 0.4849 2.0380
-5.4087 0.0509 2.0380
-5.3954 -0.3834 2.0380
-5.3472 -0.8152 2.0380
-5.2645 -1.2418 2.0380
-5.1478 -1.6603 2.0380
-4.9980 -2.0682 2.0380
-4.8158 -2.4627 2.0380
-4.6026 -2.8413 2.0380
-4.3597 -3.2015 2.0380
-4.0887 -3.5411 2.0380
-3.7913 -3.8579 2.0380
-3.4694 -4.1497 2.0380
-3.1251 -4.4148 2.0380
-2.7607 -4.6514 2.0380
-2.3784 -4.8580 2.0380
-0.7194 -1.8279 0.7401
-0.5702 -1.8795 0.7400
-0.4175 -1.9190 0.7399
-0.2621 -1.9462 0.7399
-0.1050 -1.9609 0.7399
0.0527 -1.9630 0.7399
0.2101 -1.9525 0.7399
0.3661 -1.9294 0.7399
0.5199 -1.8940 0.7400
0.6703 -1.8464 0.7401
2.2479 -4.9197 2.0380
2.6355 -4.7234 2.0380
3.0062 -4.4967 2.0380
3.3574 -4.2408 2.0380
3.6869 -3.9577 2.0380
3.8573 -3.5253 1.9689
3.9532 -3.0688 1.8856
4.1868 -2.7415 1.8856
4.3933 -2.3966 1.8856
4.5715 -2.0362 1.8856
4.7202 -1.6627 1.8856
4.8384 -1.2785 1.8856
4.9254 -0.8860 1.8856
4.9806 -0.4878 1.8856
5.0037 -0.0865 1.8856
4.9945 0.3154 1.8856
4.9531 0.7153 1.8856
4.8797 1.1106 1.8856
4.7748 1.4987 1.8856
4.6391 1.8771 1.8856
4.4735 2.2434 1.8856
4.2790 2.5952 1.8856
4.0569 2.9303 1.8856
3.9323 3.3519 1.9468
3.8215 3.8279 2.0380
3.5019 4.1223 2.0380
3.1597 4.3901 2.0380
2.7972 4.6295 2.0380
2.4165 4.8391 2.0380
0.7404 1.8388 0.7469
0.5905 1.8925 0.7470
0.4367 1.9340 0.7470
0.2801 1.9630 0.7471
0.3319 5.3988 2.0380
-0.1026 5.4080 2.0380
-0.1966 1.9731 0.7471
-0.3543 1.9509 0.7471
-0.5097 1.9160 0.7470
-0.6618 1.8687 0.7469
-2.2091 4.9373 2.0380
-2.5983 4.7440 2.0380
-2.9707 4.5202 2.0380
-3.3239 4.2671 2.0380
-3.6557 3.9866 2.0380
-3.9639 3.6803 2.0380
-4.2465 3.3502 2.0380
-4.5017 2.9986 2.0380
-4.7279 2.6276 2.0380
-4.9235 2.2396 2.0380
-5.0874 1.8372 2.0380
-5.2184 1.4230 2.0380
-5.3158 0.9995 2.0380
-5.3789 0.5696 2.0380
-5.4072 0.1360 2.0380
-5.4007 -0.2984 2.0380
-5.3593 -0.7310 2.0380
-5.2834 -1.1588 2.0380
-5.1733 -1.5791 2.0380
-5.0299 -1.9893 2.0380
-4.8540 -2.3866 2.0380
-4.6468 -2.7685 2.0380
-4.4096 -3.1325 2.0380
-4.1439 -3.4763 2.0380
-3.8515 -3.7976 2.0380
-3.5342 -4.0946 2.0380
-3.1942 -4.3651 2.0380
-2.8335 -4.6074 2.0380
-2.4545 -4.8200 2.0380
-0.7480 -1.8164 0.7401
-0.5998 -1.8703 0.7400
-0.4477 -1.9122 0.7400
-0.2927 -1.9418 0.7399
-0.1359 -1.9590 0.7399
0.0218 -1.9636 0.7399
0.1793 -1.9555 0.7399
0.3357 -1.9349 0.7399
0.4900 -1.9019 0.7400
0.6411 -1.8566 0.7401
2.1702 -4.9545 2.0380
2.5609 -4.7643 2.0380
2.9350 -4.5434 2.0380
3.2902 -4.2932 2.0380
3.6242 -4.0152 2.0380
-4.6886 -1.6768 2.0380
-4.5389 -2.0478 2.0380
-4.3599 -2.4055 2.0380
-4.1527 -2.7477 2.0380
-3.9188 -3.0721 2.0380
-3.6595 -3.3768 2.0380
-3.3767 -3.6596 2.0380
-3.0721 -3.9188 2.0380
-2.7476 -4.1527 2.0380
-2.4054 -4.3599 2.0380
-0.7440 -1.6491 0.7404
-0.6091 -1.7033 0.7403
-0.4704 -1.7465 0.7403
-0.3287 -1.7785 0.7402
-0.1849 -1.7990 0.7402
-0.0399 -1.8080 0.7401
0.1054 -1.8054 0.7402
0.2500 -1.7912 0.7402
0.3929 -1.7654 0.7402
0.5334 -1.7284 0.7403
0.6705 -1.6802 0.7404
2.2109 -4.4617 2.0380
2.5619 -4.2698 2.0380
2.8963 -4.0504 2.0380
3.2121 -3.8049 2.0380
3.5071 -3.5348 2.0380
3.7795 -3.2419 2.0380
3.8670 -2.8113 1.9567
3.9318 -2.4013 1.8856
4.1119 -2.0779 1.8856
4.2654 -1.7412 1.8856
4.3914 -1.3932 1.8856
4.4890 -1.0362 1.8856
4.5577 -0.6726 1.8856
4.5970 -0.3046 1.8856
4.6066 0.0654 1.8856
4.5865 0.4349 1.8856
4.5368 0.8017 1.8856
4.4578 1.1632 1.8856
4.3501 1.5173 1.8856
4.2142 1.8615 1.8856
4.0512 2.1938 1.8856
3.9294 2.5557 1.9184
3.9147 3.0195 2.0234
3.6860 3.3479 2.0380
3.4054 3.6329 2.0380
3.1028 3.8945 2.0380
2.7802 4.1310 2.0380
2.4397 4.3409 2.0380
0.7632 1.6567 0.7465
0.6278 1.7129 0.7466
0.4884 1.7579 0.7467
0.3457 1.7916 0.7468
0.2008 1.8137 0.7468
0.0546 1.8240 0.7468
-0.0920 1.8224 0.7468
-0.2380 1.8091 0.7468
-0.3824 1.7841 0.7468
-0.5243 1.7475 0.7467
-0.6628 1.6995 0.7466
-2.1757 4.4789 2.0380
-2.5282 4.2899 2.0380
-2.8644 4.0731 2.0380
-3.1821 3.8301 2.0380
-3.4792 3.5623 2.0380
-3.7539 3.2715 2.0380
-4.0044 2.9597 2.0380
-4.2290 2.6287 2.0380
-4.4264 2.2808 2.0380
-4.5952 1.9181 2.0380
-4.7343 1.5431 2.0380
-4.8429 1.1581 2.0380
-4.9202 0.7657 2.0380
-4.9658 0.3683 2.0380
-4.9793 -0.0315 2.0380
-4.9607 -0.4311 2.0380
-4.9101 -0.8278 2.0380
-4.8278 -1.2193 2.0380
-4.7144 -1.6029 2.0380
-4.5705 -1.9761 2.0380
-4.3972 -2.3366 2.0380
-4.1954 -2.6820 2.0380
-3.9666 -3.0101 2.0380
-3.7122 -3.3187 2.0380
-3.4339 -3.6060 2.0380
-3.1334 -3.8700 2.0380
-2.8126 -4.1090 2.0380
-2.4737 -4.3215 2.0380
-0.7699 -1.6372 0.7405
-0.6359 -1.6935 0.7404
-0.4978 -1.7389 0.7403
-0.3566 -1.7731 0.7402
-0.2132 -1.7959 0.7402
-0.0683 -1.8072 0.7402
0.0770 -1.8068 0.7402
0.2217 -1.7949 0.7402
0.3651 -1.7714 0.7402
0.5062 -1.7365 0.7403
0.6440 -1.6905 0.7404
0.7777 -1.6336 0.7405
2.4944 -4.3096 2.0380
2.8322 -4.0955 2.0380
3.1518 -3.8550 2.0380
3.4511 -3.5895 2.0380
3.7281 -3.3010 2.0380
3.8622 -2.9018 1.9772
3.8953 -2.4639 1.8864
4.0786 -2.1424 1.8856
4.2374 -1.8081 1.8856
4.3689 -1.4621 1.8856
4.4722 -1.1067 1.8856
4.5466 -0.7442 1.8856
4.5916 -0.3769 1.8856
4.6071 -0.0071 1.8856
4.5928 0.3627 1.8856
4.5488 0.7302 1.8856
4.4756 1.0929 1.8856
4.3734 1.4487 1.8856
4.2430 1.7950 1.8856
4.0926 2.1336 1.8889
3.9320 2.4703 1.9005
3.9179 2.9248 2.0010
3.7382 3.2894 2.0380
3.4621 3.5789 2.0380
3.1637 3.8452 2.0380
2.8449 4.0868 2.0380
2.5077 4.3019 2.0380
0.7891 1.6445 0.7465
0.6547 1.7027 0.7466
0.5160 1.7500 0.7467
0.3739 1.7859 0.7468
0.2293 1.8103 0.7468
0.0833 1.8229 0.7468
-0.0633 1.8237 0.7468
-0.2095 1.8127 0.7468
-0.3543 1.7899 0.7468
-0.4968 1.7555 0.7467
-0.6360 1.7098 0.7466
-0.7711 1.6530 0.7465
-2.4604 4.3291 2.0380
-2.7999 4.1177 2.0380
-3.1214 3.8796 2.0380
-3.4227 3.6166 2.0380
-3.7020 3.3302 2.0380
-3.9573 3.0223 2.0380
-4.1871 2.6949 2.0380
-4.3899 2.3501 2.0380
-4.5644 1.9902 2.0380
-4.7094 1.6174 2.0380
-4.8241 1.2342 2.0380
-4.9076 0.8430 2.0380
-4.9594 0.4464 2.0380
-4.9792 0.0469 2.0380
-4.9669 -0.3529 2.0380
-4.9226 -0.7505 2.0380
-4.8464 -1.1432 2.0380
-4.7390 -1.5285 2.0380
-4.6011 -1.9039 2.0380
-4.4334 -2.2671 2.0380
-4.2371 -2.6156 2.0380
-4.0135 -2.9472 2.0380
-3.7640 -3.2600 2.0380
-3.4902 -3.5515 2.0380
-3.1939 -3.8202 2.0380
-2.8769 -4.0642 2.0380
-2.5414 -4.2820 2.0380
-2.1895 -4.4722 2.0380
-0.6625 -1.6833 0.7404
-0.5252 -1.7309 0.7403
-0.3845 -1.7673 0.7402
-0.2414 -1.7923 0.7402
-0.0967 -1.8059 0.7402
0.0485 -1.8078 0.7401
0.1935 -1.7981 0.7402
0.3372 -1.7769 0.7402
0.4788 -1.7442 0.7403
0.6173 -1.7004 0.7404
0.7519 -1.6455 0.7405
2.4262 -4.3484 2.0380
2.7674 -4.1396 2.0380
3.0908 -3.9041 2.0380
3.3942 -3.6434 2.0380
3.6757 -3.3592 2.0380
3.8573 -2.9943 1.9985
3.8818 -2.5416 1.8990
4.0490 -2.2088 1.8877
4.2085 -1.8745 1.8856
4.3454 -1.5307 1.8856
4.4542 -1.1770 1.8856
4.5343 -0.8156 1.8856
4.5851 -0.4491 1.8856
4.6064 -0.0796 1.8856
4.5979 0.2904 1.8856
4.5598 0.6585 1.8856
4.4922 1.0224 1.8856
4.3956 1.3796 1.8856
4.2707 1.7280 1.8856
4.1182 2.0652 1.8856
3.9439 2.3920 1.8878
3.9209 2.8321 1.9796
3.7895 3.2302 2.0380
3.5180 3.5240 2.0380
3.2238 3.7950 2.0380
2.9088 4.0415 2.0380
2.5750 4.2619 2.0380
2.2246 4.4549 2.0380
0.6814 1.6922 0.7466
0.5434 1.7416 0.7467
0.4019 1.7798 0.7468
0.2578 1.8064 0.7468
0.1120 1.8213 0.7468
-0.0346 1.8245 0.7468
-0.1809 1.8157 0.7468
-0.3261 1.7953 0.7468
-0.4691 1.7632 0.7467
-0.6090 1.7196 0.7466
-0.7450 1.6650 0.7465
-2.3920 4.3673 2.0380
-2.7348 4.1612 2.0380
-3.0600 3.9283 2.0380
-3.3654 3.6700 2.0380
-3.6491 3.3880 2.0380
-3.9093 3.0842 2.0380
-4.1442 2.7605 2.0380
-4.3524 2.4189 2.0380
-4.5325 2.0618 2.0380
-4.6834 1.6913 2.0380
-4.8040 1.3099 2.0380
-4.8937 0.9201 2.0380
-4.9518 0.5244 2.0380
-4.9779 0.1252 2.0380
-4.9719 -0.2747 2.0380
-4.9338 -0.6729 2.0380
-4.8638 -1.0668 2.0380
-4.7625 -1.4537 2.0380
-4.6305 -1.8313 2.0380
-4.4685 -2.1970 2.0380
-4.2778 -2.5486 2.0380
-4.0594 -2.8838 2.0380
-3.8148 -3.2003 2.0380
-3.5456 -3.4962 2.0380
-3.2536 -3.7695 2.0380
-2.9405 -4.0185 2.0380
-2.6085 -4.2415 2.0380
-2.2596 -4.4372 2.0380
-0.6889 -1.6727 0.7404
-0.5523 -1.7224 0.7403
-0.4123 -1.7610 0.7402
-0.2696 -1.7883 0.7402
-0.1252 -1.8041 0.7402
0.0201 -1.8083 0.7401
0.1651 -1.8009 0.7402
0.3092 -1.7819 0.7402
0.4512 -1.7515 0.7403
0.5904 -1.7098 0.7403
0.7259 -1.6571 0.7404
2.3575 -4.3860 2.0380
2.7020 -4.1826 2.0380
3.0290 -3.9522 2.0380
3.3364 -3.6964 2.0380
-4.3363 -1.5507 2.0380
-4.1978 -1.8939 2.0380
-4.0322 -2.2247 2.0380
-3.8406 -2.5412 2.0380
-3.6243 -2.8412 2.0380
-3.3845 -3.1230 2.0380
-3.1229 -3.3846 2.0380
-2.8412 -3.6243 2.0380
-2.5411 -3.8407 2.0380
-2.2246 -4.0322 2.0380
-0.6883 -1.5256 0.7407
-0.5635 -1.5757 0.7406
-0.4352 -1.6157 0.7405
-0.3041 -1.6453 0.7404
-0.1710 -1.6644 0.7404
-0.0369 -1.6727 0.7404
0.0975 -1.6703 0.7404
0.2313 -1.6571 0.7404
0.3635 -1.6333 0.7405
0.4935 -1.5990 0.7405
0.6203 -1.5544 0.7406
0.7432 -1.4998 0.7407
2.3694 -3.9489 2.0380
2.6787 -3.7460 2.0380
2.9707 -3.5189 2.0380
3.2436 -3.2691 2.0380
3.4955 -2.9982 2.0380
3.7249 -2.7080 2.0380
3.8630 -2.3593 2.0031
3.8817 -1.9616 1.9246
3.9448 -1.6104 1.8856
4.0613 -1.2885 1.8856
4.1517 -0.9583 1.8856
4.2152 -0.6220 1.8856
4.2515 -0.2817 1.8856
4.2604 0.0605 1.8856
4.2418 0.4023 1.8856
4.1958 0.7414 1.8856
4.1228 1.0758 1.8856
4.0231 1.4033 1.8856
3.9258 1.7343 1.8992
3.9153 2.1202 1.9704
3.8605 2.5109 2.0380
3.6465 2.8126 2.0380
3.4090 3.0963 2.0380
3.1495 3.3599 2.0380
2.8696 3.6018 2.0380
2.5713 3.8205 2.0380
2.2563 4.0146 2.0380
0.7056 1.5317 0.7463
0.5804 1.5836 0.7464
0.4515 1.6253 0.7465
0.3196 1.6564 0.7465
0.1856 1.6768 0.7466
0.0505 1.6863 0.7466
-0.0851 1.6849 0.7466
-0.2200 1.6726 0.7466
-0.3535 1.6494 0.7465
-0.4847 1.6156 0.7464
-0.6128 1.5713 0.7464
-0.7368 1.5169 0.7463
-2.3382 3.9675 2.0380
-2.6491 3.7670 2.0380
-2.9429 3.5422 2.0380
-3.2177 3.2946 2.0380
-3.4718 3.0257 2.0380
-3.7035 2.7372 2.0380
-3.9112 2.4311 2.0380
-4.0937 2.1094 2.0380
-4.2498 1.7740 2.0380
-4.3785 1.4271 2.0380
-4.4789 1.0711 2.0380
-4.5504 0.7081 2.0380
-4.5926 0.3406 2.0380
-4.6051 -0.0291 2.0380
-4.5879 -0.3987 2.0380
-4.5411 -0.7656 2.0380
-4.4650 -1.1277 2.0380
-4.3601 -1.4825 2.0380
-4.2270 -1.8276 2.0380
-4.0667 -2.1610 2.0380
-3.8801 -2.4804 2.0380
-3.6685 -2.7839 2.0380
-3.4332 -3.0693 2.0380
-3.1758 -3.3350 2.0380
-2.8979 -3.5791 2.0380
-2.6012 -3.8002 2.0380
-2.2878 -3.9967 2.0380
-0.7122 -1.5146 0.7407
-0.5883 -1.5667 0.7406
-0.4606 -1.6087 0.7405
-0.3299 -1.6404 0.7405
-0.1972 -1.6615 0.7404
-0.0632 -1.6719 0.7404
0.0712 -1.6716 0.7404
0.2051 -1.6605 0.7404
0.3378 -1.6388 0.7405
0.4683 -1.6065 0.7405
0.5958 -1.5639 0.7406
0.7195 -1.5113 0.7407
2.3069 -3.9857 2.0380
2.6194 -3.7877 2.0380
2.9150 -3.5653 2.0380
3.1917 -3.3198 2.0380
3.4479 -3.0528 2.0380
3.6818 -2.7663 2.0380
3.8589 -2.4410 2.0207
3.8783 -2.0371 1.9386
3.9190 -1.6721 1.8856
4.0406 -1.3522 1.8856
4.1361 -1.0236 1.8856
4.2049 -0.6883 1.8856
4.2466 -0.3486 1.8856
4.2608 -0.0066 1.8856
4.2476 0.3354 1.8856
4.2070 0.6753 1.8856
4.1392 1.0108 1.8856
4.0447 1.3398 1.8856
3.9340 1.6643 1.8903
3.9173 2.0422 1.9550
3.8995 2.4498 2.0380
3.6903 2.7549 2.0380
3.4573 3.0422 2.0380
3.2020 3.3099 2.0380
2.9259 3.5562 2.0380
2.6311 3.7796 2.0380
2.3192 3.9786 2.0380
0.7296 1.5204 0.7463
0.6053 1.5743 0.7464
0.4770 1.6179 0.7465
0.3456 1.6511 0.7465
0.2120 1.6736 0.7466
0.0770 1.6853 0.7466
-0.0585 1.6860 0.7466
-0.1937 1.6759 0.7466
-0.3275 1.6548 0.7465
-0.4593 1.6231 0.7465
-0.5880 1.5808 0.7464
-0.7129 1.5283 0.7463
-2.2755 4.0038 2.0380
-2.5895 3.8082 2.0380
-2.8868 3.5881 2.0380
-3.1655 3.3448 2.0380
-3.4238 3.0799 2.0380
-3.6599 2.7952 2.0380
-3.8725 2.4924 2.0380
-4.0600 2.1735 2.0380
-4.2214 1.8406 2.0380
-4.3555 1.4959 2.0380
-4.4615 1.1414 2.0380
-4.5387 0.7796 2.0380
-4.5867 0.4128 2.0380
-4.6050 0.0434 2.0380
-4.5936 -0.3265 2.0380
-4.5526 -0.6941 2.0380
-4.4822 -1.0572 2.0380
-4.3829 -1.4136 2.0380
-4.2553 -1.7608 2.0380
-4.1002 -2.0967 2.0380
-3.9187 -2.4191 2.0380
-3.7119 -2.7258 2.0380
-3.4811 -3.0149 2.0380
-3.2279 -3.2846 2.0380
-2.9538 -3.5331 2.0380
-2.6607 -3.7588 2.0380
-2.3504 -3.9602 2.0380
-0.7360 -1.5033 0.7407
-0.6129 -1.5573 0.7406
-0.4858 -1.6013 0.7405
-0.3557 -1.6350 0.7405
-0.2233 -1.6582 0.7404
-0.0895 -1.6707 0.7404
0.0449 -1.6725 0.7404
0.1790 -1.6635 0.7404
0.3119 -1.6439 0.7405
0.4429 -1.6137 0.7405
0.5711 -1.5731 0.7406
0.6956 -1.5223 0.7407
2.2439 -4.0215 2.0380
2.5595 -3.8285 2.0380
2.8585 -3.6107 2.0380
3.1391 -3.3696 2.0380
3.3994 -3.1068 2.0380
3.6378 -2.8239 2.0380
3.8527 -2.5228 2.0380
3.8748 -2.1137 1.9533
3.8999 -1.7371 1.8893
4.0188 -1.4157 1.8856
4.1194 -1.0885 1.8856
4.1935 -0.7544 1.8856
4.2405 -0.4153 1.8856
4.2602 -0.0736 1.8856
4.2524 0.2686 1.8856
4.2171 0.6090 1.8856
4.1546 0.9455 1.8856
4.0653 1.2760 1.8856
3.9498 1.5982 1.8856
3.9192 1.9654 1.9403
3.9081 2.3703 2.0227
3.7332 2.6965 2.0380
3.5047 2.9874 2.0380
3.2536 3.2591 2.0380
2.9815 3.5097 2.0380
2.6902 3.7378 2.0380
2.3815 3.9416 2.0380
0.7534 1.5087 0.7463
0.6300 1.5645 0.7464
0.5024 1.6102 0.7464
0.3716 1.6455 0.7465
0.2383 1.6701 0.7466
0.1035 1.6839 0.7466
-0.0320 1.6868 0.7466
-0.1673 1.6787 0.7466
-0.3015 1.6598 0.7465
-0.4337 1.6301 0.7465
-0.5631 1.5899 0.7464
-0.6888 1.5394 0.7463
-2.2122 4.0391 2.0380
-2.5293 3.8485 2.0380
-2.8300 3.6331 2.0380
-3.1125 3.3942 2.0380
-3.3749 3.1334 2.0380
-3.6155 2.8524 2.0380
-3.8328 2.5530 2.0380
-4.0253 2.2371 2.0380
-4.1919 1.9068 2.0380
-4.3314 1.5642 2.0380
-4.4430 1.2115 2.0380
-4.5259 0.8510 2.0380
-4.5796 0.4849 2.0380
-4.6038 0.1158 2.0380
-4.5982 -0.2543 2.0380
-4.5630 -0.6223 2.0380
-4.4983 -0.9866 2.0380
-4.4046 -1.3445 2.0380
-4.2825 -1.6936 2.0380
-4.1327 -2.0320 2.0380
-3.9563 -2.3571 2.0380
-3.7543 -2.6670 2.0380
-3.5281 -2.9598 2.0380
-3.2792 -3.2334 2.0380
-3.0091 -3.4862 2.0380
-2.7195 -3.7165 2.0380
-2.4125 -3.9227 2.0380
-0.7596 -1.4916 0.7407
-0.6373 -1.5475 0.7406
-0.5110 -1.5935 0.7405
-0.3814 -1.6292 0.7405
-0.2494 -1.6545 0.7404
-0.1158 -1.6691 0.7404
0.0186 -1.6730 0.7404
0.1528 -1.6661 0.7404
0.2860 -1.6486 0.7404
0.4175 -1.6204 0.7405
0.5462 -1.5818 0.7406
0.6715 -1.5331 0.7407
2.1803 -4.0564 2.0380
2.4989 -3.8683 2.0380
2.8013 -3.6552 2.0380
3.0857 -3.4186 2.0380
-4.0260 -1.4399 2.0380
-3.8975 -1.7584 2.0380
-3.7437 -2.0656 2.0380
-3.5659 -2.3594 2.0380
-3.3650 -2.6380 2.0380
-3.1424 -2.8996 2.0380
-2.8995 -3.1424 2.0380
-2.6379 -3.3650 2.0380
-2.3593 -3.5659 2.0380
-0.7510 -1.3612 0.7410
-0.6392 -1.4169 0.7409
-0.5234 -1.4634 0.7408
-0.4042 -1.5006 0.7407
-0.2824 -1.5281 0.7407
-0.1588 -1.5458 0.7406
-0.0343 -1.5535 0.7406
0.0905 -1.5512 0.7406
0.2148 -1.5390 0.7406
0.3376 -1.5169 0.7407
0.4583 -1.4850 0.7407
0.5761 -1.4436 0.7408
0.6902 -1.3929 0.7409
2.1999 -3.6665 2.0380
2.4870 -3.4781 2.0380
2.7582 -3.2672 2.0380
3.0115 -3.0353 2.0380
3.2454 -2.7838 2.0380
3.4584 -2.5143 2.0380
3.6491 -2.2286 2.0380
3.8162 -1.9285 2.0380
3.8728 -1.5809 1.9938
3.8858 -1.2328 1.9430
3.8961 -0.8993 1.9058
3.9149 -0.5777 1.8862
3.9474 -0.2615 1.8856
3.9556 0.0562 1.8856
3.9384 0.3734 1.8856
3.9179 0.6922 1.8963
3.9120 1.0208 1.9270
3.9071 1.3628 1.9723
3.8998 1.7226 2.0320
3.7599 2.0360 2.0380
3.5843 2.3313 2.0380
3.3857 2.6114 2.0380
3.1651 2.8748 2.0380
2.9242 3.1195 2.0380
2.6643 3.3442 2.0380
2.3873 3.5472 2.0380
0.7668 1.3644 0.7460
0.6549 1.4218 0.7461
0.5388 1.4699 0.7462
0.4191 1.5086 0.7463
0.2967 1.5375 0.7463
0.1723 1.5564 0.7463
0.0468 1.5652 0.7464
-0.0789 1.5639 0.7464
-0.2042 1.5525 0.7463
-0.3281 1.5310 0.7463
-0.4499 1.4996 0.7462
-0.5688 1.4585 0.7462
-0.6839 1.4080 0.7461
-2.1709 3.6837 2.0380
-2.4596 3.4975 2.0380
-2.7324 3.2888 2.0380
-2.9876 3.0589 2.0380
-3.2234 2.8092 2.0380
-3.4385 2.5414 2.0380
-3.6314 2.2572 2.0380
-3.8009 1.9585 2.0380
-3.9458 1.6471 2.0380
-4.0653 1.3250 2.0380
-4.1585 0.9945 2.0380
-4.2249 0.6575 2.0380
-4.2641 0.3162 2.0380
-4.2757 -0.0270 2.0380
-4.2597 -0.3701 2.0380
-4.2163 -0.7109 2.0380
-4.1456 -1.0470 2.0380
-4.0482 -1.3763 2.0380
-3.9247 -1.6968 2.0380
-3.7758 -2.0064 2.0380
-3.6026 -2.3030 2.0380
