ply
format ascii 1.0
element vertex 2173
property float32 x
property float32 y
property float32 z
end_header
-9.9715 3.3105 2.0382
-10.2085 2.5007 2.0382
-10.3797 1.6742 2.0382
-10.4842 0.8364 2.0382
-10.5211 -0.0074 2.0382
-10.4902 -0.8518 2.0382
-10.3916 -1.6911 2.0382
-10.2259 -2.5202 2.0382
-9.9940 -3.3335 2.0382
-9.6974 -4.1257 2.0382
-9.3380 -4.8919 2.0382
-8.9180 -5.6268 2.0382
-8.4402 -6.3257 2.0382
-7.9075 -6.9841 2.0382
-7.3235 -7.5977 2.0382
-6.6918 -8.1624 2.0382
-6.0166 -8.6745 2.0382
-5.3023 -9.1307 2.0382
-4.5534 -9.5279 2.0382
-3.7749 -9.8635 2.0382
-2.9718 -10.1354 2.0382
-2.1493 -10.3417 2.0382
-1.3129 -10.4811 2.0382
-0.4679 -10.5526 2.0382
0.3800 -10.5559 2.0382
1.2255 -10.4908 2.0382
2.0629 -10.3579 2.0382
2.8867 -10.1579 2.0382
3.6917 -9.8923 2.0382
4.4726 -9.5628 2.0382
5.2244 -9.1715 2.0382
5.9420 -8.7211 2.0382
6.6209 -8.2145 2.0382
7.2567 -7.6550 2.0382
3.3918 -3.0463 0.8812
3.2152 -2.4517 0.7817
3.0736 -1.9752 0.7066
2.9563 -1.5802 0.6485
2.8562 -1.2433 0.6029
2.7689 -0.9492 0.5666
2.7386 -0.6991 0.5473
2.7873 -0.4774 0.5478
2.8183 -0.2524 0.5483
2.8312 -0.0255 0.5489
2.8259 0.2018 0.5494
2.8025 0.4282 0.5500
2.7610 0.6521 0.5505
2.7016 0.8721 0.5511
2.6248 1.0868 0.5516
2.5310 1.2949 0.5522
8.2638 5.1031 1.8870
7.8207 5.7445 1.8858
7.3327 6.3519 1.8858
6.7979 6.9181 1.8858
6.2195 7.4397 1.8858
5.6015 7.9132 1.8858
4.9734 8.3789 1.8956
4.6068 9.4082 2.0382
3.8366 9.7464 2.0382
3.0419 10.0219 2.0382
2.2278 10.2330 2.0382
1.3995 10.3785 2.0382
0.5623 10.4572 2.0382
-0.2786 10.4689 2.0382
-1.1178 10.4133 2.0382
-1.9499 10.2908 2.0382
-2.7696 10.1022 2.0382
-3.5717 9.8487 2.0382
-4.3511 9.5319 2.0382
-5.1028 9.1537 2.0382
-5.8220 8.7165 2.0382
-6.5041 8.2231 2.0382
-7.1446 7.6766 2.0382
-7.7396 7.0805 2.0382
-8.2850 6.4385 2.0382
-8.7775 5.7547 2.0382
-9.2138 5.0335 2.0382
-9.5910 4.2794 2.0382
-9.9067 3.4973 2.0382
-10.1588 2.6921 2.0382
-10.3455 1.8691 2.0382
-10.4657 1.0334 2.0382
-10.5186 0.1906 2.0382
-10.5036 -0.6541 2.0382
-10.4208 -1.4952 2.0382
-10.2707 -2.3271 2.0382
-10.0542 -3.1446 2.0382
-9.7726 -3.9423 2.0382
-9.4277 -4.7149 2.0382
-9.0217 -5.4576 2.0382
-8.5572 -6.1654 2.0382
-8.0371 -6.8337 2.0382
-7.4648 -7.4582 2.0382
-6.8439 -8.0346 2.0382
-6.1785 -8.5594 2.0382
-5.4730 -9.0289 2.0382
-4.7318 -9.4402 2.0382
-3.9597 -9.7905 2.0382
-3.1619 -10.0775 2.0382
-2.3435 -10.2993 2.0382
-1.5099 -10.4545 2.0382
-0.6664 -10.5420 2.0382
0.1813 -10.5613 2.0382
1.0279 -10.5122 2.0382
1.8676 -10.3951 2.0382
2.6952 -10.2107 2.0382
3.5051 -9.9604 2.0382
4.2921 -9.6456 2.0382
5.0511 -9.2686 2.0382
5.7772 -8.8318 2.0382
6.4655 -8.3380 2.0382
7.1118 -7.7906 2.0382
3.4400 -3.2086 0.9092
3.2529 -2.5787 0.8025
3.1043 -2.0785 0.7225
2.9820 -1.6668 0.6609
2.8784 -1.3180 0.6126
2.7884 -1.0149 0.5744
2.7246 -0.7504 0.5472
2.7775 -0.5297 0.5477
2.8126 -0.3054 0.5482
2.8298 -0.0788 0.5487
2.8288 0.1486 0.5493
2.8096 0.3753 0.5498
2.7723 0.5999 0.5504
2.7171 0.8210 0.5509
2.6444 1.0371 0.5515
2.5545 1.2468 0.5521
8.3624 4.9490 1.8878
7.9279 5.5966 1.8858
7.4514 6.2131 1.8858
6.9272 6.7893 1.8858
6.3588 7.3217 1.8858
5.7497 7.8067 1.8858
5.1039 8.2415 1.8858
4.7110 9.1794 2.0075
4.0194 9.6726 2.0382
3.2301 9.9630 2.0382
2.4201 10.1894 2.0382
1.5946 10.3503 2.0382
0.7590 10.4448 2.0382
-0.0815 10.4722 2.0382
-0.9216 10.4323 2.0382
-1.7558 10.3255 2.0382
-2.5789 10.1523 2.0382
-3.3856 9.9139 2.0382
-4.1708 9.6117 2.0382
-4.9294 9.2477 2.0382
-5.6566 8.8241 2.0382
-6.3478 8.3436 2.0382
-6.9985 7.8093 2.0382
-7.6044 7.2245 2.0382
-8.1618 6.5929 2.0382
-9.0635 1.1136 2.0382
-9.1264 0.3830 2.0382
-9.1304 -0.3505 2.0382
-9.0756 -1.0822 2.0382
-8.9622 -1.8073 2.0382
-8.7909 -2.5212 2.0382
-8.5627 -3.2192 2.0382
-8.2791 -3.8967 2.0382
-7.9419 -4.5495 2.0382
-7.5532 -5.1732 2.0382
-7.1155 -5.7637 2.0382
-6.6316 -6.3172 2.0382
-6.1047 -6.8302 2.0382
-5.5381 -7.2991 2.0382
-4.9355 -7.7210 2.0382
-4.3009 -8.0931 2.0382
-3.6383 -8.4130 2.0382
-2.9520 -8.6784 2.0382
-2.2465 -8.8878 2.0382
-1.5264 -9.0397 2.0382
-0.7964 -9.1332 2.0382
-0.0613 -9.1675 2.0382
0.6743 -9.1426 2.0382
1.4054 -9.0585 2.0382
2.1273 -8.9159 2.0382
2.8353 -8.7156 2.0382
3.5248 -8.4590 2.0382
4.1913 -8.1478 2.0382
4.8306 -7.7840 2.0382
5.4383 -7.3700 2.0382
6.0108 -6.9086 2.0382
6.5441 -6.4027 2.0382
3.3038 -2.7500 0.9572
3.1453 -2.2165 0.8571
3.0161 -1.7817 0.7805
2.9076 -1.4162 0.7208
2.8140 -1.1010 0.6736
2.7314 -0.8229 0.6361
2.6571 -0.5728 0.6063
2.5891 -0.3438 0.5828
2.5258 -0.1307 0.5645
2.4660 0.0706 0.5508
2.4475 0.2676 0.5498
2.4195 0.4634 0.5503
2.3759 0.6564 0.5508
2.3170 0.8454 0.5513
2.2431 1.0293 0.5518
2.1547 1.2067 0.5523
7.0012 4.6961 1.8858
6.6004 5.2415 1.8858
6.1572 5.7530 1.8858
5.6745 6.2276 1.8858
5.3773 6.9476 1.9669
4.9760 7.6224 2.0382
4.3477 7.9960 2.0382
3.6917 8.3181 2.0382
3.0121 8.5868 2.0382
2.3132 8.8002 2.0382
1.5996 8.9571 2.0382
0.8757 9.0564 2.0382
0.1462 9.0975 2.0382
-0.5843 9.0802 2.0382
-1.3111 9.0045 2.0382
-2.0295 8.8710 2.0382
-2.7351 8.6804 2.0382
-3.4232 8.4341 2.0382
-4.0895 8.1334 2.0382
-4.7297 7.7803 2.0382
-5.3397 7.3771 2.0382
-5.9157 6.9263 2.0382
-6.4538 6.4308 2.0382
-6.9506 5.8936 2.0382
-7.4029 5.3183 2.0382
-7.8078 4.7085 2.0382
-8.1627 4.0680 2.0382
-8.4652 3.4009 2.0382
-8.7133 2.7116 2.0382
-8.9054 2.0044 2.0382
-9.0403 1.2839 2.0382
-9.1169 0.5546 2.0382
-9.1348 -0.1786 2.0382
-9.0937 -0.9111 2.0382
-8.9940 -1.6382 2.0382
-8.8362 -2.3551 2.0382
-8.6212 -3.0573 2.0382
-8.3504 -3.7400 2.0382
-8.0256 -4.3990 2.0382
-7.6488 -5.0298 2.0382
-7.2223 -5.6285 2.0382
-6.7490 -6.1910 2.0382
-6.2319 -6.7138 2.0382
-5.6743 -7.1933 2.0382
-5.0798 -7.6265 2.0382
-4.4523 -8.0105 2.0382
-3.7958 -8.3428 2.0382
-3.1147 -8.6212 2.0382
-2.4133 -8.8439 2.0382
-1.6962 -9.0093 2.0382
-0.9681 -9.1165 2.0382
-0.2337 -9.1648 2.0382
0.5021 -9.1537 2.0382
1.2347 -9.0835 2.0382
1.9592 -8.9545 2.0382
2.6708 -8.7676 2.0382
3.3651 -8.5241 2.0382
4.0374 -8.2255 2.0382
4.6834 -7.8738 2.0382
5.2989 -7.4714 2.0382
5.8800 -7.0208 2.0382
6.4228 -6.5251 2.0382
3.3465 -2.8939 0.9851
3.1794 -2.3313 0.8781
3.0443 -1.8765 0.7967
2.9315 -1.4968 0.7335
2.8348 -1.1711 0.6837
2.7499 -0.8853 0.6442
2.6739 -0.6293 0.6127
2.6045 -0.3959 0.5878
2.5403 -0.1795 0.5683
2.4797 0.0243 0.5536
2.4517 0.2215 0.5497
2.4275 0.4177 0.5502
2.3875 0.6115 0.5507
2.3322 0.8016 0.5512
2.2618 0.9867 0.5517
2.1767 1.1657 0.5522
7.0888 4.5638 1.8858
6.6982 5.1167 1.8858
6.2647 5.6364 1.8858
5.7911 6.1196 1.8858
5.4378 6.7589 1.9420
5.1188 7.5276 2.0382
4.4976 7.9129 2.0382
3.8477 8.2474 2.0382
3.1733 8.5287 2.0382
2.4785 8.7552 2.0382
1.7680 8.9253 2.0382
1.0460 9.0383 2.0382
0.3174 9.0931 2.0382
-0.4133 9.0895 2.0382
-1.1413 9.0275 2.0382
-1.8622 8.9074 2.0382
-2.5711 8.7302 2.0382
-3.2637 8.4967 2.0382
-3.9355 8.2086 2.0382
-4.5822 7.8676 2.0382
-5.1997 7.4759 2.0382
-5.7839 7.0361 2.0382
-6.3312 6.5507 2.0382
-6.8380 6.0231 2.0382
-7.3011 5.4564 2.0382
-7.7174 4.8543 2.0382
-8.0842 4.2206 2.0382
-8.3991 3.5594 2.0382
-8.6601 2.8749 2.0382
-8.8655 2.1715 2.0382
-9.0139 1.4537 2.0382
-9.1042 0.7261 2.0382
-9.1359 -0.0067 2.0382
-9.1086 -0.7398 2.0382
-9.0226 -1.4686 2.0382
-8.8783 -2.1883 2.0382
-8.6766 -2.8943 2.0382
-8.4188 -3.5820 2.0382
-8.1065 -4.2469 2.0382
-7.7416 -4.8847 2.0382
-7.3266 -5.4913 2.0382
-6.8640 -6.0627 2.0382
-6.3568 -6.5951 2.0382
-5.8084 -7.0850 2.0382
-5.2222 -7.5293 2.0382
-4.6021 -7.9251 2.0382
-3.9520 -8.2697 2.0382
-3.2763 -8.5609 2.0382
-2.5792 -8.7968 2.0382
-1.8654 -8.9758 2.0382
-1.1395 -9.0967 2.0382
-0.4061 -9.1588 2.0382
0.3298 -9.1617 2.0382
1.0636 -9.1053 2.0382
1.7904 -8.9900 2.0382
2.5055 -8.8165 2.0382
3.2042 -8.5862 2.0382
3.8821 -8.3003 2.0382
4.5346 -7.9609 2.0382
5.1576 -7.5701 2.0382
5.7471 -7.1306 2.0382
6.2992 -6.6451 2.0382
3.3918 -3.0465 1.0151
3.2152 -2.4519 0.9005
3.0737 -1.9754 0.8139
2.9563 -1.5803 0.7470
2.8563 -1.2434 0.6944
2.7689 -0.9493 0.6526
2.6910 -0.6871 0.6194
2.6203 -0.4489 0.5931
2.5549 -0.2289 0.5725
2.4936 -0.0225 0.5567
2.4551 0.1753 0.5496
2.4346 0.3719 0.5501
2.3983 0.5664 0.5506
2.3465 0.7574 0.5511
2.2796 0.9438 0.5516
2.1979 1.1244 0.5521
2.1019 1.2979 0.5525
6.7937 4.9899 1.8858
6.3700 5.5177 1.8858
5.9055 6.0098 1.8858
5.4966 6.5749 1.9184
5.2339 7.3937 2.0282
4.6459 7.8272 2.0382
4.0024 8.1737 2.0382
3.3333 8.4677 2.0382
2.6429 8.7071 2.0382
1.9356 8.8907 2.0382
1.2159 9.0171 2.0382
0.4885 9.0855 2.0382
-0.2421 9.0956 2.0382
-0.9712 9.0472 2.0382
-1.6941 8.9408 2.0382
-2.4063 8.7768 2.0382
-3.1031 8.5564 2.0382
-3.7802 8.2809 2.0382
-4.4332 7.9522 2.0382
-5.0578 7.5722 2.0382
-5.6502 7.1433 2.0382
-6.2065 6.6684 2.0382
-6.7231 6.1503 2.0382
-7.1967 5.5925 2.0382
-7.6241 4.9983 2.0382
-8.0028 4.3717 2.0382
-8.3301 3.7166 2.0382
-8.6039 3.0372 2.0382
-8.8224 2.3378 2.0382
-8.9843 1.6229 2.0382
-9.0883 0.8972 2.0382
-9.1337 0.1653 2.0382
-9.1203 -0.5682 2.0382
-9.0480 -1.2984 2.0382
-8.9173 -2.0207 2.0382
-8.7290 -2.7303 2.0382
-8.4842 -3.4227 2.0382
-8.1845 -4.0934 2.0382
-7.8317 -4.7379 2.0382
-7.4282 -5.3522 2.0382
-6.9765 -5.9321 2.0382
-6.4795 -6.4740 2.0382
-5.9404 -6.9742 2.0382
-5.3628 -7.4295 2.0382
-4.7503 -7.8368 2.0382
-4.1068 -8.1936 2.0382
-3.4367 -8.4976 2.0382
-2.7443 -8.7465 2.0382
-2.0340 -8.9390 2.0382
-1.3104 -9.0736 2.0382
-0.5784 -9.1496 2.0382
0.1574 -9.1663 2.0382
0.8921 -9.1238 2.0382
1.6209 -9.0222 2.0382
2.3392 -8.8623 2.0382
3.0422 -8.6452 2.0382
3.7253 -8.3722 2.0382
4.3842 -8.0451 2.0382
5.0145 -7.6662 2.0382
5.6122 -7.2378 2.0382
6.1734 -6.7628 2.0382
3.4400 -3.2088 1.0474
3.2529 -2.5789 0.9245
3.1043 -2.0786 0.8322
2.9821 -1.6669 0.7612
2.8784 -1.3181 0.7056
2.7884 -1.0150 0.6616
2.7086 -0.7461 0.6265
2.6363 -0.5029 0.5987
2.5698 -0.2791 0.5768
2.5077 -0.0699 0.5600
2.4577 0.1290 0.5495
2.4408 0.3260 0.5500
2.4082 0.5211 0.5505
2.3600 0.7130 0.5510
2.2966 0.9006 0.5515
2.2183 1.0827 0.5519
2.1257 1.2579 0.5524
6.8868 4.8614 1.8858
6.4731 5.3971 1.8858
6.0179 5.8979 1.8858
5.5561 6.3994 1.8969
5.2983 7.1936 2.0003
4.7925 7.7387 2.0382
4.1556 8.0971 2.0382
3.4922 8.4036 2.0382
2.8064 8.6560 2.0382
2.1026 8.8528 2.0382
1.3855 8.9926 2.0382
0.6594 9.0747 2.0382
-0.0709 9.0985 2.0382
-0.8007 9.0638 2.0382
-1.5255 8.9709 2.0382
-2.2406 8.8203 2.0382
-2.9415 8.6130 2.0382
-3.6236 8.3503 2.0382
-4.2825 8.0339 2.0382
-4.9142 7.6657 2.0382
-5.5145 7.2481 2.0382
-6.0796 6.7837 2.0382
-6.6058 6.2755 2.0382
-7.0897 5.7266 2.0382
-7.9976 0.9824 2.0382
-8.0528 0.3377 2.0382
-8.0562 -0.3095 2.0382
-8.0075 -0.9550 2.0382
-7.9072 -1.5947 2.0382
-7.7558 -2.2245 2.0382
-7.5542 -2.8402 2.0382
-7.3038 -3.4379 2.0382
-7.0061 -4.0136 2.0382
-6.6630 -4.5637 2.0382
-6.2768 -5.0845 2.0382
-5.8498 -5.5727 2.0382
-5.3849 -6.0250 2.0382
-4.8850 -6.4385 2.0382
-4.3534 -6.8105 2.0382
-3.7936 -7.1386 2.0382
-3.2091 -7.4207 2.0382
-2.6037 -7.6547 2.0382
-1.9815 -7.8394 2.0382
-1.3463 -7.9733 2.0382
-0.7025 -8.0557 2.0382
-0.0540 -8.0860 2.0382
0.5947 -8.0641 2.0382
1.2395 -7.9900 2.0382
1.8763 -7.8642 2.0382
2.5008 -7.6877 2.0382
3.1090 -7.4614 2.0382
3.6970 -7.1870 2.0382
4.2609 -6.8663 2.0382
4.7972 -6.5013 2.0382
5.3022 -6.0944 2.0382
5.7728 -5.6483 2.0382
3.3038 -2.7501 1.0851
3.1453 -2.2166 0.9715
3.0162 -1.7818 0.8847
2.9076 -1.4163 0.8170
2.8140 -1.1011 0.7635
2.7314 -0.8230 0.7210
2.6571 -0.5729 0.6872
2.5891 -0.3439 0.6605
2.5258 -0.1308 0.6397
2.4660 0.0705 0.6242
2.4087 0.2633 0.6132
2.3531 0.4506 0.6065
2.2984 0.6349 0.6038
2.2438 0.8187 0.6049
2.1887 1.0042 0.6101
2.1323 1.1941 0.6193
6.2154 4.1657 1.8966
6.0201 4.7806 1.9488
5.8145 5.4326 2.0176
5.4136 5.9407 2.0382
4.9188 6.3549 2.0382
4.3923 6.7282 2.0382
3.8379 7.0581 2.0382
3.2588 7.3426 2.0382
2.6589 7.5798 2.0382
2.0420 7.7682 2.0382
1.4120 7.9067 2.0382
0.7730 7.9944 2.0382
0.1290 8.0307 2.0382
-0.5158 8.0154 2.0382
-1.1574 7.9486 2.0382
-1.7916 7.8306 2.0382
-2.4144 7.6623 2.0382
-3.0217 7.4447 2.0382
-3.6098 7.1792 2.0382
-4.1749 6.8674 2.0382
-4.7132 6.5114 2.0382
-5.2215 6.1133 2.0382
-5.6963 5.6758 2.0382
-6.1346 5.2015 2.0382
-6.5337 4.6936 2.0382
-6.8908 4.1553 2.0382
-7.2038 3.5899 2.0382
-7.4705 3.0011 2.0382
-7.6892 2.3927 2.0382
-7.8585 1.7686 2.0382
-7.9772 1.1327 2.0382
-8.0446 0.4892 2.0382
-8.0601 -0.1578 2.0382
-8.0236 -0.8041 2.0382
-7.9353 -1.4456 2.0382
-7.7958 -2.0780 2.0382
-7.6059 -2.6974 2.0382
-7.3668 -3.2997 2.0382
-7.0800 -3.8809 2.0382
-6.7474 -4.4373 2.0382
-6.3710 -4.9653 2.0382
-5.9534 -5.4614 2.0382
-5.4971 -5.9224 2.0382
-5.0051 -6.3452 2.0382
-4.4807 -6.7272 2.0382
-3.9271 -7.0658 2.0382
-3.3481 -7.3588 2.0382
-2.7472 -7.6043 2.0382
-2.1286 -7.8006 2.0382
-1.4961 -7.9465 2.0382
-0.8539 -8.0411 2.0382
-0.2062 -8.0836 2.0382
0.4429 -8.0739 2.0382
1.0890 -8.0120 2.0382
1.7280 -7.8983 2.0382
2.3558 -7.7335 2.0382
2.9682 -7.5188 2.0382
3.5612 -7.2556 2.0382
4.1311 -6.9455 2.0382
4.6742 -6.5907 2.0382
5.1868 -6.1934 2.0382
5.6658 -5.7562 2.0382
3.3465 -2.8940 1.1168
3.1794 -2.3314 0.9954
3.0443 -1.8766 0.9031
2.9316 -1.4969 0.8314
2.8348 -1.1712 0.7750
2.7499 -0.8854 0.7301
2.6739 -0.6294 0.6944
2.6046 -0.3959 0.6661
2.5403 -0.1795 0.6441
2.4798 0.0242 0.6274
2.4220 0.2187 0.6154
2.3660 0.4071 0.6077
2.3112 0.5919 0.6041
2.2566 0.7755 0.6043
2.2017 0.9604 0.6085
2.1457 1.1491 0.6167
6.2637 4.0324 1.8880
6.0661 4.6337 1.9350
5.8641 5.2758 2.0000
5.5247 5.8380 2.0382
5.0377 6.2614 2.0382
4.5183 6.6445 2.0382
3.9701 6.9848 2.0382
3.3965 7.2801 2.0382
2.8012 7.5285 2.0382
2.1879 7.7285 2.0382
1.5606 7.8788 2.0382
0.9233 7.9784 2.0382
0.2802 8.0268 2.0382
-0.3648 8.0236 2.0382
-1.0075 7.9688 2.0382
-1.6438 7.8628 2.0382
-2.2696 7.7062 2.0382
-2.8810 7.5000 2.0382
-3.4740 7.2456 2.0382
-4.0447 6.9445 2.0382
-4.5897 6.5986 2.0382
-5.1052 6.2102 2.0382
-5.5882 5.7817 2.0382
-6.0353 5.3158 2.0382
-6.4438 4.8155 2.0382
-6.8110 4.2840 2.0382
-7.1345 3.7246 2.0382
-7.4122 3.1410 2.0382
-7.6423 2.5368 2.0382
-7.8233 1.9160 2.0382
-7.9540 1.2825 2.0382
-8.0334 0.6405 2.0382
-8.0611 -0.0061 2.0382
-8.0368 -0.6529 2.0382
-7.9606 -1.2959 2.0382
-7.8331 -1.9308 2.0382
-7.6549 -2.5536 2.0382
-7.4272 -3.1603 2.0382
-7.1514 -3.7468 2.0382
-6.8294 -4.3093 2.0382
-6.4630 -4.8443 2.0382
-6.0548 -5.3481 2.0382
-5.6073 -5.8176 2.0382
-5.1235 -6.2497 2.0382
-4.6063 -6.6415 2.0382
-4.0593 -6.9905 2.0382
-3.4858 -7.2943 2.0382
-2.8898 -7.5511 2.0382
-2.2749 -7.7591 2.0382
-1.6453 -7.9169 2.0382
-1.0050 -8.0236 2.0382
-0.3582 -8.0783 2.0382
0.2909 -8.0809 2.0382
0.9381 -8.0312 2.0382
1.5791 -7.9295 2.0382
2.2100 -7.7768 2.0382
2.8262 -7.5736 2.0382
3.4242 -7.3215 2.0382
3.9998 -7.0223 2.0382
4.5495 -6.6777 2.0382
5.0696 -6.2902 2.0382
5.5567 -5.8621 2.0382
3.3919 -3.0467 1.1508
3.2153 -2.4520 1.0208
3.0737 -1.9755 0.9226
2.9564 -1.5804 0.8467
2.8563 -1.2435 0.7870
2.7689 -0.9494 0.7397
2.6910 -0.6871 0.7021
2.6203 -0.4489 0.6722
2.5550 -0.2290 0.6488
2.4937 -0.0226 0.6309
2.4353 0.1738 0.6178
2.3790 0.3634 0.6092
2.3240 0.5488 0.6046
2.2694 0.7325 0.6039
2.2146 0.9169 0.6072
2.1589 1.1044 0.6144
2.1015 1.2976 0.6259
6.1114 4.4886 1.9221
5.9129 5.1216 1.9833
5.6339 5.7332 2.0382
5.1548 6.1657 2.0382
4.6428 6.5585 2.0382
4.1010 6.9090 2.0382
3.5330 7.2150 2.0382
2.9424 7.4746 2.0382
2.3330 7.6860 2.0382
1.7087 7.8481 2.0382
1.0734 7.9597 2.0382
0.4312 8.0201 2.0382
-0.2137 8.0290 2.0382
-0.8573 7.9863 2.0382
-1.4955 7.8922 2.0382
-2.1241 7.7474 2.0382
-2.7392 7.5527 2.0382
-3.3369 7.3095 2.0382
-3.9132 7.0191 2.0382
-4.4645 6.6836 2.0382
-4.9872 6.3049 2.0382
-5.4781 5.8856 2.0382
-5.9339 5.4282 2.0382
-6.3517 4.9357 2.0382
-6.7288 4.4112 2.0382
-7.0628 3.8580 2.0382
-7.3514 3.2797 2.0382
-7.5928 2.6800 2.0382
-7.7854 2.0628 2.0382
-7.9279 1.4319 2.0382
-8.0194 0.7915 2.0382
-8.0593 0.1456 2.0382
-8.0471 -0.5015 2.0382
-7.9831 -1.1458 2.0382
-7.8675 -1.7830 2.0382
-7.7011 -2.4090 2.0382
-7.4849 -3.0198 2.0382
-7.2203 -3.6113 2.0382
-6.9089 -4.1798 2.0382
-6.5527 -4.7216 2.0382
-6.1541 -5.2330 2.0382
-5.7156 -5.7109 2.0382
-5.2400 -6.1520 2.0382
-4.7303 -6.5534 2.0382
-4.1900 -6.9127 2.0382
-3.6224 -7.2273 2.0382
-3.0313 -7.4953 2.0382
-2.4205 -7.7148 2.0382
-1.7940 -7.8845 2.0382
-1.1558 -8.0032 2.0382
-0.5102 -8.0702 2.0382
0.1388 -8.0850 2.0382
0.7868 -8.0475 2.0382
1.4297 -7.9580 2.0382
2.0632 -7.8170 2.0382
2.6833 -7.6256 2.0382
3.2859 -7.3849 2.0382
3.8672 -7.0965 2.0382
4.4232 -6.7624 2.0382
4.9505 -6.3847 2.0382
5.4457 -5.9659 2.0382
3.4401 -3.2089 1.1873
3.2530 -2.5790 1.0480
3.1044 -2.0788 0.9434
2.9821 -1.6670 0.8629
2.8785 -1.3181 0.7998
2.7885 -1.0151 0.7499
2.7086 -0.7462 0.7101
2.6363 -0.5029 0.6786
2.5699 -0.2791 0.6537
2.5077 -0.0699 0.6346
2.4488 0.1285 0.6205
2.3921 0.3194 0.6108
2.3368 0.5056 0.6053
2.2822 0.6894 0.6037
2.2275 0.8735 0.6060
2.1721 1.0600 0.6124
2.1152 1.2517 0.6228
6.1560 4.3454 1.9099
5.9607 4.9698 1.9675
5.7410 5.6264 2.0382
5.2702 6.0679 2.0382
4.7656 6.4701 2.0382
4.2305 6.8308 2.0382
3.6683 7.1474 2.0382
3.0827 7.4180 2.0382
2.4773 7.6409 2.0382
1.8561 7.8146 2.0382
1.2230 7.9381 2.0382
0.5821 8.0106 2.0382
-0.0626 8.0316 2.0382
-0.7069 8.0009 2.0382
-1.3467 7.9188 2.0382
-1.9779 7.7858 2.0382
-2.5965 7.6028 2.0382
-3.1986 7.3708 2.0382
-3.7802 7.0913 2.0382
-4.3377 6.7662 2.0382
-4.8675 6.3975 2.0382
-5.3661 5.9874 2.0382
-5.8304 5.5386 2.0382
-6.2573 5.0541 2.0382
-7.1453 0.8776 2.0382
-7.1944 0.3016 2.0382
-7.1972 -0.2766 2.0382
-7.1536 -0.8534 2.0382
-7.0638 -1.4248 2.0382
-6.9283 -1.9873 2.0382
-6.7481 -2.5373 2.0382
-6.5242 -3.0711 2.0382
-6.2582 -3.5853 2.0382
-5.9516 -4.0766 2.0382
-5.6065 -4.5417 2.0382
-5.2250 -4.9776 2.0382
-4.8096 -5.3815 2.0382
-4.3631 -5.7508 2.0382
-3.8883 -6.0830 2.0382
-3.3882 -6.3759 2.0382
-2.8661 -6.6278 2.0382
-2.3254 -6.8368 2.0382
-1.7697 -7.0016 2.0382
-1.2024 -7.1212 2.0382
-0.6274 -7.1948 2.0382
-0.0483 -7.2219 2.0382
0.5311 -7.2023 2.0382
1.1070 -7.1362 2.0382
1.6757 -7.0239 2.0382
2.2335 -6.8663 2.0382
2.7768 -6.6643 2.0382
3.3020 -6.4193 2.0382
3.8057 -6.1329 2.0382
4.2847 -5.8070 2.0382
4.7359 -5.4437 2.0382
5.1564 -5.0453 2.0382
3.3039 -2.7503 1.2148
3.1454 -2.2167 1.0876
3.0162 -1.7819 0.9904
2.9077 -1.4164 0.9146
2.8140 -1.1012 0.8547
2.7314 -0.8231 0.8071
2.6571 -0.5730 0.7692
2.5891 -0.3439 0.7393
2.5258 -0.1308 0.7161
2.4660 0.0704 0.6986
2.4088 0.2633 0.6864
2.3531 0.4506 0.6788
2.2984 0.6349 0.6757
2.2438 0.8186 0.6770
2.1887 1.0042 0.6827
2.1323 1.1940 0.6930
5.9681 4.0029 2.0382
5.6267 4.4680 2.0382
5.2491 4.9042 2.0382
4.8379 5.3088 2.0382
4.3957 5.6790 2.0382
3.9253 6.0127 2.0382
3.4298 6.3076 2.0382
2.9124 6.5619 2.0382
2.3763 6.7739 2.0382
1.8249 6.9424 2.0382
1.2619 7.0662 2.0382
0.6908 7.1445 2.0382
0.1153 7.1770 2.0382
-0.4610 7.1633 2.0382
-1.0344 7.1035 2.0382
-1.6011 6.9981 2.0382
-2.1577 6.8476 2.0382
-2.7005 6.6530 2.0382
-3.2260 6.4156 2.0382
-3.7309 6.1369 2.0382
-4.2120 5.8187 2.0382
-4.6661 5.4628 2.0382
-5.0903 5.0718 2.0382
-5.4819 4.6479 2.0382
-5.8383 4.1939 2.0382
-6.1573 3.7128 2.0382
-6.4368 3.2075 2.0382
-6.6749 2.6813 2.0382
-6.8702 2.1377 2.0382
-7.0212 1.5800 2.0382
-7.1271 1.0118 2.0382
-7.1871 0.4369 2.0382
-7.2007 -0.1411 2.0382
-7.1680 -0.7185 2.0382
-7.0889 -1.2916 2.0382
-6.9641 -1.8565 2.0382
-6.7943 -2.4097 2.0382
-6.5805 -2.9476 2.0382
-6.3242 -3.4668 2.0382
-6.0270 -3.9637 2.0382
-5.6907 -4.4352 2.0382
-5.3175 -4.8782 2.0382
-4.9099 -5.2899 2.0382
-4.4704 -5.6675 2.0382
-4.0019 -6.0086 2.0382
-3.5075 -6.3109 2.0382
-2.9902 -6.5725 2.0382
-2.4536 -6.7917 2.0382
-1.9011 -6.9670 2.0382
-1.3362 -7.0973 2.0382
-0.7626 -7.1817 2.0382
-0.1841 -7.2197 2.0382
0.3955 -7.2111 2.0382
0.9726 -7.1558 2.0382
1.5433 -7.0543 2.0382
2.1040 -6.9072 2.0382
2.6510 -6.7155 2.0382
3.1807 -6.4805 2.0382
3.6898 -6.2037 2.0382
4.1749 -5.8868 2.0382
4.6328 -5.5321 2.0382
5.0607 -5.1417 2.0382
3.3466 -2.8942 1.2503
3.1795 -2.3315 1.1144
3.0444 -1.8767 1.0110
2.9316 -1.4970 0.9308
2.8349 -1.1713 0.8675
2.7500 -0.8855 0.8173
2.6739 -0.6295 0.7773
2.6046 -0.3960 0.7457
2.5403 -0.1796 0.7210
2.4798 0.0241 0.7022
2.4220 0.2187 0.6888
2.3661 0.4070 0.6802
2.3112 0.5918 0.6761
2.2566 0.7755 0.6763
2.2017 0.9604 0.6810
2.1457 1.1490 0.6902
6.0427 3.8900 2.0382
5.7100 4.3615 2.0382
5.3407 4.8047 2.0382
4.9371 5.2170 2.0382
4.5020 5.5955 2.0382
4.0379 5.9379 2.0382
3.5480 6.2420 2.0382
3.0354 6.5060 2.0382
2.5034 6.7281 2.0382
1.9553 6.9068 2.0382
1.3947 7.0412 2.0382
0.8252 7.1303 2.0382
0.2504 7.1735 2.0382
-0.3261 7.1706 2.0382
-0.9005 7.1216 2.0382
-1.4691 7.0268 2.0382
-2.0284 6.8868 2.0382
-2.5747 6.7025 2.0382
-3.1046 6.4750 2.0382
-3.6146 6.2059 2.0382
-4.1015 5.8967 2.0382
-4.5622 5.5495 2.0382
-4.9937 5.1664 2.0382
-5.3931 4.7500 2.0382
-5.7581 4.3028 2.0382
-6.0860 3.8278 2.0382
-6.3749 3.3279 2.0382
-6.6229 2.8063 2.0382
-6.8283 2.2665 2.0382
-6.9899 1.7117 2.0382
-7.1064 1.1457 2.0382
-7.1772 0.5720 2.0382
-7.2017 -0.0056 2.0382
-7.1798 -0.5835 2.0382
-7.1116 -1.1579 2.0382
-6.9974 -1.7250 2.0382
-6.8381 -2.2813 2.0382
-6.6345 -2.8231 2.0382
-6.3880 -3.3470 2.0382
-6.1002 -3.8494 2.0382
-5.7729 -4.3271 2.0382
-5.4082 -4.7771 2.0382
-5.0084 -5.1964 2.0382
-4.5761 -5.5822 2.0382
-4.1142 -5.9320 2.0382
-3.6255 -6.2436 2.0382
-3.1133 -6.5150 2.0382
-2.5809 -6.7442 2.0382
-2.0318 -6.9299 2.0382
-1.4695 -7.0709 2.0382
-0.8976 -7.1661 2.0382
-0.3200 -7.2150 2.0382
0.2598 -7.2173 2.0382
0.8378 -7.1729 2.0382
1.4103 -7.0822 2.0382
1.9737 -6.9457 2.0382
2.5242 -6.7644 2.0382
3.0583 -6.5394 2.0382
3.5725 -6.2722 2.0382
4.0635 -5.9646 2.0382
4.5281 -5.6185 2.0382
4.9633 -5.2362 2.0382
3.3919 -3.0468 1.2883
3.2153 -2.4522 1.1428
3.0738 -1.9756 1.0329
2.9564 -1.5805 0.9479
2.8563 -1.2436 0.8810
2.7690 -0.9495 0.8280
2.6911 -0.6872 0.7859
2.6203 -0.4490 0.7524
2.5550 -0.2290 0.7262
2.4937 -0.0227 0.7061
2.4354 0.1738 0.6915
2.3791 0.3633 0.6818
2.3240 0.5487 0.6766
2.2694 0.7324 0.6759
2.2147 0.9168 0.6795
2.1590 1.1044 0.6876
2.1016 1.2976 0.7005
5.7913 4.2534 2.0382
5.4304 4.7036 2.0382
5.0347 5.1233 2.0382
4.6066 5.5099 2.0382
4.1491 5.8610 2.0382
3.6650 6.1743 2.0382
3.1574 6.4478 2.0382
2.6296 6.6799 2.0382
2.0850 6.8689 2.0382
1.5270 7.0137 2.0382
0.9593 7.1135 2.0382
0.3854 7.1675 2.0382
-0.1910 7.1755 2.0382
-0.7662 7.1372 2.0382
-1.3366 7.0531 2.0382
-1.8984 6.9237 2.0382
-2.4480 6.7496 2.0382
-2.9821 6.5321 2.0382
-3.4971 6.2726 2.0382
-3.9897 5.9726 2.0382
-4.4568 5.6341 2.0382
-4.8953 5.2593 2.0382
-5.3025 4.8504 2.0382
-5.6758 4.4102 2.0382
-6.0126 3.9415 2.0382
-6.3109 3.4471 2.0382
-6.5686 2.9303 2.0382
-6.7841 2.3944 2.0382
-6.9560 1.8429 2.0382
-7.0832 1.2792 2.0382
-7.1647 0.7070 2.0382
-7.2001 0.1299 2.0382
-7.1891 -0.4482 2.0382
-7.1317 -1.0238 2.0382
-7.0283 -1.5929 2.0382
-6.8794 -2.1521 2.0382
-6.6861 -2.6977 2.0382
-6.4496 -3.2260 2.0382
-6.1713 -3.7337 2.0382
-5.8530 -4.2176 2.0382
-5.4969 -4.6743 2.0382
-5.1051 -5.1010 2.0382
-4.6802 -5.4949 2.0382
-4.2249 -5.8534 2.0382
-3.7422 -6.1742 2.0382
-3.2353 -6.4551 2.0382
-2.7073 -6.6944 2.0382
-2.1618 -6.8904 2.0382
-1.6023 -7.0419 2.0382
-1.0323 -7.1479 2.0382
-0.4557 -7.2077 2.0382
0.1239 -7.2209 2.0382
0.7027 -7.1875 2.0382
1.2768 -7.1076 2.0382
1.8427 -6.9818 2.0382
2.3965 -6.8109 2.0382
2.9348 -6.5960 2.0382
3.4540 -6.3385 2.0382
3.9507 -6.0402 2.0382
4.4218 -5.7029 2.0382
4.8641 -5.3289 2.0382
3.4402 -3.2091 1.3293
3.2530 -2.5792 1.1732
3.1044 -2.0789 1.0561
2.9821 -1.6671 0.9660
2.8785 -1.3182 0.8953
2.7885 -1.0152 0.8394
2.7086 -0.7462 0.7949
2.6364 -0.5030 0.7595
2.5699 -0.2792 0.7317
2.5078 -0.0700 0.7103
2.4488 0.1285 0.6945
2.3921 0.3194 0.6836
2.3368 0.5055 0.6774
2.2822 0.6894 0.6757
2.2275 0.8734 0.6783
2.1721 1.0600 0.6853
2.1152 1.2516 0.6970
5.8707 4.1437 2.0382
5.5182 4.6007 2.0382
5.1304 5.0278 2.0382
4.7097 5.4224 2.0382
4.2588 5.7820 2.0382
3.7807 6.1044 2.0382
3.2783 6.3874 2.0382
2.7550 6.6293 2.0382
2.2140 6.8285 2.0382
1.6588 6.9838 2.0382
1.0930 7.0942 2.0382
0.5202 7.1590 2.0382
-0.0559 7.1777 2.0382
-0.6317 7.1503 2.0382
-1.2035 7.0769 2.0382
-1.7677 6.9580 2.0382
-2.3205 6.7943 2.0382
-2.8585 6.5869 2.0382
-3.3783 6.3371 2.0382
-3.8764 6.0465 2.0382
-4.3498 5.7168 2.0382
-4.7953 5.3503 2.0382
-5.2101 4.9492 2.0382
-5.5915 4.5161 2.0382
-6.4472 0.7917 2.0382
-6.4914 0.2719 2.0382
-6.4937 -0.2498 2.0382
-6.4542 -0.7701 2.0382
-6.3730 -1.2856 2.0382
-6.2507 -1.7931 2.0382
-6.0880 -2.2892 2.0382
-5.8859 -2.7708 2.0382
-5.6458 -3.2346 2.0382
-5.3691 -3.6777 2.0382
-5.0577 -4.0972 2.0382
-4.7135 -4.4904 2.0382
-4.3387 -4.8547 2.0382
-3.9359 -5.1878 2.0382
-3.5075 -5.4874 2.0382
-3.0563 -5.7516 2.0382
-2.5854 -5.9787 2.0382
-2.0977 -6.1672 2.0382
-1.5963 -6.3159 2.0382
-1.0846 -6.4237 2.0382
-0.5659 -6.4901 2.0382
-0.0436 -6.5145 2.0382
0.4791 -6.4969 2.0382
0.9986 -6.4372 2.0382
1.5116 -6.3360 2.0382
2.0147 -6.1939 2.0382
2.5048 -6.0118 2.0382
2.9786 -5.7908 2.0382
3.4331 -5.5326 2.0382
3.8652 -5.2386 2.0382
4.2723 -4.9109 2.0382
4.6517 -4.5517 2.0382
3.3039 -2.7505 1.3466
3.1454 -2.2169 1.2056
3.0163 -1.7820 1.0978
2.9077 -1.4165 1.0138
2.8141 -1.1013 0.9473
2.7315 -0.8232 0.8945
2.6572 -0.5730 0.8525
2.5891 -0.3440 0.8194
2.5258 -0.1309 0.7936
2.4661 0.0704 0.7743
2.4088 0.2632 0.7607
2.3532 0.4505 0.7523
2.2984 0.6348 0.7489
2.2438 0.8186 0.7503
2.1887 1.0041 0.7566
2.1323 1.1940 0.7680
5.3859 3.6122 2.0382
5.0778 4.0320 2.0382
4.7371 4.4257 2.0382
4.3661 4.7909 2.0382
3.9671 5.1251 2.0382
3.5426 5.4263 2.0382
3.0955 5.6925 2.0382
2.6285 5.9220 2.0382
2.1446 6.1135 2.0382
1.6470 6.2655 2.0382
1.1389 6.3773 2.0382
0.6235 6.4480 2.0382
0.1040 6.4773 2.0382
-0.4161 6.4649 2.0382
-0.9336 6.4110 2.0382
-1.4451 6.3157 2.0382
-1.9474 6.1799 2.0382
-2.4372 6.0042 2.0382
-2.9115 5.7899 2.0382
-3.3671 5.5383 2.0382
-3.8012 5.2510 2.0382
-4.2109 4.9298 2.0382
-4.5937 4.5768 2.0382
-4.9470 4.1942 2.0382
-5.2686 3.7845 2.0382
-5.5563 3.3502 2.0382
-5.8084 2.8942 2.0382
-6.0232 2.4194 2.0382
-6.1992 1.9287 2.0382
-6.3354 1.4255 2.0382
-6.4308 0.9128 2.0382
-6.4848 0.3940 2.0382
-6.4969 -0.1275 2.0382
-6.4672 -0.6484 2.0382
-6.3958 -1.1654 2.0382
-6.2830 -1.6751 2.0382
-6.1297 -2.1742 2.0382
-5.9367 -2.6594 2.0382
-5.7054 -3.1277 2.0382
-5.4371 -3.5759 2.0382
-5.1337 -4.0012 2.0382
-4.7969 -4.4008 2.0382
-4.4291 -4.7721 2.0382
-4.0326 -5.1127 2.0382
-3.6100 -5.4203 2.0382
-3.1639 -5.6929 2.0382
-2.6974 -5.9289 2.0382
-2.2133 -6.1266 2.0382
-1.7149 -6.2847 2.0382
-1.2053 -6.4022 2.0382
-0.6879 -6.4783 2.0382
-0.1661 -6.5126 2.0382
0.3568 -6.5048 2.0382
0.8773 -6.4550 2.0382
1.3921 -6.3634 2.0382
1.8979 -6.2308 2.0382
2.3913 -6.0580 2.0382
2.8692 -5.8460 2.0382
3.3284 -5.5963 2.0382
3.7661 -5.3106 2.0382
4.1793 -4.9907 2.0382
4.5654 -4.6386 2.0382
3.3467 -2.8944 1.3859
3.1795 -2.3317 1.2352
3.0444 -1.8768 1.1207
2.9316 -1.4971 1.0317
2.8349 -1.1714 0.9616
2.7500 -0.8855 0.9059
2.6740 -0.6295 0.8615
2.6046 -0.3961 0.8264
2.5403 -0.1797 0.7990
2.4798 0.0241 0.7783
2.4220 0.2186 0.7634
2.3661 0.4070 0.7538
2.3112 0.5918 0.7492
2.2567 0.7754 0.7495
2.2017 0.9604 0.7547
2.1457 1.1490 0.7648
5.4531 3.5103 2.0382
5.1530 3.9358 2.0382
4.8198 4.3359 2.0382
4.4557 4.7080 2.0382
4.0630 5.0497 2.0382
3.6442 5.3588 2.0382
3.2021 5.6333 2.0382
2.7395 5.8716 2.0382
2.2594 6.0721 2.0382
1.7647 6.2335 2.0382
1.2588 6.3548 2.0382
0.7448 6.4352 2.0382
0.2260 6.4742 2.0382
-0.2943 6.4716 2.0382
-0.8127 6.4273 2.0382
-1.3259 6.3417 2.0382
-1.8307 6.2153 2.0382
-2.3237 6.0489 2.0382
-2.8019 5.8436 2.0382
-3.2622 5.6006 2.0382
-3.7016 5.3215 2.0382
-4.1172 5.0080 2.0382
-4.5065 4.6623 2.0382
-4.8670 4.2864 2.0382
-5.1962 3.8828 2.0382
-5.4920 3.4540 2.0382
-5.7526 3.0029 2.0382
-5.9763 2.5322 2.0382
-6.1615 2.0450 2.0382
-6.3071 1.5444 2.0382
-6.4121 1.0336 2.0382
-6.4759 0.5160 2.0382
-6.4978 -0.0052 2.0382
-6.4779 -0.5266 2.0382
-6.4162 -1.0448 2.0382
-6.3131 -1.5565 2.0382
-6.1692 -2.0583 2.0382
-5.9854 -2.5471 2.0382
-5.7630 -3.0196 2.0382
-5.5032 -3.4728 2.0382
-5.2078 -3.9037 2.0382
-4.8787 -4.3096 2.0382
-4.5180 -4.6878 2.0382
-4.1280 -5.0357 2.0382
-3.7112 -5.3513 2.0382
-3.2704 -5.6323 2.0382
-2.8084 -5.8770 2.0382
-2.3281 -6.0837 2.0382
-1.8328 -6.2512 2.0382
-1.3255 -6.3783 2.0382
-0.8097 -6.4642 2.0382
-0.2886 -6.5083 2.0382
0.2343 -6.5104 2.0382
0.7557 -6.4704 2.0382
1.2722 -6.3886 2.0382
1.7804 -6.2655 2.0382
2.2770 -6.1020 2.0382
2.7588 -5.8991 2.0382
3.2226 -5.6582 2.0382
3.6656 -5.3807 2.0382
4.0848 -5.0686 2.0382
4.4775 -4.7239 2.0382
3.3920 -3.0470 1.4281
3.2154 -2.4523 1.2668
3.0738 -1.9757 1.1449
2.9564 -1.5806 1.0506
2.8564 -1.2437 0.9766
2.7690 -0.9495 0.9178
2.6911 -0.6873 0.8710
2.6204 -0.4491 0.8339
2.5550 -0.2291 0.8048
2.4937 -0.0227 0.7826
2.4354 0.1737 0.7664
2.3791 0.3633 0.7556
2.3240 0.5487 0.7499
2.2694 0.7324 0.7490
2.2147 0.9168 0.7530
2.1590 1.1043 0.7620
2.1016 1.2975 0.7762
5.2264 3.8383 2.0382
4.9007 4.2446 2.0382
4.5436 4.6235 2.0382
4.1574 4.9724 2.0382
3.7446 5.2894 2.0382
3.3077 5.5722 2.0382
2.8496 5.8191 2.0382
2.3733 6.0286 2.0382
1.8818 6.1992 2.0382
1.3782 6.3300 2.0382
0.8658 6.4200 2.0382
0.3478 6.4688 2.0382
-0.1724 6.4759 2.0382
-0.6916 6.4414 2.0382
-1.2063 6.3655 2.0382
-1.7133 6.2486 2.0382
-2.2094 6.0914 2.0382
-2.6913 5.8951 2.0382
-3.1561 5.6608 2.0382
-3.6006 5.3900 2.0382
-4.0221 5.0845 2.0382
-4.4178 4.7461 2.0382
-4.7852 4.3771 2.0382
-5.1219 3.9797 2.0382
-5.4258 3.5566 2.0382
-5.6948 3.1104 2.0382
-5.9273 2.6441 2.0382
-6.1216 2.1604 2.0382
-6.2766 1.6627 2.0382
-6.3912 1.1540 2.0382
-6.4646 0.6377 2.0382
-6.4964 0.1171 2.0382
-6.4864 -0.4046 2.0382
-6.4344 -0.9238 2.0382
-6.3410 -1.4373 2.0382
-6.2066 -1.9418 2.0382
-6.0320 -2.4339 2.0382
-5.8185 -2.9105 2.0382
-5.5673 -3.3685 2.0382
-5.2802 -3.8049 2.0382
-4.9588 -4.2169 2.0382
-4.6053 -4.6018 2.0382
-4.2219 -4.9570 2.0382
-3.8112 -5.2803 2.0382
-3.3757 -5.5696 2.0382
-2.9184 -5.8230 2.0382
-2.4421 -6.0388 2.0382
-1.9500 -6.2156 2.0382
-1.4453 -6.3522 2.0382
-0.9312 -6.4478 2.0382
-0.4110 -6.5018 2.0382
0.1118 -6.5137 2.0382
0.6338 -6.4835 2.0382
1.1518 -6.4115 2.0382
1.6622 -6.2980 2.0382
2.1618 -6.1439 2.0382
2.6474 -5.9501 2.0382
3.1157 -5.7180 2.0382
3.5638 -5.4489 2.0382
3.9888 -5.1447 2.0382
4.3880 -4.8074 2.0382
3.4402 -3.2093 1.4735
3.2531 -2.5793 1.3005
3.1045 -2.0790 1.1707
2.9822 -1.6673 1.0707
2.8785 -1.3183 0.9924
2.7885 -1.0153 0.9304
2.7086 -0.7463 0.8810
2.6364 -0.5031 0.8418
2.5699 -0.2793 0.8110
2.5078 -0.0701 0.7872
2.4488 0.1284 0.7697
2.3921 0.3193 0.7576
2.3368 0.5054 0.7508
2.2822 0.6893 0.7488
2.2276 0.8734 0.7516
2.1722 1.0599 0.7594
2.1152 1.2516 0.7724
5.2979 3.7394 2.0382
4.9799 4.1518 2.0382
4.6300 4.5373 2.0382
4.2504 4.8935 2.0382
3.8436 5.2181 2.0382
3.4121 5.5091 2.0382
2.9587 5.7646 2.0382
2.4864 5.9829 2.0382
1.9982 6.1628 2.0382
1.4971 6.3030 2.0382
0.9865 6.4026 2.0382
0.4695 6.4611 2.0382
-0.0505 6.4780 2.0382
-0.5702 6.4532 2.0382
-1.0862 6.3870 2.0382
-1.5954 6.2796 2.0382
-2.0943 6.1318 2.0382
-2.5798 5.9446 2.0382
-3.0489 5.7190 2.0382
-3.4984 5.4567 2.0382
-3.9255 5.1591 2.0382
-4.3275 4.8283 2.0382
-4.7018 4.4662 2.0382
-5.0459 4.0753 2.0382
-5.8640 0.7199 2.0382
-5.9041 0.2472 2.0382
-5.9061 -0.2273 2.0382
-5.8701 -0.7005 2.0382
-5.7962 -1.1694 2.0382
-5.6848 -1.6309 2.0382
-5.5367 -2.0821 2.0382
-5.3529 -2.5200 2.0382
-5.1344 -2.9418 2.0382
-4.8827 -3.3447 2.0382
-4.5994 -3.7262 2.0382
-4.2863 -4.0837 2.0382
-3.9455 -4.4149 2.0382
-3.5791 -4.7177 2.0382
-3.1895 -4.9901 2.0382
-2.7793 -5.2303 2.0382
-2.3510 -5.4368 2.0382
-0.6907 -2.0308 0.7381
-1.4516 -5.7433 2.0382
-0.9863 -5.8414 2.0382
-0.5146 -5.9018 2.0382
-0.0396 -5.9240 2.0382
0.4356 -5.9079 2.0382
0.9080 -5.8537 2.0382
1.3745 -5.7617 2.0382
0.6635 -2.0398 0.7381
2.2777 -5.4669 2.0382
2.7086 -5.2661 2.0382
3.1219 -5.0313 2.0382
3.5149 -4.7640 2.0382
3.8852 -4.4661 2.0382
4.2302 -4.1394 2.0382
3.3040 -2.7506 1.4808
3.1455 -2.2170 1.3257
3.0163 -1.7821 1.2072
2.9077 -1.4166 1.1147
2.8141 -1.1014 1.0417
2.7315 -0.8233 0.9836
2.6572 -0.5731 0.9374
2.5892 -0.3441 0.9009
2.5259 -0.1310 0.8726
2.4661 0.0703 0.8513
2.4088 0.2632 0.8363
2.3532 0.4505 0.8271
2.2984 0.6348 0.8233
2.2439 0.8185 0.8248
2.1887 1.0041 0.8317
2.1324 1.1940 0.8443
4.8993 3.2857 2.0382
4.6192 3.6677 2.0382
4.3093 4.0259 2.0382
3.9719 4.3581 2.0382
3.6089 4.6622 2.0382
3.2228 4.9363 2.0382
2.8160 5.1785 2.0382
2.3912 5.3873 2.0382
1.9510 5.5615 2.0382
1.4984 5.6999 2.0382
1.0361 5.8016 2.0382
0.5672 5.8659 2.0382
0.0946 5.8926 2.0382
-0.3785 5.8813 2.0382
-0.8493 5.8322 2.0382
-1.3147 5.7455 2.0382
-1.7716 5.6219 2.0382
-2.2172 5.4621 2.0382
-2.6486 5.2671 2.0382
-3.0631 5.0381 2.0382
-3.4580 4.7767 2.0382
-3.8306 4.4845 2.0382
-4.1788 4.1635 2.0382
-4.5001 3.8152 2.0382
-4.7926 3.4424 2.0382
-5.0542 3.0473 2.0382
-5.2835 2.6325 2.0382
-5.4787 2.2005 2.0382
-5.6387 1.7542 2.0382
-5.7625 1.2964 2.0382
-5.8491 0.8301 2.0382
-5.8981 0.3582 2.0382
-5.9091 -0.1161 2.0382
-5.8819 -0.5899 2.0382
-5.8169 -1.0601 2.0382
-5.7142 -1.5236 2.0382
-5.5747 -1.9775 2.0382
-5.3991 -2.4187 2.0382
-5.1886 -2.8445 2.0382
-4.9446 -3.2521 2.0382
-4.6685 -3.6388 2.0382
-4.3623 -4.0022 2.0382
-4.0278 -4.3398 2.0382
-3.6671 -4.6494 2.0382
-3.2828 -4.9291 2.0382
-2.8771 -5.1770 2.0382
-2.4528 -5.3915 2.0382
-0.7288 -2.0175 0.7381
-1.5594 -5.7150 2.0382
-1.0960 -5.8218 2.0382
-0.6256 -5.8910 2.0382
-0.1511 -5.9222 2.0382
0.3244 -5.9151 2.0382
0.7977 -5.8698 2.0382
1.2659 -5.7866 2.0382
1.7258 -5.6661 2.0382
2.1745 -5.5089 2.0382
2.6091 -5.3163 2.0382
3.0268 -5.0893 2.0382
3.4248 -4.8295 2.0382
3.8006 -4.5386 2.0382
4.1517 -4.2185 2.0382
3.3467 -2.8945 1.5240
3.1796 -2.3318 1.3583
3.0445 -1.8770 1.2323
2.9317 -1.4972 1.1344
2.8349 -1.1715 1.0573
2.7500 -0.8856 0.9960
2.6740 -0.6296 0.9473
2.6046 -0.3962 0.9087
2.5404 -0.1797 0.8785
2.4798 0.0240 0.8557
2.4221 0.2186 0.8393
2.3661 0.4069 0.8287
2.3112 0.5917 0.8237
2.2567 0.7754 0.8240
2.2018 0.9603 0.8296
2.1457 1.1489 0.8408
4.9605 3.1931 2.0382
4.6876 3.5802 2.0382
4.3845 3.9442 2.0382
4.0533 4.2827 2.0382
3.6961 4.5936 2.0382
3.3152 4.8749 2.0382
2.9131 5.1247 2.0382
2.4922 5.3415 2.0382
2.0554 5.5239 2.0382
1.6054 5.6707 2.0382
1.1452 5.7811 2.0382
0.6775 5.8542 2.0382
0.2056 5.8897 2.0382
-0.2678 5.8873 2.0382
-0.7394 5.8471 2.0382
-1.2063 5.7692 2.0382
-1.6654 5.6541 2.0382
-2.1140 5.5027 2.0382
-2.5490 5.3159 2.0382
-2.9676 5.0948 2.0382
-3.3673 4.8408 2.0382
-3.7454 4.5556 2.0382
-4.0995 4.2410 2.0382
-4.4273 3.8990 2.0382
-4.7267 3.5318 2.0382
-4.9958 3.1418 2.0382
-5.2327 2.7313 2.0382
-5.4361 2.3031 2.0382
-5.6045 1.8599 2.0382
-5.7368 1.4046 2.0382
-5.8322 0.9400 2.0382
-5.8900 0.4691 2.0382
-5.9099 -0.0049 2.0382
-5.8917 -0.4791 2.0382
-5.8355 -0.9504 2.0382
-5.7416 -1.4157 2.0382
-5.6106 -1.8721 2.0382
-5.4434 -2.3166 2.0382
-5.2410 -2.7463 2.0382
-5.0047 -3.1584 2.0382
-4.7360 -3.5502 2.0382
-4.4367 -3.9192 2.0382
-4.1086 -4.2631 2.0382
-3.7539 -4.5795 2.0382
-3.3749 -4.8663 2.0382
-2.9740 -5.1218 2.0382
-2.5538 -5.3443 2.0382
-0.7667 -2.0035 0.7381
-1.6666 -5.6846 2.0382
-1.2054 -5.8001 2.0382
-0.7363 -5.8782 2.0382
-0.2625 -5.9183 2.0382
0.2131 -5.9202 2.0382
0.6872 -5.8839 2.0382
1.1568 -5.8095 2.0382
1.6189 -5.6976 2.0382
0.7499 -2.0098 0.7382
2.5087 -5.3645 2.0382
2.9305 -5.1455 2.0382
3.3334 -4.8932 2.0382
3.7146 -4.6095 2.0382
4.0718 -4.2960 2.0382
3.3921 -3.0472 1.5704
3.2154 -2.4525 1.3930
3.0738 -1.9758 1.2590
2.9565 -1.5807 1.1553
2.8564 -1.2438 1.0738
2.7690 -0.9496 1.0092
2.6911 -0.6874 0.9577
2.6204 -0.4492 0.9169
2.5550 -0.2292 0.8849
2.4937 -0.0228 0.8604
2.4354 0.1736 0.8426
2.3791 0.3632 0.8307
2.3240 0.5486 0.8244
2.2695 0.7323 0.8234
2.2147 0.9167 0.8278
2.1590 1.1043 0.8377
2.1016 1.2975 0.8533
4.7543 3.4915 2.0382
4.4581 3.8611 2.0382
4.1333 4.2058 2.0382
3.7820 4.5233 2.0382
3.4065 4.8117 2.0382
3.0091 5.0690 2.0382
2.5924 5.2937 2.0382
2.1591 5.4843 2.0382
1.7119 5.6395 2.0382
1.2538 5.7585 2.0382
0.7876 5.8405 2.0382
0.3164 5.8848 2.0382
-0.1569 5.8913 2.0382
-0.6292 5.8599 2.0382
-1.0974 5.7908 2.0382
-1.5587 5.6844 2.0382
-2.0100 5.5414 2.0382
-2.4484 5.3628 2.0382
-2.8711 5.1496 2.0382
-3.2755 4.9032 2.0382
-3.6589 4.6252 2.0382
-4.0188 4.3173 2.0382
-4.3530 3.9815 2.0382
-4.6592 3.6200 2.0382
-4.9355 3.2351 2.0382
-5.1802 2.8292 2.0382
-5.3915 2.4049 2.0382
-5.5682 1.9650 2.0382
-5.7091 1.5122 2.0382
-5.8132 1.0495 2.0382
-5.8799 0.5799 2.0382
-5.9087 0.1063 2.0382
-5.8994 -0.3681 2.0382
-5.8521 -0.8404 2.0382
-5.7670 -1.3074 2.0382
-5.6446 -1.7661 2.0382
-5.4858 -2.2136 2.0382
-5.2915 -2.6471 2.0382
-5.0630 -3.0635 2.0382
-4.8018 -3.4603 2.0382
-4.5095 -3.8349 2.0382
-4.1879 -4.1849 2.0382
-3.8393 -4.5079 2.0382
-3.4657 -4.8019 2.0382
-3.0697 -5.0649 2.0382
-2.6538 -5.2952 2.0382
-2.2207 -5.4914 2.0382
-1.7733 -5.6521 2.0382
-1.3143 -5.7764 2.0382
-0.8468 -5.8633 2.0382
-0.3738 -5.9124 2.0382
0.1016 -5.9232 2.0382
0.5763 -5.8958 2.0382
1.0473 -5.8303 2.0382
1.5115 -5.7272 2.0382
0.7119 -2.0234 0.7382
2.4074 -5.4109 2.0382
2.8333 -5.1998 2.0382
3.2408 -4.9552 2.0382
3.6274 -4.6787 2.0382
3.9904 -4.3720 2.0382
3.4403 -3.2095 1.6204
3.2532 -2.5795 1.4301
3.1045 -2.0791 1.2873
2.9822 -1.6674 1.1773
2.8786 -1.3184 1.0912
2.7886 -1.0154 1.0230
2.7087 -0.7464 0.9687
2.6364 -0.5032 0.9256
2.5699 -0.2793 0.8917
2.5078 -0.0701 0.8655
2.4489 0.1283 0.8462
2.3921 0.3193 0.8330
2.3369 0.5054 0.8254
2.2822 0.6893 0.8232
2.2276 0.8733 0.8263
2.1722 1.0599 0.8349
2.1152 1.2516 0.8491
4.8194 3.4015 2.0382
4.5302 3.7766 2.0382
4.2119 4.1274 2.0382
3.8666 4.4515 2.0382
3.4965 4.7468 2.0382
3.1040 5.0116 2.0382
2.6916 5.2440 2.0382
2.2620 5.4427 2.0382
1.8178 5.6064 2.0382
1.3620 5.7339 2.0382
0.8974 5.8246 2.0382
0.4271 5.8778 2.0382
-0.0459 5.8932 2.0382
-0.5187 5.8707 2.0382
-0.9882 5.8103 2.0382
-1.4514 5.7126 2.0382
-1.9053 5.5782 2.0382
-2.3470 5.4078 2.0382
-2.7736 5.2026 2.0382
-3.1825 4.9638 2.0382
-3.5711 4.6931 2.0382
-3.9367 4.3920 2.0382
-4.2771 4.0626 2.0382
-4.5901 3.7069 2.0382
-5.3689 0.6590 2.0382
-5.4055 0.2262 2.0382
-5.4073 -0.2082 2.0382
-5.3742 -0.6415 2.0382
-5.3064 -1.0707 2.0382
-5.2044 -1.4932 2.0382
-5.0687 -1.9062 2.0382
-4.9004 -2.3071 2.0382
-4.7003 -2.6932 2.0382
-4.4698 -3.0620 2.0382
-4.2104 -3.4112 2.0382
-3.9238 -3.7384 2.0382
-3.6118 -4.0416 2.0382
-3.2763 -4.3187 2.0382
-2.9197 -4.5680 2.0382
-2.5441 -4.7879 2.0382
-0.7799 -1.8036 0.7387
-0.6327 -1.8601 0.7385
-0.4814 -1.9046 0.7384
-0.3270 -1.9370 0.7383
-0.1706 -1.9569 0.7383
-0.0131 -1.9642 0.7383
0.1444 -1.9590 0.7383
0.3011 -1.9412 0.7384
0.4558 -1.9109 0.7385
0.6077 -1.8684 0.7386
0.7557 -1.8138 0.7387
2.4794 -4.8207 2.0382
2.8578 -4.6058 2.0382
3.2176 -4.3612 2.0382
3.5566 -4.0885 2.0382
3.8725 -3.7895 2.0382
3.3040 -2.7508 1.6176
3.1337 -2.2088 1.4427
3.0164 -1.7823 1.3186
2.9078 -1.4167 1.2176
2.8141 -1.1014 1.1378
2.7315 -0.8234 1.0744
2.6572 -0.5732 1.0239
2.5892 -0.3442 0.9840
2.5259 -0.1310 0.9530
2.4661 0.0703 0.9298
2.4088 0.2631 0.9134
2.3532 0.4504 0.9033
2.2985 0.6347 0.8992
2.2439 0.8185 0.9008
2.1888 1.0040 0.9084
2.1324 1.1939 0.9220
4.4861 3.0085 2.0382
4.2296 3.3583 2.0382
3.9460 3.6863 2.0382
3.6370 3.9906 2.0382
3.3047 4.2691 2.0382
2.9511 4.5201 2.0382
2.5787 4.7419 2.0382
2.1897 4.9332 2.0382
0.6561 1.8701 0.7485
0.5039 1.9169 0.7486
0.3485 1.9513 0.7487
0.1908 1.9731 0.7487
0.0867 5.3959 2.0382
-0.3466 5.3855 2.0382
-0.2857 1.9616 0.7486
-0.4421 1.9322 0.7486
-0.5957 1.8903 0.7484
-0.7454 1.8362 0.7483
-2.4254 4.8230 2.0382
-2.8049 4.6133 2.0382
-3.1664 4.3738 2.0382
-3.5077 4.1062 2.0382
-3.8264 3.8120 2.0382
-4.1206 3.4933 2.0382
-4.3883 3.1519 2.0382
-4.6278 2.7901 2.0382
-4.8376 2.4102 2.0382
-5.0164 2.0147 2.0382
-5.1628 1.6060 2.0382
-5.2760 1.1868 2.0382
-5.3553 0.7599 2.0382
-5.4000 0.3279 2.0382
-5.4100 -0.1064 2.0382
-5.3851 -0.5402 2.0382
-5.3254 -0.9707 2.0382
-5.2313 -1.3950 2.0382
-5.1035 -1.8105 2.0382
-4.9427 -2.2144 2.0382
-4.7499 -2.6042 2.0382
-4.5265 -2.9773 2.0382
-4.2737 -3.3312 2.0382
-3.9933 -3.6638 2.0382
-3.6871 -3.9728 2.0382
-3.3569 -4.2562 2.0382
-3.0050 -4.5122 2.0382
-2.6337 -4.7391 2.0382
-2.2453 -4.9354 2.0382
-0.6676 -1.8479 0.7385
-0.5171 -1.8953 0.7384
-0.3634 -1.9305 0.7383
-0.2074 -1.9533 0.7383
-0.0501 -1.9636 0.7383
0.1076 -1.9613 0.7383
0.2645 -1.9465 0.7384
0.4198 -1.9191 0.7384
0.5724 -1.8794 0.7386
0.7214 -1.8277 0.7387
2.3884 -4.8666 2.0382
2.7707 -4.6589 2.0382
3.1351 -4.4211 2.0382
3.4791 -4.1549 2.0382
3.8006 -3.8619 2.0382
3.3468 -2.8947 1.6648
3.1221 -2.2898 1.4569
3.0445 -1.8771 1.3461
2.9317 -1.4973 1.2392
2.8350 -1.1716 1.1549
2.7501 -0.8857 1.0880
2.6740 -0.6297 1.0347
2.6047 -0.3962 0.9925
2.5404 -0.1798 0.9596
2.4799 0.0240 0.9346
2.4221 0.2185 0.9167
2.3661 0.4069 0.9051
2.3112 0.5917 0.8996
2.2567 0.7753 0.8999
2.2018 0.9603 0.9061
2.1457 1.1489 0.9183
4.5422 2.9236 2.0382
4.2923 3.2782 2.0382
4.0148 3.6115 2.0382
3.7116 3.9215 2.0382
3.3845 4.2062 2.0382
3.0358 4.4638 2.0382
2.6675 4.6926 2.0382
2.2822 4.8912 2.0382
0.6911 1.8574 0.7484
0.5399 1.9071 0.7486
0.3852 1.9444 0.7486
0.2279 1.9692 0.7487
0.1882 5.3933 2.0382
-0.2452 5.3911 2.0382
-0.2487 1.9666 0.7487
-0.4057 1.9402 0.7486
-0.5600 1.9012 0.7485
-0.7107 1.8499 0.7483
-2.3341 4.8676 2.0382
-2.7175 4.6651 2.0382
-3.0834 4.4325 2.0382
-3.4296 4.1714 2.0382
-3.7538 3.8833 2.0382
-4.0540 3.5701 2.0382
-4.3280 3.2338 2.0382
-4.5743 2.8766 2.0382
-4.7912 2.5007 2.0382
-4.9773 2.1086 2.0382
-5.1314 1.7028 2.0382
-5.2525 1.2859 2.0382
-5.3398 0.8605 2.0382
-5.3927 0.4294 2.0382
-5.4108 -0.0046 2.0382
-5.3940 -0.4388 2.0382
-5.3425 -0.8702 2.0382
-5.2564 -1.2962 2.0382
-5.1365 -1.7140 2.0382
-4.9833 -2.1209 2.0382
-4.7979 -2.5142 2.0382
-4.5815 -2.8914 2.0382
-4.3355 -3.2501 2.0382
-4.0614 -3.5879 2.0382
-3.7610 -3.9026 2.0382
-3.4363 -4.1922 2.0382
-3.0893 -4.4548 2.0382
-2.7223 -4.6886 2.0382
-2.3377 -4.8922 2.0382
-0.7022 -1.8351 0.7386
-0.5527 -1.8853 0.7385
-0.3997 -1.9234 0.7384
-0.2441 -1.9491 0.7383
-0.0870 -1.9623 0.7383
0.0706 -1.9630 0.7383
0.2279 -1.9511 0.7383
0.3836 -1.9266 0.7384
0.5370 -1.8898 0.7385
0.6869 -1.8409 0.7387
2.2964 -4.9108 2.0382
2.6826 -4.7103 2.0382
3.0514 -4.4795 2.0382
3.4004 -4.2197 2.0382
3.7274 -3.9328 2.0382
3.3921 -3.0474 1.7155
3.1330 -2.3897 1.4827
3.0739 -1.9760 1.3752
2.9565 -1.5808 1.2619
2.8565 -1.2439 1.1729
2.7691 -0.9497 1.1023
2.6912 -0.6874 1.0461
2.6204 -0.4492 1.0015
2.5551 -0.2292 0.9665
2.4938 -0.0228 0.9398
2.4354 0.1736 0.9203
2.3791 0.3632 0.9073
2.3241 0.5485 0.9004
2.2695 0.7323 0.8993
2.2147 0.9167 0.9041
2.1590 1.1042 0.9149
2.1016 1.2975 0.9319
4.3534 3.1969 2.0382
4.0822 3.5354 2.0382
3.7848 3.8511 2.0382
3.4632 4.1419 2.0382
3.1193 4.4060 2.0382
2.7554 4.6416 2.0382
2.3739 4.8474 2.0382
0.7260 1.8440 0.7484
0.5757 1.8965 0.7485
0.4217 1.9368 0.7486
0.2649 1.9645 0.7487
0.2897 5.3888 2.0382
-0.1437 5.3947 2.0382
-0.2116 1.9710 0.7487
-0.3691 1.9475 0.7486
-0.5241 1.9115 0.7485
-0.6758 1.8630 0.7484
-2.2420 4.9106 2.0382
-2.6291 4.7153 2.0382
-2.9994 4.4897 2.0382
-3.3504 4.2350 2.0382
-3.6799 3.9531 2.0382
-3.9859 3.6456 2.0382
-4.2662 3.3146 2.0382
-4.5192 2.9620 2.0382
-4.7431 2.5903 2.0382
-4.9366 2.2018 2.0382
-5.0982 1.7990 2.0382
-5.2271 1.3844 2.0382
-5.3224 0.9608 2.0382
-5.3834 0.5308 2.0382
-5.4097 0.0972 2.0382
-5.4011 -0.3372 2.0382
-5.3577 -0.7695 2.0382
-5.2797 -1.1970 2.0382
-5.1676 -1.6170 2.0382
-5.0221 -2.0267 2.0382
-4.8442 -2.4234 2.0382
-4.6350 -2.8046 2.0382
-4.3957 -3.1678 2.0382
-4.1281 -3.5107 2.0382
-3.8337 -3.8310 2.0382
-3.5145 -4.1267 2.0382
-3.1725 -4.3957 2.0382
-2.8100 -4.6365 2.0382
-2.4293 -4.8473 2.0382
-0.7366 -1.8216 0.7386
-0.5881 -1.8746 0.7385
-0.4358 -1.9155 0.7384
-0.2808 -1.9442 0.7383
-0.1239 -1.9604 0.7383
0.0337 -1.9640 0.7383
0.1911 -1.9550 0.7383
0.3473 -1.9335 0.7384
0.5013 -1.8995 0.7385
0.6521 -1.8534 0.7386
2.2037 -4.9533 2.0382
2.5936 -4.7601 2.0382
2.9667 -4.5362 2.0382
3.3205 -4.2831 2.0382
3.6529 -4.0024 2.0382
3.4404 -3.2097 1.7701
3.2532 -2.5796 1.5622
3.1046 -2.0793 1.4062
2.9823 -1.6675 1.2860
2.8786 -1.3185 1.1920
2.7886 -1.0155 1.1174
2.7087 -0.7465 1.0581
2.6364 -0.5032 1.0110
2.5700 -0.2794 0.9739
2.5078 -0.0702 0.9454
2.4489 0.1283 0.9242
2.3922 0.3192 0.9098
2.3369 0.5053 0.9015
2.2823 0.6892 0.8991
2.2276 0.8733 0.9025
2.1722 1.0598 0.9118
2.1153 1.2515 0.9273
4.4129 3.1145 2.0382
4.1482 3.4581 2.0382
3.8568 3.7793 2.0382
3.5406 4.0761 2.0382
3.2018 4.3466 2.0382
2.8424 4.5890 2.0382
2.4648 4.8019 2.0382
0.7605 1.8299 0.7484
0.6113 1.8853 0.7485
0.4581 1.9285 0.7486
0.3019 1.9591 0.7487
0.3911 5.3824 2.0382
-0.0421 5.3964 2.0382
-0.1745 1.9746 0.7487
-0.3324 1.9542 0.7486
-0.4881 1.9210 0.7485
-0.6406 1.8755 0.7484
-2.1491 4.9518 2.0382
-2.5398 4.7639 2.0382
-2.9142 4.5452 2.0382
-3.2700 4.2972 2.0382
-3.6048 4.0215 2.0382
-3.9164 3.7198 2.0382
-4.2029 3.3941 2.0382
-4.9426 0.6065 2.0382
-4.9762 0.2081 2.0382
-4.9778 -0.1918 2.0382
-4.9473 -0.5907 2.0382
-4.8848 -0.9858 2.0382
-4.7908 -1.3747 2.0382
-4.6659 -1.7549 2.0382
-4.5109 -2.1238 2.0382
-4.3266 -2.4792 2.0382
-4.1144 -2.8187 2.0382
-3.8756 -3.1400 2.0382
-3.6118 -3.4412 2.0382
-3.3245 -3.7203 2.0382
-3.0157 -3.9753 2.0382
-2.6874 -4.2048 2.0382
-2.3417 -4.4071 2.0382
-0.7182 -1.6610 0.7390
-0.5826 -1.7131 0.7389
-0.4433 -1.7541 0.7388
-0.3012 -1.7839 0.7387
-0.1572 -1.8022 0.7387
-0.0121 -1.8090 0.7387
0.1330 -1.8042 0.7387
0.2773 -1.7877 0.7388
0.4198 -1.7599 0.7389
0.5596 -1.7207 0.7390
0.6959 -1.6704 0.7391
2.2822 -4.4374 2.0382
2.6305 -4.2396 2.0382
2.9617 -4.0145 2.0382
3.2737 -3.7636 2.0382
3.5646 -3.4884 2.0382
3.3041 -2.7510 1.7573
3.0852 -2.1747 1.5431
3.0164 -1.7824 1.4325
2.9078 -1.4169 1.3227
2.8142 -1.1015 1.2360
2.7316 -0.8234 1.1671
2.6573 -0.5733 1.1122
2.5892 -0.3442 1.0689
2.5259 -0.1311 1.0353
2.4661 0.0702 1.0100
2.4089 0.2631 0.9922
2.3532 0.4504 0.9812
2.2985 0.6347 0.9767
2.2439 0.8184 0.9785
2.1888 1.0040 0.9867
2.1324 1.1939 1.0015
4.1303 2.7698 2.0382
3.8942 3.0918 2.0382
3.6331 3.3939 2.0382
3.3486 3.6741 2.0382
3.0427 3.9305 2.0382
2.7172 4.1616 2.0382
2.3743 4.3659 2.0382
0.7398 1.6667 0.7479
0.6037 1.7209 0.7481
0.4637 1.7640 0.7482
0.3207 1.7956 0.7483
0.1756 1.8157 0.7483
0.0293 1.8239 0.7483
-0.1172 1.8204 0.7483
-0.2629 1.8051 0.7482
-0.4069 1.7780 0.7482
-0.5482 1.7395 0.7480
-0.6859 1.6897 0.7479
-2.2331 4.4405 2.0382
-2.5825 4.2474 2.0382
-2.9154 4.0269 2.0382
-3.2295 3.7804 2.0382
-3.5229 3.5096 2.0382
-3.7937 3.2161 2.0382
-4.0402 2.9017 2.0382
-4.2607 2.5686 2.0382
-4.4538 2.2188 2.0382
-4.6183 1.8546 2.0382
-4.7530 1.4784 2.0382
-4.8572 1.0925 2.0382
-4.9301 0.6994 2.0382
-4.9712 0.3017 2.0382
-4.9803 -0.0981 2.0382
-4.9573 -0.4974 2.0382
-4.9023 -0.8937 2.0382
-4.8157 -1.2843 2.0382
-4.6979 -1.6667 2.0382
-4.5498 -2.0385 2.0382
-4.3724 -2.3973 2.0382
-4.1666 -2.7407 2.0382
-3.9339 -3.0665 2.0382
-3.6758 -3.3726 2.0382
-3.3938 -3.6570 2.0382
-3.0899 -3.9178 2.0382
-2.7660 -4.1534 2.0382
-2.4242 -4.3622 2.0382
-0.7494 -1.6473 0.7391
-0.6148 -1.7018 0.7389
-0.4763 -1.7455 0.7388
-0.3347 -1.7779 0.7388
-0.1910 -1.7990 0.7387
-0.0461 -1.8084 0.7387
0.0991 -1.8063 0.7387
0.2436 -1.7926 0.7388
0.3866 -1.7674 0.7388
0.5272 -1.7309 0.7389
0.6644 -1.6832 0.7391
2.1984 -4.4796 2.0382
2.5503 -4.2885 2.0382
2.8857 -4.0696 2.0382
3.2025 -3.8246 2.0382
3.4984 -3.5549 2.0382
3.3469 -2.8949 1.8086
3.0715 -2.2528 1.5571
3.0446 -1.8772 1.4624
2.9318 -1.4974 1.3462
2.8350 -1.1717 1.2546
2.7501 -0.8858 1.1819
2.6740 -0.6298 1.1240
2.6047 -0.3963 1.0781
2.5404 -0.1799 1.0423
2.4799 0.0239 1.0152
2.4221 0.2185 0.9957
2.3662 0.4068 0.9832
2.3113 0.5916 0.9772
2.2567 0.7753 0.9775
2.2018 0.9602 0.9842
2.1458 1.1488 0.9974
4.1819 2.6916 2.0382
3.9519 3.0181 2.0382
3.6964 3.3250 2.0382
3.4173 3.6105 2.0382
3.1162 3.8726 2.0382
2.7951 4.1098 2.0382
2.4561 4.3205 2.0382
0.7710 1.6524 0.7479
0.6360 1.7092 0.7480
0.4968 1.7549 0.7482
0.3544 1.7893 0.7482
0.2097 1.8120 0.7483
0.0636 1.8231 0.7483
-0.0829 1.8223 0.7483
-0.2289 1.8097 0.7482
-0.3733 1.7854 0.7482
-0.5154 1.7495 0.7481
-0.6540 1.7024 0.7479
-2.1491 4.4816 2.0382
-2.5021 4.2951 2.0382
-2.8390 4.0810 2.0382
-3.1577 3.8405 2.0382
-3.4561 3.5752 2.0382
-3.7324 3.2868 2.0382
-3.9847 2.9771 2.0382
-4.2114 2.6482 2.0382
-4.4111 2.3022 2.0382
-4.5823 1.9412 2.0382
-4.7242 1.5675 2.0382
-4.8356 1.1836 2.0382
-4.9158 0.7920 2.0382
-4.9644 0.3952 2.0382
-4.9811 -0.0044 2.0382
-4.9656 -0.4040 2.0382
-4.9180 -0.8012 2.0382
-4.8388 -1.1934 2.0382
-4.7283 -1.5779 2.0382
-4.5872 -1.9525 2.0382
-4.4165 -2.3145 2.0382
-4.2173 -2.6617 2.0382
-3.9908 -2.9918 2.0382
-3.7385 -3.3027 2.0382
-3.4619 -3.5924 2.0382
-3.1630 -3.8589 2.0382
-2.8436 -4.1005 2.0382
-2.5058 -4.3158 2.0382
-0.7803 -1.6329 0.7391
-0.6467 -1.6900 0.7390
-0.5090 -1.7363 0.7389
-0.3681 -1.7713 0.7388
-0.2248 -1.7951 0.7387
-0.0802 -1.8073 0.7387
