ply
format ascii 1.0
element vertex 2180
property float32 x
property float32 y
property float32 z
end_header
0.5082 7.9765 2.0373
-0.1339 7.9914 2.0373
-0.7752 7.9551 2.0373
-1.4116 7.8678 2.0373
-2.0390 7.7301 2.0373
-2.6536 7.5428 2.0373
-3.2514 7.3070 2.0373
-3.8287 7.0243 2.0373
-4.3817 6.6963 2.0373
-4.9070 6.3252 2.0373
-5.4011 5.9132 2.0373
-5.8610 5.4629 2.0373
-6.2836 4.9771 2.0373
-6.6663 4.4588 2.0373
-7.0065 3.9113 2.0373
-7.3019 3.3381 2.0373
-7.5507 2.7428 2.0373
-7.7511 2.1291 2.0373
-7.9018 1.5010 2.0373
-8.0018 0.8625 2.0373
-8.0502 0.2176 2.0373
-8.0468 -0.4295 2.0373
-7.9914 -1.0746 2.0373
-7.8843 -1.7135 2.0373
-7.7260 -2.3421 2.0373
-7.5177 -2.9563 2.0373
-7.2604 -3.5521 2.0373
-6.9558 -4.1255 2.0373
-6.6059 -4.6728 2.0373
-6.2128 -5.1904 2.0373
-5.7790 -5.6748 2.0373
-5.3074 -6.1228 2.0373
-4.8010 -6.5315 2.0373
-4.2630 -6.8980 2.0373
-3.6970 -7.2201 2.0373
-3.1067 -7.4954 2.0373
-2.4960 -7.7222 2.0373
-1.8687 -7.8989 2.0373
-1.2292 -8.0244 2.0373
-0.5816 -8.0977 2.0373
0.0699 -8.1184 2.0373
0.7209 -8.0864 2.0373
1.3672 -8.0019 2.0373
2.0045 -7.8654 2.0373
2.6285 -7.6779 2.0373
3.2353 -7.4406 2.0373
3.8032 -7.1223 2.0280
3.9429 -6.1410 1.8336
4.5451 -5.9652 1.8849
5.0070 -5.5791 1.8849
5.4361 -5.1571 1.8849
5.8296 -4.7021 1.8849
6.1941 -4.2233 1.8877
6.5270 -3.7207 1.8928
6.8166 -3.1906 1.8972
7.0603 -2.6369 1.9009
7.2560 -2.0638 1.9038
7.4021 -1.4757 1.9060
7.4975 -0.8770 1.9074
7.5412 -0.2723 1.9080
7.5331 0.3336 1.9077
7.4733 0.9360 1.9067
7.3625 1.5304 1.9049
7.2017 2.1123 1.9023
6.9924 2.6772 1.8990
6.7366 3.2211 1.8949
6.4365 3.7401 1.8902
6.0949 4.2304 1.8848
5.7331 4.7040 1.8849
5.3344 5.1466 1.8849
4.9019 5.5559 1.8849
4.4382 5.9291 1.8849
3.9701 6.3017 1.8962
3.7069 7.0890 2.0373
3.1249 7.3618 2.0373
2.5232 7.5872 2.0373
1.9055 7.7639 2.0373
1.2758 7.8909 2.0373
0.6380 7.9672 2.0373
-0.0038 7.9925 2.0373
-0.6456 7.9666 2.0373
-1.2833 7.8896 2.0373
-1.9129 7.7620 2.0373
-2.5304 7.5847 2.0373
-3.1319 7.3586 2.0373
-3.7136 7.0853 2.0373
-4.2718 6.7663 2.0373
-4.8030 6.4038 2.0373
-5.3037 5.9998 2.0373
-5.7708 5.5570 2.0373
-6.2012 5.0782 2.0373
-6.5921 4.5662 2.0373
-6.9411 4.0244 2.0373
-7.2458 3.4561 2.0373
-7.5041 2.8649 2.0373
-7.7145 2.2547 2.0373
-7.8754 1.6292 2.0373
-7.9857 0.9924 2.0373
-8.0446 0.3485 2.0373
-8.0517 -0.2985 2.0373
-8.0068 -0.9443 2.0373
-7.9101 -1.5848 2.0373
-7.7622 -2.2158 2.0373
-7.5639 -2.8333 2.0373
-7.3164 -3.4331 2.0373
-7.0213 -4.0113 2.0373
-6.6803 -4.5642 2.0373
-6.2958 -5.0881 2.0373
-5.8700 -5.5795 2.0373
-5.4058 -6.0352 2.0373
-4.9062 -6.4520 2.0373
-4.3744 -6.8273 2.0373
-3.8138 -7.1586 2.0373
-3.2281 -7.4435 2.0373
-2.6211 -7.6803 2.0373
-1.9969 -7.8672 2.0373
-1.3595 -8.0031 2.0373
-0.7132 -8.0871 2.0373
-0.0621 -8.1185 2.0373
0.5893 -8.0972 2.0373
1.2369 -8.0232 2.0373
1.8763 -7.8972 2.0373
2.5034 -7.7199 2.0373
3.1140 -7.4926 2.0373
3.7041 -7.2167 2.0373
3.9092 -6.3120 1.8653
4.4478 -6.0388 1.8849
4.9160 -5.6603 1.8849
5.3520 -5.2454 1.8849
5.7529 -4.7968 1.8849
6.1216 -4.3214 1.8866
6.4630 -3.8248 1.8918
6.7616 -3.3000 1.8963
7.0147 -2.7508 1.9002
7.2203 -2.1813 1.9033
7.3766 -1.5958 1.9056
7.4823 -0.9988 1.9072
7.5365 -0.3950 1.9079
7.5389 0.2110 1.9079
7.4896 0.8145 1.9070
7.3890 1.4109 1.9053
7.2382 1.9957 1.9029
7.0386 2.5644 1.8997
6.7921 3.1129 1.8958
6.5008 3.6372 1.8912
6.1673 4.1336 1.8859
4.9279 -4.5254 1.8849
5.2728 -4.1136 1.8849
5.5832 -3.6756 1.8849
5.8573 -3.2142 1.8849
6.0965 -2.7339 1.8859
6.3033 -2.2384 1.8891
6.4675 -1.7267 1.8915
6.5878 -1.2026 1.8933
6.6631 -0.6700 1.8944
6.6929 -0.1331 1.8948
6.6770 0.4042 1.8944
6.6156 0.9378 1.8934
6.5094 1.4636 1.8917
6.3593 1.9778 1.8892
6.1666 2.4765 1.8862
5.9408 2.9600 1.8849
5.6812 3.4256 1.8849
5.3852 3.8688 1.8849
5.0550 4.2868 1.8849
4.6925 4.6768 1.8849
4.3002 5.0365 1.8849
3.9537 5.4648 1.9204
3.7141 6.1134 2.0373
3.2103 6.3901 2.0373
2.6862 6.6257 2.0373
2.1451 6.8187 2.0373
1.5904 6.9679 2.0373
1.0256 7.0723 2.0373
0.4544 7.1314 2.0373
-0.1197 7.1448 2.0373
-0.6931 7.1123 2.0373
-1.2621 7.0342 2.0373
-1.8231 6.9110 2.0373
-2.3725 6.7434 2.0373
-2.9069 6.5325 2.0373
-3.4229 6.2795 2.0373
-3.9172 5.9861 2.0373
-4.3867 5.6541 2.0373
-4.8282 5.2856 2.0373
-5.2391 4.8828 2.0373
-5.6166 4.4483 2.0373
-5.9583 3.9857 2.0373
-6.2621 3.4954 2.0373
-6.5258 2.9829 2.0373
-6.7477 2.4507 2.0373
-6.9264 1.9022 2.0373
-7.0607 1.3408 2.0373
-7.1495 0.7702 2.0373
-7.1924 0.1940 2.0373
-7.1888 -0.3841 2.0373
-7.1389 -0.9603 2.0373
-7.0427 -1.5310 2.0373
-6.9010 -2.0924 2.0373
-6.7145 -2.6409 2.0373
-6.4843 -3.1728 2.0373
-6.2120 -3.6847 2.0373
-5.8991 -4.1733 2.0373
-5.5478 -4.6352 2.0373
-5.1602 -5.0675 2.0373
-4.7389 -5.4673 2.0373
-4.2866 -5.8320 2.0373
-3.8061 -6.1591 2.0373
-3.3007 -6.4464 2.0373
-2.7736 -6.6920 2.0373
-2.2283 -6.8943 2.0373
-1.6683 -7.0520 2.0373
-1.0973 -7.1639 2.0373
-0.5192 -7.2293 2.0373
0.0624 -7.2478 2.0373
0.6436 -7.2192 2.0373
1.2205 -7.1438 2.0373
1.7895 -7.0221 2.0373
2.3466 -6.8548 2.0373
2.8883 -6.6431 2.0373
3.4111 -6.3884 2.0373
3.8222 -5.9534 1.9908
4.0581 -5.3264 1.8849
4.4707 -4.9819 1.8849
4.8540 -4.6053 1.8849
5.2056 -4.1992 1.8849
5.5232 -3.7663 1.8849
5.8048 -3.3094 1.8849
6.0496 -2.8320 1.8852
6.2648 -2.3402 1.8885
6.4378 -1.8315 1.8911
6.5670 -1.3095 1.8930
6.6515 -0.7784 1.8942
6.6906 -0.2420 1.8947
6.6839 0.2956 1.8946
6.6317 0.8302 1.8937
6.5345 1.3579 1.8921
6.3931 1.8748 1.8898
6.2090 2.3769 1.8868
5.9888 2.8632 1.8849
5.7367 3.3331 1.8849
5.4480 3.7810 1.8849
5.1245 4.2043 1.8849
4.7684 4.6002 1.8849
4.3819 4.9662 1.8849
3.9700 5.3032 1.8860
3.8134 6.0525 2.0373
3.3141 6.3374 2.0373
2.7939 6.5814 2.0373
2.2559 6.7831 2.0373
1.7037 6.9412 2.0373
1.1407 7.0548 2.0373
0.5704 7.1231 2.0373
-0.0034 7.1458 2.0373
-0.5772 7.1226 2.0373
-1.1474 7.0537 2.0373
-1.7103 6.9395 2.0373
-2.2623 6.7809 2.0373
-2.8001 6.5786 2.0373
-3.3201 6.3341 2.0373
-3.8190 6.0487 2.0373
-4.2937 5.7244 2.0373
-4.7412 5.3631 2.0373
-5.1585 4.9670 2.0373
-5.5430 4.5388 2.0373
-5.8921 4.0809 2.0373
-6.2037 3.5964 2.0373
-6.4757 3.0884 2.0373
-6.7062 2.5599 2.0373
-6.8938 2.0144 2.0373
-7.0371 1.4554 2.0373
-7.1352 0.8863 2.0373
-7.1874 0.3110 2.0373
-7.1933 -0.2670 2.0373
-7.1527 -0.8440 2.0373
-7.0659 -1.4161 2.0373
-6.9334 -1.9796 2.0373
-6.7558 -2.5310 2.0373
-6.5344 -3.0665 2.0373
-6.2704 -3.5828 2.0373
-5.9657 -4.0764 2.0373
-5.6220 -4.5439 2.0373
-5.2415 -4.9825 2.0373
-4.8268 -5.3891 2.0373
-4.3805 -5.7611 2.0373
-3.9055 -6.0960 2.0373
-3.4049 -6.3915 2.0373
-2.8819 -6.6458 2.0373
-2.3400 -6.8569 2.0373
-1.7827 -7.0237 2.0373
-1.2137 -7.1449 2.0373
-0.6367 -7.2198 2.0373
-0.0555 -7.2478 2.0373
0.5261 -7.2288 2.0373
1.1042 -7.1629 2.0373
1.6751 -7.0504 2.0373
2.2349 -6.8923 2.0373
2.7800 -6.6895 2.0373
3.3069 -6.4434 2.0373
3.8116 -6.1547 2.0370
3.9712 -5.3921 1.8849
4.3894 -5.0543 1.8849
4.7789 -4.6840 1.8849
5.1371 -4.2837 1.8849
5.4618 -3.8560 1.8849
5.7508 -3.4037 1.8849
6.0010 -2.9292 1.8845
6.2246 -2.4413 1.8879
6.4063 -1.9357 1.8906
6.5445 -1.4161 1.8927
6.6381 -0.8865 1.8940
6.6863 -0.3508 1.8947
6.6889 0.1868 1.8947
6.6459 0.7224 1.8939
6.5578 1.2518 1.8924
6.4253 1.7712 1.8903
6.2497 2.2766 1.8875
6.0325 2.7644 1.8840
5.7908 3.2396 1.8849
5.5094 3.6922 1.8849
4.4444 -4.0817 1.8849
4.7556 -3.7105 1.8849
5.0359 -3.3156 1.8849
5.2833 -2.8995 1.8849
5.4963 -2.4651 1.8849
5.6736 -2.0152 1.8849
5.8141 -1.5526 1.8849
5.9170 -1.0805 1.8849
5.9778 -0.6015 1.8837
6.0047 -0.1197 1.8841
5.9909 0.3623 1.8838
5.9429 0.8421 1.8849
5.8531 1.3157 1.8849
5.7257 1.7804 1.8849
5.5616 2.2332 1.8849
5.3618 2.6711 1.8849
5.1277 3.0916 1.8849
4.8608 3.4917 1.8849
4.5629 3.8691 1.8849
4.2359 4.2214 1.8849
3.9458 4.6211 1.9159
3.7864 5.2331 2.0373
3.3530 5.5187 2.0373
2.8983 5.7686 2.0373
2.4252 5.9814 2.0373
1.9367 6.1558 2.0373
1.4359 6.2905 2.0373
0.9260 6.3849 2.0373
0.4102 6.4383 2.0373
-0.1081 6.4504 2.0373
-0.6258 6.4210 2.0373
-1.1395 6.3505 2.0373
-1.6459 6.2391 2.0373
-2.1420 6.0877 2.0373
-2.6244 5.8972 2.0373
-3.0902 5.6687 2.0373
-3.5363 5.4037 2.0373
-3.9600 5.1038 2.0373
-4.3585 4.7710 2.0373
-4.7292 4.4073 2.0373
-5.0698 4.0149 2.0373
-5.3780 3.5964 2.0373
-5.6519 3.1544 2.0373
-5.8897 2.6918 2.0373
-6.0897 2.2113 2.0373
-6.2506 1.7162 2.0373
-6.3715 1.2096 2.0373
-6.4513 0.6946 2.0373
-6.4897 0.1747 2.0373
-6.4862 -0.3469 2.0373
-6.4408 -0.8668 2.0373
-6.3537 -1.3816 2.0373
-6.2255 -1.8880 2.0373
-6.0569 -2.3826 2.0373
-5.8490 -2.8623 2.0373
-5.6031 -3.3239 2.0373
-5.3207 -3.7644 2.0373
-5.0036 -4.1809 2.0373
-4.6539 -4.5707 2.0373
-4.2737 -4.9311 2.0373
-3.8657 -5.2598 2.0373
-3.4323 -5.5546 2.0373
-2.9764 -5.8135 2.0373
-2.5011 -6.0349 2.0373
-2.0093 -6.2172 2.0373
-1.5043 -6.3592 2.0373
-0.9895 -6.4601 2.0373
-0.4681 -6.5190 2.0373
0.0563 -6.5357 2.0373
0.5803 -6.5100 2.0373
1.1006 -6.4420 2.0373
1.6136 -6.3323 2.0373
2.1160 -6.1816 2.0373
2.6046 -5.9908 2.0373
3.0760 -5.7612 2.0373
3.5273 -5.4945 2.0373
3.8347 -5.0335 1.9751
4.0319 -4.4932 1.8849
4.3778 -4.1538 1.8849
4.6951 -3.7877 1.8849
4.9817 -3.3974 1.8849
5.2359 -2.9854 1.8849
5.4560 -2.5544 1.8849
5.6407 -2.1074 1.8849
5.7887 -1.6472 1.8849
5.8992 -1.1767 1.8849
5.9674 -0.6987 1.8836
6.0026 -0.2175 1.8841
5.9970 0.2649 1.8839
5.9564 0.7453 1.8849
5.8744 1.2204 1.8849
5.7545 1.6871 1.8849
5.5977 2.1426 1.8849
5.4051 2.5838 1.8849
5.1778 3.0080 1.8849
4.9174 3.4125 1.8849
4.6256 3.7946 1.8849
4.3044 4.1522 1.8849
3.9604 4.4881 1.8871
3.8713 5.1711 2.0373
3.4426 5.4637 2.0373
2.9920 5.7210 2.0373
2.5223 5.9414 2.0373
2.0367 6.1236 2.0373
1.5382 6.2665 2.0373
1.0299 6.3691 2.0373
0.5150 6.4308 2.0373
-0.0031 6.4513 2.0373
-0.5211 6.4303 2.0373
-1.0359 6.3681 2.0373
-1.5441 6.2649 2.0373
-2.0425 6.1216 2.0373
-2.5279 5.9389 2.0373
-2.9974 5.7180 2.0373
-3.4477 5.4602 2.0373
-3.8762 5.1673 2.0373
-4.2800 4.8410 2.0373
-4.6565 4.4833 2.0373
-5.0034 4.0966 2.0373
-5.3184 3.6832 2.0373
-5.5993 3.2457 2.0373
-5.8445 2.7870 2.0373
-6.0523 2.3100 2.0373
-6.2213 1.8175 2.0373
-6.3503 1.3130 2.0373
-6.4385 0.7994 2.0373
-6.4853 0.2802 2.0373
-6.4903 -0.2413 2.0373
-6.4533 -0.7618 2.0373
-6.3747 -1.2779 2.0373
-6.2548 -1.7863 2.0373
-6.0943 -2.2835 2.0373
-5.8943 -2.7665 2.0373
-5.6559 -3.2320 2.0373
-5.3808 -3.6771 2.0373
-5.0705 -4.0986 2.0373
-4.7272 -4.4940 2.0373
-4.3531 -4.8606 2.0373
-3.9505 -5.1959 2.0373
-3.5220 -5.4977 2.0373
-3.0704 -5.7641 2.0373
-2.5988 -5.9931 2.0373
-2.1100 -6.1835 2.0373
-1.6075 -6.3338 2.0373
-1.0944 -6.4430 2.0373
-0.5741 -6.5105 2.0373
-0.0500 -6.5357 2.0373
0.4744 -6.5186 2.0373
0.9957 -6.4592 2.0373
1.5104 -6.3579 2.0373
2.0153 -6.2153 2.0373
2.5069 -6.0326 2.0373
2.9821 -5.8108 2.0373
3.4377 -5.5515 2.0373
3.8259 -5.1951 2.0136
3.9586 -4.5585 1.8849
4.3100 -4.2248 1.8849
4.6332 -3.8639 1.8849
4.9262 -3.4783 1.8849
5.1871 -3.0704 1.8849
5.4143 -2.6431 1.8849
5.6062 -2.1991 1.8849
5.7617 -1.7413 1.8849
5.8799 -1.2727 1.8849
5.9553 -0.7957 1.8834
5.9987 -0.3151 1.8840
6.0014 0.1673 1.8840
5.9634 0.6478 1.8833
5.8941 1.1248 1.8849
5.7818 1.5934 1.8849
5.6324 2.0514 1.8849
5.4469 2.4957 1.8849
5.2266 2.9236 1.8849
4.9728 3.3322 1.8849
4.0409 -3.7114 1.8849
4.3240 -3.3740 1.8849
4.5789 -3.0151 1.8849
4.8041 -2.6369 1.8849
4.9980 -2.2419 1.8849
5.1595 -1.8329 1.8849
5.2874 -1.4123 1.8849
5.3812 -0.9830 1.8849
5.4401 -0.5477 1.8849
5.4638 -0.1093 1.8849
5.4523 0.3295 1.8849
5.4057 0.7656 1.8849
5.3243 1.1965 1.8849
5.2086 1.6193 1.8849
5.0595 2.0312 1.8849
4.8779 2.4298 1.8849
4.6651 2.8124 1.8849
4.4225 3.1765 1.8849
4.1516 3.5200 1.8849
3.9368 3.9230 1.9253
3.8177 4.4708 2.0373
3.4454 4.7615 2.0373
3.0511 5.0214 2.0373
2.6374 5.2490 2.0373
2.2069 5.4427 2.0373
1.7624 5.6014 2.0373
1.3067 5.7241 2.0373
0.8427 5.8101 2.0373
0.3733 5.8587 2.0373
-0.0984 5.8696 2.0373
-0.5695 5.8429 2.0373
-1.0369 5.7787 2.0373
-1.4978 5.6773 2.0373
-1.9492 5.5395 2.0373
-2.3882 5.3660 2.0373
-2.8120 5.1580 2.0373
-3.2179 4.9167 2.0373
-3.6033 4.6438 2.0373
-3.9658 4.3408 2.0373
-4.3030 4.0097 2.0373
-4.6127 3.6526 2.0373
-4.8930 3.2717 2.0373
-5.1420 2.8695 2.0373
-5.3581 2.4485 2.0373
-5.5398 2.0113 2.0373
-5.6860 1.5608 2.0373
-5.7957 1.0999 2.0373
-5.8681 0.6315 2.0373
-5.9027 0.1585 2.0373
-5.8992 -0.3157 2.0373
-5.8577 -0.7887 2.0373
-5.7783 -1.2568 2.0373
-5.6615 -1.7172 2.0373
-5.5079 -2.1670 2.0373
-5.3187 -2.6031 2.0373
-5.0949 -3.0228 2.0373
-4.8379 -3.4232 2.0373
-4.5494 -3.8018 2.0373
-4.2313 -4.1560 2.0373
-3.8856 -4.4835 2.0373
-3.5145 -4.7820 2.0373
-3.1204 -5.0501 2.0373
-2.7059 -5.2854 2.0373
-2.2737 -5.4866 2.0373
-1.8266 -5.6522 2.0373
-1.3675 -5.7813 2.0373
-0.8995 -5.8729 2.0373
-0.4256 -5.9265 2.0373
0.0512 -5.9416 2.0373
0.5275 -5.9182 2.0373
1.0005 -5.8565 2.0373
1.4669 -5.7568 2.0373
0.6949 -2.0301 0.7360
2.3678 -5.4465 2.0373
2.7964 -5.2379 2.0373
3.2068 -4.9955 2.0373
3.5962 -4.7208 2.0373
3.8424 -4.2823 1.9758
3.9803 -3.7769 1.8849
4.2689 -3.4442 1.8849
4.5297 -3.0894 1.8849
4.7610 -2.7149 1.8849
4.9613 -2.3232 1.8849
5.1294 -1.9167 1.8849
5.2643 -1.4982 1.8849
5.3650 -1.0705 1.8849
5.4310 -0.6362 1.8849
5.4619 -0.1982 1.8849
5.4575 0.2407 1.8849
5.4180 0.6776 1.8849
5.3435 1.1098 1.8849
5.2347 1.5344 1.8849
5.0923 1.9488 1.8849
4.9173 2.3503 1.8849
4.7107 2.7363 1.8849
4.4740 3.1044 1.8849
4.2086 3.4522 1.8849
3.9428 3.8031 1.8976
3.8903 4.4083 2.0373
3.5226 4.7050 2.0373
3.1326 4.9713 2.0373
2.7226 5.2056 2.0373
2.2953 5.4063 2.0373
1.8534 5.5722 2.0373
1.3997 5.7022 2.0373
0.9372 5.7957 2.0373
0.4687 5.8519 2.0373
-0.0028 5.8705 2.0373
-0.4742 5.8514 2.0373
-0.9427 5.7947 2.0373
-1.4052 5.7008 2.0373
-1.8587 5.5703 2.0373
-2.3004 5.4040 2.0373
-2.7275 5.2029 2.0373
-3.1372 4.9682 2.0373
-3.5270 4.7015 2.0373
-3.8943 4.4045 2.0373
-4.2368 4.0789 2.0373
-4.5523 3.7269 2.0373
-4.8387 3.3506 2.0373
-5.0942 2.9525 2.0373
-5.3170 2.5351 2.0373
-5.5058 2.1010 2.0373
-5.6593 1.6530 2.0373
-5.7765 1.1940 2.0373
-5.8565 0.7268 2.0373
-5.8988 0.2545 2.0373
-5.9030 -0.2199 2.0373
-5.8692 -0.6932 2.0373
-5.7974 -1.1625 2.0373
-5.6881 -1.6248 2.0373
-5.5420 -2.0769 2.0373
-5.3598 -2.5160 2.0373
-5.1429 -2.9392 2.0373
-4.8925 -3.3438 2.0373
-4.6103 -3.7270 2.0373
-4.2980 -4.0863 2.0373
-3.9577 -4.4194 2.0373
-3.5916 -4.7242 2.0373
-3.2019 -4.9985 2.0373
-2.7913 -5.2405 2.0373
-2.3625 -5.4487 2.0373
-0.6929 -2.0308 0.7360
-1.4613 -5.7582 2.0373
-0.9948 -5.8574 2.0373
-0.5219 -5.9187 2.0373
-0.0455 -5.9416 2.0373
0.4312 -5.9261 2.0373
0.9051 -5.8721 2.0373
1.3731 -5.7800 2.0373
0.6618 -2.0411 0.7359
2.2790 -5.4845 2.0373
2.7110 -5.2829 2.0373
3.1253 -5.0472 2.0373
3.5191 -4.7790 2.0373
3.8349 -4.4164 2.0085
3.9186 -3.8415 1.8849
4.2126 -3.5134 1.8849
4.4792 -3.1629 1.8849
4.7166 -2.7922 1.8849
4.9233 -2.4038 1.8849
5.0980 -2.0001 1.8849
5.2397 -1.5838 1.8849
5.3474 -1.1577 1.8849
5.4204 -0.7245 1.8849
5.4585 -0.2870 1.8849
5.4612 0.1519 1.8849
5.4288 0.5895 1.8849
5.3614 1.0228 1.8849
5.2595 1.4492 1.8849
5.1238 1.8658 1.8849
4.9553 2.2701 1.8849
4.7550 2.6595 1.8849
4.5243 3.0314 1.8849
3.8524 -3.5386 1.9633
3.9577 -3.0885 1.8849
4.1912 -2.7600 1.8849
4.3974 -2.4140 1.8849
4.5751 -2.0525 1.8849
4.7230 -1.6781 1.8849
4.8404 -1.2931 1.8849
4.9263 -0.9002 1.8849
4.9805 -0.5017 1.8849
5.0024 -0.1003 1.8849
4.9920 0.3013 1.8849
4.9495 0.7007 1.8849
4.8751 1.0953 1.8849
4.7694 1.4824 1.8849
4.6330 1.8597 1.8849
4.4669 2.2248 1.8849
4.2722 2.5752 1.8849
4.0501 2.9088 1.8849
3.9267 3.3291 1.9467
3.8152 3.8015 2.0373
3.4965 4.0943 2.0373
3.1556 4.3607 2.0373
2.7945 4.5988 2.0373
2.4156 4.8073 2.0373
0.7444 1.8358 0.7503
0.5946 1.8898 0.7505
0.4410 1.9317 0.7506
0.2844 1.9610 0.7507
0.3420 5.3660 2.0373
-0.0901 5.3761 2.0373
-0.1922 1.9722 0.7508
-0.3500 1.9503 0.7507
-0.5054 1.9157 0.7506
-0.6576 1.8688 0.7504
-2.1874 4.9146 2.0373
-2.5755 4.7240 2.0373
-2.9473 4.5029 2.0373
-3.3002 4.2528 2.0373
-3.6321 3.9752 2.0373
-3.9408 3.6719 2.0373
-4.2244 3.3448 2.0373
-4.4809 2.9959 2.0373
-4.7088 2.6274 2.0373
-4.9065 2.2418 2.0373
-5.0728 1.8414 2.0373
-5.2065 1.4289 2.0373
-5.3067 1.0068 2.0373
-5.3728 0.5779 2.0373
-5.4043 0.1448 2.0373
-5.4010 -0.2895 2.0373
-5.3627 -0.7223 2.0373
-5.2898 -1.1509 2.0373
-5.1827 -1.5724 2.0373
-5.0420 -1.9840 2.0373
-4.8686 -2.3831 2.0373
-4.6635 -2.7672 2.0373
-4.4282 -3.1336 2.0373
-4.1640 -3.4800 2.0373
-3.8727 -3.8041 2.0373
-3.5562 -4.1038 2.0373
-3.2165 -4.3771 2.0373
-2.8558 -4.6222 2.0373
-2.4764 -4.8374 2.0373
-0.7525 -1.8159 0.7368
-0.6043 -1.8702 0.7366
-0.4524 -1.9125 0.7364
-0.2975 -1.9425 0.7363
-0.1407 -1.9600 0.7362
0.0169 -1.9650 0.7362
0.1745 -1.9573 0.7362
0.3309 -1.9371 0.7363
0.4852 -1.9045 0.7364
0.6365 -1.8596 0.7366
2.1669 -4.9848 2.0373
2.5592 -4.7939 2.0373
2.9348 -4.5722 2.0373
3.2913 -4.3209 2.0373
3.6262 -4.0418 2.0373
3.8463 -3.6501 1.9901
3.9073 -3.1527 1.8849
4.1461 -2.8281 1.8849
4.3579 -2.4854 1.8849
4.5415 -2.1269 1.8849
4.6955 -1.7549 1.8849
4.8191 -1.3719 1.8849
4.9115 -0.9803 1.8849
4.9721 -0.5827 1.8849
5.0005 -0.1817 1.8849
4.9967 0.2201 1.8849
4.9607 0.6202 1.8849
4.8927 1.0159 1.8849
4.7933 1.4047 1.8849
4.6631 1.7842 1.8849
4.5029 2.1519 1.8849
4.3138 2.5055 1.8849
4.0972 2.8427 1.8849
3.9302 3.2235 1.9220
3.8768 3.7391 2.0373
3.5630 4.0371 2.0373
3.2263 4.3089 2.0373
2.8691 4.5529 2.0373
2.4937 4.7675 2.0373
0.7742 1.8234 0.7502
0.6253 1.8799 0.7504
0.4724 1.9242 0.7506
0.3163 1.9561 0.7507
0.4293 5.3598 2.0373
-0.0026 5.3768 2.0373
-0.4344 5.3594 2.0373
-0.3182 1.9557 0.7507
-0.4742 1.9237 0.7506
-0.6271 1.8793 0.7504
-2.1070 4.9494 2.0373
-2.4982 4.7651 2.0373
-2.8734 4.5501 2.0373
-3.2304 4.3058 2.0373
-3.5667 4.0336 2.0373
-3.8803 3.7353 2.0373
-4.1691 3.4128 2.0373
-4.4312 3.0682 2.0373
-4.6651 2.7035 2.0373
-4.8690 2.3212 2.0373
-5.0417 1.9236 2.0373
-5.1821 1.5133 2.0373
-5.2892 1.0929 2.0373
-5.3622 0.6652 2.0373
-5.4007 0.2327 2.0373
-5.4045 -0.2016 2.0373
-5.3733 -0.6349 2.0373
-5.3074 -1.0646 2.0373
-5.2071 -1.4877 2.0373
-5.0731 -1.9016 2.0373
-4.9063 -2.3034 2.0373
-4.7075 -2.6907 2.0373
-4.4782 -3.0609 2.0373
-4.2198 -3.4116 2.0373
-3.9338 -3.7404 2.0373
-3.6223 -4.0452 2.0373
-3.2871 -4.3240 2.0373
-2.9304 -4.5749 2.0373
-2.5546 -4.7963 2.0373
-0.7819 -1.8035 0.7368
-0.6347 -1.8602 0.7366
-0.4834 -1.9049 0.7364
-0.3290 -1.9374 0.7363
-0.1726 -1.9575 0.7362
-0.0150 -1.9650 0.7362
0.1426 -1.9599 0.7362
0.2994 -1.9422 0.7363
0.4542 -1.9121 0.7364
0.6061 -1.8697 0.7366
0.7542 -1.8152 0.7368
2.4811 -4.8351 2.0373
2.8603 -4.6195 2.0373
3.2208 -4.3741 2.0373
3.5602 -4.1005 2.0373
3.8399 -3.7646 2.0181
3.8737 -3.2312 1.8937
4.0998 -2.8954 1.8849
4.3173 -2.5561 1.8849
4.5066 -2.2006 1.8849
4.6667 -1.8312 1.8849
4.7966 -1.4502 1.8849
4.8953 -1.0602 1.8849
4.9624 -0.6636 1.8849
4.9974 -0.2631 1.8849
5.0001 0.1388 1.8849
4.9706 0.5394 1.8849
4.9091 0.9362 1.8849
4.8159 1.3267 1.8849
4.6919 1.7082 1.8849
4.5377 2.0785 1.8849
4.3544 2.4351 1.8849
4.1432 2.7758 1.8849
3.6791 -3.3798 2.0373
3.8523 -3.0065 1.9934
3.8790 -2.5547 1.8954
4.0475 -2.2221 1.8849
4.2111 -1.8895 1.8849
4.3474 -1.5449 1.8849
4.4555 -1.1906 1.8849
4.5348 -0.8289 1.8849
4.5848 -0.4621 1.8849
4.6051 -0.0926 1.8849
4.5957 0.2771 1.8849
4.5567 0.6449 1.8849
4.4884 1.0081 1.8849
4.3911 1.3646 1.8849
4.2657 1.7120 1.8849
4.1129 2.0481 1.8849
3.9384 2.3737 1.8872
3.9154 2.8117 1.9789
3.7841 3.2079 2.0373
3.5132 3.5003 2.0373
3.2198 3.7700 2.0373
2.9059 4.0154 2.0373
2.5735 4.2347 2.0373
2.2246 4.4268 2.0373
0.6851 1.6893 0.7497
0.5472 1.7390 0.7499
0.4058 1.7775 0.7501
0.2617 1.8044 0.7502
0.1160 1.8197 0.7502
-0.0306 1.8231 0.7502
-0.1769 1.8148 0.7502
-0.3221 1.7946 0.7501
-0.4651 1.7628 0.7500
-0.6052 1.7196 0.7499
-0.7412 1.6653 0.7497
-2.3718 4.3501 2.0373
-2.7141 4.1464 2.0373
-3.0391 3.9160 2.0373
-3.3447 3.6603 2.0373
-3.6289 3.3809 2.0373
-3.8899 3.0796 2.0373
-4.1260 2.7583 2.0373
-4.3357 2.4190 2.0373
-4.5177 2.0638 2.0373
-4.6706 1.6952 2.0373
-4.7936 1.3153 2.0373
-4.8857 0.9266 2.0373
-4.9464 0.5317 2.0373
-4.9752 0.1330 2.0373
-4.9720 -0.2668 2.0373
-4.9366 -0.6653 2.0373
-4.8694 -1.0597 2.0373
-4.7706 -1.4476 2.0373
-4.6409 -1.8265 2.0373
-4.4812 -2.1938 2.0373
-4.2923 -2.5472 2.0373
-4.0756 -2.8844 2.0373
-3.8324 -3.2032 2.0373
-3.5642 -3.5014 2.0373
-3.2728 -3.7771 2.0373
-2.9601 -4.0285 2.0373
-2.6281 -4.2540 2.0373
-2.2789 -4.4520 2.0373
-0.6930 -1.6724 0.7373
-0.5566 -1.7224 0.7371
-0.4166 -1.7614 0.7370
-0.2740 -1.7890 0.7369
-0.1296 -1.8052 0.7368
0.0156 -1.8097 0.7368
0.1607 -1.8027 0.7368
0.3047 -1.7841 0.7369
0.4469 -1.7540 0.7370
0.5862 -1.7127 0.7371
0.7217 -1.6603 0.7373
2.3552 -4.4120 2.0373
2.7009 -4.2080 2.0373
3.0290 -3.9768 2.0373
3.3373 -3.7201 2.0373
3.6239 -3.4393 2.0373
3.8470 -3.1044 2.0164
3.8712 -2.6408 1.9122
4.0111 -2.2878 1.8849
4.1801 -1.9579 1.8849
4.3220 -1.6156 1.8849
4.4359 -1.2631 1.8849
4.5211 -0.9027 1.8849
4.5770 -0.5367 1.8849
4.6034 -0.1676 1.8849
4.6000 0.2023 1.8849
4.5670 0.5707 1.8849
4.5046 0.9350 1.8849
4.4131 1.2931 1.8849
4.2934 1.6425 1.8849
4.1460 1.9811 1.8849
3.9721 2.3067 1.8849
3.9183 2.7183 1.9577
3.8361 3.1461 2.0373
3.5699 3.4428 2.0373
3.2810 3.7173 2.0373
2.9711 3.9677 2.0373
2.6422 4.1925 2.0373
2.2965 4.3902 2.0373
0.7125 1.6779 0.7497
0.5755 1.7298 0.7499
0.4347 1.7706 0.7500
0.2911 1.7999 0.7501
0.1456 1.8175 0.7502
-0.0009 1.8234 0.7502
-0.1473 1.8174 0.7502
-0.2928 1.7996 0.7501
-0.4364 1.7702 0.7500
-0.5771 1.7293 0.7499
-0.7140 1.6772 0.7497
-2.3006 4.3879 2.0373
-2.6461 4.1899 2.0373
-2.9748 3.9648 2.0373
-3.2844 3.7141 2.0373
-3.5731 3.4393 2.0373
-3.8390 3.1423 2.0373
-4.0803 2.8249 2.0373
-4.2955 2.4890 2.0373
-4.4831 2.1369 2.0373
-4.6420 1.7708 2.0373
-4.7711 1.3930 2.0373
-4.8696 1.0059 2.0373
-4.9367 0.6121 2.0373
-4.9720 0.2139 2.0373
-4.9752 -0.1859 2.0373
-4.9464 -0.5848 2.0373
-4.8855 -0.9803 2.0373
-4.7931 -1.3697 2.0373
-4.6697 -1.7506 2.0373
-4.5159 -2.1205 2.0373
-4.3329 -2.4769 2.0373
-4.1217 -2.8175 2.0373
-3.8837 -3.1401 2.0373
-3.6205 -3.4427 2.0373
-3.3336 -3.7232 2.0373
-3.0251 -3.9797 2.0373
-2.6968 -4.2105 2.0373
-2.3509 -4.4142 2.0373
-0.7201 -1.6610 0.7373
-0.5845 -1.7132 0.7371
-0.4452 -1.7544 0.7370
-0.3030 -1.7844 0.7369
-0.1589 -1.8028 0.7368
-0.0138 -1.8098 0.7368
0.1313 -1.8051 0.7368
0.2757 -1.7888 0.7369
0.4183 -1.7610 0.7370
0.5582 -1.7219 0.7371
0.6946 -1.6718 0.7373
2.2832 -4.4499 2.0373
2.6322 -4.2516 2.0373
2.9641 -4.0258 2.0373
3.2765 -3.7741 2.0373
3.5677 -3.4981 2.0373
3.8356 -3.1996 2.0373
3.8667 -2.7310 1.9315
3.9736 -2.3530 1.8849
4.1481 -2.0258 1.8849
4.2955 -1.6858 1.8849
4.4152 -1.3352 1.8849
4.5062 -0.9762 1.8849
4.5681 -0.6112 1.8849
4.6005 -0.2425 1.8849
4.6031 0.1275 1.8849
4.5761 0.4963 1.8849
4.5196 0.8617 1.8849
4.4340 1.2212 1.8849
4.3199 1.5725 1.8849
4.1780 1.9135 1.8849
4.0094 2.2419 1.8849
3.9212 2.6267 1.9373
3.4018 -3.1254 2.0373
3.6404 -2.8415 2.0373
3.8496 -2.5357 2.0343
3.8697 -2.1248 1.9489
3.8966 -1.7487 1.8861
4.0202 -1.4289 1.8849
4.1203 -1.1013 1.8849
4.1937 -0.7668 1.8849
4.2401 -0.4276 1.8849
4.2590 -0.0859 1.8849
4.2504 0.2561 1.8849
4.2145 0.5961 1.8849
4.1514 0.9322 1.8849
4.0616 1.2619 1.8849
3.9456 1.5833 1.8849
3.9138 1.9488 1.9391
3.9027 2.3519 2.0216
3.7287 2.6773 2.0373
3.5005 2.9672 2.0373
3.2500 3.2377 2.0373
2.9786 3.4873 2.0373
2.6883 3.7143 2.0373
2.3807 3.9173 2.0373
0.7567 1.5057 0.7491
0.6334 1.5617 0.7493
0.5059 1.6077 0.7494
0.3752 1.6433 0.7496
0.2420 1.6682 0.7497
0.1072 1.6823 0.7497
-0.0283 1.6854 0.7497
-0.1635 1.6777 0.7497
-0.2978 1.6591 0.7496
-0.4300 1.6297 0.7495
-0.5595 1.5898 0.7494
-0.6853 1.5395 0.7492
-2.1942 4.0241 2.0373
-2.5109 3.8356 2.0373
-2.8114 3.6224 2.0373
-3.0941 3.3858 2.0373
-3.3569 3.1273 2.0373
-3.5983 2.8485 2.0373
-3.8167 2.5512 2.0373
-4.0106 2.2373 2.0373
-4.1787 1.9087 2.0373
-4.3201 1.5677 2.0373
-4.4337 1.2163 2.0373
-4.5188 0.8568 2.0373
-4.5748 0.4915 2.0373
-4.6014 0.1227 2.0373
-4.5982 -0.2470 2.0373
-4.5654 -0.6155 2.0373
-4.5031 -0.9803 2.0373
-4.4116 -1.3390 2.0373
-4.2916 -1.6893 2.0373
-4.1438 -2.0289 2.0373
-3.9691 -2.3557 2.0373
-3.7686 -2.6674 2.0373
-3.5436 -2.9621 2.0373
-3.2956 -3.2378 2.0373
-3.0261 -3.4926 2.0373
-2.7369 -3.7250 2.0373
-2.4299 -3.9334 2.0373
-0.7632 -1.4911 0.7380
-0.6411 -1.5473 0.7378
-0.5149 -1.5936 0.7376
-0.3854 -1.6297 0.7374
-0.2535 -1.6552 0.7374
-0.1199 -1.6702 0.7373
0.0144 -1.6744 0.7373
0.1486 -1.6679 0.7373
0.2819 -1.6506 0.7374
0.4134 -1.6228 0.7375
0.5423 -1.5846 0.7376
0.6677 -1.5361 0.7378
2.1775 -4.0795 2.0373
2.4972 -3.8909 2.0373
2.8006 -3.6773 2.0373
3.0857 -3.4399 2.0373
3.3507 -3.1804 2.0373
3.5940 -2.9005 2.0373
3.8138 -2.6020 2.0373
3.8660 -2.2053 1.9647
3.8867 -1.8207 1.8953
3.9967 -1.4942 1.8849
4.1022 -1.1683 1.8849
4.1811 -0.8350 1.8849
4.2329 -0.4966 1.8849
4.2574 -0.1552 1.8849
4.2544 0.1869 1.8849
4.2240 0.5275 1.8849
4.1663 0.8645 1.8849
4.0819 1.1957 1.8849
3.9712 1.5190 1.8849
3.9157 1.8708 1.9246
3.9052 2.2676 2.0034
3.7720 2.6165 2.0373
3.5486 2.9100 2.0373
3.3024 3.1846 2.0373
3.0352 3.4385 2.0373
2.7485 3.6702 2.0373
2.4443 3.8782 2.0373
0.7811 1.4931 0.7490
0.6587 1.5512 0.7492
0.5320 1.5992 0.7494
0.4019 1.6369 0.7495
0.2691 1.6640 0.7496
0.1346 1.6803 0.7497
-0.0008 1.6857 0.7497
-0.1362 1.6801 0.7497
-0.2707 1.6637 0.7496
-0.4034 1.6365 0.7495
-0.5335 1.5987 0.7494
-0.6602 1.5505 0.7492
-2.1283 4.0591 2.0373
-2.4480 3.8758 2.0373
-2.7520 3.6675 2.0373
-3.0384 3.4355 2.0373
-3.3054 3.1813 2.0373
-3.5512 2.9065 2.0373
-3.7744 2.6128 2.0373
-3.9733 2.3021 2.0373
-4.1468 1.9763 2.0373
-4.2937 1.6376 2.0373
-4.4130 1.2882 2.0373
-4.5039 0.9301 2.0373
-4.5659 0.5658 2.0373
-4.5984 0.1977 2.0373
-4.6013 -0.1722 2.0373
-4.5745 -0.5411 2.0373
-4.5181 -0.9068 2.0373
-4.4325 -1.2669 2.0373
-4.3182 -1.6191 2.0373
-4.1759 -1.9611 2.0373
-4.0066 -2.2906 2.0373
-3.8112 -2.6056 2.0373
-3.5911 -2.9039 2.0373
-3.3476 -3.1835 2.0373
-3.0823 -3.4428 2.0373
-2.7970 -3.6799 2.0373
-2.4934 -3.8932 2.0373
-2.1736 -4.0815 2.0373
-0.6662 -1.5367 0.7378
-0.5407 -1.5851 0.7376
-0.4119 -1.6232 0.7375
-0.2803 -1.6509 0.7374
-0.1470 -1.6680 0.7373
-0.0128 -1.6744 0.7373
0.1215 -1.6701 0.7373
0.2551 -1.6550 0.7374
0.3870 -1.6293 0.7374
0.5164 -1.5931 0.7376
0.6426 -1.5467 0.7378
0.7647 -1.4904 0.7380
2.4337 -3.9312 2.0373
2.7405 -3.7225 2.0373
3.0295 -3.4898 2.0373
3.2988 -3.2347 2.0373
3.5465 -2.9588 2.0373
3.7712 -2.6639 2.0373
3.8621 -2.2872 1.9812
3.8799 -1.8951 1.9066
3.9722 -1.5592 1.8849
4.0830 -1.2350 1.8849
4.1673 -0.9030 1.8849
4.2246 -0.5655 1.8849
4.2546 -0.2245 1.8849
4.2572 0.1176 1.8849
4.2323 0.4588 1.8849
4.1802 0.7967 1.8849
4.1011 1.1292 1.8849
3.9957 1.4543 1.8849
3.9175 1.7940 1.9107
3.9076 2.1847 1.9860
3.8143 2.5549 2.0373
3.1578 -2.9014 2.0373
3.3794 -2.6380 2.0373
3.5790 -2.3577 2.0373
3.7553 -2.0623 2.0373
3.8618 -1.7333 2.0136
3.8759 -1.3779 1.9574
3.8872 -1.0391 1.9154
3.9037 -0.7140 1.8898
3.9366 -0.3973 1.8849
3.9543 -0.0801 1.8849
3.9464 0.2375 1.8849
3.9190 0.5541 1.8877
3.9079 0.8773 1.9109
3.9039 1.2127 1.9512
3.8976 1.5637 2.0052
3.8183 1.9009 2.0373
3.6521 2.2006 2.0373
3.4625 2.4859 2.0373
3.2507 2.7552 2.0373
3.0181 3.0065 2.0373
2.7662 3.2383 2.0373
2.4966 3.4492 2.0373
2.2110 3.6378 2.0373
0.7024 1.3975 0.7487
0.5879 1.4495 0.7489
0.4696 1.4922 0.7490
0.3482 1.5252 0.7491
0.2246 1.5483 0.7492
0.0995 1.5613 0.7493
-0.0262 1.5643 0.7493
-0.1518 1.5571 0.7492
-0.2764 1.5398 0.7492
-0.3992 1.5126 0.7491
-0.5193 1.4755 0.7489
-0.6361 1.4289 0.7488
-0.7488 1.3731 0.7486
-2.3318 3.5619 2.0373
-2.6109 3.3638 2.0373
-2.8734 3.1440 2.0373
-3.1174 2.9039 2.0373
-3.3415 2.6449 2.0373
-3.5442 2.3688 2.0373
-3.7242 2.0772 2.0373
-3.8803 1.7721 2.0373
-4.0115 1.4554 2.0373
-4.1169 1.1291 2.0373
-4.1958 0.7952 2.0373
-4.2477 0.4560 2.0373
-4.2722 0.1137 2.0373
-4.2692 -0.2297 2.0373
-4.2386 -0.5717 2.0373
-4.1807 -0.9104 2.0373
-4.0957 -1.2434 2.0373
-3.9842 -1.5685 2.0373
-3.8468 -1.8838 2.0373
-3.6846 -2.1871 2.0373
-3.4984 -2.4764 2.0373
-3.2895 -2.7499 2.0373
-3.0592 -3.0058 2.0373
-2.8090 -3.2423 2.0373
-2.5405 -3.4580 2.0373
-2.2555 -3.6514 2.0373
-0.7088 -1.3849 0.7384
-0.5954 -1.4371 0.7382
-0.4782 -1.4801 0.7380
-0.3579 -1.5136 0.7379
-0.2354 -1.5374 0.7378
-0.1114 -1.5513 0.7377
0.0134 -1.5552 0.7377
0.1381 -1.5491 0.7377
0.2618 -1.5331 0.7378
0.3840 -1.5073 0.7379
0.5036 -1.4717 0.7380
0.6201 -1.4267 0.7382
0.7326 -1.3725 0.7384
2.3180 -3.6119 2.0373
2.5996 -3.4136 2.0373
2.8643 -3.1934 2.0373
3.1104 -2.9525 2.0373
3.3362 -2.6928 2.0373
3.5404 -2.4157 2.0373
3.7215 -2.1232 2.0373
3.8586 -1.8078 2.0268
3.8733 -1.4483 1.9676
3.8851 -1.1067 1.9229
3.8994 -0.7788 1.8935
3.9299 -0.4614 1.8849
3.9528 -0.1444 1.8849
3.9501 0.1732 1.8849
3.9219 0.4896 1.8849
3.9084 0.8108 1.9044
3.9049 1.1437 1.9420
3.8991 1.4911 1.9930
3.8490 1.8387 2.0373
3.6877 2.1410 2.0373
3.5028 2.4294 2.0373
3.2953 2.7020 2.0373
3.0668 2.9571 2.0373
2.8187 3.1930 2.0373
2.5525 3.4082 2.0373
2.2700 3.6014 2.0373
0.7250 1.3858 0.7486
0.6114 1.4397 0.7488
0.4938 1.4843 0.7490
0.3730 1.5193 0.7491
0.2498 1.5444 0.7492
0.1249 1.5595 0.7493
-0.0007 1.5645 0.7493
-0.1264 1.5594 0.7493
-0.2513 1.5441 0.7492
-0.3745 1.5189 0.7491
-0.4952 1.4838 0.7490
-0.6128 1.4391 0.7488
-0.7263 1.3851 0.7486
-2.2734 3.5992 2.0373
-2.5557 3.4057 2.0373
-2.8217 3.1902 2.0373
-3.0696 2.9541 2.0373
-3.2978 2.6988 2.0373
-3.5050 2.4260 2.0373
-3.6896 2.1375 2.0373
-3.8507 1.8349 2.0373
-3.9870 1.5204 2.0373
-4.0976 1.1958 2.0373
-4.1820 0.8634 2.0373
-4.2394 0.5251 2.0373
-4.2695 0.1832 2.0373
-4.2721 -0.1601 2.0373
-4.2471 -0.5027 2.0373
-4.1946 -0.8422 2.0373
-4.1151 -1.1765 2.0373
-4.0089 -1.5034 2.0373
-3.8767 -1.8209 2.0373
-3.7194 -2.1268 2.0373
-3.5380 -2.4190 2.0373
-3.3335 -2.6959 2.0373
-3.1075 -2.9555 2.0373
-2.8612 -3.1960 2.0373
-2.5963 -3.4161 2.0373
-2.3144 -3.6141 2.0373
-0.7312 -1.3732 0.7384
-0.6187 -1.4273 0.7382
-0.5022 -1.4722 0.7380
-0.3825 -1.5076 0.7379
-0.2604 -1.5334 0.7378
-0.1366 -1.5492 0.7377
-0.0119 -1.5552 0.7377
0.1129 -1.5512 0.7377
0.2369 -1.5372 0.7378
0.3594 -1.5133 0.7379
0.4796 -1.4797 0.7380
0.5968 -1.4366 0.7382
0.7101 -1.3842 0.7384
2.2590 -3.6493 2.0373
2.5439 -3.4556 2.0373
2.8122 -3.2397 2.0373
3.0621 -3.0029 2.0373
3.2922 -2.7468 2.0373
3.5008 -2.4732 2.0373
3.6868 -2.1836 2.0373
3.8488 -1.8802 2.0373
3.8705 -1.5195 1.9784
3.8829 -1.1747 1.9308
3.8947 -0.8440 1.8975
3.9222 -0.5252 1.8849
3.9502 -0.2088 1.8849
3.9527 0.1089 1.8849
3.9297 0.4257 1.8849
3.9099 0.7448 1.8988
3.9058 1.0752 1.9333
3.9004 1.4193 1.9815
3.8787 1.7759 2.0373
3.7223 2.0809 2.0373
3.5421 2.3722 2.0373
2.9411 -2.7026 2.0373
3.1475 -2.4573 2.0373
3.3335 -2.1962 2.0373
3.4978 -1.9211 2.0373
3.6395 -1.6338 2.0373
3.7575 -1.3360 2.0373
3.8512 -1.0299 2.0373
3.8726 -0.7086 2.0126
3.8793 -0.3918 1.9940
3.8838 -0.0789 1.9874
3.8861 0.2336 1.9925
3.8863 0.5493 2.0094
3.8813 0.8710 2.0373
3.7975 1.1794 2.0373
3.6893 1.4799 2.0373
3.5574 1.7707 2.0373
3.4026 2.0500 2.0373
3.2260 2.3159 2.0373
3.0287 2.5668 2.0373
2.8120 2.8009 2.0373
2.5773 3.0170 2.0373
2.3262 3.2135 2.0373
0.7565 1.2445 0.7481
0.6541 1.3014 0.7483
0.5475 1.3499 0.7485
0.4373 1.3896 0.7486
0.3243 1.4203 0.7487
0.2092 1.4418 0.7488
0.0927 1.4540 0.7489
-0.0244 1.4567 0.7489
-0.1414 1.4500 0.7489
-0.2574 1.4340 0.7488
-0.3717 1.4086 0.7487
-0.4837 1.3741 0.7486
-0.5924 1.3307 0.7484
-0.6973 1.2787 0.7482
-2.1727 3.3185 2.0373
-2.4327 3.1339 2.0373
-2.6772 2.9291 2.0373
-2.9046 2.7053 2.0373
-3.1133 2.4640 2.0373
-3.3021 2.2067 2.0373
-3.4697 1.9351 2.0373
-3.6151 1.6507 2.0373
-3.7372 1.3556 2.0373
-3.8353 1.0516 2.0373
-3.9088 0.7406 2.0373
-3.9570 0.4246 2.0373
-3.9798 0.1056 2.0373
-3.9769 -0.2142 2.0373
-3.9484 -0.5328 2.0373
-3.8943 -0.8483 2.0373
-3.8150 -1.1584 2.0373
-3.7111 -1.4613 2.0373
-3.5831 -1.7549 2.0373
-3.4319 -2.0374 2.0373
-3.2584 -2.3068 2.0373
-3.0638 -2.5615 2.0373
-2.8492 -2.7998 2.0373
-2.6162 -3.0200 2.0373
-2.3661 -3.2208 2.0373
-0.7619 -1.2335 0.7389
-0.6604 -1.2905 0.7387
-0.5548 -1.3392 0.7385
-0.4456 -1.3792 0.7384
-0.3335 -1.4104 0.7383
-0.2193 -1.4326 0.7382
-0.1038 -1.4455 0.7381
0.0125 -1.4492 0.7381
0.1286 -1.4435 0.7381
0.2440 -1.4286 0.7382
0.3578 -1.4045 0.7383
0.4693 -1.3714 0.7384
0.5778 -1.3295 0.7386
0.6826 -1.2790 0.7387
0.7830 -1.2202 0.7390
2.4211 -3.1795 2.0373
2.6677 -2.9744 2.0373
2.8969 -2.7502 2.0373
3.1073 -2.5083 2.0373
3.2975 -2.2503 2.0373
3.4663 -1.9779 2.0373
3.6126 -1.6929 2.0373
3.7356 -1.3971 2.0373
3.8343 -1.0925 2.0373
3.8710 -0.7736 2.0179
3.8782 -0.4554 1.9968
3.8831 -0.1421 1.9878
3.8858 0.1702 1.9905
3.8864 0.4849 2.0050
3.8848 0.8056 2.0318
3.8165 1.1175 2.0373
3.7132 1.4198 2.0373
3.5860 1.7127 2.0373
3.4357 1.9945 2.0373
3.2635 2.2632 2.0373
3.0703 2.5172 2.0373
2.8574 2.7549 2.0373
2.6263 2.9748 2.0373
2.3783 3.1753 2.0373
0.7766 1.2320 0.7480
0.6752 1.2906 0.7483
0.5694 1.3407 0.7484
0.4599 1.3822 0.7486
0.3474 1.4148 0.7487
0.2326 1.4382 0.7488
0.1164 1.4523 0.7489
-0.0007 1.4569 0.7489
-0.1177 1.4522 0.7489
-0.2340 1.4380 0.7488
-0.3488 1.4145 0.7487
-0.4612 1.3818 0.7486
-0.5707 1.3402 0.7484
-0.6764 1.2899 0.7483
-2.1183 3.3533 2.0373
-2.3813 3.1730 2.0373
-2.6290 2.9722 2.0373
-2.8600 2.7521 2.0373
-3.0726 2.5143 2.0373
-3.2655 2.2601 2.0373
-3.4375 1.9911 2.0373
-3.5875 1.7093 2.0373
-3.7144 1.4162 2.0373
-3.8174 1.1138 2.0373
-3.8959 0.8040 2.0373
-3.9493 0.4889 2.0373
-3.9773 0.1704 2.0373
-3.9796 -0.1494 2.0373
-3.9562 -0.4685 2.0373
-3.9073 -0.7847 2.0373
-3.8331 -1.0961 2.0373
-3.7341 -1.4006 2.0373
-3.6109 -1.6963 2.0373
-3.4643 -1.9812 2.0373
-3.2953 -2.2534 2.0373
-3.1048 -2.5112 2.0373
-2.8942 -2.7529 2.0373
-2.6648 -2.9769 2.0373
-2.4180 -3.1818 2.0373
-0.7818 -1.2210 0.7390
-0.6813 -1.2796 0.7387
-0.5765 -1.3300 0.7386
-0.4679 -1.3718 0.7384
-0.3564 -1.4049 0.7383
-0.2426 -1.4289 0.7382
-0.1272 -1.4437 0.7381
-0.0111 -1.4492 0.7381
0.1052 -1.4454 0.7381
0.2207 -1.4324 0.7382
0.3349 -1.4101 0.7383
0.4469 -1.3788 0.7384
0.5561 -1.3387 0.7385
0.6617 -1.2899 0.7387
0.7631 -1.2328 0.7389
2.3692 -3.2186 2.0373
2.6191 -3.0176 2.0373
2.8520 -2.7971 2.0373
3.0663 -2.5586 2.0373
3.2607 -2.3037 2.0373
3.4339 -2.0341 2.0373
3.5849 -1.7515 2.0373
3.7126 -1.4578 2.0373
3.8163 -1.1548 2.0373
3.8692 -0.8389 2.0237
3.8769 -0.5194 2.0001
3.8823 -0.2053 1.9886
3.8855 0.1069 1.9890
3.8865 0.4208 2.0011
3.8853 0.7400 2.0254
3.8344 1.0553 2.0373
3.7360 1.3592 2.0373
3.6136 1.6542 2.0373
3.4680 1.9383 2.0373
3.3001 2.2099 2.0373
2.7471 -2.5245 2.0373
2.9399 -2.2954 2.0373
3.1137 -2.0516 2.0373
3.2672 -1.7947 2.0373
3.3996 -1.5263 2.0373
3.5099 -1.2483 2.0373
3.5975 -0.9623 2.0373
3.6619 -0.6703 2.0373
3.7026 -0.3742 2.0373
3.7193 -0.0758 2.0373
3.7121 0.2229 2.0373
3.6809 0.5200 2.0373
3.6260 0.8135 2.0373
3.5478 1.1016 2.0373
3.4468 1.3824 2.0373
3.3236 1.6541 2.0373
3.1790 1.9151 2.0373
3.0141 2.1635 2.0373
2.8298 2.3979 2.0373
2.6274 2.6168 2.0373
2.4081 2.8187 2.0373
2.1735 3.0023 2.0373
0.7065 1.1623 0.7478
0.6109 1.2154 0.7480
0.5114 1.2606 0.7482
0.4085 1.2977 0.7483
0.3029 1.3264 0.7484
0.1954 1.3465 0.7485
0.0866 1.3579 0.7485
-0.0228 1.3604 0.7485
-0.1320 1.3542 0.7485
-0.2404 1.3392 0.7484
-0.3472 1.3155 0.7484
-0.4517 1.2833 0.7482
-0.5533 1.2427 0.7481
-0.6513 1.1942 0.7479
-0.7451 1.1379 0.7477
-2.2730 2.9280 2.0373
-2.5014 2.7366 2.0373
-2.7138 2.5274 2.0373
-2.9088 2.3020 2.0373
-3.0852 2.0615 2.0373
-3.2417 1.8076 2.0373
-3.3775 1.5420 2.0373
-3.4915 1.2663 2.0373
-3.5831 0.9822 2.0373
-3.6517 0.6916 2.0373
-3.6967 0.3964 2.0373
-3.7179 0.0984 2.0373
-3.7151 -0.2003 2.0373
-3.6884 -0.4980 2.0373
-3.6378 -0.7926 2.0373
-3.5637 -1.0824 2.0373
-3.4665 -1.3652 2.0373
-3.3469 -1.6395 2.0373
-3.2056 -1.9033 2.0373
-3.0435 -2.1549 2.0373
-2.8617 -2.3928 2.0373
-2.6612 -2.6153 2.0373
-2.4435 -2.8210 2.0373
-2.2099 -3.0085 2.0373
-0.7119 -1.1526 0.7392
-0.6171 -1.2059 0.7390
-0.5184 -1.2514 0.7388
-0.4163 -1.2888 0.7387
-0.3116 -1.3180 0.7386
-0.2050 -1.3387 0.7385
-0.0970 -1.3508 0.7385
0.0117 -1.3542 0.7385
0.1202 -1.3489 0.7385
0.2280 -1.3350 0.7385
0.3343 -1.3125 0.7386
0.4385 -1.2815 0.7387
0.5399 -1.2423 0.7389
0.6378 -1.1951 0.7391
0.7316 -1.1402 0.7393
2.2613 -2.9699 2.0373
2.4917 -2.7784 2.0373
2.7058 -2.5690 2.0373
2.9024 -2.3431 2.0373
3.0801 -2.1021 2.0373
3.2378 -1.8477 2.0373
3.3745 -1.5815 2.0373
3.4894 -1.3053 2.0373
3.5817 -1.0208 2.0373
3.6508 -0.7298 2.0373
3.6963 -0.4344 2.0373
3.7179 -0.1363 2.0373
3.7155 0.1625 2.0373
3.6892 0.4600 2.0373
3.6391 0.7544 2.0373
3.5655 1.0438 2.0373
3.4691 1.3262 2.0373
3.3503 1.5999 2.0373
3.2100 1.8632 2.0373
3.0491 2.1143 2.0373
2.8686 2.3517 2.0373
2.6698 2.5738 2.0373
2.4538 2.7792 2.0373
2.2222 2.9667 2.0373
0.7254 1.1506 0.7477
0.6306 1.2053 0.7479
0.5318 1.2521 0.7481
0.4295 1.2909 0.7483
0.3245 1.3213 0.7484
0.2173 1.3431 0.7485
0.1087 1.3563 0.7485
-0.0006 1.3606 0.7485
-0.1100 1.3562 0.7485
-0.2186 1.3429 0.7485
-0.3257 1.3210 0.7484
-0.4308 1.2905 0.7483
-0.5330 1.2516 0.7481
-0.6318 1.2046 0.7479
-0.7264 1.1499 0.7477
-2.2250 2.9645 2.0373
-2.4564 2.7768 2.0373
-2.6722 2.5712 2.0373
-2.8708 2.3489 2.0373
-3.0510 2.1113 2.0373
-3.2117 1.8601 2.0373
-3.3517 1.5967 2.0373
-3.4702 1.3228 2.0373
-3.5664 1.0403 2.0373
-3.6397 0.7509 2.0373
-3.6895 0.4565 2.0373
-3.7155 0.1589 2.0373
-3.7176 -0.1399 2.0373
-3.6957 -0.4379 2.0373
-3.6499 -0.7333 2.0373
-3.5806 -1.0242 2.0373
-3.4880 -1.3086 2.0373
-3.3729 -1.5847 2.0373
-3.2359 -1.8508 2.0373
-3.0780 -2.1050 2.0373
-2.9000 -2.3458 2.0373
-2.7033 -2.5715 2.0373
-2.4889 -2.7807 2.0373
-2.2584 -2.9721 2.0373
-0.7305 -1.1409 0.7393
-0.6366 -1.1957 0.7391
-0.5387 -1.2428 0.7389
-0.4372 -1.2819 0.7387
-0.3330 -1.3128 0.7386
-0.2267 -1.3352 0.7385
-0.1189 -1.3491 0.7385
-0.0104 -1.3542 0.7385
0.0983 -1.3507 0.7385
0.2062 -1.3385 0.7385
0.3129 -1.3177 0.7386
0.4176 -1.2885 0.7387
0.5196 -1.2509 0.7388
0.6183 -1.2053 0.7390
0.7130 -1.1520 0.7392
2.2129 -3.0064 2.0373
2.4463 -2.8187 2.0373
2.6638 -2.6128 2.0373
2.8640 -2.3901 2.0373
3.0457 -2.1521 2.0373
3.2075 -1.9003 2.0373
3.3486 -1.6363 2.0373
3.4679 -1.3620 2.0373
3.5648 -1.0790 2.0373
3.6387 -0.7892 2.0373
3.6890 -0.4945 2.0373
3.7154 -0.1968 2.0373
3.7179 0.1020 2.0373
3.6964 0.4000 2.0373
3.6511 0.6951 2.0373
3.5823 0.9856 2.0373
3.4904 1.2696 2.0373
3.3761 1.5453 2.0373
3.2401 1.8108 2.0373
3.0833 2.0645 2.0373
2.5721 -2.3639 2.0373
2.7527 -2.1495 2.0373
2.9154 -1.9212 2.0373
3.0592 -1.6807 2.0373
3.1832 -1.4294 2.0373
3.2866 -1.1691 2.0373
3.3687 -0.9013 2.0373
3.4290 -0.6279 2.0373
3.4671 -0.3506 2.0373
3.4829 -0.0712 2.0373
3.4762 0.2085 2.0373
3.4471 0.4867 2.0373
3.3957 0.7616 2.0373
3.3225 1.0314 2.0373
3.2279 1.2944 2.0373
3.1126 1.5489 2.0373
2.9773 1.7933 2.0373
2.8229 2.0260 2.0373
2.6503 2.2456 2.0373
2.4608 2.4506 2.0373
2.2554 2.6397 2.0373
0.7467 1.0314 0.7473
0.6615 1.0881 0.7475
0.5720 1.1378 0.7477
0.4788 1.1802 0.7479
0.3824 1.2149 0.7480
0.2836 1.2418 0.7481
0.1829 1.2606 0.7482
0.0810 1.2712 0.7482
-0.0214 1.2736 0.7482
-0.1236 1.2678 0.7482
-0.2251 1.2537 0.7481
-0.3251 1.2315 0.7480
-0.4229 1.2014 0.7479
-0.5180 1.1634 0.7478
-0.6098 1.1180 0.7476
-0.6976 1.0653 0.7474
-2.1289 2.7421 2.0373
-2.3428 2.5628 2.0373
-2.5417 2.3669 2.0373
-2.7243 2.1557 2.0373
-2.8894 1.9305 2.0373
-3.0360 1.6927 2.0373
-3.1631 1.4439 2.0373
-3.2698 1.1856 2.0373
-3.3556 0.9196 2.0373
-3.4197 0.6474 2.0373
-3.4618 0.3710 2.0373
-3.4816 0.0920 2.0373
-3.4789 -0.1878 2.0373
-3.4538 -0.4666 2.0373
-3.4064 -0.7425 2.0373
-3.3370 -1.0137 2.0373
-3.2459 -1.2786 2.0373
-3.1339 -1.5354 2.0373
-3.0015 -1.7823 2.0373
-2.8497 -2.0179 2.0373
-2.6794 -2.2406 2.0373
-2.4917 -2.4489 2.0373
-2.2878 -2.6415 2.0373
-0.7512 -1.0228 0.7397
-0.6667 -1.0796 0.7395
-0.5780 -1.1295 0.7393
-0.4855 -1.1722 0.7391
-0.3900 -1.2073 0.7390
-0.2919 -1.2346 0.7389
-0.1920 -1.2540 0.7388
-0.0908 -1.2653 0.7388
0.0109 -1.2685 0.7388
0.1126 -1.2636 0.7388
0.2135 -1.2505 0.7388
0.3131 -1.2294 0.7389
0.4107 -1.2004 0.7390
0.5056 -1.1637 0.7392
0.5974 -1.1195 0.7393
0.6853 -1.0680 0.7395
0.7688 -1.0098 0.7397
2.3329 -2.6016 2.0373
2.5334 -2.4056 2.0373
2.7175 -2.1941 2.0373
2.8839 -1.9685 2.0373
3.0317 -1.7303 2.0373
3.1597 -1.4811 2.0373
3.2673 -1.2225 2.0373
3.3538 -0.9561 2.0373
3.4186 -0.6837 2.0373
3.4612 -0.4070 2.0373
3.4815 -0.1279 2.0373
3.4794 0.1519 2.0373
3.4548 0.4306 2.0373
3.4079 0.7062 2.0373
3.3391 0.9772 2.0373
3.2488 1.2418 2.0373
3.1376 1.4981 2.0373
3.0063 1.7447 2.0373
2.8556 1.9799 2.0373
2.6867 2.2022 2.0373
2.5005 2.4103 2.0373
2.2982 2.6027 2.0373
0.7634 1.0190 0.7473
0.6791 1.0772 0.7475
0.5904 1.1283 0.7477
0.4979 1.1722 0.7478
0.4022 1.2085 0.7480
0.3038 1.2370 0.7481
0.2034 1.2574 0.7481
0.1017 1.2697 0.7482
-0.0006 1.2738 0.7482
-0.1029 1.2696 0.7482
-0.2046 1.2572 0.7481
-0.3050 1.2367 0.7481
-0.4033 1.2081 0.7480
-0.4990 1.1717 0.7478
-0.5915 1.1278 0.7477
-0.6801 1.0765 0.7475
-0.7643 1.0183 0.7473
-2.3007 2.6005 2.0373
-2.5027 2.4079 2.0373
-2.6887 2.1996 2.0373
-2.8574 1.9771 2.0373
-3.0078 1.7418 2.0373
-3.1390 1.4951 2.0373
-3.2499 1.2386 2.0373
-3.3399 0.9740 2.0373
-3.4085 0.7030 2.0373
-3.4551 0.4272 2.0373
-3.4794 0.1486 2.0373
-3.4813 -0.1312 2.0373
-3.4607 -0.4103 2.0373
-3.4178 -0.6869 2.0373
-3.3528 -0.9593 2.0373
-3.2661 -1.2256 2.0373
-3.1582 -1.4841 2.0373
-3.0299 -1.7332 2.0373
-2.8820 -1.9712 2.0373
-2.7153 -2.1966 2.0373
-2.5311 -2.4080 2.0373
-2.3304 -2.6038 2.0373
-0.7678 -1.0105 0.7397
-0.6842 -1.0687 0.7395
-0.5963 -1.1200 0.7393
-0.5045 -1.1641 0.7392
-0.4095 -1.2008 0.7390
-0.3119 -1.2297 0.7389
-0.2123 -1.2507 0.7388
-0.1114 -1.2637 0.7388
-0.0097 -1.2685 0.7388
0.0920 -1.2652 0.7388
0.1932 -1.2538 0.7388
0.2931 -1.2343 0.7389
0.3911 -1.2069 0.7390
0.4867 -1.1717 0.7391
0.5791 -1.1290 0.7393
0.6678 -1.0790 0.7395
0.7522 -1.0221 0.7397
2.2904 -2.6393 2.0373
2.4941 -2.4466 2.0373
2.6816 -2.2381 2.0373
2.8517 -2.0153 2.0373
3.0033 -1.7795 2.0373
3.1354 -1.5324 2.0373
3.2472 -1.2755 2.0373
3.3380 -1.0106 2.0373
3.4072 -0.7392 2.0373
3.4544 -0.4633 2.0373
3.4792 -0.1845 2.0373
3.4816 0.0952 2.0373
3.4615 0.3743 2.0373
3.4192 0.6507 2.0373
3.3548 0.9228 2.0373
3.2688 1.1888 2.0373
3.1618 1.4469 2.0373
3.0345 1.6956 2.0373
2.8876 1.9333 2.0373
2.4132 -2.2182 2.0373
2.5827 -2.0170 2.0373
2.7354 -1.8028 2.0373
2.8704 -1.5772 2.0373
2.9867 -1.3414 2.0373
3.0838 -1.0972 2.0373
3.1609 -0.8460 2.0373
3.2175 -0.5894 2.0373
3.2533 -0.3292 2.0373
3.2682 -0.0670 2.0373
3.2619 0.1954 2.0373
3.2347 0.4565 2.0373
3.1865 0.7144 2.0373
3.1179 0.9676 2.0373
3.0292 1.2144 2.0373
2.9210 1.4533 2.0373
2.7940 1.6827 2.0373
2.6491 1.9011 2.0373
2.4872 2.1072 2.0373
2.3094 2.2996 2.0373
0.7760 0.9081 0.7468
0.7006 0.9676 0.7471
0.6206 1.0208 0.7473
0.5366 1.0674 0.7474
0.4492 1.1071 0.7476
0.3588 1.1397 0.7477
0.2661 1.1649 0.7478
0.1716 1.1825 0.7479
0.0760 1.1925 0.7479
-0.0200 1.1948 0.7479
-0.1160 1.1893 0.7479
-0.2112 1.1761 0.7478
-0.3050 1.1553 0.7478
-0.3968 1.1270 0.7477
-0.4860 1.0914 0.7475
-0.5721 1.0488 0.7474
-0.6545 0.9994 0.7472
-0.7326 0.9435 0.7470
-2.1987 2.4049 2.0373
-2.3853 2.2211 2.0373
-2.5567 2.0228 2.0373
-2.7116 1.8114 2.0373
-2.8491 1.5883 2.0373
-2.9683 1.3547 2.0373
-3.0685 1.1124 2.0373
-3.1489 0.8627 2.0373
-3.2090 0.6073 2.0373
-3.2485 0.3479 2.0373
-3.2670 0.0861 2.0373
-3.2644 -0.1765 2.0373
-3.2408 -0.4380 2.0373
-3.1963 -0.6969 2.0373
-3.1311 -0.9514 2.0373
-3.0456 -1.1999 2.0373
-2.9404 -1.4408 2.0373
-2.8162 -1.6725 2.0373
-2.6737 -1.8936 2.0373
-2.5139 -2.1025 2.0373
-2.3378 -2.2979 2.0373
-0.7798 -0.9004 0.7401
-0.7050 -0.9600 0.7399
-0.6257 -1.0133 0.7397
-0.5424 -1.0602 0.7396
-0.4557 -1.1002 0.7394
-0.3660 -1.1331 0.7393
-0.2739 -1.1588 0.7392
-0.1802 -1.1770 0.7391
-0.0852 -1.1876 0.7391
0.0103 -1.1906 0.7391
0.1057 -1.1860 0.7391
0.2004 -1.1737 0.7391
0.2939 -1.1539 0.7392
0.3854 -1.1267 0.7393
0.4746 -1.0922 0.7394
0.5606 -1.0507 0.7396
0.6431 -1.0025 0.7398
0.7215 -0.9477 0.7400
2.1888 -2.4411 2.0373
2.3769 -2.2572 2.0373
2.5497 -2.0588 2.0373
2.7059 -1.8472 2.0373
2.8445 -1.6237 2.0373
2.9647 -1.3899 2.0373
3.0657 -1.1472 2.0373
3.1469 -0.8973 2.0373
3.2077 -0.6417 2.0373
3.2478 -0.3821 2.0373
3.2669 -0.1202 2.0373
3.2649 0.1423 2.0373
3.2419 0.4038 2.0373
3.1979 0.6625 2.0373
3.1334 0.9168 2.0373
3.0487 1.1650 2.0373
2.9444 1.4056 2.0373
2.8212 1.6371 2.0373
2.6799 1.8578 2.0373
2.5214 2.0665 2.0373
2.3466 2.2618 2.0373
0.7906 0.8953 0.7468
0.7162 0.9560 0.7470
0.6372 1.0105 0.7472
0.5540 1.0585 0.7474
0.4671 1.0997 0.7476
0.3773 1.1337 0.7477
0.2850 1.1604 0.7478
0.1908 1.1796 0.7479
0.0955 1.1911 0.7479
-0.0006 1.1949 0.7479
-0.0966 1.1910 0.7479
-0.1920 1.1794 0.7479
-0.2861 1.1601 0.7478
-0.3784 1.1333 0.7477
-0.4682 1.0992 0.7476
-0.5549 1.0580 0.7474
-0.6381 1.0099 0.7472
-0.7171 0.9553 0.7470
-2.1592 2.4403 2.0373
-2.3487 2.2595 2.0373
-2.5233 2.0641 2.0373
-2.6816 1.8552 2.0373
-2.8227 1.6343 2.0373
-2.9457 1.4028 2.0373
-3.0498 1.1621 2.0373
-3.1342 0.9138 2.0373
-3.1985 0.6594 2.0373
-3.2422 0.4007 2.0373
-3.2649 0.1392 2.0373
-3.2667 -0.1233 2.0373
-3.2473 -0.3852 2.0373
-3.2070 -0.6448 2.0373
-3.1459 -0.9003 2.0373
-3.0645 -1.1502 2.0373
-2.9633 -1.3927 2.0373
-2.8429 -1.6264 2.0373
-2.7040 -1.8497 2.0373
-2.5476 -2.0612 2.0373
-2.3747 -2.2594 2.0373
-2.1864 -2.4432 2.0373
-0.7206 -0.9484 0.7400
-0.6421 -1.0031 0.7398
-0.5596 -1.0512 0.7396
-0.4735 -1.0927 0.7394
-0.3844 -1.1270 0.7393
-0.2927 -1.1542 0.7392
-0.1993 -1.1739 0.7391
-0.1045 -1.1861 0.7391
-0.0091 -1.1906 0.7391
0.0864 -1.1875 0.7391
0.1813 -1.1768 0.7391
0.2751 -1.1585 0.7392
0.3671 -1.1328 0.7393
0.4567 -1.0998 0.7394
0.5435 -1.0597 0.7396
0.6267 -1.0128 0.7397
0.7060 -0.9593 0.7399
0.7807 -0.8997 0.7401
2.3400 -2.2957 2.0373
2.5160 -2.1001 2.0373
2.6756 -1.8910 2.0373
2.8179 -1.6699 2.0373
2.9419 -1.4380 2.0373
3.0468 -1.1970 2.0373
3.1321 -0.9485 2.0373
3.1970 -0.6939 2.0373
3.2413 -0.4349 2.0373
3.2647 -0.1734 2.0373
3.2670 0.0892 2.0373
3.2482 0.3510 2.0373
3.2085 0.6104 2.0373
3.1481 0.8657 2.0373
3.0675 1.1153 2.0373
2.9671 1.3576 2.0373
2.8477 1.5910 2.0373
2.7099 1.8141 2.0373
2.2681 -2.0850 2.0373
2.4274 -1.8959 2.0373
2.5710 -1.6947 2.0373
2.6979 -1.4826 2.0373
2.8073 -1.2611 2.0373
2.8985 -1.0315 2.0373
2.9710 -0.7954 2.0373
3.0243 -0.5543 2.0373
3.0580 -0.3097 2.0373
3.0720 -0.0632 2.0373
3.0662 0.1835 2.0373
3.0406 0.4288 2.0373
2.9954 0.6713 2.0373
2.9309 0.9094 2.0373
2.8476 1.1414 2.0373
2.7459 1.3660 2.0373
2.6266 1.5816 2.0373
2.4904 1.7870 2.0373
2.3382 1.9807 2.0373
2.1711 2.1616 2.0373
0.7293 0.8534 0.7466
0.6584 0.9093 0.7468
0.5833 0.9593 0.7470
0.5044 1.0031 0.7472
0.4221 1.0404 0.7473
0.3372 1.0710 0.7474
0.2501 1.0947 0.7475
0.1613 1.1113 0.7476
0.0715 1.1207 0.7476
-0.0188 1.1228 0.7476
-0.1090 1.1176 0.7476
-0.1984 1.1052 0.7476
-0.2866 1.0857 0.7475
-0.3729 1.0591 0.7474
-0.4568 1.0257 0.7473
-0.5377 0.9856 0.7471
-0.6151 0.9392 0.7470
-0.6885 0.8866 0.7468
-0.7574 0.8284 0.7466
-2.2425 2.0878 2.0373
-2.4035 1.9014 2.0373
-2.5491 1.7027 2.0373
-2.6784 1.4929 2.0373
-2.7904 1.2733 2.0373
-2.8845 1.0455 2.0373
-2.9600 0.8107 2.0373
-3.0165 0.5707 2.0373
-3.0536 0.3268 2.0373
-3.0709 0.0807 2.0373
-3.0685 -0.1661 2.0373
-3.0463 -0.4120 2.0373
-3.0043 -0.6553 2.0373
-2.9430 -0.8945 2.0373
-2.8626 -1.1281 2.0373
-2.7637 -1.3545 2.0373
-2.6469 -1.5723 2.0373
-2.5130 -1.7800 2.0373
-2.3628 -1.9763 2.0373
-2.1972 -2.1599 2.0373
-0.7331 -0.8466 0.7403
-0.6628 -0.9026 0.7401
-0.5883 -0.9528 0.7400
-0.5100 -0.9968 0.7398
-0.4284 -1.0344 0.7397
-0.3441 -1.0654 0.7395
-0.2576 -1.0895 0.7394
-0.1694 -1.1066 0.7394
-0.0801 -1.1166 0.7393
0.0096 -1.1195 0.7393
0.0993 -1.1151 0.7394
0.1884 -1.1035 0.7394
0.2763 -1.0849 0.7395
0.3624 -1.0593 0.7396
0.4461 -1.0269 0.7397
0.5271 -0.9879 0.7398
0.6046 -0.9425 0.7400
0.6783 -0.8911 0.7402
0.7476 -0.8339 0.7404
2.2340 -2.1217 2.0373
2.3964 -1.9353 2.0373
2.5432 -1.7364 2.0373
2.6735 -1.5264 2.0373
2.7866 -1.3066 2.0373
2.8815 -1.0786 2.0373
2.9579 -0.8436 2.0373
3.0151 -0.6034 2.0373
3.0528 -0.3594 2.0373
3.0708 -0.1132 2.0373
3.0690 0.1336 2.0373
3.0474 0.3793 2.0373
3.0061 0.6225 2.0373
2.9455 0.8616 2.0373
2.8660 1.0950 2.0373
2.7679 1.3212 2.0373
2.6521 1.5387 2.0373
2.5193 1.7463 2.0373
2.3703 1.9425 2.0373
2.2061 2.1261 2.0373
0.7431 0.8414 0.7466
0.6731 0.8984 0.7468
0.5988 0.9496 0.7470
0.5206 0.9948 0.7472
0.4390 1.0334 0.7473
0.3546 1.0654 0.7474
0.2679 1.0905 0.7475
0.1794 1.1085 0.7476
0.0897 1.1194 0.7476
-0.0005 1.1229 0.7476
-0.0908 1.1193 0.7476
-0.1804 1.1083 0.7476
-0.2689 1.0902 0.7475
-0.3556 1.0651 0.7474
-0.4400 1.0330 0.7473
-0.5216 0.9942 0.7472
-0.5997 0.9491 0.7470
-0.6740 0.8978 0.7468
-0.7439 0.8406 0.7466
-2.2080 2.1239 2.0373
-2.3721 1.9402 2.0373
-2.5209 1.7439 2.0373
