ply
format ascii 1.0
element vertex 2171
property float32 x
property float32 y
property float32 z
end_header
3.6913 -6.2081 2.0382
3.8654 -5.4499 1.8858
4.2903 -5.1206 1.8858
4.6871 -4.7582 1.8858
5.0534 -4.3650 1.8858
5.3867 -3.9437 1.8858
5.6849 -3.4970 1.8858
5.9447 -3.0271 1.8853
6.1788 -2.5435 1.8889
4.0602 -1.3007 1.2056
6.5206 -1.5235 1.8940
6.6255 -0.9948 1.8956
6.6850 -0.4589 1.8964
6.6987 0.0801 1.8965
6.6665 0.6181 1.8959
6.5888 1.1510 1.8947
6.4662 1.6749 1.8927
6.2999 2.1857 1.8900
6.0914 2.6798 1.8867
5.8519 3.1587 1.8858
5.5775 3.6181 1.8858
5.2672 4.0540 1.8858
4.9229 4.4634 1.8858
4.5471 4.8439 1.8858
4.1420 5.1928 1.8858
3.8953 5.7829 1.9798
3.5177 6.2555 2.0382
3.0028 6.5174 2.0382
2.4686 6.7370 2.0382
1.9186 6.9131 2.0382
1.3563 7.0445 2.0382
0.7853 7.1305 2.0382
0.2092 7.1703 2.0382
-0.3682 7.1640 2.0382
-0.9432 7.1113 2.0382
-1.5122 7.0127 2.0382
-2.0715 6.8689 2.0382
-2.6175 6.6807 2.0382
-3.1467 6.4493 2.0382
-3.6557 6.1761 2.0382
-4.1413 5.8631 2.0382
-4.6002 5.5120 2.0382
-5.0296 5.1252 2.0382
-5.4267 4.7051 2.0382
-5.7888 4.2544 2.0382
-6.1137 3.7760 2.0382
-6.3992 3.2729 2.0382
-6.6434 2.7484 2.0382
-6.8448 2.2059 2.0382
-7.0020 1.6488 2.0382
-7.1140 1.0808 2.0382
-7.1800 0.5053 2.0382
-7.1995 -0.0737 2.0382
-7.1724 -0.6525 2.0382
-7.0988 -1.2275 2.0382
-6.9791 -1.7948 2.0382
-6.8142 -2.3508 2.0382
-6.6049 -2.8918 2.0382
-6.3527 -3.4144 2.0382
-6.0592 -3.9151 2.0382
-5.7262 -4.3906 2.0382
-5.3559 -4.8379 2.0382
-4.9507 -5.2539 2.0382
-4.5132 -5.6361 2.0382
-4.0462 -5.9817 2.0382
-3.5528 -6.2886 2.0382
-3.0362 -6.5548 2.0382
-2.4997 -6.7784 2.0382
-1.9469 -6.9581 2.0382
-1.3814 -7.0925 2.0382
-0.6373 -5.6725 1.6101
-0.1784 -5.6767 1.6019
0.2790 -5.6808 1.6042
0.7406 -5.6850 1.6171
1.5064 -7.0670 2.0382
2.0695 -6.9225 2.0382
2.6190 -6.7332 2.0382
3.1514 -6.5001 2.0382
3.6633 -6.2248 2.0382
3.8408 -5.4677 1.8858
4.2671 -5.1400 1.8858
4.6656 -4.7794 1.8858
5.0336 -4.3879 1.8858
5.3689 -3.9681 1.8858
5.6691 -3.5228 1.8858
5.9303 -3.0537 1.8851
6.1667 -2.5712 1.8887
4.0490 -1.3173 1.2040
6.5134 -1.5529 1.8939
6.6208 -1.0247 1.8955
6.6829 -0.4892 1.8964
6.6991 0.0498 1.8965
6.6696 0.5879 1.8960
6.5944 1.1213 1.8947
6.4743 1.6457 1.8928
6.3104 2.1574 1.8902
6.1042 2.6526 1.8869
5.8662 3.1322 1.8858
5.5939 3.5929 1.8858
5.2855 4.0302 1.8858
4.9432 4.4412 1.8858
4.5690 4.8233 1.8858
4.1655 5.1741 1.8858
-4.1743 4.9557 2.0382
-4.5601 4.6047 2.0382
-4.9167 4.2239 2.0382
-5.2415 3.8156 2.0382
-5.5327 3.3825 2.0382
-5.7881 2.9272 2.0382
-6.0063 2.4529 2.0382
-6.1856 1.9625 2.0382
-6.3251 1.4591 2.0382
-6.4236 0.9460 2.0382
-6.4806 0.4265 2.0382
-6.4957 -0.0960 2.0382
-6.4687 -0.6182 2.0382
-6.3998 -1.1366 2.0382
-6.2893 -1.6479 2.0382
-6.1381 -2.1488 2.0382
-5.9470 -2.6361 2.0382
-5.7172 -3.1064 2.0382
-5.4502 -3.5568 2.0382
-5.1477 -3.9844 2.0382
-4.8118 -4.3862 2.0382
-4.4444 -4.7598 2.0382
-4.0481 -5.1026 2.0382
-3.6254 -5.4124 2.0382
-3.1791 -5.6871 2.0382
-2.7119 -5.9250 2.0382
-2.2271 -6.1245 2.0382
-1.7277 -6.2842 2.0382
-1.2170 -6.4032 2.0382
-0.6114 -5.6733 1.7843
-0.1527 -5.6774 1.7759
0.3047 -5.6815 1.7791
0.7668 -5.6857 1.7940
1.3875 -6.3683 2.0382
1.8948 -6.2358 2.0382
2.3898 -6.0627 2.0382
2.8691 -5.8504 2.0382
3.3297 -5.6001 2.0382
3.7672 -5.3116 2.0375
3.8700 -4.6192 1.8858
4.2281 -4.2924 1.8858
4.5586 -3.9378 1.8858
4.8594 -3.5578 1.8858
5.1285 -3.1549 1.8858
5.3643 -2.7318 1.8858
5.5652 -2.2911 1.8858
3.9834 -1.2762 1.3110
5.8574 -1.3687 1.8858
5.9443 -0.8927 1.8850
5.9976 -0.4119 1.8857
6.0099 0.0717 1.8858
5.9816 0.5544 1.8853
5.9124 1.0327 1.8842
5.8137 1.5057 1.8858
5.6723 1.9678 1.8858
5.4943 2.4170 1.8858
5.2809 2.8503 1.8858
5.0334 3.2650 1.8858
4.7534 3.6584 1.8858
4.4429 4.0280 1.8858
4.1037 4.3714 1.8858
3.8890 4.8755 1.9619
3.6192 5.3729 2.0382
3.1749 5.6457 2.0382
2.7102 5.8821 2.0382
2.2281 6.0804 2.0382
1.7317 6.2394 2.0382
1.2241 6.3580 2.0382
0.7088 6.4356 2.0382
0.1888 6.4716 2.0382
-0.3323 6.4659 2.0382
-0.8513 6.4183 2.0382
-1.3649 6.3294 2.0382
-1.8697 6.1995 2.0382
-2.3624 6.0295 2.0382
-2.8401 5.8206 2.0382
-3.2994 5.5740 2.0382
-3.7376 5.2914 2.0382
-4.1517 4.9745 2.0382
-4.5392 4.6252 2.0382
-4.8974 4.2460 2.0382
-5.2242 3.8392 2.0382
-5.5172 3.4074 2.0382
-5.7748 2.9534 2.0382
-5.9950 2.4820 2.0382
-6.1766 1.9904 2.0382
-6.3183 1.4876 2.0382
-6.4192 0.9750 2.0382
-6.4786 0.4558 2.0382
-6.4960 -0.0667 2.0382
-6.4713 -0.5889 2.0382
-6.4048 -1.1077 2.0382
-6.2966 -1.6194 2.0382
-6.1477 -2.1210 2.0382
-5.9587 -2.6091 2.0382
-5.7311 -3.0805 2.0382
-5.4661 -3.5321 2.0382
-5.1656 -3.9610 2.0382
-4.8315 -4.3644 2.0382
-4.4659 -4.7396 2.0382
-4.0711 -5.0842 2.0382
-3.6498 -5.3959 2.0382
-3.2047 -5.6726 2.0382
-2.7387 -5.9126 2.0382
-2.2548 -6.1143 2.0382
-1.7561 -6.2763 2.0382
-1.2460 -6.3976 2.0382
-0.6374 -5.6731 1.7851
-0.1784 -5.6772 1.7761
0.2790 -5.6813 1.7787
0.7406 -5.6855 1.7929
1.3587 -6.3745 2.0382
1.8666 -6.2443 2.0382
2.3623 -6.0735 2.0382
2.8426 -5.8633 2.0382
3.3043 -5.6151 2.0382
3.7445 -5.3305 2.0382
3.8491 -4.6369 1.8858
4.2087 -4.3115 1.8858
4.5408 -3.9584 1.8858
4.8433 -3.5798 1.8858
5.1143 -3.1781 1.8858
5.3520 -2.7560 1.8858
5.5548 -2.3162 1.8858
3.9825 -1.2958 1.3126
5.8513 -1.3952 1.8858
5.9401 -0.9196 1.8849
5.9957 -0.4390 1.8857
6.0103 0.0445 1.8858
5.9842 0.5273 1.8854
5.9174 1.0060 1.8843
5.8205 1.4794 1.8858
5.6813 1.9421 1.8858
5.5053 2.3921 1.8858
5.2938 2.8264 1.8858
5.0481 3.2422 1.8858
4.7700 3.6369 1.8858
4.4611 4.0079 1.8858
4.1235 4.3528 1.8858
3.8905 4.8323 1.9516
-3.7975 4.5081 2.0382
-4.1484 4.1888 2.0382
-4.4727 3.8423 2.0382
-4.7682 3.4708 2.0382
-5.0329 3.0768 2.0382
-5.2652 2.6626 2.0382
-5.4635 2.2311 2.0382
-5.6266 1.7849 2.0382
-5.7533 1.3270 2.0382
-5.8428 0.8603 2.0382
-5.8945 0.3877 2.0382
-5.9081 -0.0875 2.0382
-5.8834 -0.5624 2.0382
-5.8206 -1.0339 2.0382
-5.7200 -1.4989 2.0382
-5.5823 -1.9544 2.0382
-5.4084 -2.3975 2.0382
-5.1993 -2.8252 2.0382
-4.9564 -3.2348 2.0382
-4.6813 -3.6235 2.0382
-4.3757 -3.9889 2.0382
-4.0416 -4.3285 2.0382
-3.6811 -4.6402 2.0382
-3.2967 -4.9218 2.0382
-2.8908 -5.1716 2.0382
-2.4660 -5.3878 2.0382
-0.7331 -2.0160 0.7378
-1.5710 -5.7144 2.0382
-1.1066 -5.8225 2.0382
-0.6351 -5.8928 2.0382
-0.1593 -5.9249 2.0382
0.3174 -5.9186 2.0382
0.7921 -5.8737 2.0382
1.2617 -5.7908 2.0382
1.7230 -5.6703 2.0382
2.1730 -5.5130 2.0382
2.6089 -5.3200 2.0382
3.0277 -5.0924 2.0382
3.4268 -4.8317 2.0382
3.7781 -4.5096 2.0245
3.8448 -3.9033 1.8858
4.1454 -3.5811 1.8858
4.4190 -3.2356 1.8858
4.6639 -2.8693 1.8858
4.8784 -2.4845 1.8858
5.0612 -2.0838 1.8858
3.9672 -1.2712 1.4357
5.3272 -1.2450 1.8858
5.4087 -0.8125 1.8858
5.4552 -0.3748 1.8858
5.4663 0.0650 1.8858
5.4420 0.5042 1.8858
5.3825 0.9399 1.8858
5.2882 1.3694 1.8858
5.1597 1.7898 1.8858
4.9979 2.1984 1.8858
4.8038 2.5926 1.8858
4.5787 2.9699 1.8858
4.3242 3.3278 1.8858
4.0509 3.6722 1.8901
3.8814 4.1344 1.9606
3.6756 4.6078 2.0382
3.2926 4.8878 2.0382
2.8884 5.1361 2.0382
2.4657 5.3511 2.0382
2.0271 5.5316 2.0382
1.5754 5.6763 2.0382
1.1137 5.7843 2.0382
0.6448 5.8549 2.0382
0.1718 5.8877 2.0382
-0.3023 5.8824 2.0382
-0.7745 5.8392 2.0382
-1.2417 5.7582 2.0382
-1.7010 5.6400 2.0382
-2.1493 5.4853 2.0382
-2.5838 5.2952 2.0382
-3.0017 5.0708 2.0382
-3.4003 4.8136 2.0382
-3.7770 4.5253 2.0382
-4.1294 4.2075 2.0382
-4.4552 3.8625 2.0382
-4.7524 3.4923 2.0382
-5.0189 3.0994 2.0382
-5.2530 2.6864 2.0382
-5.4533 2.2557 2.0382
-5.6184 1.8103 2.0382
-5.7471 1.3530 2.0382
-5.8388 0.8867 2.0382
-5.8926 0.4144 2.0382
-5.9083 -0.0608 2.0382
-5.8858 -0.5358 2.0382
-5.8251 -1.0076 2.0382
-5.7267 -1.4730 2.0382
-5.5910 -1.9292 2.0382
-5.4191 -2.3730 2.0382
-5.2120 -2.8016 2.0382
-4.9709 -3.2123 2.0382
-4.6976 -3.6022 2.0382
-4.3936 -3.9690 2.0382
-4.0611 -4.3101 2.0382
-3.7020 -4.6234 2.0382
-3.3189 -4.9068 2.0382
-2.9141 -5.1584 2.0382
-2.4903 -5.3766 2.0382
-0.7422 -2.0127 0.7378
-1.5968 -5.7072 2.0382
-1.1330 -5.8174 2.0382
-0.6617 -5.8899 2.0382
-0.1861 -5.9241 2.0382
0.2907 -5.9199 2.0382
0.7656 -5.8773 2.0382
1.2355 -5.7965 2.0382
1.6973 -5.6781 2.0382
0.7777 -1.9994 0.7379
2.5848 -5.3318 2.0382
3.0047 -5.1061 2.0382
3.4050 -4.8472 2.0382
3.7758 -4.5486 2.0343
3.8272 -3.9207 1.8858
4.1292 -3.5998 1.8858
4.4044 -3.2556 1.8858
4.6509 -2.8904 1.8858
4.8672 -2.5065 1.8858
5.0518 -2.1067 1.8858
3.9663 -1.2907 1.4374
5.3216 -1.2691 1.8858
5.4051 -0.8369 1.8858
5.4535 -0.3995 1.8858
5.4666 0.0403 1.8858
5.4443 0.4796 1.8858
5.3867 0.9156 1.8858
5.2944 1.3455 1.8858
5.1678 1.7665 1.8858
5.0078 2.1758 1.8858
4.8155 2.5709 1.8858
4.5922 2.9492 1.8858
4.3392 3.3083 1.8858
4.0583 3.6458 1.8858
3.8826 4.0984 1.9519
3.6964 4.5912 2.0382
-3.4774 4.1280 2.0382
-3.7987 3.8356 2.0382
-4.0956 3.5182 2.0382
-4.3661 3.1780 2.0382
-4.6085 2.8171 2.0382
-4.8211 2.4378 2.0382
-5.0026 2.0427 2.0382
-5.1518 1.6341 2.0382
-5.2677 1.2148 2.0382
-5.3496 0.7875 2.0382
-5.3968 0.3548 2.0382
-5.4092 -0.0803 2.0382
-5.3864 -0.5151 2.0382
-5.3288 -0.9467 2.0382
-5.2367 -1.3724 2.0382
-5.1105 -1.7894 2.0382
-4.9512 -2.1950 2.0382
-4.7597 -2.5865 2.0382
-4.5373 -2.9614 2.0382
-4.2853 -3.3172 2.0382
-4.0055 -3.6516 2.0382
-3.6996 -3.9625 2.0382
-3.3697 -4.2477 2.0382
-3.0177 -4.5054 2.0382
-2.6461 -4.7340 2.0382
-2.2573 -4.9320 2.0382
-0.6715 -1.8466 0.7383
-0.5208 -1.8944 0.7382
-0.3668 -1.9300 0.7381
-0.2105 -1.9531 0.7380
-0.0528 -1.9637 0.7380
0.1052 -1.9616 0.7380
0.2625 -1.9468 0.7380
0.4182 -1.9196 0.7381
0.5712 -1.8799 0.7382
0.7206 -1.8281 0.7384
2.3881 -4.8698 2.0382
2.7715 -4.6616 2.0382
3.1368 -4.4232 2.0382
3.4818 -4.1561 2.0382
3.7845 -3.8424 2.0278
3.8176 -3.2982 1.8972
4.0453 -2.9621 1.8858
4.2695 -2.6268 1.8858
4.4659 -2.2746 1.8858
4.6334 -1.9078 1.8858
3.9508 -1.2660 1.5617
4.8771 -1.1400 1.8858
4.9518 -0.7440 1.8858
4.9944 -0.3433 1.8858
5.0047 0.0594 1.8858
4.9825 0.4615 1.8858
4.9281 0.8604 1.8858
4.8419 1.2537 1.8858
4.7243 1.6386 1.8858
4.5762 2.0128 1.8858
4.3986 2.3738 1.8858
4.1926 2.7193 1.8858
3.9596 3.0470 1.8858
3.8725 3.5105 1.9732
3.6948 3.9355 2.0382
3.3658 4.2193 2.0382
3.0151 4.4757 2.0382
2.6450 4.7031 2.0382
2.2579 4.9001 2.0382
0.6819 1.8607 0.7487
0.5301 1.9097 0.7488
0.3748 1.9463 0.7489
0.2170 1.9703 0.7490
0.1573 5.3916 2.0382
-0.2769 5.3867 2.0382
-0.2606 1.9649 0.7490
-0.4178 1.9375 0.7489
-0.5723 1.8974 0.7488
-0.7229 1.8450 0.7487
-2.3661 4.8489 2.0382
-2.7487 4.6434 2.0382
-3.1137 4.4078 2.0382
-3.4587 4.1437 2.0382
-3.7813 3.8527 2.0382
-4.0796 3.5367 2.0382
-4.3516 3.1977 2.0382
-4.5956 2.8379 2.0382
-4.8099 2.4596 2.0382
-4.9932 2.0653 2.0382
-5.1443 1.6574 2.0382
-5.2621 1.2386 2.0382
-5.3459 0.8116 2.0382
-5.3951 0.3792 2.0382
-5.4094 -0.0558 2.0382
-5.3886 -0.4907 2.0382
-5.3330 -0.9226 2.0382
-5.2427 -1.3487 2.0382
-5.1185 -1.7663 2.0382
-4.9610 -2.1726 2.0382
-4.7713 -2.5649 2.0382
-4.5506 -2.9408 2.0382
-4.3003 -3.2977 2.0382
-4.0220 -3.6334 2.0382
-3.7175 -3.9457 2.0382
-3.3888 -4.2324 2.0382
-3.0380 -4.4917 2.0382
-2.6675 -4.7220 2.0382
-2.2795 -4.9217 2.0382
-0.6798 -1.8436 0.7383
-0.5294 -1.8920 0.7382
-0.3755 -1.9283 0.7381
-0.2193 -1.9522 0.7380
-0.0617 -1.9634 0.7380
0.0963 -1.9620 0.7380
0.2537 -1.9480 0.7380
0.4095 -1.9214 0.7381
0.5627 -1.8825 0.7382
0.7123 -1.8314 0.7383
2.3660 -4.8806 2.0382
2.7504 -4.6741 2.0382
3.1168 -4.4373 2.0382
3.4630 -4.1717 2.0382
3.7826 -3.8754 2.0361
3.8132 -3.3244 1.9024
4.0319 -2.9804 1.8858
4.2576 -2.6461 1.8858
4.4557 -2.2948 1.8858
4.6248 -1.9287 1.8858
3.9499 -1.2855 1.5636
4.8719 -1.1620 1.8858
4.9484 -0.7664 1.8858
4.9929 -0.3659 1.8858
5.0050 0.0367 1.8858
4.9846 0.4390 1.8858
4.9320 0.8382 1.8858
4.8476 1.2318 1.8858
4.7317 1.6172 1.8858
4.5853 1.9921 1.8858
4.4093 2.3539 1.8858
4.2049 2.7003 1.8858
3.9733 3.0292 1.8858
3.8735 3.4797 1.9657
3.7127 3.9188 2.0382
3.3849 4.2041 2.0382
-3.2018 3.8007 2.0382
-3.4976 3.5313 2.0382
-3.7709 3.2391 2.0382
-4.0199 2.9259 2.0382
-4.2430 2.5935 2.0382
-4.4387 2.2443 2.0382
-4.6057 1.8805 2.0382
-4.7430 1.5043 2.0382
-4.8496 1.1183 2.0382
-4.9249 0.7248 2.0382
-4.9683 0.3265 2.0382
-4.9796 -0.0741 2.0382
-4.9586 -0.4743 2.0382
-4.9055 -0.8717 2.0382
-4.8206 -1.2635 2.0382
-4.7044 -1.6474 2.0382
-4.5576 -2.0207 2.0382
-4.3813 -2.3810 2.0382
-4.1765 -2.7261 2.0382
-3.9446 -3.0536 2.0382
-3.6870 -3.3613 2.0382
-3.4053 -3.6474 2.0382
-3.1016 -3.9099 2.0382
-2.7776 -4.1471 2.0382
-2.4356 -4.3575 2.0382
-0.7532 -1.6456 0.7389
-0.6184 -1.7007 0.7387
-0.4796 -1.7447 0.7386
-0.3378 -1.7775 0.7385
-0.1938 -1.7988 0.7384
-0.0486 -1.8085 0.7384
0.0969 -1.8066 0.7384
0.2418 -1.7930 0.7384
0.3851 -1.7679 0.7385
0.5260 -1.7313 0.7386
0.6636 -1.6836 0.7388
2.1980 -4.4825 2.0382
2.5510 -4.2908 2.0382
2.8873 -4.0714 2.0382
3.2048 -3.8256 2.0382
3.5014 -3.5551 2.0382
3.7753 -3.2616 2.0382
3.8135 -2.7926 1.9313
3.9300 -2.4181 1.8858
4.1109 -2.0939 1.8858
3.9334 -1.6197 1.7392
3.9342 -1.2608 1.6894
4.4896 -1.0495 1.8858
4.5584 -0.6850 1.8858
4.5977 -0.3162 1.8858
4.6073 0.0545 1.8858
4.5870 0.4247 1.8858
4.5369 0.7920 1.8858
4.4576 1.1540 1.8858
4.3494 1.5084 1.8858
4.2132 1.8529 1.8858
4.0497 2.1853 1.8858
3.8806 2.5170 1.8958
3.8622 2.9720 1.9979
3.6829 3.3385 2.0382
3.4019 3.6234 2.0382
3.0990 3.8847 2.0382
2.7762 4.1208 2.0382
2.4354 4.3303 2.0382
0.7631 1.6560 0.7481
0.6275 1.7123 0.7483
0.4878 1.7574 0.7484
0.3449 1.7910 0.7485
0.1997 1.8131 0.7486
0.0532 1.8233 0.7486
-0.0936 1.8216 0.7486
-0.2399 1.8082 0.7486
-0.3845 1.7829 0.7485
-0.5266 1.7460 0.7484
-0.6653 1.6978 0.7482
-2.1786 4.4645 2.0382
-2.5309 4.2753 2.0382
-2.8669 4.0583 2.0382
-3.1845 3.8151 2.0382
-3.4816 3.5471 2.0382
-3.7562 3.2561 2.0382
-4.0066 2.9440 2.0382
-4.2311 2.6127 2.0382
-4.4284 2.2644 2.0382
-4.5971 1.9013 2.0382
-4.7361 1.5257 2.0382
-4.8445 1.1402 2.0382
-4.9215 0.7471 2.0382
-4.9668 0.3490 2.0382
-4.9798 -0.0516 2.0382
-4.9607 -0.4519 2.0382
-4.9093 -0.8495 2.0382
-4.8262 -1.2417 2.0382
-4.7117 -1.6261 2.0382
-4.5667 -2.0000 2.0382
-4.3920 -2.3612 2.0382
-4.1888 -2.7071 2.0382
-3.9583 -3.0357 2.0382
-3.7021 -3.3446 2.0382
-3.4218 -3.6320 2.0382
-3.1192 -3.8958 2.0382
-2.7963 -4.1345 2.0382
-2.4552 -4.3464 2.0382
-0.7606 -1.6422 0.7389
-0.6261 -1.6979 0.7387
-0.4875 -1.7425 0.7386
-0.3458 -1.7759 0.7385
-0.2020 -1.7979 0.7384
-0.0568 -1.8083 0.7384
0.0887 -1.8070 0.7384
0.2337 -1.7941 0.7384
0.3772 -1.7696 0.7385
0.5182 -1.7337 0.7386
0.6560 -1.6866 0.7387
2.1778 -4.4924 2.0382
2.5316 -4.3024 2.0382
2.8689 -4.0845 2.0382
3.1875 -3.8401 2.0382
3.4853 -3.5709 2.0382
3.7605 -3.2787 2.0382
3.8122 -2.8181 1.9371
3.9191 -2.4359 1.8858
4.1015 -2.1125 1.8858
4.2572 -1.7756 1.8858
3.9333 -1.2802 1.6915
4.4848 -1.0698 1.8858
4.5553 -0.7056 1.8858
4.5963 -0.3370 1.8858
4.6075 0.0337 1.8858
4.5889 0.4040 1.8858
4.5405 0.7715 1.8858
4.4628 1.1339 1.8858
4.3563 1.4888 1.8858
4.2216 1.8339 1.8858
4.0596 2.1670 1.8858
3.8841 2.4942 1.8920
3.8631 2.9449 1.9914
3.6980 3.3219 2.0382
3.4183 3.6080 2.0382
3.1166 3.8707 2.0382
-2.9615 3.5154 2.0382
-3.2351 3.2662 2.0382
-3.4879 2.9959 2.0382
-3.7182 2.7061 2.0382
-3.9245 2.3987 2.0382
-4.1054 2.0757 2.0382
-4.2598 1.7391 2.0382
-4.3868 1.3912 2.0382
-4.4853 1.0341 2.0382
-4.5549 0.6702 2.0382
-4.5950 0.3018 2.0382
-4.6054 -0.0686 2.0382
-4.5859 -0.4388 2.0382
-4.5367 -0.8063 2.0382
-4.4581 -1.1687 2.0382
-4.3506 -1.5236 2.0382
-4.2148 -1.8688 2.0382
-4.0517 -2.2021 2.0382
-3.8623 -2.5211 2.0382
-3.6477 -2.8239 2.0382
-3.4095 -3.1085 2.0382
-3.1490 -3.3730 2.0382
-2.8681 -3.6157 2.0382
-2.5685 -3.8350 2.0382
-2.2522 -4.0295 2.0382
-0.6968 -1.5225 0.7392
-0.5721 -1.5734 0.7391
-0.4437 -1.6141 0.7390
-0.3125 -1.6445 0.7389
-0.1793 -1.6642 0.7388
-0.0450 -1.6732 0.7388
0.0896 -1.6714 0.7388
0.2237 -1.6588 0.7388
0.3563 -1.6356 0.7389
0.4867 -1.6018 0.7390
0.6139 -1.5576 0.7391
0.7372 -1.5034 0.7393
2.3589 -3.9679 2.0382
2.6699 -3.7650 2.0382
2.9635 -3.5378 2.0382
3.2379 -3.2877 2.0382
3.4911 -3.0163 2.0382
3.7217 -2.7254 2.0382
3.8098 -2.3443 1.9768
3.8295 -1.9508 1.8996
3.9443 -1.6243 1.8858
3.9174 -1.2556 1.8190
4.1520 -0.9708 1.8858
4.2157 -0.6337 1.8858
4.2522 -0.2926 1.8858
4.2610 0.0503 1.8858
4.2423 0.3927 1.8858
4.1961 0.7324 1.8858
4.1228 1.0672 1.8858
4.0285 1.3970 1.8885
3.8968 1.7136 1.8858
3.8626 2.0843 1.9447
3.8505 2.4971 2.0338
3.6445 2.8043 2.0382
3.4066 3.0879 2.0382
3.1467 3.3514 2.0382
2.8665 3.5931 2.0382
2.5679 3.8116 2.0382
2.2527 4.0053 2.0382
0.7055 1.5310 0.7478
0.5802 1.5830 0.7479
0.4510 1.6247 0.7480
0.3188 1.6558 0.7481
0.1846 1.6762 0.7482
0.0492 1.6856 0.7482
-0.0866 1.6841 0.7482
-0.2218 1.6716 0.7482
-0.3555 1.6483 0.7481
-0.4869 1.6142 0.7480
-0.6151 1.5697 0.7479
-0.7393 1.5149 0.7477
-2.3411 3.9544 2.0382
-2.6519 3.7537 2.0382
-2.9456 3.5287 2.0382
-3.2203 3.2808 2.0382
-3.4743 3.0116 2.0382
-3.7059 2.7229 2.0382
-3.9135 2.4164 2.0382
-4.0959 2.0942 2.0382
-4.2519 1.7584 2.0382
-4.3804 1.4110 2.0382
-4.4806 1.0544 2.0382
-4.5518 0.6908 2.0382
-4.5935 0.3226 2.0382
-4.6056 -0.0478 2.0382
-4.5878 -0.4181 2.0382
-4.5402 -0.7858 2.0382
-4.4633 -1.1485 2.0382
-4.3574 -1.5039 2.0382
-4.2232 -1.8498 2.0382
-4.0616 -2.1837 2.0382
-3.8736 -2.5036 2.0382
-3.6604 -2.8074 2.0382
-3.4234 -3.0930 2.0382
-3.1642 -3.3587 2.0382
-2.8844 -3.6027 2.0382
-2.5858 -3.8234 2.0382
-2.2703 -4.0193 2.0382
-0.7036 -1.5193 0.7392
-0.5792 -1.5708 0.7391
-0.4510 -1.6121 0.7390
-0.3200 -1.6430 0.7389
-0.1869 -1.6634 0.7388
-0.0526 -1.6730 0.7388
0.0821 -1.6718 0.7388
0.2162 -1.6598 0.7388
0.3489 -1.6372 0.7389
0.4794 -1.6040 0.7390
0.6068 -1.5604 0.7391
0.7304 -1.5067 0.7393
2.3409 -3.9786 2.0382
2.6529 -3.7771 2.0382
2.9475 -3.5512 2.0382
3.2230 -3.3023 2.0382
3.4775 -3.0321 2.0382
3.7094 -2.7423 2.0382
3.8087 -2.3674 1.9818
3.8274 -1.9715 1.9030
3.8997 -1.6266 1.8680
3.9164 -1.2748 1.8212
4.1476 -0.9895 1.8858
4.2129 -0.6527 1.8858
4.2508 -0.3118 1.8858
4.2613 0.0310 1.8858
4.2441 0.3735 1.8858
4.1994 0.7134 1.8858
4.1276 1.0486 1.8858
4.0291 1.3768 1.8858
3.9046 1.6959 1.8858
3.8632 2.0621 1.9403
3.8513 2.4729 2.0282
3.6572 2.7878 2.0382
3.4205 3.0725 2.0382
3.1618 3.3371 2.0382
2.8828 3.5801 2.0382
-2.7500 3.2641 2.0382
-3.0040 3.0328 2.0382
-3.2387 2.7817 2.0382
-3.4525 2.5126 2.0382
-3.6440 2.2271 2.0382
-3.8120 1.9272 2.0382
-3.9553 1.6147 2.0382
-4.0731 1.2916 2.0382
-4.1646 0.9600 2.0382
-4.2292 0.6221 2.0382
-4.2663 0.2801 2.0382
-4.2759 -0.0639 2.0382
-4.2578 -0.4076 2.0382
-4.2120 -0.7487 2.0382
-4.1390 -1.0852 2.0382
-4.0391 -1.4147 2.0382
-3.9131 -1.7352 2.0382
-3.7616 -2.0445 2.0382
-3.5857 -2.3407 2.0382
-3.3864 -2.6218 2.0382
-3.1652 -2.8860 2.0382
-2.9234 -3.1315 2.0382
-2.6626 -3.3568 2.0382
-2.3844 -3.5604 2.0382
-0.7587 -1.3576 0.7397
-0.6471 -1.4140 0.7395
-0.5313 -1.4613 0.7394
-0.4121 -1.4992 0.7393
-0.2903 -1.5273 0.7392
-0.1666 -1.5457 0.7391
-0.0418 -1.5540 0.7391
0.0833 -1.5524 0.7391
0.2078 -1.5407 0.7392
0.3309 -1.5191 0.7392
0.4520 -1.4877 0.7393
0.5701 -1.4467 0.7394
0.6846 -1.3963 0.7396
2.1898 -3.6837 2.0382
2.4786 -3.4954 2.0382
2.7512 -3.2844 2.0382
3.0059 -3.0523 2.0382
3.2410 -2.8004 2.0382
3.4551 -2.5303 2.0382
3.6468 -2.2440 2.0382
3.8038 -1.9378 2.0324
3.8198 -1.5732 1.9671
3.8327 -1.2287 1.9169
3.8548 -0.9015 1.8858
3.9141 -0.5884 1.8858
3.9479 -0.2718 1.8858
3.9562 0.0465 1.8858
3.9389 0.3644 1.8858
3.8960 0.6798 1.8858
3.8592 0.9989 1.9012
3.8545 1.3365 1.9460
3.8473 1.6917 2.0052
3.7590 2.0282 2.0382
3.5831 2.3236 2.0382
3.3841 2.6038 2.0382
3.1632 2.8671 2.0382
2.9219 3.1118 2.0382
2.6618 3.3363 2.0382
2.3845 3.5392 2.0382
0.7670 1.3636 0.7473
0.6549 1.4211 0.7475
0.5385 1.4693 0.7476
0.4186 1.5080 0.7477
0.2960 1.5369 0.7478
0.1714 1.5558 0.7478
0.0457 1.5645 0.7479
-0.0804 1.5631 0.7479
-0.2058 1.5515 0.7478
-0.3300 1.5299 0.7478
-0.4519 1.4983 0.7477
-0.5709 1.4569 0.7476
-0.6862 1.4061 0.7474
-2.1739 3.6719 2.0382
-2.4625 3.4855 2.0382
-2.7352 3.2765 2.0382
-2.9903 3.0463 2.0382
-3.2261 2.7963 2.0382
-3.4411 2.5282 2.0382
-3.6339 2.2436 2.0382
-3.8032 1.9444 2.0382
-3.9480 1.6325 2.0382
-4.0672 1.3100 2.0382
-4.1602 0.9788 2.0382
-4.2263 0.6413 2.0382
-4.2650 0.2994 2.0382
-4.2761 -0.0445 2.0382
-4.2595 -0.3883 2.0382
-4.2153 -0.7297 2.0382
-4.1438 -1.0664 2.0382
-4.0455 -1.3964 2.0382
-3.9208 -1.7175 2.0382
-3.7707 -2.0275 2.0382
-3.5962 -2.3244 2.0382
-3.3982 -2.6064 2.0382
-3.1782 -2.8716 2.0382
-2.9375 -3.1182 2.0382
-2.6777 -3.3447 2.0382
-2.4005 -3.5495 2.0382
-0.7649 -1.3542 0.7397
-0.6535 -1.4111 0.7395
-0.5379 -1.4589 0.7394
-0.4189 -1.4973 0.7393
-0.2972 -1.5260 0.7392
-0.1735 -1.5449 0.7391
-0.0488 -1.5538 0.7391
0.0762 -1.5527 0.7391
0.2008 -1.5416 0.7392
0.3241 -1.5206 0.7392
0.4452 -1.4897 0.7393
0.5636 -1.4492 0.7394
0.6783 -1.3994 0.7396
2.1732 -3.6936 2.0382
2.4628 -3.5066 2.0382
2.7363 -3.2969 2.0382
2.9921 -3.0658 2.0382
3.2284 -2.8150 2.0382
3.4437 -2.5460 2.0382
3.6366 -2.2606 2.0382
3.8028 -1.9590 2.0366
3.8190 -1.5931 1.9704
3.8321 -1.2475 1.9193
3.8531 -0.9194 1.8869
3.9114 -0.6061 1.8858
3.9467 -0.2896 1.8858
3.9564 0.0286 1.8858
3.9405 0.3466 1.8858
3.8991 0.6622 1.8858
3.8605 0.9804 1.8996
3.8548 1.3171 1.9431
3.8478 1.6712 2.0014
3.7682 2.0112 2.0382
3.5936 2.3074 2.0382
3.3958 2.5885 2.0382
3.1762 2.8528 2.0382
2.9360 3.0986 2.0382
2.6769 3.3243 2.0382
-2.5620 3.0409 2.0382
-2.7987 2.8253 2.0382
-3.0173 2.5914 2.0382
-3.2164 2.3407 2.0382
-3.3948 2.0747 2.0382
-3.5513 1.7952 2.0382
-3.6848 1.5041 2.0382
-3.7945 1.2031 2.0382
-3.8797 0.8942 2.0382
-3.9397 0.5794 2.0382
-3.9743 0.2608 2.0382
-3.9832 -0.0596 2.0382
-3.9663 -0.3798 2.0382
-3.9236 -0.6976 2.0382
-3.8556 -1.0110 2.0382
-3.7625 -1.3179 2.0382
-3.6450 -1.6164 2.0382
-3.5039 -1.9046 2.0382
-3.3400 -2.1804 2.0382
-3.1544 -2.4422 2.0382
-2.9483 -2.6883 2.0382
-2.7230 -2.9170 2.0382
-2.4801 -3.1268 2.0382
-2.2210 -3.3164 2.0382
-0.7070 -1.2650 0.7399
-0.6029 -1.3176 0.7398
-0.4950 -1.3616 0.7397
-0.3840 -1.3969 0.7396
-0.2705 -1.4232 0.7395
-0.1552 -1.4403 0.7394
-0.0389 -1.4481 0.7394
0.0776 -1.4465 0.7394
0.1936 -1.4356 0.7395
0.3084 -1.4155 0.7395
0.4211 -1.3862 0.7396
0.5312 -1.3480 0.7397
0.6379 -1.3011 0.7398
0.7405 -1.2457 0.7400
2.3086 -3.2559 2.0382
2.5626 -3.0594 2.0382
2.7998 -2.8432 2.0382
3.0189 -2.6086 2.0382
3.2183 -2.3571 2.0382
3.3969 -2.0904 2.0382
3.5533 -1.8103 2.0382
3.6867 -1.5185 2.0382
3.7962 -1.2170 2.0382
3.8198 -0.8933 2.0060
3.8280 -0.5757 1.9799
3.8339 -0.2640 1.9659
3.8375 0.0450 1.9637
3.8391 0.3550 1.9731
3.8385 0.6697 1.9944
3.8356 0.9926 2.0283
3.7609 1.3039 2.0382
3.6432 1.6019 2.0382
3.5019 1.8894 2.0382
3.3381 2.1645 2.0382
3.1527 2.4256 2.0382
2.9469 2.6710 2.0382
2.7222 2.8990 2.0382
2.4798 3.1082 2.0382
2.2215 3.2972 2.0382
0.7143 1.2699 0.7470
0.6099 1.3234 0.7472
0.5015 1.3683 0.7473
0.3898 1.4043 0.7474
0.2756 1.4312 0.7475
0.1596 1.4488 0.7475
0.0425 1.4570 0.7476
-0.0748 1.4557 0.7476
-0.1917 1.4449 0.7475
-0.3073 1.4247 0.7475
-0.4209 1.3953 0.7474
-0.5317 1.3568 0.7473
-0.6391 1.3095 0.7472
-0.7423 1.2537 0.7470
-2.2942 3.2471 2.0382
-2.5482 3.0524 2.0382
-2.7858 2.8379 2.0382
-3.0055 2.6050 2.0382
-3.2058 2.3552 2.0382
-3.3854 2.0900 2.0382
-3.5431 1.8113 2.0382
-3.6779 1.5207 2.0382
-3.7890 1.2202 2.0382
-3.8755 0.9117 2.0382
-3.9370 0.5972 2.0382
-3.9731 0.2788 2.0382
-3.9834 -0.0416 2.0382
-3.9679 -0.3618 2.0382
-3.9267 -0.6798 2.0382
-3.8600 -0.9935 2.0382
-3.7684 -1.3009 2.0382
-3.6522 -1.5999 2.0382
-3.5124 -1.8887 2.0382
-3.3497 -2.1653 2.0382
-3.1653 -2.4279 2.0382
-2.9604 -2.6749 2.0382
-2.7362 -2.9046 2.0382
-2.4941 -3.1155 2.0382
-2.2359 -3.3063 2.0382
-0.7127 -1.2618 0.7399
-0.6089 -1.3149 0.7398
-0.5012 -1.3594 0.7397
-0.3903 -1.3952 0.7396
-0.2769 -1.4220 0.7395
-0.1617 -1.4396 0.7394
-0.0455 -1.4479 0.7394
0.0710 -1.4469 0.7394
0.1871 -1.4365 0.7394
0.3019 -1.4169 0.7395
0.4149 -1.3881 0.7396
0.5251 -1.3504 0.7397
0.6320 -1.3039 0.7398
0.7349 -1.2491 0.7400
2.2939 -3.2663 2.0382
2.5487 -3.0710 2.0382
2.7870 -2.8558 2.0382
3.0071 -2.6222 2.0382
3.2077 -2.3716 2.0382
3.3874 -2.1058 2.0382
3.5451 -1.8263 2.0382
3.6799 -1.5352 2.0382
3.7907 -1.2341 2.0382
3.8192 -0.9115 2.0079
3.8276 -0.5933 1.9810
3.8336 -0.2815 1.9664
3.8374 0.0277 1.9635
3.8391 0.3375 1.9722
3.8386 0.6518 1.9929
3.8358 0.9741 2.0261
3.7668 1.2869 2.0382
3.6504 1.5854 2.0382
3.5105 1.8735 2.0382
3.3479 2.1494 2.0382
3.1637 2.4114 2.0382
2.9590 2.6576 2.0382
2.7353 2.8866 2.0382
2.4939 3.0969 2.0382
-2.3936 2.8409 2.0382
-2.6147 2.6394 2.0382
-2.8189 2.4209 2.0382
-3.0049 2.1866 2.0382
-3.1716 1.9381 2.0382
-3.3177 1.6770 2.0382
-3.4424 1.4050 2.0382
-3.5449 1.1238 2.0382
-3.6244 0.8352 2.0382
-3.6805 0.5412 2.0382
-3.7128 0.2435 2.0382
-3.7210 -0.0558 2.0382
-3.7052 -0.3549 2.0382
-3.6653 -0.6518 2.0382
-3.6017 -0.9446 2.0382
-3.5147 -1.2313 2.0382
-3.4049 -1.5101 2.0382
-3.2730 -1.7792 2.0382
-3.1199 -2.0369 2.0382
-2.9465 -2.2815 2.0382
-2.7540 -2.5113 2.0382
-2.5436 -2.7249 2.0382
-2.3166 -2.9209 2.0382
-0.7535 -1.1252 0.7403
-0.6606 -1.1820 0.7402
-0.5634 -1.2312 0.7400
-0.4626 -1.2724 0.7399
-0.3588 -1.3053 0.7398
-0.2527 -1.3299 0.7397
-0.1450 -1.3458 0.7397
-0.0364 -1.3531 0.7397
0.0725 -1.3517 0.7397
0.1809 -1.3415 0.7397
0.2881 -1.3227 0.7398
0.3935 -1.2953 0.7398
0.4964 -1.2596 0.7399
0.5961 -1.2158 0.7401
0.6919 -1.1640 0.7402
0.7833 -1.1048 0.7404
2.3937 -2.8579 2.0382
2.6153 -2.6559 2.0382
2.8200 -2.4368 2.0382
3.0063 -2.2019 2.0382
3.1731 -1.9528 2.0382
3.3193 -1.6912 2.0382
3.4439 -1.4186 2.0382
3.5462 -1.1369 2.0382
3.6255 -0.8480 2.0382
3.6813 -0.5537 2.0382
3.7132 -0.2559 2.0382
3.7211 0.0435 2.0382
3.7048 0.3425 2.0382
3.6646 0.6392 2.0382
3.6007 0.9317 2.0382
3.5135 1.2180 2.0382
3.4036 1.4964 2.0382
3.2716 1.7650 2.0382
3.1186 2.0221 2.0382
2.9454 2.2660 2.0382
2.7532 2.4952 2.0382
2.5432 2.7083 2.0382
2.3168 2.9037 2.0382
0.7603 1.1284 0.7466
0.6672 1.1861 0.7468
0.5696 1.2360 0.7469
0.4684 1.2779 0.7471
0.3641 1.3116 0.7472
0.2574 1.3367 0.7472
0.1491 1.3531 0.7473
0.0397 1.3607 0.7473
-0.0699 1.3595 0.7473
-0.1790 1.3494 0.7473
-0.2870 1.3306 0.7472
-0.3931 1.3031 0.7471
-0.4966 1.2672 0.7470
-0.5969 1.2230 0.7469
-0.6933 1.1709 0.7468
-2.1434 3.0336 2.0382
-2.3807 2.8517 2.0382
-2.6027 2.6512 2.0382
-2.8079 2.4336 2.0382
-2.9950 2.2002 2.0382
-3.1627 1.9525 2.0382
-3.3101 1.6920 2.0382
-3.4360 1.4206 2.0382
-3.5397 1.1398 2.0382
-3.6206 0.8516 2.0382
-3.6780 0.5578 2.0382
-3.7116 0.2603 2.0382
-3.7212 -0.0390 2.0382
-3.7067 -0.3382 2.0382
-3.6682 -0.6352 2.0382
-3.6059 -0.9282 2.0382
-3.5202 -1.2153 2.0382
-3.4117 -1.4947 2.0382
-3.2810 -1.7644 2.0382
-3.1291 -2.0228 2.0382
-2.9568 -2.2681 2.0382
-2.7653 -2.4988 2.0382
-2.5558 -2.7133 2.0382
-2.3298 -2.9103 2.0382
-0.7586 -1.1218 0.7403
-0.6659 -1.1790 0.7402
-0.5689 -1.2286 0.7400
-0.4683 -1.2703 0.7399
-0.3647 -1.3037 0.7398
-0.2587 -1.3287 0.7398
-0.1511 -1.3452 0.7397
-0.0425 -1.3529 0.7397
0.0664 -1.3520 0.7397
0.1748 -1.3423 0.7397
0.2821 -1.3240 0.7398
0.3877 -1.2971 0.7398
0.4907 -1.2618 0.7399
0.5906 -1.2184 0.7401
0.6867 -1.1671 0.7402
0.7783 -1.1083 0.7404
2.3808 -2.8687 2.0382
2.6033 -2.6678 2.0382
2.8090 -2.4495 2.0382
2.9963 -2.2155 2.0382
3.1643 -1.9672 2.0382
3.3116 -1.7062 2.0382
3.4375 -1.4341 2.0382
3.5411 -1.1530 2.0382
3.6217 -0.8644 2.0382
3.6788 -0.5703 2.0382
3.7120 -0.2726 2.0382
3.7213 0.0267 2.0382
3.7064 0.3258 2.0382
3.6675 0.6226 2.0382
3.6049 0.9154 2.0382
3.5190 1.2022 2.0382
3.4103 1.4810 2.0382
3.2796 1.7502 2.0382
3.1277 2.0080 2.0382
2.9556 2.2527 2.0382
2.7645 2.4828 2.0382
2.5555 2.6968 2.0382
2.3300 2.8932 2.0382
-2.2417 2.6604 2.0382
-2.4487 2.4718 2.0382
-2.6399 2.2671 2.0382
-2.8141 2.0477 2.0382
-2.9701 1.8149 2.0382
-3.1070 1.5704 2.0382
-3.2237 1.3156 2.0382
-3.3197 1.0523 2.0382
-3.3941 0.7820 2.0382
-3.4466 0.5067 2.0382
-3.4768 0.2279 2.0382
-3.4845 -0.0524 2.0382
-3.4696 -0.3325 2.0382
-3.4322 -0.6105 2.0382
-3.3726 -0.8846 2.0382
-3.2912 -1.1531 2.0382
-3.1883 -1.4142 2.0382
-3.0648 -1.6662 2.0382
-2.9214 -1.9074 2.0382
-2.7590 -2.1364 2.0382
-2.5787 -2.3516 2.0382
-2.3817 -2.5516 2.0382
-2.1692 -2.7351 2.0382
-0.7058 -1.0540 0.7405
-0.6187 -1.1071 0.7404
-0.5277 -1.1532 0.7402
-0.4333 -1.1918 0.7401
-0.3361 -1.2227 0.7400
-0.2367 -1.2457 0.7400
-0.1358 -1.2606 0.7399
-0.0341 -1.2674 0.7399
0.0679 -1.2661 0.7399
0.1694 -1.2565 0.7400
0.2699 -1.2389 0.7400
0.3686 -1.2133 0.7401
0.4649 -1.1798 0.7402
0.5583 -1.1387 0.7403
0.6481 -1.0903 0.7404
0.7337 -1.0348 0.7406
2.2413 -2.6761 2.0382
2.4489 -2.4870 2.0382
2.6405 -2.2819 2.0382
2.8150 -2.0619 2.0382
2.9712 -1.8287 2.0382
3.1081 -1.5837 2.0382
3.2249 -1.3285 2.0382
3.3207 -1.0648 2.0382
3.3949 -0.7942 2.0382
3.4472 -0.5186 2.0382
3.4771 -0.2397 2.0382
3.4845 0.0406 2.0382
3.4694 0.3207 2.0382
3.4317 0.5985 2.0382
3.3719 0.8724 2.0382
3.2903 1.1405 2.0382
3.1874 1.4012 2.0382
3.0638 1.6528 2.0382
2.9205 1.8936 2.0382
2.7584 2.1220 2.0382
2.5784 2.3367 2.0382
2.3818 2.5362 2.0382
2.1698 2.7193 2.0382
0.7119 1.0564 0.7464
0.6246 1.1104 0.7466
0.5333 1.1572 0.7467
0.4385 1.1964 0.7468
0.3409 1.2279 0.7469
0.2410 1.2514 0.7470
0.1395 1.2668 0.7470
0.0372 1.2739 0.7471
-0.0654 1.2728 0.7470
-0.1676 1.2634 0.7470
-0.2687 1.2457 0.7470
-0.3680 1.2200 0.7469
-0.4650 1.1864 0.7468
-0.5588 1.1450 0.7467
-0.6491 1.0962 0.7466
-0.7351 1.0403 0.7464
-2.2296 2.6705 2.0382
-2.4375 2.4828 2.0382
-2.6296 2.2790 2.0382
-2.8048 2.0603 2.0382
-2.9619 1.8283 2.0382
-3.0998 1.5844 2.0382
-3.2177 1.3302 2.0382
-3.3148 1.0673 2.0382
-3.3905 0.7974 2.0382
-3.4443 0.5222 2.0382
-3.4757 0.2436 2.0382
-3.4847 -0.0366 2.0382
-3.4710 -0.3168 2.0382
-3.4349 -0.5949 2.0382
-3.3766 -0.8693 2.0382
-3.2963 -1.1382 2.0382
-3.1947 -1.3997 2.0382
-3.0723 -1.6523 2.0382
-2.9300 -1.8942 2.0382
-2.7687 -2.1239 2.0382
-2.5893 -2.3399 2.0382
-2.3932 -2.5408 2.0382
-2.1815 -2.7252 2.0382
-0.7105 -1.0508 0.7405
-0.6237 -1.1043 0.7404
-0.5329 -1.1508 0.7403
-0.4386 -1.1898 0.7401
-0.3416 -1.2211 0.7401
-0.2423 -1.2446 0.7400
-0.1415 -1.2600 0.7399
-0.0398 -1.2673 0.7399
0.0622 -1.2664 0.7399
0.1637 -1.2573 0.7400
0.2643 -1.2401 0.7400
0.3631 -1.2149 0.7401
0.4596 -1.1819 0.7402
0.5531 -1.1412 0.7403
0.6431 -1.0932 0.7404
0.7290 -1.0381 0.7406
2.2292 -2.6863 2.0382
2.4376 -2.4981 2.0382
2.6302 -2.2938 2.0382
2.8057 -2.0747 2.0382
2.9629 -1.8421 2.0382
3.1010 -1.5978 2.0382
3.2189 -1.3431 2.0382
3.3159 -1.0798 2.0382
3.3914 -0.8096 2.0382
3.4449 -0.5342 2.0382
3.4760 -0.2554 2.0382
3.4847 0.0249 2.0382
3.4708 0.3049 2.0382
3.4344 0.5829 2.0382
3.3759 0.8571 2.0382
3.2954 1.1256 2.0382
3.1937 1.3868 2.0382
3.0713 1.6389 2.0382
2.9291 1.8803 2.0382
2.7680 2.1095 2.0382
2.5889 2.3250 2.0382
2.3932 2.5254 2.0382
2.1821 2.7094 2.0382
-0.7700 0.9138 0.7460
-2.2979 2.3194 2.0382
-2.4774 2.1273 2.0382
-2.6408 1.9214 2.0382
-2.7872 1.7030 2.0382
-2.9156 1.4735 2.0382
-3.0251 1.2345 2.0382
-3.1151 0.9873 2.0382
-3.1850 0.7337 2.0382
-3.2342 0.4753 2.0382
-3.2625 0.2137 2.0382
-3.2697 -0.0493 2.0382
-3.2557 -0.3121 2.0382
-3.2206 -0.5730 2.0382
-3.1647 -0.8301 2.0382
-3.0882 -1.0821 2.0382
-2.9917 -1.3271 2.0382
-2.8758 -1.5635 2.0382
-2.7412 -1.7899 2.0382
-2.5888 -2.0047 2.0382
-2.4196 -2.2066 2.0382
-2.2347 -2.3942 2.0382
-0.7398 -0.9329 0.7409
-0.6624 -0.9892 0.7407
-0.5807 -1.0391 0.7406
-0.4952 -1.0823 0.7404
-0.4066 -1.1185 0.7403
-0.3154 -1.1475 0.7403
-0.2221 -1.1691 0.7402
-0.1275 -1.1832 0.7402
-0.0320 -1.1896 0.7401
0.0637 -1.1883 0.7401
0.1590 -1.1794 0.7402
0.2533 -1.1628 0.7402
0.3459 -1.1388 0.7403
0.4363 -1.1073 0.7404
0.5240 -1.0688 0.7405
0.6082 -1.0233 0.7406
0.6886 -0.9712 0.7408
0.7645 -0.9128 0.7409
2.2978 -2.3337 2.0382
2.4776 -2.1412 2.0382
2.6413 -1.9348 2.0382
2.7879 -1.7160 2.0382
2.9164 -1.4861 2.0382
3.0259 -1.2467 2.0382
3.1159 -0.9992 2.0382
3.1856 -0.7454 2.0382
3.2347 -0.4868 2.0382
3.2628 -0.2251 2.0382
3.2697 0.0380 2.0382
3.2555 0.3007 2.0382
3.2202 0.5615 2.0382
3.1641 0.8185 2.0382
3.0875 1.0701 2.0382
2.9910 1.3148 2.0382
2.8751 1.5508 2.0382
2.7407 1.7768 2.0382
2.5885 1.9912 2.0382
2.4196 2.1927 2.0382
2.2351 2.3799 2.0382
0.7454 0.9341 0.7461
0.6679 0.9911 0.7463
0.5860 1.0417 0.7464
0.5004 1.0856 0.7465
0.4114 1.1224 0.7466
0.3198 1.1519 0.7467
0.2261 1.1740 0.7468
0.1309 1.1884 0.7468
0.0349 1.1951 0.7468
-0.0614 1.1940 0.7468
-0.1573 1.1852 0.7468
-0.2521 1.1687 0.7468
-0.3453 1.1445 0.7467
-0.4362 1.1130 0.7466
-0.5243 1.0742 0.7465
-0.6090 1.0284 0.7464
-0.6897 0.9760 0.7462
-0.7659 0.9173 0.7461
-2.2874 2.3298 2.0382
-2.4677 2.1385 2.0382
-2.6321 1.9333 2.0382
-2.7794 1.7156 2.0382
-2.9089 1.4867 2.0382
-3.0195 1.2481 2.0382
-3.1106 1.0014 2.0382
-3.1816 0.7481 2.0382
-3.2320 0.4899 2.0382
-3.2615 0.2285 2.0382
-3.2698 -0.0345 2.0382
-3.2570 -0.2974 2.0382
-3.2231 -0.5584 2.0382
-3.1683 -0.8159 2.0382
-3.0930 -1.0681 2.0382
-2.9976 -1.3135 2.0382
-2.8828 -1.5505 2.0382
-2.7492 -1.7775 2.0382
-2.5978 -1.9930 2.0382
-2.4295 -2.1956 2.0382
-2.2455 -2.3841 2.0382
-0.7440 -0.9295 0.7409
-0.6668 -0.9862 0.7407
-0.5854 -1.0365 0.7406
-0.5001 -1.0801 0.7404
-0.4117 -1.1167 0.7403
-0.3206 -1.1461 0.7403
-0.2274 -1.1681 0.7402
-0.1328 -1.1826 0.7402
-0.0374 -1.1894 0.7401
0.0583 -1.1886 0.7401
0.1537 -1.1801 0.7402
0.2480 -1.1639 0.7402
0.3408 -1.1403 0.7403
0.4313 -1.1093 0.7404
0.5191 -1.0711 0.7405
0.6036 -1.0260 0.7406
0.6842 -0.9743 0.7407
0.7603 -0.9163 0.7409
2.2872 -2.3441 2.0382
2.4679 -2.1524 2.0382
2.6326 -1.9468 2.0382
2.7801 -1.7286 2.0382
2.9097 -1.4993 2.0382
3.0203 -1.2604 2.0382
3.1114 -1.0133 2.0382
3.1822 -0.7598 2.0382
3.2325 -0.5014 2.0382
3.2617 -0.2398 2.0382
3.2699 0.0232 2.0382
3.2569 0.2860 2.0382
3.2228 0.5469 2.0382
3.1678 0.8042 2.0382
3.0924 1.0562 2.0382
2.9969 1.3012 2.0382
2.8821 1.5378 2.0382
2.7487 1.7644 2.0382
2.5975 1.9795 2.0382
2.4295 2.1817 2.0382
2.2459 2.3698 2.0382
0.7496 0.9307 0.7461
-0.7237 0.8588 0.7459
-2.1602 2.1803 2.0382
-2.3288 1.9997 2.0382
-2.4825 1.8061 2.0382
-2.6201 1.6008 2.0382
-2.7407 1.3850 2.0382
-2.8437 1.1603 2.0382
-2.9282 0.9280 2.0382
-2.9939 0.6896 2.0382
-3.0401 0.4467 2.0382
-3.0667 0.2008 2.0382
-3.0735 -0.0465 2.0382
-3.0603 -0.2935 2.0382
-3.0273 -0.5387 2.0382
-2.9747 -0.7805 2.0382
-2.9028 -1.0172 2.0382
-2.8120 -1.2475 2.0382
-2.7031 -1.4697 2.0382
-2.5765 -1.6825 2.0382
-2.4333 -1.8844 2.0382
-2.2743 -2.0742 2.0382
-0.7638 -0.8184 0.7412
-0.6955 -0.8770 0.7410
-0.6227 -0.9300 0.7409
-0.5459 -0.9770 0.7407
-0.4656 -1.0176 0.7406
-0.3823 -1.0516 0.7405
-0.2965 -1.0789 0.7405
-0.2089 -1.0992 0.7404
-0.1198 -1.1124 0.7404
-0.0301 -1.1184 0.7403
0.0599 -1.1172 0.7403
0.1495 -1.1088 0.7404
0.2381 -1.0933 0.7404
0.3252 -1.0706 0.7405
0.4102 -1.0411 0.7406
0.4926 -1.0048 0.7407
0.5718 -0.9621 0.7408
0.6473 -0.9131 0.7409
0.7187 -0.8582 0.7411
0.7854 -0.7978 0.7412
2.3288 -2.0127 2.0382
2.4827 -1.8187 2.0382
2.6205 -1.6131 2.0382
2.7412 -1.3970 2.0382
2.8442 -1.1719 2.0382
2.9288 -0.9394 2.0382
2.9943 -0.7007 2.0382
3.0405 -0.4577 2.0382
3.0669 -0.2117 2.0382
3.0735 0.0356 2.0382
3.0602 0.2826 2.0382
3.0270 0.5277 2.0382
2.9743 0.7693 2.0382
2.9023 1.0058 2.0382
2.8116 1.2358 2.0382
2.7027 1.4577 2.0382
2.5763 1.6701 2.0382
2.4333 1.8717 2.0382
2.2745 2.0611 2.0382
0.7688 0.8186 0.7458
0.7005 0.8778 0.7459
0.6277 0.9315 0.7461
0.5508 0.9790 0.7462
0.4703 1.0202 0.7463
0.3867 1.0548 0.7464
0.3006 1.0826 0.7465
0.2125 1.1033 0.7466
0.1230 1.1168 0.7466
0.0328 1.1231 0.7466
-0.0577 1.1221 0.7466
-0.1478 1.1138 0.7466
-0.2369 1.0983 0.7466
-0.3245 1.0756 0.7465
-0.4100 1.0460 0.7464
-0.4928 1.0095 0.7463
-0.5723 0.9665 0.7462
-0.6482 0.9173 0.7461
-0.7198 0.8620 0.7459
-2.1502 2.1900 2.0382
-2.3197 2.0102 2.0382
-2.4742 1.8173 2.0382
-2.6128 1.6126 2.0382
-2.7344 1.3974 2.0382
-2.8384 1.1731 2.0382
-2.9240 0.9412 2.0382
-2.9907 0.7031 2.0382
-3.0381 0.4604 2.0382
-3.0658 0.2147 2.0382
-3.0736 -0.0326 2.0382
-3.0615 -0.2797 2.0382
-3.0297 -0.5250 2.0382
-2.9781 -0.7670 2.0382
-2.9073 -1.0041 2.0382
-2.8176 -1.2348 2.0382
-2.7096 -1.4575 2.0382
-2.5841 -1.6708 2.0382
-2.4418 -1.8734 2.0382
-2.2836 -2.0638 2.0382
-0.7675 -0.8149 0.7412
-0.6995 -0.8739 0.7410
-0.6269 -0.9272 0.7409
-0.5503 -0.9745 0.7407
-0.4702 -1.0155 0.7406
-0.3870 -1.0499 0.7405
-0.3014 -1.0776 0.7405
-0.2138 -1.0982 0.7404
-0.1249 -1.1118 0.7404
-0.0351 -1.1183 0.7403
0.0549 -1.1175 0.7403
0.1445 -1.1095 0.7404
0.2332 -1.0943 0.7404
0.3204 -1.0721 0.7405
0.4055 -1.0429 0.7406
0.4880 -1.0070 0.7407
0.5674 -0.9646 0.7408
0.6432 -0.9160 0.7409
0.7148 -0.8614 0.7411
0.7818 -0.8013 0.7412
2.3197 -2.0232 2.0382
2.4744 -1.8300 2.0382
2.6132 -1.6249 2.0382
2.7349 -1.4094 2.0382
2.8389 -1.1848 2.0382
2.9245 -0.9526 2.0382
2.9912 -0.7143 2.0382
3.0384 -0.4714 2.0382
3.0660 -0.2256 2.0382
3.0737 0.0217 2.0382
3.0614 0.2687 2.0382
3.0294 0.5140 2.0382
2.9778 0.7558 2.0382
2.9069 0.9927 2.0382
2.8172 1.2231 2.0382
2.7093 1.4455 2.0382
2.5839 1.6585 2.0382
2.4417 1.8607 2.0382
2.2839 2.0508 2.0382
0.7725 0.8151 0.7458
0.7045 0.8747 0.7459
-0.6812 0.8083 0.7457
-0.7439 0.7508 0.7456
-2.1924 1.8824 2.0382
-2.3370 1.7001 2.0382
-2.4665 1.5069 2.0382
-2.5801 1.3038 2.0382
-2.6770 1.0922 2.0382
-2.7566 0.8735 2.0382
-2.8184 0.6491 2.0382
-2.8619 0.4204 2.0382
-2.8869 0.1889 2.0382
-2.8932 -0.0439 2.0382
-2.8808 -0.2764 2.0382
-2.8497 -0.5072 2.0382
-2.8002 -0.7348 2.0382
-2.7324 -0.9577 2.0382
-2.6470 -1.1744 2.0382
-2.5444 -1.3836 2.0382
-2.4253 -1.5839 2.0382
-2.2905 -1.7739 2.0382
-0.7788 -0.7103 0.7415
-0.7191 -0.7705 0.7413
-0.6548 -0.8258 0.7412
-0.5863 -0.8756 0.7410
-0.5140 -0.9198 0.7409
-0.4383 -0.9581 0.7408
-0.3599 -0.9902 0.7407
-0.2792 -1.0158 0.7406
-0.1966 -1.0349 0.7406
-0.1128 -1.0474 0.7405
-0.0283 -1.0530 0.7405
0.0564 -1.0519 0.7405
0.1407 -1.0440 0.7406
0.2242 -1.0293 0.7406
0.3062 -1.0080 0.7407
0.3862 -0.9802 0.7407
0.4638 -0.9461 0.7408
0.5383 -0.9058 0.7409
0.6094 -0.8597 0.7411
0.6766 -0.8080 0.7412
0.7395 -0.7511 0.7414
2.1921 -1.8946 2.0382
2.3370 -1.7121 2.0382
2.4667 -1.5185 2.0382
2.5804 -1.3151 2.0382
2.6774 -1.1033 2.0382
2.7570 -0.8844 2.0382
2.8187 -0.6598 2.0382
2.8621 -0.4309 2.0382
2.8871 -0.1994 2.0382
2.8933 0.0334 2.0382
2.8807 0.2659 2.0382
2.8496 0.4966 2.0382
2.7999 0.7241 2.0382
2.7322 0.9467 2.0382
2.6468 1.1632 2.0382
2.5443 1.3722 2.0382
2.4253 1.5721 2.0382
2.2907 1.7619 2.0382
0.7832 0.7096 0.7455
0.7236 0.7704 0.7456
0.6594 0.8262 0.7458
0.5908 0.8767 0.7459
0.5184 0.9214 0.7461
0.4426 0.9602 0.7462
0.3639 0.9928 0.7463
0.2829 1.0189 0.7463
0.2000 1.0384 0.7464
0.1158 1.0511 0.7464
0.0309 1.0571 0.7464
-0.0543 1.0561 0.7464
-0.1391 1.0483 0.7464
-0.2230 1.0337 0.7464
-0.3054 1.0123 0.7463
-0.3859 0.9844 0.7462
-0.4638 0.9501 0.7461
-0.5387 0.9097 0.7460
-0.6101 0.8633 0.7459
-0.6775 0.8113 0.7458
-0.7405 0.7541 0.7456
-2.1838 1.8923 2.0382
-2.3293 1.7107 2.0382
-2.4596 1.5180 2.0382
-2.5741 1.3154 2.0382
-2.6720 1.1043 2.0382
-2.7526 0.8859 2.0382
-2.8154 0.6618 2.0382
-2.8599 0.4333 2.0382
-2.8860 0.2019 2.0382
-2.8934 -0.0308 2.0382
-2.8820 -0.2634 2.0382
-2.8519 -0.4943 2.0382
-2.8034 -0.7221 2.0382
-2.7367 -0.9453 2.0382
-2.6523 -1.1624 2.0382
-2.5506 -1.3721 2.0382
-2.4324 -1.5729 2.0382
-2.2985 -1.7635 2.0382
-0.7820 -0.7068 0.7415
-0.7226 -0.7673 0.7413
-0.6585 -0.8228 0.7412
-0.5902 -0.8730 0.7410
-0.5181 -0.9175 0.7409
-0.4427 -0.9561 0.7408
-0.3644 -0.9885 0.7407
-0.2838 -1.0146 0.7406
-0.2013 -1.0340 0.7406
-0.1176 -1.0469 0.7405
-0.0331 -1.0529 0.7405
0.0516 -1.0522 0.7405
0.1360 -1.0446 0.7405
0.2195 -1.0303 0.7406
0.3016 -1.0094 0.7406
0.3818 -0.9820 0.7407
0.4595 -0.9482 0.7408
0.5342 -0.9082 0.7409
0.6056 -0.8624 0.7411
0.6730 -0.8111 0.7412
0.7361 -0.7544 0.7414
2.1835 -1.9045 2.0382
2.3292 -1.7227 2.0382
2.4598 -1.5297 2.0382
2.5744 -1.3268 2.0382
2.6724 -1.1154 2.0382
2.7530 -0.8968 2.0382
2.8157 -0.6725 2.0382
2.8602 -0.4439 2.0382
2.8861 -0.2124 2.0382
2.8934 0.0203 2.0382
2.8819 0.2529 2.0382
2.8518 0.4837 2.0382
2.8032 0.7114 2.0382
2.7365 0.9344 2.0382
2.6521 1.1513 2.0382
2.5505 1.3606 2.0382
2.4324 1.5612 2.0382
2.2987 1.7515 2.0382
0.7864 0.7061 0.7455
0.7271 0.7671 0.7456
0.6631 0.8232 0.7458
-0.6419 0.7617 0.7456
-0.7010 0.7075 0.7455
-0.7556 0.6487 0.7453
-2.2027 1.6023 2.0382
-2.3248 1.4202 2.0382
-2.4318 1.2287 2.0382
-2.5231 1.0293 2.0382
-2.5981 0.8232 2.0382
-2.6563 0.6116 2.0382
-2.6973 0.3961 2.0382
-2.7209 0.1779 2.0382
-2.7268 -0.0414 2.0382
-2.7151 -0.2606 2.0382
-2.6858 -0.4781 2.0382
-2.6391 -0.6926 2.0382
-2.5752 -0.9027 2.0382
-2.4947 -1.1069 2.0382
-2.3980 -1.3041 2.0382
-2.2857 -1.4928 2.0382
-2.1586 -1.6719 2.0382
-0.7341 -0.6696 0.7416
-0.6778 -0.7263 0.7414
-0.6172 -0.7784 0.7413
-0.5526 -0.8254 0.7412
-0.4845 -0.8671 0.7410
-0.4132 -0.9032 0.7409
-0.3393 -0.9334 0.7409
-0.2632 -0.9576 0.7408
-0.1854 -0.9756 0.7407
-0.1064 -0.9873 0.7407
-0.0267 -0.9927 0.7407
0.0532 -0.9916 0.7407
0.1327 -0.9841 0.7407
0.2113 -0.9703 0.7408
0.2886 -0.9502 0.7408
0.3641 -0.9240 0.7409
0.4372 -0.8918 0.7410
0.5074 -0.8539 0.7411
0.5745 -0.8104 0.7412
0.6378 -0.7617 0.7413
0.6970 -0.7080 0.7415
0.7517 -0.6498 0.7417
2.2025 -1.6137 2.0382
2.3247 -1.4312 2.0382
2.4319 -1.2396 2.0382
2.5233 -1.0399 2.0382
2.5983 -0.8336 2.0382
2.6565 -0.6219 2.0382
2.6975 -0.4062 2.0382
2.7210 -0.1880 2.0382
2.7269 0.0314 2.0382
2.7151 0.2505 2.0382
2.6857 0.4679 2.0382
2.6390 0.6823 2.0382
2.5751 0.8922 2.0382
2.4947 1.0963 2.0382
2.3981 1.2932 2.0382
2.2859 1.4817 2.0382
0.7894 0.6071 0.7452
0.7381 0.6687 0.7454
0.6819 0.7260 0.7455
0.6214 0.7786 0.7457
0.5568 0.8261 0.7458
0.4885 0.8683 0.7459
0.4171 0.9048 0.7460
0.3430 0.9355 0.7461
0.2666 0.9601 0.7462
0.1885 0.9785 0.7462
0.1091 0.9905 0.7463
0.0291 0.9961 0.7463
-0.0512 0.9952 0.7463
-0.1311 0.9878 0.7463
-0.2101 0.9740 0.7462
-0.2878 0.9540 0.7462
-0.3636 0.9277 0.7461
-0.4371 0.8953 0.7460
-0.5077 0.8572 0.7459
-0.5749 0.8135 0.7458
-0.6385 0.7646 0.7456
-0.6978 0.7107 0.7455
-0.7527 0.6521 0.7453
-2.1954 1.6123 2.0382
-2.3183 1.4306 2.0382
-2.4262 1.2397 2.0382
-2.5184 1.0407 2.0382
-2.5943 0.8349 2.0382
-2.6535 0.6236 2.0382
-2.6955 0.4083 2.0382
-2.7200 0.1902 2.0382
-2.7270 -0.0291 2.0382
-2.7162 -0.2483 2.0382
-2.6879 -0.4660 2.0382
-2.6421 -0.6807 2.0382
-2.5793 -0.8910 2.0382
-2.4997 -1.0956 2.0382
-2.4039 -1.2932 2.0382
-2.2925 -1.4825 2.0382
-2.1662 -1.6622 2.0382
-0.7371 -0.6663 0.7416
-0.6811 -0.7233 0.7414
-0.6207 -0.7756 0.7413
-0.5563 -0.8229 0.7412
-0.4884 -0.8649 0.7411
-0.4173 -0.9013 0.7410
-0.3435 -0.9318 0.7409
-0.2675 -0.9564 0.7408
-0.1898 -0.9748 0.7407
-0.1108 -0.9868 0.7407
-0.0312 -0.9925 0.7407
0.0487 -0.9918 0.7407
0.1282 -0.9847 0.7407
0.2069 -0.9713 0.7408
0.2843 -0.9515 0.7408
0.3599 -0.9257 0.7409
0.4331 -0.8938 0.7410
0.5036 -0.8562 0.7411
0.5708 -0.8130 0.7412
0.6343 -0.7645 0.7413
0.6938 -0.7112 0.7415
0.7488 -0.6532 0.7416
2.1952 -1.6236 2.0382
2.3182 -1.4418 2.0382
2.4263 -1.2506 2.0382
2.5186 -1.0513 2.0382
2.5946 -0.8453 2.0382
2.6537 -0.6339 2.0382
2.6957 -0.4184 2.0382
2.7201 -0.2003 2.0382
2.7270 0.0190 2.0382
2.7162 0.2382 2.0382
2.6878 0.4558 2.0382
2.6420 0.6704 2.0382
2.5792 0.8806 2.0382
2.4996 1.0850 2.0382
2.4039 1.2823 2.0382
2.2926 1.4713 2.0382
2.1666 1.6508 2.0382
0.7411 0.6654 0.7453
0.6852 0.7229 0.7455
0.6249 0.7758 0.7457
-0.6055 0.7184 0.7455
-0.6613 0.6673 0.7454
-0.7128 0.6119 0.7452
-0.7596 0.5525 0.7450
-2.1933 1.3397 2.0382
-2.2943 1.1591 2.0382
-2.3804 0.9710 2.0382
-2.4512 0.7765 2.0382
-2.5060 0.5769 2.0382
-2.5447 0.3736 2.0382
-2.5669 0.1678 2.0382
-2.5725 -0.0392 2.0382
-2.5614 -0.2460 2.0382
-2.5338 -0.4512 2.0382
-2.4897 -0.6535 2.0382
-2.4295 -0.8517 2.0382
-2.3535 -1.0444 2.0382
-2.2622 -1.2304 2.0382
-2.1563 -1.4084 2.0382
-0.7412 -0.5741 0.7419
-0.6926 -0.6318 0.7417
-0.6395 -0.6853 0.7416
-0.5823 -0.7345 0.7414
-0.5214 -0.7788 0.7413
-0.4571 -0.8182 0.7412
-0.3899 -0.8522 0.7411
-0.3201 -0.8807 0.7410
-0.2483 -0.9036 0.7409
-0.1749 -0.9206 0.7409
-0.1004 -0.9316 0.7409
-0.0252 -0.9367 0.7409
0.0502 -0.9357 0.7409
0.1252 -0.9286 0.7409
0.1994 -0.9156 0.7409
0.2723 -0.8966 0.7410
0.3435 -0.8719 0.7410
0.4125 -0.8415 0.7411
0.4788 -0.8057 0.7412
0.5420 -0.7647 0.7413
0.6018 -0.7187 0.7415
0.6576 -0.6681 0.7416
0.7093 -0.6131 0.7418
0.7563 -0.5542 0.7419
2.1931 -1.3503 2.0382
2.2942 -1.1695 2.0382
2.3805 -0.9812 2.0382
2.4513 -0.7865 2.0382
2.5062 -0.5868 2.0382
2.5448 -0.3834 2.0382
2.5670 -0.1775 2.0382
2.5726 0.0295 2.0382
2.5615 0.2362 2.0382
2.5338 0.4414 2.0382
2.4897 0.6436 2.0382
2.4295 0.8416 2.0382
2.3536 1.0341 2.0382
2.2624 1.2199 2.0382
0.7882 0.5109 0.7449
0.7446 0.5727 0.7451
0.6962 0.6308 0.7453
0.6433 0.6848 0.7454
0.5861 0.7344 0.7455
0.5252 0.7792 0.7457
0.4608 0.8190 0.7458
0.3935 0.8535 0.7459
0.3235 0.8824 0.7460
0.2515 0.9056 0.7460
0.1778 0.9229 0.7461
0.1029 0.9343 0.7461
0.0274 0.9395 0.7461
-0.0483 0.9387 0.7461
-0.1236 0.9318 0.7461
-0.1982 0.9188 0.7461
-0.2715 0.8998 0.7460
-0.3430 0.8750 0.7459
-0.4123 0.8445 0.7458
-0.4789 0.8086 0.7457
-0.5423 0.7674 0.7456
-0.6023 0.7212 0.7455
-0.6583 0.6703 0.7454
-0.7100 0.6151 0.7452
-0.7571 0.5560 0.7450
-2.1872 1.3496 2.0382
-2.2890 1.1695 2.0382
-2.3760 0.9817 2.0382
-2.4476 0.7876 2.0382
-2.5034 0.5882 2.0382
-2.5430 0.3851 2.0382
-2.5661 0.1794 2.0382
-2.5726 -0.0276 2.0382
-2.5625 -0.2344 2.0382
-2.5358 -0.4397 2.0382
-2.4926 -0.6423 2.0382
-2.4333 -0.8407 2.0382
-2.3582 -1.0337 2.0382
-2.2678 -1.2201 2.0382
-2.1626 -1.3986 2.0382
-0.7438 -0.5708 0.7419
-0.6955 -0.6287 0.7417
-0.6426 -0.6825 0.7416
-0.5857 -0.7318 0.7414
-0.5249 -0.7765 0.7413
-0.4608 -0.8161 0.7412
-0.3937 -0.8504 0.7411
-0.3241 -0.8793 0.7410
-0.2524 -0.9024 0.7409
-0.1790 -0.9198 0.7409
-0.1046 -0.9312 0.7409
-0.0294 -0.9365 0.7409
0.0459 -0.9359 0.7409
0.1210 -0.9292 0.7409
0.1953 -0.9165 0.7409
0.2683 -0.8979 0.7410
0.3396 -0.8734 0.7410
0.4087 -0.8434 0.7411
0.4751 -0.8078 0.7412
0.5386 -0.7671 0.7413
0.5985 -0.7214 0.7415
0.6546 -0.6710 0.7416
0.7065 -0.6163 0.7418
0.7538 -0.5576 0.7419
2.1870 -1.3602 2.0382
2.2889 -1.1799 2.0382
2.3760 -0.9919 2.0382
2.4477 -0.7976 2.0382
2.5035 -0.5981 2.0382
2.5431 -0.3949 2.0382
2.5662 -0.1891 2.0382
2.5727 0.0179 2.0382
2.5625 0.2246 2.0382
2.5358 0.4299 2.0382
2.4926 0.6323 2.0382
2.4333 0.8306 2.0382
2.3582 1.0235 2.0382
2.2679 1.2097 2.0382
0.7905 0.5073 0.7449
0.7472 0.5693 0.7451
0.6991 0.6276 0.7452
0.6464 0.6819 0.7454
0.5895 0.7317 0.7455
-0.5716 0.6782 0.7454
-0.6243 0.6300 0.7452
-0.6729 0.5776 0.7451
-0.7171 0.5216 0.7449
-0.7567 0.4622 0.7448
-2.1662 1.0943 2.0382
-2.2475 0.9166 2.0382
-2.3143 0.7330 2.0382
-2.3661 0.5446 2.0382
-2.4026 0.3526 2.0382
-2.4235 0.1583 2.0382
-2.4288 -0.0371 2.0382
-2.4183 -0.2323 2.0382
-2.3922 -0.4261 2.0382
-2.3506 -0.6171 2.0382
-2.2937 -0.8042 2.0382
-2.2219 -0.9861 2.0382
-0.7778 -0.4231 0.7423
-0.7412 -0.4842 0.7421
-0.6999 -0.5421 0.7420
-0.6540 -0.5966 0.7418
-0.6039 -0.6472 0.7417
-0.5499 -0.6935 0.7415
-0.4923 -0.7354 0.7414
-0.4316 -0.7726 0.7413
-0.3681 -0.8047 0.7412
-0.3023 -0.8317 0.7411
-0.2345 -0.8532 0.7411
-0.1651 -0.8693 0.7410
-0.0948 -0.8797 0.7410
-0.0238 -0.8845 0.7410
0.0474 -0.8835 0.7410
0.1182 -0.8769 0.7410
0.1883 -0.8646 0.7411
0.2571 -0.8467 0.7411
0.3244 -0.8233 0.7412
0.3895 -0.7946 0.7413
0.4521 -0.7608 0.7413
0.5118 -0.7221 0.7415
0.5682 -0.6787 0.7416
0.6209 -0.6308 0.7417
0.6697 -0.5789 0.7419
0.7141 -0.5233 0.7420
0.7539 -0.4643 0.7422
2.1660 -1.1042 2.0382
2.2474 -0.9264 2.0382
2.3143 -0.7427 2.0382
2.3661 -0.5541 2.0382
2.4026 -0.3621 2.0382
2.4236 -0.1677 2.0382
2.4289 0.0277 2.0382
2.4184 0.2229 2.0382
2.3922 0.4166 2.0382
2.3506 0.6076 2.0382
2.2938 0.7945 2.0382
2.2221 0.9763 2.0382
0.7804 0.4208 0.7447
0.7441 0.4822 0.7448
0.7030 0.5406 0.7450
0.6573 0.5954 0.7452
0.6073 0.6464 0.7453
0.5533 0.6933 0.7454
0.4958 0.7356 0.7455
0.4350 0.7731 0.7456
0.3714 0.8057 0.7457
0.3054 0.8330 0.7458
0.2374 0.8549 0.7459
0.1678 0.8712 0.7459
0.0972 0.8819 0.7460
0.0259 0.8869 0.7460
-0.0456 0.8861 0.7460
-0.1167 0.8796 0.7459
-0.1871 0.8673 0.7459
-0.2563 0.8494 0.7459
-0.3238 0.8260 0.7458
-0.3892 0.7972 0.7457
-0.4521 0.7633 0.7456
-0.5120 0.7244 0.7455
-0.5686 0.6808 0.7454
-0.6214 0.6328 0.7453
-0.6703 0.5807 0.7451
-0.7148 0.5248 0.7450
-0.7546 0.4656 0.7448
-2.1612 1.1041 2.0382
-2.2433 0.9268 2.0382
-2.3109 0.7435 2.0382
-2.3636 0.5553 2.0382
-2.4009 0.3634 2.0382
-2.4228 0.1692 2.0382
-2.4289 -0.0261 2.0382
-2.4193 -0.2214 2.0382
-2.3941 -0.4153 2.0382
-2.3533 -0.6065 2.0382
-2.2973 -0.7938 2.0382
-2.2264 -0.9761 2.0382
-0.7797 -0.4196 0.7423
-0.7434 -0.4808 0.7421
-0.7023 -0.5390 0.7420
-0.6567 -0.5936 0.7418
-0.6068 -0.6444 0.7417
-0.5530 -0.6911 0.7415
-0.4956 -0.7332 0.7414
-0.4351 -0.7706 0.7413
-0.3718 -0.8030 0.7412
-0.3060 -0.8303 0.7411
-0.2383 -0.8522 0.7411
-0.1691 -0.8685 0.7410
-0.0987 -0.8793 0.7410
