ply
format ascii 1.0
element vertex 2176
property float32 x
property float32 y
property float32 z
end_header
2.3397 -2.0406 0.9791
2.6575 -1.9651 1.0431
5.4807 -3.4075 2.0382
5.5742 -2.8719 1.9816
5.5040 -2.2960 1.8858
5.6680 -1.8454 1.8858
5.7953 -1.3830 1.8858
5.8853 -0.9120 1.8858
5.9375 -0.4356 1.8858
5.9515 0.0433 1.8858
5.9274 0.5217 1.8858
5.8653 0.9966 1.8858
5.7656 1.4650 1.8858
5.6289 1.9239 1.8858
5.4561 2.3704 1.8858
5.2483 2.8019 1.8858
5.0068 3.2154 1.8858
4.7330 3.6085 1.8858
4.4288 3.9787 1.8858
4.0959 4.3235 1.8858
3.7953 4.7138 1.9154
3.6237 5.3269 2.0382
3.1853 5.6039 2.0382
2.7260 5.8453 2.0382
2.2485 6.0493 2.0382
1.7561 6.2146 2.0382
1.2516 6.3402 2.0382
0.7384 6.4250 2.0382
0.2198 6.4685 2.0382
-0.3011 6.4703 2.0382
-0.8208 6.4304 2.0382
-1.3361 6.3488 2.0382
-1.8435 6.2261 2.0382
-2.3398 6.0629 2.0382
-2.8217 5.8602 2.0382
-3.2861 5.6192 2.0382
-3.7299 5.3414 2.0382
-4.1503 5.0284 2.0382
-4.5443 4.6824 2.0382
-4.9093 4.3055 2.0382
-5.2430 3.9001 2.0382
-5.5430 3.4687 2.0382
-5.8073 3.0143 2.0382
-6.0341 2.5397 2.0382
-6.2219 2.0481 2.0382
-6.3693 1.5426 2.0382
-6.4753 1.0267 2.0382
-3.0780 5.0577 2.0382
-3.4770 4.7977 2.0382
-3.8540 4.5062 2.0382
-4.2064 4.1850 2.0382
-4.5321 3.8363 2.0382
-4.8286 3.4622 2.0382
-5.0942 3.0651 2.0382
-5.3269 2.6477 2.0382
-5.5253 2.2126 2.0382
-5.6878 1.7626 2.0382
-5.8135 1.3009 2.0382
-5.9014 0.8303 2.0382
-5.9509 0.3539 2.0382
-5.9617 -0.1250 2.0382
-5.9337 -0.6033 2.0382
-5.8669 -1.0778 2.0382
-5.7619 -1.5454 2.0382
-5.6194 -2.0030 2.0382
-5.4403 -2.4475 2.0382
-5.2257 -2.8761 2.0382
-4.9771 -3.2857 2.0382
-4.6962 -3.6738 2.0382
-4.3849 -4.0378 2.0382
-4.0452 -4.3753 2.0382
-3.6794 -4.6841 2.0382
-3.2899 -4.9622 2.0382
-2.8795 -5.2077 2.0382
-2.4507 -5.4191 2.0382
-0.7243 -2.0199 0.7358
-1.5496 -5.7346 2.0382
-1.0833 -5.8367 2.0382
-0.6106 -5.9007 2.0382
-0.1346 -5.9265 2.0382
0.3417 -5.9138 2.0382
0.8150 -5.8628 2.0382
1.2824 -5.7739 2.0382
0.7458 -2.4196 0.8732
0.9459 -2.3720 0.8813
1.1507 -2.3233 0.8955
1.3634 -2.2727 0.9161
1.5873 -2.2195 0.9439
1.8264 -2.1627 0.9799
2.0858 -2.1011 1.0256
2.3723 -2.0331 1.0830
4.7545 -3.4526 2.0382
5.0136 -3.0573 2.0382
5.2403 -2.6428 2.0382
5.4068 -2.2010 2.0284
5.3008 -1.6749 1.9326
5.2849 -1.2128 1.8858
5.3633 -0.7835 1.8858
5.4072 -0.3495 1.8858
5.4163 0.0865 1.8858
5.3907 0.5218 1.8858
5.3305 0.9536 1.8858
5.2361 1.3792 1.8858
5.1080 1.7958 1.8858
4.9472 2.2010 1.8858
4.7546 2.5920 1.8858
4.5315 2.9666 1.8858
4.2791 3.3222 1.8858
4.0385 3.6928 1.9043
3.9034 4.1934 1.9930
3.6354 4.5973 2.0382
3.2554 4.8770 2.0382
2.8540 5.1255 2.0382
2.4339 5.3412 2.0382
1.9977 5.5229 2.0382
1.5482 5.6691 2.0382
1.0881 5.7790 2.0382
0.6204 5.8518 2.0382
0.1481 5.8869 2.0382
-0.3258 5.8841 2.0382
-0.7983 5.8433 2.0382
-1.2663 5.7646 2.0382
-1.7268 5.6486 2.0382
-2.1768 5.4958 2.0382
-2.6133 5.3072 2.0382
-3.0335 5.0840 2.0382
-3.4347 4.8275 2.0382
-3.8142 4.5393 2.0382
-4.1695 4.2212 2.0382
-4.4981 3.8754 2.0382
-4.7979 3.5039 2.0382
-5.0670 3.1092 2.0382
-5.3033 2.6938 2.0382
-5.5055 2.2605 2.0382
-5.6719 1.8121 2.0382
-5.8017 1.3514 2.0382
-5.8937 0.8816 2.0382
-5.9474 0.4058 2.0382
-5.9624 -0.0730 2.0382
-5.9386 -0.5515 2.0382
-5.8760 -1.0266 2.0382
-5.7752 -1.4952 2.0382
-5.6367 -1.9540 2.0382
-5.4614 -2.4001 2.0382
-5.2506 -2.8304 2.0382
-5.0057 -3.2423 2.0382
-4.7282 -3.6329 2.0382
-4.4201 -3.9996 2.0382
-4.0833 -4.3401 2.0382
-3.7202 -4.6521 2.0382
-3.3332 -4.9335 2.0382
-2.9249 -5.1827 2.0382
-2.4980 -5.3979 2.0382
-0.7419 -2.0136 0.7358
-1.5997 -5.7213 2.0382
-1.1343 -5.8274 2.0382
-0.6621 -5.8956 2.0382
-0.1863 -5.9256 2.0382
0.2901 -5.9170 2.0382
0.7639 -5.8702 2.0382
1.2321 -5.7854 2.0382
0.7243 -2.4247 0.8726
0.7769 -1.9989 0.7401
1.1282 -2.3286 0.8936
1.3399 -2.2783 0.9135
1.5623 -2.2255 0.9405
1.7996 -2.1691 0.9756
2.0565 -2.1081 1.0201
2.3397 -2.0409 1.0762
2.6574 -1.9654 1.1464
4.9871 -3.1011 2.0382
5.2173 -2.6885 2.0382
5.4137 -2.2591 2.0382
5.3120 -1.7298 1.9419
5.2741 -1.2581 1.8858
5.3564 -0.8303 1.8858
5.4041 -0.3967 1.8858
5.4170 0.0393 1.8858
5.3952 0.4747 1.8858
5.3387 0.9070 1.8858
5.2479 1.3334 1.8858
5.1235 1.7512 1.8858
4.9662 2.1577 1.8858
4.7770 2.5504 1.8858
4.5571 2.9268 1.8858
4.3078 3.2846 1.8857
4.0550 3.6430 1.8971
3.9188 4.1369 1.9824
3.6753 4.5652 2.0382
3.2976 4.8482 2.0382
2.8985 5.1001 2.0382
2.4803 5.3195 2.0382
2.0457 5.5049 2.0382
1.5975 5.6550 2.0382
1.1384 5.7689 2.0382
0.6714 5.8457 2.0382
0.1994 5.8849 2.0382
-0.2745 5.8862 2.0382
-0.7472 5.8495 2.0382
-1.2158 5.7749 2.0382
-1.6773 5.6629 2.0382
-2.1286 5.5141 2.0382
-2.5667 5.3293 2.0382
-2.9889 5.1098 2.0382
-3.3922 4.8568 2.0382
-3.7742 4.5720 2.0382
-4.1322 4.2571 2.0382
-4.4638 3.9142 2.0382
-4.7669 3.5454 2.0382
-5.0393 3.1531 2.0382
-5.2793 2.7398 2.0382
-5.4852 2.3083 2.0382
-5.6557 1.8613 2.0382
-5.7894 1.4019 2.0382
-5.8856 0.9329 2.0382
-2.8181 4.6297 2.0382
-3.1832 4.3915 2.0382
-3.5280 4.1244 2.0382
-3.8505 3.8302 2.0382
-4.1483 3.5109 2.0382
-4.4195 3.1683 2.0382
-4.6623 2.8048 2.0382
-4.8751 2.4227 2.0382
-5.0563 2.0244 2.0382
-5.2049 1.6127 2.0382
-5.3197 1.1901 2.0382
-5.4000 0.7595 2.0382
-5.4451 0.3235 2.0382
-5.4549 -0.1145 2.0382
-5.4292 -0.5521 2.0382
-5.3681 -0.9863 2.0382
-5.2720 -1.4141 2.0382
-5.1416 -1.8327 2.0382
-4.9777 -2.2394 2.0382
-4.7814 -2.6314 2.0382
-4.5541 -3.0063 2.0382
-4.2972 -3.3614 2.0382
-4.0124 -3.6945 2.0382
-3.7017 -4.0034 2.0382
-3.3671 -4.2861 2.0382
-3.0109 -4.5407 2.0382
-2.6354 -4.7655 2.0382
-2.2431 -4.9592 2.0382
-0.6636 -1.8502 0.7364
-0.5128 -1.8971 0.7367
-0.3587 -1.9319 0.7371
-0.2024 -1.9542 0.7374
-0.0448 -1.9639 0.7379
0.1131 -1.9610 0.7383
0.2703 -1.9455 0.7388
0.4257 -1.9175 0.7393
0.5784 -1.8771 0.7399
0.7274 -1.8246 0.7404
1.1506 -2.3235 0.9781
1.3633 -2.2730 1.0005
1.5871 -2.2198 1.0308
1.8263 -2.1630 1.0701
2.0858 -2.1014 1.1199
2.3722 -2.0334 1.1826
4.3543 -3.1625 2.0382
4.5919 -2.8005 2.0382
4.7997 -2.4210 2.0382
4.9763 -2.0261 2.0382
5.1209 -1.6186 2.0382
5.1700 -1.1867 2.0139
5.0774 -0.7419 1.9488
4.9891 -0.3226 1.8994
4.9620 0.0787 1.8858
4.9385 0.4779 1.8858
4.8834 0.8735 1.8858
4.7969 1.2634 1.8858
4.6899 1.6488 1.8899
4.5323 2.0164 1.8858
4.3623 2.3783 1.8886
4.2489 2.7814 1.9301
4.1360 3.2112 1.9897
3.9595 3.6206 2.0382
3.6566 3.9286 2.0382
3.3300 4.2115 2.0382
2.9817 4.4675 2.0382
2.6139 4.6950 2.0382
2.2290 4.8925 2.0382
0.6737 1.8629 0.7506
0.5218 1.9114 0.7503
0.3665 1.9475 0.7500
0.2088 1.9709 0.7496
0.1351 5.3910 2.0382
-0.2989 5.3881 2.0382
-0.2685 1.9642 0.7482
-0.4255 1.9363 0.7477
-0.5797 1.8958 0.7472
-0.7302 1.8430 0.7466
-2.3929 4.8584 2.0382
-2.7774 4.6538 2.0382
-3.1445 4.4187 2.0382
-3.4917 4.1547 2.0382
-3.8166 3.8634 2.0382
-4.1172 3.5467 2.0382
-4.3914 3.2065 2.0382
-4.6374 2.8452 2.0382
-4.8535 2.4649 2.0382
-5.0383 2.0683 2.0382
-5.1904 1.6579 2.0382
-5.3089 1.2364 2.0382
-5.3930 0.8065 2.0382
-5.4420 0.3711 2.0382
-5.4556 -0.0670 2.0382
-5.4337 -0.5048 2.0382
-5.3764 -0.9394 2.0382
-5.2841 -1.3681 2.0382
-5.1574 -1.7878 2.0382
-4.9971 -2.1959 2.0382
-4.8042 -2.5897 2.0382
-4.5802 -2.9664 2.0382
-4.3264 -3.3239 2.0382
-4.0446 -3.6596 2.0382
-3.7366 -3.9712 2.0382
-3.4045 -4.2568 2.0382
-3.0505 -4.5145 2.0382
-2.6769 -4.7426 2.0382
-2.2863 -4.9397 2.0382
-0.6797 -1.8444 0.7364
-0.5293 -1.8926 0.7367
-0.3756 -1.9287 0.7370
-0.2194 -1.9524 0.7374
-0.0619 -1.9635 0.7378
0.0960 -1.9619 0.7383
0.2533 -1.9478 0.7387
0.4090 -1.9211 0.7393
0.5620 -1.8821 0.7398
0.7114 -1.8309 0.7404
1.1281 -2.3289 0.9761
1.3397 -2.2786 0.9977
1.5622 -2.2257 1.0271
1.7995 -2.1694 1.0654
2.0565 -2.1084 1.1140
2.3396 -2.0411 1.1751
2.6574 -1.9657 1.2518
4.5675 -2.8407 2.0382
4.7786 -2.4629 2.0382
4.9587 -2.0696 2.0382
5.1068 -1.6633 2.0382
5.1803 -1.2367 2.0219
5.0872 -0.7888 1.9551
4.9974 -0.3670 1.9036
4.9626 0.0356 1.8858
4.9426 0.4348 1.8858
4.8909 0.8309 1.8858
4.8078 1.2215 1.8858
4.7010 1.6067 1.8887
4.5497 1.9767 1.8858
4.3763 2.3365 1.8858
4.2605 2.7365 1.9245
4.1487 3.1634 1.9825
3.9908 3.5858 2.0382
3.6906 3.8964 2.0382
3.3665 4.1821 2.0382
3.0204 4.4411 2.0382
2.6547 4.6717 2.0382
2.2715 4.8725 2.0382
0.6899 1.8569 0.7506
0.5385 1.9068 0.7503
0.3835 1.9442 0.7500
0.2260 1.9690 0.7496
0.1822 5.3892 2.0382
-0.2518 5.3901 2.0382
-0.2514 1.9664 0.7483
-0.4086 1.9399 0.7478
-0.5632 1.9008 0.7472
-0.7141 1.8493 0.7466
-2.3502 4.8787 2.0382
-2.7365 4.6775 2.0382
-3.1056 4.4456 2.0382
-3.4551 4.1847 2.0382
-3.7825 3.8962 2.0382
-4.0859 3.5822 2.0382
-4.3630 3.2445 2.0382
-4.6121 2.8853 2.0382
-4.8316 2.5070 2.0382
-5.0198 2.1120 2.0382
-5.1755 1.7030 2.0382
-5.2977 1.2825 2.0382
-5.3856 0.8534 2.0382
-2.5945 4.2614 2.0382
-2.9303 4.0418 2.0382
-3.2476 3.7959 2.0382
-3.5442 3.5250 2.0382
-3.8181 3.2309 2.0382
-4.0675 2.9155 2.0382
-4.2908 2.5809 2.0382
-4.4864 2.2292 2.0382
-4.6531 1.8626 2.0382
-4.7896 1.4837 2.0382
-4.8951 1.0949 2.0382
-4.9689 0.6986 2.0382
-5.0103 0.2976 2.0382
-5.0192 -0.1055 2.0382
-4.9955 -0.5081 2.0382
-4.9392 -0.9076 2.0382
-4.8507 -1.3013 2.0382
-4.7308 -1.6863 2.0382
-4.5800 -2.0604 2.0382
-4.3995 -2.4211 2.0382
-4.1903 -2.7660 2.0382
-3.9540 -3.0928 2.0382
-3.6921 -3.3994 2.0382
-3.4063 -3.6836 2.0382
-3.0985 -3.9438 2.0382
-2.7708 -4.1782 2.0382
-2.4254 -4.3852 2.0382
-0.7463 -1.6497 0.7368
-0.6113 -1.7039 0.7370
-0.4724 -1.7472 0.7373
-0.3305 -1.7792 0.7376
-0.1866 -1.7997 0.7379
-0.0414 -1.8087 0.7383
0.1040 -1.8060 0.7387
0.2487 -1.7918 0.7392
0.3919 -1.7659 0.7396
0.5325 -1.7287 0.7401
0.6697 -1.6804 0.7407
1.1505 -2.3238 1.0624
1.3631 -2.2733 1.0868
1.5870 -2.2201 1.1196
1.8262 -2.1633 1.1622
2.0857 -2.1017 1.2163
2.3721 -2.0337 1.2843
4.0095 -2.9126 2.0382
4.2285 -2.5793 2.0382
4.4200 -2.2298 2.0382
4.5829 -1.8662 2.0382
4.7162 -1.4910 2.0382
4.8190 -1.1063 2.0382
4.8907 -0.7149 2.0382
4.9310 -0.3191 2.0382
4.8721 0.0776 2.0104
4.7861 0.4631 1.9842
4.6995 0.8406 1.9703
4.6116 1.2146 1.9683
4.5212 1.5895 1.9780
4.4272 1.9697 1.9999
4.3285 2.3599 2.0346
4.1325 2.7056 2.0382
3.9022 3.0299 2.0382
3.6467 3.3348 2.0382
3.3676 3.6184 2.0382
3.0667 3.8789 2.0382
2.7458 4.1146 2.0382
2.4070 4.3240 2.0382
0.7555 1.6586 0.7502
0.6198 1.7143 0.7500
0.4800 1.7589 0.7498
0.3371 1.7921 0.7494
0.1920 1.8137 0.7491
0.0455 1.8234 0.7487
-0.1012 1.8214 0.7483
-0.2473 1.8074 0.7478
-0.3918 1.7818 0.7474
-0.5337 1.7445 0.7469
-0.6721 1.6960 0.7463
-2.2031 4.4721 2.0382
-2.5570 4.2835 2.0382
-2.8948 4.0669 2.0382
-3.2141 3.8238 2.0382
-3.5131 3.5555 2.0382
-3.7895 3.2638 2.0382
-4.0417 2.9507 2.0382
-4.2679 2.6180 2.0382
-4.4666 2.2681 2.0382
-4.6364 1.9030 2.0382
-4.7763 1.5253 2.0382
-4.8852 1.1374 2.0382
-4.9624 0.7419 2.0382
-5.0074 0.3413 2.0382
-5.0198 -0.0618 2.0382
-4.9996 -0.4646 2.0382
-4.9468 -0.8645 2.0382
-4.8619 -1.2587 2.0382
-4.7453 -1.6450 2.0382
-4.5978 -2.0205 2.0382
-4.4205 -2.3827 2.0382
-4.2144 -2.7295 2.0382
-3.9809 -3.0583 2.0382
-3.7217 -3.3672 2.0382
-3.4384 -3.6539 2.0382
-3.1329 -3.9168 2.0382
-2.8073 -4.1540 2.0382
-2.4637 -4.3641 2.0382
-0.7607 -1.6432 0.7367
-0.6262 -1.6986 0.7370
-0.4876 -1.7430 0.7372
-0.3460 -1.7763 0.7375
-0.2022 -1.7981 0.7379
-0.0572 -1.8083 0.7383
0.0883 -1.8069 0.7387
0.2331 -1.7939 0.7391
0.3765 -1.7693 0.7396
0.5174 -1.7333 0.7401
0.6550 -1.6862 0.7406
1.1279 -2.3292 1.0603
1.3396 -2.2789 1.0837
1.5621 -2.2260 1.1156
1.7994 -2.1696 1.1571
2.0564 -2.1086 1.2098
2.3395 -2.0414 1.2762
2.6574 -1.9660 1.3594
4.2060 -2.6163 2.0382
4.4006 -2.2684 2.0382
4.5666 -1.9063 2.0382
4.7032 -1.5321 2.0382
4.8093 -1.1485 2.0382
4.8844 -0.7576 2.0382
4.9281 -0.3621 2.0382
4.8815 0.0351 2.0140
4.7954 0.4217 1.9864
4.7090 0.7999 1.9712
4.6212 1.1741 1.9679
4.5312 1.5487 1.9764
4.4376 1.9281 1.9969
4.3395 2.3170 2.0302
4.1559 2.6694 2.0382
3.9284 2.9956 2.0382
3.6756 3.3028 2.0382
3.3990 3.5887 2.0382
3.1003 3.8519 2.0382
2.7815 4.0903 2.0382
2.4446 4.3026 2.0382
0.7699 1.6519 0.7503
0.6347 1.7088 0.7500
0.4954 1.7546 0.7498
0.3527 1.7891 0.7495
0.2078 1.8119 0.7491
0.0615 1.8230 0.7488
-0.0853 1.8222 0.7483
-0.2315 1.8095 0.7479
-0.3762 1.7851 0.7474
-0.5184 1.7491 0.7469
-0.6573 1.7018 0.7464
-2.1639 4.4908 2.0382
-2.5194 4.3053 2.0382
-2.8590 4.0917 2.0382
-3.1805 3.8514 2.0382
-3.4817 3.5857 2.0382
-3.7607 3.2965 2.0382
-4.0156 2.9856 2.0382
-4.2447 2.6550 2.0382
-4.4464 2.3068 2.0382
-4.6194 1.9433 2.0382
-4.7626 1.5668 2.0382
-4.8749 1.1799 2.0382
-4.9556 0.7851 2.0382
-2.3996 3.9405 2.0382
-2.7101 3.7373 2.0382
-3.0033 3.5097 2.0382
-3.2775 3.2591 2.0382
-3.5306 2.9871 2.0382
-3.7611 2.6954 2.0382
-3.9674 2.3859 2.0382
-4.1481 2.0607 2.0382
-4.3020 1.7218 2.0382
-4.4281 1.3715 2.0382
-4.5256 1.0120 2.0382
-4.5936 0.6457 2.0382
-4.6319 0.2750 2.0382
-4.6400 -0.0977 2.0382
-4.6180 -0.4698 2.0382
-4.5659 -0.8390 2.0382
-4.4842 -1.2028 2.0382
-4.3733 -1.5588 2.0382
-4.2339 -1.9047 2.0382
-4.0671 -2.2381 2.0382
-3.8738 -2.5569 2.0382
-3.6554 -2.8591 2.0382
-3.4134 -3.1425 2.0382
-3.1492 -3.4053 2.0382
-2.8648 -3.6459 2.0382
-2.5619 -3.8626 2.0382
-2.2427 -4.0541 2.0382
-0.6906 -1.5262 0.7373
-0.5657 -1.5764 0.7375
-0.4372 -1.6165 0.7377
-0.3060 -1.6461 0.7380
-0.1728 -1.6651 0.7383
-0.0385 -1.6734 0.7387
0.0961 -1.6709 0.7391
0.2300 -1.6577 0.7395
0.3624 -1.6338 0.7399
0.4925 -1.5994 0.7404
0.6194 -1.5546 0.7409
0.7424 -1.4999 0.7414
1.3630 -2.2735 1.1750
1.5869 -2.2203 1.2105
1.8261 -2.1636 1.2565
2.0856 -2.1020 1.3150
2.3721 -2.0340 1.3884
3.7089 -2.6947 2.0382
3.9116 -2.3865 2.0382
4.0889 -2.0632 2.0382
4.2398 -1.7268 2.0382
4.3632 -1.3796 2.0382
4.4584 -1.0238 2.0382
4.5249 -0.6616 2.0382
4.5622 -0.2954 2.0382
4.5702 0.0726 2.0382
4.5488 0.4400 2.0382
4.4981 0.8045 2.0382
4.4184 1.1637 2.0382
4.3104 1.5154 2.0382
4.1746 1.8574 2.0382
4.0120 2.1873 2.0382
3.8235 2.5035 2.0382
3.6103 2.8035 2.0382
3.3739 3.0856 2.0382
3.1156 3.3479 2.0382
2.8371 3.5889 2.0382
2.5401 3.8069 2.0382
2.2266 4.0005 2.0382
0.6984 1.5334 0.7497
0.5729 1.5849 0.7495
0.4437 1.6262 0.7493
0.3115 1.6568 0.7490
0.1773 1.6768 0.7487
0.0419 1.6858 0.7483
-0.0937 1.6839 0.7479
-0.2288 1.6710 0.7475
-0.3623 1.6473 0.7471
-0.4936 1.6129 0.7466
-0.6216 1.5680 0.7461
-0.7455 1.5129 0.7456
-2.3650 3.9610 2.0382
-2.6772 3.7606 2.0382
-2.9724 3.5355 2.0382
-3.2487 3.2874 2.0382
-3.5042 3.0175 2.0382
-3.7372 2.7279 2.0382
-3.9462 2.4203 2.0382
-4.1298 2.0967 2.0382
-4.2867 1.7591 2.0382
-4.4158 1.4099 2.0382
-4.5164 1.0513 2.0382
-4.5877 0.6856 2.0382
-4.6292 0.3153 2.0382
-4.6406 -0.0572 2.0382
-4.6218 -0.4296 2.0382
-4.5730 -0.7992 2.0382
-4.4945 -1.1637 2.0382
-4.3867 -1.5207 2.0382
-4.2504 -1.8677 2.0382
-4.0865 -2.2026 2.0382
-3.8960 -2.5231 2.0382
-3.6803 -2.8272 2.0382
-3.4407 -3.1127 2.0382
-3.1789 -3.3779 2.0382
-2.8966 -3.6209 2.0382
-2.5956 -3.8403 2.0382
-2.2780 -4.0346 2.0382
-0.7039 -1.5202 0.7372
-0.5794 -1.5715 0.7375
-0.4513 -1.6126 0.7377
-0.3203 -1.6434 0.7380
-0.1873 -1.6636 0.7383
-0.0530 -1.6730 0.7387
0.0815 -1.6717 0.7390
0.2155 -1.6597 0.7394
0.3481 -1.6369 0.7399
0.4785 -1.6036 0.7403
0.6058 -1.5600 0.7408
0.7293 -1.5063 0.7413
1.3395 -2.2791 1.1718
1.5620 -2.2263 1.2062
1.7992 -2.1699 1.2510
2.0563 -2.1089 1.3080
2.3395 -2.0417 1.3796
2.6573 -1.9663 1.4696
3.8909 -2.4206 2.0382
4.0710 -2.0989 2.0382
4.2247 -1.7639 2.0382
4.3512 -1.4178 2.0382
4.4495 -1.0628 2.0382
4.5191 -0.7012 2.0382
4.5596 -0.3352 2.0382
4.5708 0.0326 2.0382
4.5525 0.4003 2.0382
4.5050 0.7652 2.0382
4.4285 1.1251 2.0382
4.3235 1.4777 2.0382
4.1907 1.8208 2.0382
4.0308 2.1525 2.0382
3.8451 2.4699 2.0382
3.6346 2.7718 2.0382
3.4006 3.0559 2.0382
3.1446 3.3205 2.0382
2.8682 3.5638 2.0382
2.5732 3.7844 2.0382
2.2613 3.9807 2.0382
0.7117 1.5272 0.7498
0.5867 1.5798 0.7496
0.4578 1.6222 0.7493
0.3260 1.6540 0.7490
0.1919 1.6751 0.7487
0.0567 1.6853 0.7484
-0.0790 1.6846 0.7480
-0.2142 1.6729 0.7476
-0.3480 1.6504 0.7471
-0.4795 1.6171 0.7467
-0.6079 1.5733 0.7462
-0.7323 1.5194 0.7457
-2.3302 3.9812 2.0382
-2.6442 3.7835 2.0382
-2.9413 3.5611 2.0382
-3.2197 3.3153 2.0382
-3.4776 3.0478 2.0382
-3.7131 2.7602 2.0382
-3.9247 2.4544 2.0382
-4.1111 2.1325 2.0382
-4.2710 1.7963 2.0382
-4.4032 1.4483 2.0382
-4.5069 1.0906 2.0382
-4.5814 0.7256 2.0382
-2.2281 3.6581 2.0382
-2.5163 3.4694 2.0382
-2.7884 3.2579 2.0382
-3.0428 3.0252 2.0382
-3.2776 2.7726 2.0382
-3.4915 2.5017 2.0382
-3.6828 2.2144 2.0382
-3.8504 1.9125 2.0382
-3.9932 1.5979 2.0382
-4.1102 1.2727 2.0382
-4.2005 0.9390 2.0382
-4.2636 0.5991 2.0382
-4.2990 0.2550 2.0382
-4.3065 -0.0908 2.0382
-4.2860 -0.4361 2.0382
-4.2377 -0.7788 2.0382
-4.1618 -1.1164 2.0382
-4.0589 -1.4467 2.0382
-3.9296 -1.7677 2.0382
-3.7747 -2.0772 2.0382
-3.5954 -2.3731 2.0382
-3.3928 -2.6535 2.0382
-3.1682 -2.9165 2.0382
-2.9231 -3.1605 2.0382
-2.6592 -3.3838 2.0382
-2.3782 -3.5851 2.0382
-0.7534 -1.3617 0.7376
-0.6415 -1.4175 0.7377
-0.5255 -1.4641 0.7379
-0.4062 -1.5013 0.7381
-0.2843 -1.5288 0.7384
-0.1606 -1.5465 0.7387
-0.0359 -1.5542 0.7390
0.0891 -1.5519 0.7394
0.2134 -1.5396 0.7398
0.3364 -1.5174 0.7402
0.4572 -1.4854 0.7406
0.5751 -1.4439 0.7411
0.6893 -1.3930 0.7415
1.3629 -2.2738 1.2656
1.5868 -2.2206 1.3037
1.8260 -2.1638 1.3532
2.0855 -2.1023 1.4161
2.3720 -2.0343 1.4952
3.4441 -2.5027 2.0382
3.6325 -2.2166 2.0382
3.7973 -1.9163 2.0382
3.9375 -1.6040 2.0382
4.0522 -1.2816 2.0382
4.1407 -0.9511 2.0382
4.2026 -0.6147 2.0382
4.2373 -0.2745 2.0382
4.2448 0.0673 2.0382
4.2249 0.4086 2.0382
4.1778 0.7471 2.0382
4.1039 1.0808 2.0382
4.0035 1.4075 2.0382
3.8774 1.7252 2.0382
3.7263 2.0318 2.0382
3.5512 2.3253 2.0382
3.3532 2.6040 2.0382
3.1335 2.8660 2.0382
2.8935 3.1096 2.0382
2.6348 3.3334 2.0382
2.3589 3.5358 2.0382
0.7603 1.3662 0.7494
0.6481 1.4233 0.7493
0.5316 1.4711 0.7491
0.4117 1.5093 0.7489
0.2890 1.5378 0.7486
0.1644 1.5563 0.7483
0.0388 1.5647 0.7480
-0.0871 1.5629 0.7476
-0.2125 1.5509 0.7472
-0.3365 1.5289 0.7468
-0.4583 1.4970 0.7464
-0.5771 1.4553 0.7459
-0.6921 1.4043 0.7455
-2.1960 3.6771 2.0382
-2.4858 3.4909 2.0382
-2.7597 3.2819 2.0382
-3.0161 3.0514 2.0382
-3.2531 2.8009 2.0382
-3.4693 2.5319 2.0382
-3.6632 2.2463 2.0382
-3.8335 1.9459 2.0382
-3.9790 1.6326 2.0382
-4.0988 1.3084 2.0382
-4.1920 0.9756 2.0382
-4.2581 0.6362 2.0382
-4.2965 0.2925 2.0382
-4.3071 -0.0533 2.0382
-4.2896 -0.3988 2.0382
-4.2443 -0.7418 2.0382
-4.1714 -1.0801 2.0382
-4.0713 -1.4113 2.0382
-3.9448 -1.7334 2.0382
-3.7927 -2.0442 2.0382
-3.6160 -2.3417 2.0382
-3.4158 -2.6239 2.0382
-3.1936 -2.8889 2.0382
-2.9506 -3.1350 2.0382
-2.6887 -3.3607 2.0382
-2.4094 -3.5644 2.0382
-0.7652 -1.3551 0.7375
-0.6538 -1.4119 0.7377
-0.5383 -1.4595 0.7379
-0.4193 -1.4977 0.7381
-0.2976 -1.5263 0.7384
-0.1741 -1.5451 0.7387
-0.0494 -1.5539 0.7390
0.0755 -1.5526 0.7394
0.2000 -1.5414 0.7397
0.3232 -1.5203 0.7401
0.4443 -1.4894 0.7406
0.5625 -1.4488 0.7410
0.6771 -1.3990 0.7415
1.3393 -2.2794 1.2620
1.5618 -2.2266 1.2991
1.7991 -2.1702 1.3473
2.0562 -2.1092 1.4086
2.3394 -2.0420 1.4857
2.6573 -1.9666 1.5825
3.6132 -2.2483 2.0382
3.7806 -1.9495 2.0382
3.9235 -1.6384 2.0382
4.0410 -1.3170 2.0382
4.1324 -0.9873 2.0382
4.1972 -0.6514 2.0382
4.2349 -0.3115 2.0382
4.2453 0.0302 2.0382
4.2284 0.3717 2.0382
4.1842 0.7106 2.0382
4.1132 1.0450 2.0382
4.0157 1.3725 2.0382
3.8923 1.6912 2.0382
3.7439 1.9991 2.0382
3.5713 2.2942 2.0382
3.3757 2.5745 2.0382
3.1583 2.8384 2.0382
2.9205 3.0841 2.0382
2.6637 3.3101 2.0382
2.3896 3.5149 2.0382
0.7722 1.3595 0.7495
0.6605 1.4175 0.7493
0.5444 1.4663 0.7491
0.4248 1.5057 0.7489
0.3024 1.5352 0.7486
0.1780 1.5548 0.7483
0.0524 1.5642 0.7480
-0.0735 1.5636 0.7477
-0.1990 1.5527 0.7473
-0.3231 1.5318 0.7469
-0.4452 1.5009 0.7464
-0.5644 1.4603 0.7460
-0.6799 1.4102 0.7455
-2.1637 3.6959 2.0382
-2.4551 3.5123 2.0382
-2.7308 3.3056 2.0382
-2.9892 3.0774 2.0382
-3.2284 2.8290 2.0382
-3.4469 2.5619 2.0382
-3.6433 2.2780 2.0382
-3.8162 1.9791 2.0382
-3.9644 1.6671 2.0382
-4.0870 1.3440 2.0382
-4.1832 1.0120 2.0382
-4.2522 0.6732 2.0382
-0.7586 1.2451 0.7448
-2.3441 3.2313 2.0382
-2.5975 3.0343 2.0382
-2.8343 2.8174 2.0382
-3.0530 2.5821 2.0382
-3.2520 2.3298 2.0382
-3.4302 2.0621 2.0382
-3.5862 1.7809 2.0382
-3.7191 1.4879 2.0382
-3.8279 1.1850 2.0382
-3.9119 0.8743 2.0382
-3.9706 0.5577 2.0382
-4.0035 0.2374 2.0382
-4.0105 -0.0847 2.0382
-3.9914 -0.4063 2.0382
-3.9463 -0.7253 2.0382
-3.8757 -1.0396 2.0382
-3.7798 -1.3473 2.0382
-3.6594 -1.6461 2.0382
-3.5153 -1.9343 2.0382
-3.3483 -2.2098 2.0382
-3.1596 -2.4709 2.0382
-2.9505 -2.7159 2.0382
-2.7224 -2.9432 2.0382
-2.4767 -3.1512 2.0382
-2.2150 -3.3387 2.0382
-0.7021 -1.2688 0.7380
-0.5979 -1.3208 0.7381
-0.4898 -1.3643 0.7383
-0.3786 -1.3989 0.7385
-0.2651 -1.4246 0.7388
-0.1498 -1.4411 0.7390
-0.0336 -1.4482 0.7393
0.0829 -1.4461 0.7397
0.1987 -1.4346 0.7400
0.3133 -1.4139 0.7404
0.4259 -1.3841 0.7408
0.5357 -1.3454 0.7412
0.6421 -1.2980 0.7417
0.7444 -1.2422 0.7421
1.5866 -2.2209 1.3995
1.8258 -2.1641 1.4526
2.0854 -2.1026 1.5201
2.3719 -2.0346 1.6049
3.2088 -2.3321 2.0382
3.3844 -2.0655 2.0382
3.5380 -1.7858 2.0382
3.6687 -1.4948 2.0382
3.7757 -1.1944 2.0382
3.8583 -0.8864 2.0382
3.9160 -0.5730 2.0382
3.9484 -0.2560 2.0382
3.9554 0.0626 2.0382
3.9369 0.3806 2.0382
3.8931 0.6962 2.0382
3.8242 1.0071 2.0382
3.7307 1.3116 2.0382
3.6131 1.6076 2.0382
3.4723 1.8933 2.0382
3.3091 2.1669 2.0382
3.1245 2.4265 2.0382
2.9197 2.6707 2.0382
2.6960 2.8977 2.0382
2.4549 3.1062 2.0382
2.1978 3.2947 2.0382
0.7079 1.2723 0.7490
0.6034 1.3255 0.7489
0.4949 1.3700 0.7487
0.3832 1.4056 0.7485
0.2690 1.4321 0.7482
0.1530 1.4493 0.7480
0.0360 1.4571 0.7477
-0.0813 1.4555 0.7473
-0.1980 1.4443 0.7470
-0.3135 1.4239 0.7466
-0.4269 1.3941 0.7462
-0.5376 1.3553 0.7458
-0.6448 1.3078 0.7453
-0.7477 1.2517 0.7449
-2.3157 3.2514 2.0382
-2.5708 3.0566 2.0382
-2.8095 2.8419 2.0382
-3.0302 2.6084 2.0382
-3.2314 2.3579 2.0382
-3.4119 2.0918 2.0382
-3.5704 1.8120 2.0382
-3.7058 1.5202 2.0382
-3.8173 1.2183 2.0382
-3.9040 0.9083 2.0382
-3.9655 0.5923 2.0382
-4.0012 0.2722 2.0382
-4.0110 -0.0497 2.0382
-3.9947 -0.3715 2.0382
-3.9525 -0.6909 2.0382
-3.8846 -1.0058 2.0382
-3.7914 -1.3143 2.0382
-3.6736 -1.6142 2.0382
-3.5320 -1.9036 2.0382
-3.3675 -2.1806 2.0382
-3.1811 -2.4434 2.0382
-2.9742 -2.6902 2.0382
-2.7480 -2.9194 2.0382
-2.5041 -3.1296 2.0382
-2.2441 -3.3194 2.0382
-0.7132 -1.2627 0.7379
-0.6094 -1.3156 0.7381
-0.5017 -1.3600 0.7383
-0.3908 -1.3956 0.7385
-0.2775 -1.4222 0.7387
-0.1623 -1.4397 0.7390
-0.0462 -1.4479 0.7393
0.0702 -1.4468 0.7396
0.1862 -1.4363 0.7400
0.3010 -1.4166 0.7404
0.4138 -1.3878 0.7408
0.5240 -1.3500 0.7412
0.6308 -1.3035 0.7416
0.7335 -1.2487 0.7421
1.5617 -2.2268 1.3945
1.7990 -2.1705 1.4462
2.0561 -2.1095 1.5120
2.3393 -2.0423 1.5947
2.6573 -1.9670 1.6986
3.3664 -2.0951 2.0382
3.5224 -1.8167 2.0382
3.6557 -1.5269 2.0382
3.7653 -1.2274 2.0382
3.8505 -0.9201 2.0382
3.9109 -0.6072 2.0382
3.9461 -0.2904 2.0382
3.9559 0.0280 2.0382
3.9402 0.3462 2.0382
3.8991 0.6622 2.0382
3.8329 0.9737 2.0382
3.7420 1.2790 2.0382
3.6270 1.5760 2.0382
3.4887 1.8629 2.0382
3.3278 2.1379 2.0382
3.1455 2.3991 2.0382
2.9429 2.6450 2.0382
2.7212 2.8740 2.0382
2.4818 3.0845 2.0382
2.2264 3.2753 2.0382
0.7190 1.2661 0.7490
0.6150 1.3201 0.7489
0.5069 1.3656 0.7487
0.3955 1.4022 0.7485
0.2815 1.4297 0.7483
0.1656 1.4479 0.7480
0.0487 1.4567 0.7477
-0.0686 1.4561 0.7474
-0.1854 1.4460 0.7470
-0.3011 1.4265 0.7466
-0.4148 1.3978 0.7462
-0.5258 1.3600 0.7458
-0.6333 1.3133 0.7454
-0.7368 1.2582 0.7449
-2.2871 3.2713 2.0382
-2.5439 3.0788 2.0382
-2.7845 2.8661 2.0382
-3.0072 2.6346 2.0382
-3.2106 2.3858 2.0382
-3.3934 2.1214 2.0382
-3.5543 1.8430 2.0382
-3.6923 1.5524 2.0382
-3.8064 1.2515 2.0382
-3.8958 0.9423 2.0382
-3.9600 0.6268 2.0382
-0.7087 1.1629 0.7447
-2.1900 3.0182 2.0382
-2.4266 2.8341 2.0382
-2.6477 2.6314 2.0382
-2.8518 2.4115 2.0382
-3.0377 2.1758 2.0382
-3.2040 1.9258 2.0382
-3.3496 1.6631 2.0382
-3.4736 1.3894 2.0382
-3.5752 1.1066 2.0382
-3.6536 0.8164 2.0382
-3.7084 0.5207 2.0382
-3.7391 0.2215 2.0382
-3.7455 -0.0792 2.0382
-3.7276 -0.3795 2.0382
-3.6856 -0.6774 2.0382
-3.6196 -0.9710 2.0382
-3.5301 -1.2582 2.0382
-3.4176 -1.5373 2.0382
-3.2830 -1.8064 2.0382
-3.1271 -2.0637 2.0382
-2.9510 -2.3076 2.0382
-2.7558 -2.5364 2.0382
-2.5427 -2.7487 2.0382
-2.3133 -2.9430 2.0382
-0.7494 -1.1294 0.7382
-0.6562 -1.1856 0.7383
-0.5588 -1.2342 0.7385
-0.4578 -1.2748 0.7386
-0.3539 -1.3072 0.7388
-0.2478 -1.3312 0.7391
-0.1401 -1.3466 0.7393
-0.0315 -1.3533 0.7396
0.0773 -1.3513 0.7399
0.1856 -1.3406 0.7403
0.2926 -1.3212 0.7406
0.3978 -1.2934 0.7410
0.5004 -1.2572 0.7414
0.5998 -1.2129 0.7418
0.6954 -1.1607 0.7422
1.5865 -2.2212 1.4981
1.8257 -2.1644 1.5549
2.0853 -2.1029 1.6270
2.3719 -2.0349 1.7178
2.9979 -2.1792 2.0382
3.1620 -1.9302 2.0382
3.3056 -1.6689 2.0382
3.4279 -1.3970 2.0382
3.5279 -1.1162 2.0382
3.6051 -0.8285 2.0382
3.6591 -0.5356 2.0382
3.6895 -0.2393 2.0382
3.6960 0.0584 2.0382
3.6788 0.3556 2.0382
3.6378 0.6505 2.0382
3.5735 0.9411 2.0382
3.4861 1.2256 2.0382
3.3762 1.5023 2.0382
3.2446 1.7693 2.0382
3.0920 2.0249 2.0382
2.9195 2.2675 2.0382
2.7281 2.4956 2.0382
2.5191 2.7078 2.0382
2.2937 2.9025 2.0382
0.7544 1.1310 0.7488
0.6611 1.1883 0.7487
0.5634 1.2379 0.7485
0.4621 1.2795 0.7484
0.3578 1.3127 0.7482
0.2511 1.3375 0.7479
0.1428 1.3536 0.7477
0.0335 1.3608 0.7474
-0.0761 1.3593 0.7471
-0.1851 1.3489 0.7467
-0.2929 1.3298 0.7464
-0.3989 1.3020 0.7460
-0.5022 1.2658 0.7456
-0.6023 1.2214 0.7452
-0.6985 1.1691 0.7448
-2.1634 3.0370 2.0382
-2.4016 2.8549 2.0382
-2.6245 2.6542 2.0382
-2.8306 2.4362 2.0382
-3.0185 2.2021 2.0382
-3.1869 1.9536 2.0382
-3.3349 1.6922 2.0382
-3.4613 1.4196 2.0382
-3.5653 1.1376 2.0382
-3.6463 0.8481 2.0382
-3.7036 0.5530 2.0382
-3.7369 0.2541 2.0382
-3.7460 -0.0466 2.0382
-3.7308 -0.3470 2.0382
-3.6913 -0.6453 2.0382
-3.6279 -0.9394 2.0382
-3.5409 -1.2275 2.0382
-3.4309 -1.5075 2.0382
-3.2987 -1.7778 2.0382
-3.1450 -2.0365 2.0382
-2.9710 -2.2819 2.0382
-2.7778 -2.5124 2.0382
-2.5666 -2.7265 2.0382
-2.3389 -2.9228 2.0382
-0.7592 -1.1228 0.7382
-0.6665 -1.1799 0.7383
-0.5695 -1.2293 0.7384
-0.4689 -1.2708 0.7386
-0.3653 -1.3041 0.7388
-0.2594 -1.3290 0.7390
-0.1518 -1.3453 0.7393
-0.0433 -1.3530 0.7396
0.0655 -1.3519 0.7399
0.1739 -1.3422 0.7402
0.2811 -1.3237 0.7406
0.3865 -1.2968 0.7409
0.4895 -1.2615 0.7413
0.5892 -1.2181 0.7417
0.6852 -1.1667 0.7421
0.7768 -1.1079 0.7426
1.7989 -2.1708 1.5480
2.0560 -2.1098 1.6184
2.3393 -2.0427 1.7069
2.6572 -1.9673 1.8181
3.1452 -1.9578 2.0382
3.2911 -1.6977 2.0382
3.4157 -1.4269 2.0382
3.5181 -1.1471 2.0382
3.5979 -0.8600 2.0382
3.6544 -0.5675 2.0382
3.6873 -0.2715 2.0382
3.6965 0.0261 2.0382
3.6818 0.3234 2.0382
3.6434 0.6186 2.0382
3.5816 0.9098 2.0382
3.4966 1.1951 2.0382
3.3892 1.4727 2.0382
3.2599 1.7408 2.0382
3.1096 1.9978 2.0382
2.9392 2.2419 2.0382
2.7498 2.4717 2.0382
2.5425 2.6856 2.0382
2.3189 2.8823 2.0382
0.7642 1.1244 0.7488
0.6714 1.1825 0.7487
0.5742 1.2329 0.7485
0.4733 1.2754 0.7484
0.3692 1.3095 0.7482
0.2628 1.3352 0.7480
0.1546 1.3522 0.7477
0.0453 1.3605 0.7474
-0.0642 1.3599 0.7471
-0.1733 1.3505 0.7468
-0.2813 1.3323 0.7464
-0.3875 1.3054 0.7460
-0.4912 1.2701 0.7457
-0.5917 1.2266 0.7453
-0.6883 1.1751 0.7448
-2.1368 3.0555 2.0382
-2.3765 2.8756 2.0382
-2.6011 2.6769 2.0382
-2.8091 2.4606 2.0382
-2.9990 2.2282 2.0382
-3.1696 1.9812 2.0382
-3.3198 1.7211 2.0382
-3.4486 1.4496 2.0382
-3.5551 1.1686 2.0382
-3.6386 0.8798 2.0382
-3.6985 0.5852 2.0382
-0.6636 1.0888 0.7447
-0.7489 1.0319 0.7443
-2.2724 2.6535 2.0382
-2.4794 2.4636 2.0382
-2.6705 2.2577 2.0382
-2.8444 2.0370 2.0382
-3.0000 1.8029 2.0382
-3.1363 1.5569 2.0382
-3.2524 1.3007 2.0382
-3.3474 1.0358 2.0382
-3.4207 0.7641 2.0382
-3.4719 0.4873 2.0382
-3.5006 0.2073 2.0382
-3.5066 -0.0743 2.0382
-3.4899 -0.3554 2.0382
-3.4505 -0.6343 2.0382
-3.3887 -0.9091 2.0382
-3.3049 -1.1780 2.0382
-3.1997 -1.4392 2.0382
-3.0737 -1.6911 2.0382
-2.9277 -1.9320 2.0382
-2.7629 -2.1603 2.0382
-2.5801 -2.3746 2.0382
-2.3807 -2.5733 2.0382
-0.7848 -0.9983 0.7385
-0.7020 -1.0578 0.7385
-0.6147 -1.1105 0.7386
-0.5235 -1.1560 0.7388
-0.4289 -1.1941 0.7389
-0.3316 -1.2244 0.7391
-0.2322 -1.2469 0.7393
-0.1313 -1.2613 0.7396
-0.0296 -1.2676 0.7399
0.0723 -1.2657 0.7401
0.1737 -1.2557 0.7405
0.2740 -1.2376 0.7408
0.3725 -1.2115 0.7411
0.4686 -1.1775 0.7415
0.5617 -1.1360 0.7419
0.6512 -1.0872 0.7423
0.7365 -1.0313 0.7427
1.8256 -2.1648 1.6604
2.0852 -2.1032 1.7374
2.3718 -2.0353 1.8343
2.8075 -2.0412 2.0382
2.9613 -1.8080 2.0382
3.0959 -1.5633 2.0382
3.2104 -1.3086 2.0382
3.3042 -1.0457 2.0382
3.3766 -0.7762 2.0382
3.4272 -0.5018 2.0382
3.4557 -0.2243 2.0382
3.4619 0.0546 2.0382
3.4457 0.3330 2.0382
3.4074 0.6092 2.0382
3.3471 0.8814 2.0382
3.2652 1.1480 2.0382
3.1623 1.4071 2.0382
3.0390 1.6572 2.0382
2.8961 1.8967 2.0382
2.7345 2.1240 2.0382
2.5551 2.3376 2.0382
2.3593 2.5363 2.0382
0.7889 0.9984 0.7485
0.7061 1.0589 0.7484
0.6188 1.1125 0.7483
0.5274 1.1589 0.7482
0.4325 1.1979 0.7481
0.3348 1.2290 0.7479
0.2350 1.2522 0.7476
0.1335 1.2672 0.7474
0.0312 1.2740 0.7471
-0.0713 1.2726 0.7468
-0.1734 1.2629 0.7465
-0.2744 1.2449 0.7462
-0.3736 1.2190 0.7458
-0.4704 1.1851 0.7455
-0.5641 1.1435 0.7451
-0.6541 1.0945 0.7447
-0.7399 1.0384 0.7443
-2.2491 2.6730 2.0382
-2.4577 2.4850 2.0382
-2.6506 2.2808 2.0382
-2.8264 2.0616 2.0382
-2.9841 1.8288 2.0382
-3.1225 1.5841 2.0382
-3.2408 1.3289 2.0382
-3.3381 1.0649 2.0382
-3.4138 0.7939 2.0382
-3.4675 0.5175 2.0382
-3.4986 0.2377 2.0382
-3.5071 -0.0437 2.0382
-3.4928 -0.3250 2.0382
-3.4558 -0.6042 2.0382
-3.3965 -0.8795 2.0382
-3.3150 -1.1491 2.0382
-3.2121 -1.4113 2.0382
-3.0883 -1.6643 2.0382
-2.9445 -1.9065 2.0382
-2.7816 -2.1362 2.0382
-2.6008 -2.3520 2.0382
-2.4031 -2.5525 2.0382
-2.1900 -2.7364 2.0382
-0.7112 -1.0517 0.7385
-0.6244 -1.1051 0.7386
-0.5336 -1.1514 0.7388
-0.4393 -1.1903 0.7389
-0.3423 -1.2215 0.7391
-0.2431 -1.2448 0.7393
-0.1423 -1.2601 0.7396
-0.0407 -1.2673 0.7398
0.0612 -1.2663 0.7401
0.1627 -1.2572 0.7404
0.2632 -1.2399 0.7408
0.3619 -1.2147 0.7411
0.4583 -1.1816 0.7415
0.5518 -1.1409 0.7418
0.6417 -1.0928 0.7422
0.7274 -1.0377 0.7426
1.7988 -2.1711 1.6531
2.0559 -2.1101 1.7282
2.3392 -2.0430 1.8227
2.7897 -2.0658 2.0382
2.9455 -1.8339 2.0382
3.0823 -1.5903 2.0382
3.1990 -1.3367 2.0382
3.2951 -1.0746 2.0382
3.3698 -0.8057 2.0382
3.4228 -0.5317 2.0382
3.4537 -0.2545 2.0382
3.4623 0.0243 2.0382
3.4486 0.3029 2.0382
3.4126 0.5794 2.0382
3.3547 0.8522 2.0382
3.2751 1.1194 2.0382
3.1745 1.3794 2.0382
3.0533 1.6306 2.0382
2.9125 1.8713 2.0382
2.7529 2.0999 2.0382
2.5754 2.3151 2.0382
2.3813 2.5155 2.0382
2.1717 2.6997 2.0382
0.7153 1.0527 0.7484
0.6285 1.1070 0.7483
0.5375 1.1543 0.7482
0.4430 1.1940 0.7481
0.3456 1.2260 0.7479
0.2459 1.2500 0.7477
0.1446 1.2660 0.7474
0.0423 1.2737 0.7472
-0.0602 1.2731 0.7469
-0.1624 1.2643 0.7466
-0.2635 1.2473 0.7462
-0.3629 1.2222 0.7459
-0.4600 1.1891 0.7455
-0.5541 1.1484 0.7451
-0.6445 1.1002 0.7447
-0.7308 1.0448 0.7444
-2.2256 2.6924 2.0382
-2.4358 2.5062 2.0382
-2.6304 2.3037 2.0382
-2.8082 2.0860 2.0382
-2.9679 1.8547 2.0382
-3.1084 1.6112 2.0382
-3.2289 1.3570 2.0382
-3.3286 1.0939 2.0382
-3.4067 0.8235 2.0382
-3.4627 0.5477 2.0382
-0.6227 1.0214 0.7446
-0.7028 0.9681 0.7442
-0.7782 0.9085 0.7438
-2.3266 2.3113 2.0382
-2.5058 2.1181 2.0382
-2.6689 1.9109 2.0382
-2.8149 1.6913 2.0382
-2.9427 1.4605 2.0382
-3.0515 1.2201 2.0382
-3.1406 0.9716 2.0382
-3.2094 0.7167 2.0382
-3.2574 0.4570 2.0382
-3.2843 0.1943 2.0382
-3.2899 -0.0698 2.0382
-3.2741 -0.3335 2.0382
-3.2371 -0.5951 2.0382
-3.1792 -0.8529 2.0382
-3.1005 -1.1051 2.0382
-3.0018 -1.3502 2.0382
-2.8837 -1.5865 2.0382
-2.7468 -1.8125 2.0382
-2.5921 -2.0267 2.0382
-2.4207 -2.2277 2.0382
-2.2337 -2.4141 2.0382
-0.7367 -0.9370 0.7388
-0.6590 -0.9928 0.7389
-0.5770 -1.0423 0.7389
-0.4914 -1.0850 0.7391
-0.4027 -1.1207 0.7392
-0.3114 -1.1492 0.7394
-0.2181 -1.1703 0.7396
-0.1234 -1.1838 0.7398
-0.0279 -1.1897 0.7401
0.0677 -1.1880 0.7403
0.1629 -1.1785 0.7406
0.2570 -1.1615 0.7410
0.3494 -1.1370 0.7413
0.4397 -1.1052 0.7416
0.5270 -1.0662 0.7420
0.6110 -1.0204 0.7423
0.6911 -0.9679 0.7427
0.7666 -0.9093 0.7431
2.0851 -2.1035 1.8515
2.4730 -2.1225 2.0382
2.6345 -1.9159 2.0382
2.7790 -1.6970 2.0382
2.9053 -1.4673 2.0382
3.0129 -1.2284 2.0382
3.1009 -0.9816 2.0382
3.1689 -0.7286 2.0382
3.2165 -0.4711 2.0382
3.2432 -0.2106 2.0382
3.2491 0.0511 2.0382
3.2339 0.3124 2.0382
3.1980 0.5717 2.0382
3.1414 0.8272 2.0382
3.0646 1.0774 2.0382
2.9679 1.3207 2.0382
2.8522 1.5554 2.0382
2.7180 1.7802 2.0382
2.5663 1.9935 2.0382
2.3980 2.1940 2.0382
2.2141 2.3805 2.0382
0.7400 0.9367 0.7482
0.6624 0.9934 0.7481
0.5804 1.0437 0.7480
0.4947 1.0873 0.7479
0.4057 1.1238 0.7478
0.3140 1.1530 0.7476
0.2203 1.1747 0.7474
0.1251 1.1888 0.7472
0.0291 1.1952 0.7469
-0.0671 1.1939 0.7466
-0.1628 1.1847 0.7463
-0.2576 1.1679 0.7460
-0.3506 1.1436 0.7457
-0.4414 1.1118 0.7454
-0.5293 1.0728 0.7450
-0.6138 1.0268 0.7446
-0.6943 0.9742 0.7443
-0.7703 0.9153 0.7439
-2.3062 2.3314 2.0382
-2.4871 2.1397 2.0382
-2.6520 1.9340 2.0382
-2.7999 1.7157 2.0382
-2.9297 1.4860 2.0382
-3.0406 1.2466 2.0382
-3.1319 0.9989 2.0382
-3.2029 0.7446 2.0382
-3.2532 0.4854 2.0382
-3.2824 0.2229 2.0382
-3.2903 -0.0411 2.0382
-3.2768 -0.3050 2.0382
-3.2422 -0.5669 2.0382
-3.1864 -0.8251 2.0382
-3.1101 -1.0781 2.0382
-3.0135 -1.3240 2.0382
-2.8974 -1.5614 2.0382
-2.7625 -1.7885 2.0382
-2.6098 -2.0041 2.0382
-2.4401 -2.2066 2.0382
-2.2547 -2.3946 2.0382
-0.7448 -0.9305 0.7388
-0.6676 -0.9871 0.7388
-0.5861 -1.0372 0.7389
-0.5009 -1.0807 0.7390
-0.4125 -1.1172 0.7392
-0.3214 -1.1465 0.7394
-0.2283 -1.1683 0.7396
-0.1337 -1.1827 0.7398
-0.0383 -1.1894 0.7400
0.0573 -1.1885 0.7403
0.1526 -1.1799 0.7406
0.2469 -1.1637 0.7409
0.3395 -1.1400 0.7412
0.4300 -1.1090 0.7416
0.5177 -1.0708 0.7419
0.6021 -1.0257 0.7423
0.6826 -0.9739 0.7427
0.7587 -0.9159 0.7431
2.0558 -2.1105 1.8416
2.4545 -2.1441 2.0382
2.6178 -1.9389 2.0382
2.7642 -1.7213 2.0382
2.8925 -1.4927 2.0382
3.0022 -1.2547 2.0382
3.0924 -1.0087 2.0382
3.1626 -0.7563 2.0382
3.2123 -0.4992 2.0382
3.2413 -0.2390 2.0382
3.2494 0.0227 2.0382
3.2366 0.2842 2.0382
3.2029 0.5437 2.0382
3.1485 0.7998 2.0382
3.0738 1.0506 2.0382
2.9794 1.2947 2.0382
2.8656 1.5304 2.0382
2.7334 1.7563 2.0382
2.5836 1.9710 2.0382
2.4170 2.1729 2.0382
2.2348 2.3610 2.0382
0.7481 0.9301 0.7482
0.6710 0.9876 0.7481
0.5895 1.0386 0.7480
0.5041 1.0829 0.7479
0.4155 1.1202 0.7478
0.3241 1.1502 0.7476
0.2305 1.1727 0.7474
0.1355 1.1877 0.7472
0.0396 1.1949 0.7469
-0.0566 1.1944 0.7467
-0.1525 1.1861 0.7464
-0.2474 1.1701 0.7461
-0.3406 1.1466 0.7457
-0.4317 1.1156 0.7454
-0.5200 1.0773 0.7450
-0.6048 1.0321 0.7447
-0.6858 0.9802 0.7443
-0.7623 0.9220 0.7439
-2.2857 2.3513 2.0382
-2.4683 2.1612 2.0382
-2.6350 1.9570 2.0382
-2.7847 1.7399 2.0382
-2.9165 1.5114 2.0382
-3.0295 1.2729 2.0382
-3.1230 1.0261 2.0382
-3.1962 0.7724 2.0382
-3.2487 0.5137 2.0382
-0.5854 0.9599 0.7445
-0.6606 0.9098 0.7442
-0.7316 0.8539 0.7438
-2.1870 2.1722 2.0382
-2.3554 1.9905 2.0382
-2.5087 1.7958 2.0382
-2.6458 1.5894 2.0382
-2.7659 1.3724 2.0382
-2.8681 1.1465 2.0382
-2.9518 0.9130 2.0382
-3.0164 0.6734 2.0382
-3.0614 0.4294 2.0382
-3.0867 0.1825 2.0382
-3.0919 -0.0657 2.0382
-3.0771 -0.3135 2.0382
-3.0423 -0.5593 2.0382
-2.9878 -0.8016 2.0382
-2.9140 -1.0386 2.0382
-2.8212 -1.2689 2.0382
-2.7102 -1.4910 2.0382
-2.5816 -1.7034 2.0382
-2.4363 -1.9047 2.0382
-2.2752 -2.0935 2.0382
-0.7613 -0.8227 0.7390
-0.6927 -0.8809 0.7391
-0.6196 -0.9334 0.7391
-0.5426 -0.9799 0.7392
-0.4621 -1.0201 0.7393
-0.3787 -1.0537 0.7395
-0.2929 -1.0804 0.7396
-0.2052 -1.1003 0.7398
-0.1161 -1.1130 0.7400
-0.0264 -1.1186 0.7403
0.0635 -1.1169 0.7405
0.1530 -1.1080 0.7408
0.2415 -1.0920 0.7411
0.3284 -1.0690 0.7414
0.4132 -1.0391 0.7417
0.4954 -1.0024 0.7421
0.5743 -0.9593 0.7424
0.6495 -0.9100 0.7428
0.7206 -0.8548 0.7431
2.1575 -2.1770 2.0382
2.3246 -1.9955 2.0382
2.4765 -1.8013 2.0382
2.6123 -1.5956 2.0382
2.7312 -1.3797 2.0382
2.8323 -1.1550 2.0382
2.9152 -0.9230 2.0382
2.9791 -0.6852 2.0382
3.0239 -0.4431 2.0382
3.0490 -0.1982 2.0382
3.0546 0.0479 2.0382
3.0404 0.2937 2.0382
3.0066 0.5374 2.0382
2.9534 0.7777 2.0382
2.8811 1.0129 2.0382
2.7903 1.2416 2.0382
2.6814 1.4624 2.0382
2.5553 1.6737 2.0382
2.4126 1.8742 2.0382
2.2543 2.0628 2.0382
0.7638 0.8213 0.7479
0.6954 0.8803 0.7479
0.6224 0.9336 0.7478
0.5454 0.9809 0.7478
0.4648 1.0218 0.7476
0.3811 1.0561 0.7475
0.2950 1.0836 0.7473
0.2069 1.1040 0.7472
0.1175 1.1172 0.7469
0.0273 1.1232 0.7467
-0.0632 1.1220 0.7464
-0.1532 1.1134 0.7462
-0.2422 1.0976 0.7459
-0.3296 1.0747 0.7456
-0.4150 1.0448 0.7452
-0.4976 1.0082 0.7449
-0.5770 0.9650 0.7446
-0.6527 0.9156 0.7442
-0.7241 0.8602 0.7439
-2.1679 2.1911 2.0382
-2.3379 2.0109 2.0382
-2.4928 1.8175 2.0382
-2.6317 1.6123 2.0382
-2.7537 1.3964 2.0382
-2.8579 1.1714 2.0382
-2.9436 0.9386 2.0382
-3.0103 0.6996 2.0382
-3.0575 0.4560 2.0382
-3.0849 0.2093 2.0382
-3.0923 -0.0388 2.0382
-3.0797 -0.2867 2.0382
-3.0471 -0.5328 2.0382
-2.9947 -0.7755 2.0382
-2.9229 -1.0132 2.0382
-2.8322 -1.2443 2.0382
-2.7231 -1.4674 2.0382
-2.5963 -1.6809 2.0382
-2.4528 -1.8834 2.0382
-2.2934 -2.0737 2.0382
-0.7684 -0.8160 0.7390
-0.7003 -0.8748 0.7391
-0.6278 -0.9280 0.7391
-0.5512 -0.9752 0.7392
-0.4710 -1.0160 0.7393
-0.3879 -1.0503 0.7395
-0.3023 -1.0779 0.7396
-0.2147 -1.0985 0.7398
-0.1258 -1.1120 0.7400
-0.0361 -1.1183 0.7403
0.0538 -1.1174 0.7405
0.1433 -1.1094 0.7408
0.2320 -1.0941 0.7411
0.3191 -1.0718 0.7414
0.4041 -1.0427 0.7417
0.4866 -1.0067 0.7420
0.5659 -0.9643 0.7424
0.6416 -0.9157 0.7427
0.7131 -0.8611 0.7431
0.7801 -0.8010 0.7434
2.3072 -2.0158 2.0382
2.4608 -1.8229 2.0382
2.5984 -1.6184 2.0382
2.7191 -1.4035 2.0382
2.8222 -1.1797 2.0382
2.9071 -0.9485 2.0382
2.9731 -0.7112 2.0382
3.0199 -0.4695 2.0382
3.0473 -0.2248 2.0382
3.0549 0.0212 2.0382
3.0429 0.2671 2.0382
3.0112 0.5111 2.0382
2.9601 0.7519 2.0382
2.8899 0.9877 2.0382
2.8010 1.2172 2.0382
2.6941 1.4389 2.0382
2.5698 1.6513 2.0382
2.4288 1.8530 2.0382
2.2722 2.0429 2.0382
0.7709 0.8146 0.7479
0.7030 0.8742 0.7479
0.6305 0.9281 0.7479
0.5539 0.9761 0.7478
0.4737 1.0177 0.7477
0.3903 1.0527 0.7475
0.3044 1.0809 0.7474
0.2165 1.1021 0.7472
0.1272 1.1161 0.7470
0.0371 1.1229 0.7467
-0.0534 1.1224 0.7465
-0.1434 1.1147 0.7462
-0.2326 1.0997 0.7459
-0.3203 1.0775 0.7456
-0.4058 1.0484 0.7453
-0.4888 1.0125 0.7449
-0.5686 0.9700 0.7446
-0.6447 0.9212 0.7442
-0.7166 0.8665 0.7439
-2.1486 2.2098 2.0382
-2.3201 2.0311 2.0382
-2.4768 1.8391 2.0382
-2.6175 1.6351 2.0382
-2.7413 1.4203 2.0382
-2.8475 1.1962 2.0382
-2.9352 0.9642 2.0382
-3.0040 0.7258 2.0382
-3.0533 0.4826 2.0382
-0.5511 0.9035 0.7445
-0.6219 0.8563 0.7441
-0.6887 0.8036 0.7438
-0.7510 0.7458 0.7435
-2.2173 1.8734 2.0382
-2.3615 1.6901 2.0382
-2.4905 1.4958 2.0382
-2.6035 1.2916 2.0382
-2.6997 1.0789 2.0382
-2.7784 0.8591 2.0382
-2.8392 0.6337 2.0382
-2.8816 0.4040 2.0382
-2.9053 0.1716 2.0382
-2.9102 -0.0619 2.0382
-2.8962 -0.2952 2.0382
-2.8635 -0.5265 2.0382
-2.8122 -0.7545 2.0382
-2.7427 -0.9776 2.0382
-2.6554 -1.1943 2.0382
-2.5509 -1.4033 2.0382
-2.4299 -1.6032 2.0382
-2.2932 -1.7926 2.0382
-0.7768 -0.7147 0.7393
-0.7168 -0.7746 0.7393
-0.6523 -0.8294 0.7393
-0.5835 -0.8788 0.7394
-0.5110 -0.9226 0.7395
-0.4352 -0.9604 0.7396
-0.3567 -0.9921 0.7397
-0.2759 -1.0173 0.7399
-0.1933 -1.0360 0.7400
-0.1095 -1.0479 0.7402
-0.0250 -1.0532 0.7405
0.0597 -1.0516 0.7407
0.1439 -1.0433 0.7410
0.2272 -1.0282 0.7412
0.3091 -1.0065 0.7415
0.3889 -0.9783 0.7418
0.4662 -0.9438 0.7422
0.5406 -0.9032 0.7425
0.6114 -0.8568 0.7428
0.6783 -0.8049 0.7431
0.7408 -0.7477 0.7435
2.1882 -1.8789 2.0382
2.3313 -1.6960 2.0382
2.4592 -1.5024 2.0382
2.5711 -1.2991 2.0382
2.6664 -1.0876 2.0382
2.7444 -0.8692 2.0382
2.8047 -0.6453 2.0382
2.8468 -0.4173 2.0382
2.8706 -0.1867 2.0382
2.8758 0.0450 2.0382
2.8625 0.2764 2.0382
2.8306 0.5059 2.0382
2.7805 0.7322 2.0382
2.7125 0.9537 2.0382
2.6270 1.1690 2.0382
2.5245 1.3768 2.0382
2.4057 1.5758 2.0382
2.2713 1.7647 2.0382
0.7785 0.7124 0.7477
0.7188 0.7730 0.7477
0.6544 0.8285 0.7476
0.5857 0.8787 0.7476
0.5132 0.9232 0.7475
0.4373 0.9617 0.7474
0.3586 0.9940 0.7473
0.2775 1.0198 0.7471
0.1946 1.0390 0.7469
0.1104 1.0515 0.7467
0.0255 1.0572 0.7465
-0.0596 1.0559 0.7463
-0.1443 1.0479 0.7460
-0.2281 1.0330 0.7457
-0.3104 1.0115 0.7454
-0.3907 0.9834 0.7451
-0.4685 0.9489 0.7448
-0.5432 0.9082 0.7445
-0.6144 0.8617 0.7442
-0.6817 0.8096 0.7438
-0.7445 0.7523 0.7435
-2.2008 1.8926 2.0382
-2.3466 1.7106 2.0382
-2.4773 1.5174 2.0382
-2.5921 1.3142 2.0382
-2.6901 1.1024 2.0382
-2.7707 0.8833 2.0382
-2.8335 0.6583 2.0382
-2.8779 0.4291 2.0382
-2.9036 0.1969 2.0382
-2.9106 -0.0366 2.0382
-2.8987 -0.2699 2.0382
-2.8680 -0.5016 2.0382
-2.8187 -0.7300 2.0382
-2.7511 -0.9537 2.0382
-2.6657 -1.1712 2.0382
-2.5630 -1.3811 2.0382
-2.4438 -1.5820 2.0382
-2.3087 -1.7726 2.0382
-0.7830 -0.7079 0.7393
-0.7236 -0.7683 0.7393
-0.6595 -0.8237 0.7393
-0.5911 -0.8737 0.7394
-0.5190 -0.9181 0.7395
-0.4436 -0.9566 0.7396
-0.3653 -0.9889 0.7397
-0.2847 -1.0149 0.7398
-0.2023 -1.0342 0.7400
-0.1186 -1.0470 0.7402
-0.0342 -1.0529 0.7404
0.0505 -1.0521 0.7407
0.1348 -1.0445 0.7409
0.2183 -1.0302 0.7412
0.3003 -1.0092 0.7415
0.3804 -0.9817 0.7418
0.4580 -0.9479 0.7421
0.5327 -0.9079 0.7424
0.6039 -0.8621 0.7428
0.6713 -0.8107 0.7431
0.7343 -0.7541 0.7434
2.1718 -1.8980 2.0382
2.3165 -1.7166 2.0382
2.4461 -1.5238 2.0382
2.5598 -1.3216 2.0382
2.6569 -1.1109 2.0382
2.7368 -0.8932 2.0382
2.7990 -0.6698 2.0382
2.8432 -0.4422 2.0382
2.8689 -0.2118 2.0382
2.8761 0.0199 2.0382
2.8648 0.2514 2.0382
2.8350 0.4812 2.0382
2.7869 0.7078 2.0382
2.7208 0.9299 2.0382
2.6371 1.1460 2.0382
2.5364 1.3547 2.0382
2.4193 1.5547 2.0382
2.2866 1.7447 2.0382
0.7847 0.7056 0.7477
0.7255 0.7667 0.7477
0.6616 0.8227 0.7476
0.5933 0.8735 0.7476
0.5212 0.9186 0.7475
0.4457 0.9578 0.7474
0.3673 0.9908 0.7473
0.2864 1.0173 0.7471
0.2037 1.0373 0.7470
0.1196 1.0505 0.7468
0.0348 1.0569 0.7465
-0.0503 1.0564 0.7463
-0.1351 1.0491 0.7460
-0.2190 1.0350 0.7458
-0.3016 1.0141 0.7455
-0.3821 0.9867 0.7452
-0.4602 0.9529 0.7449
-0.5353 0.9129 0.7445
-0.6069 0.8670 0.7442
-0.6746 0.8155 0.7439
-0.7379 0.7587 0.7435
-2.1841 1.9116 2.0382
-2.3315 1.7309 2.0382
-2.4639 1.5388 2.0382
-2.5804 1.3366 2.0382
-2.6803 1.1257 2.0382
-2.7628 0.9073 2.0382
-2.8275 0.6830 2.0382
-2.8739 0.4541 2.0382
-0.5195 0.8514 0.7444
-0.5862 0.8069 0.7441
-0.6491 0.7573 0.7438
-0.7079 0.7028 0.7435
-0.7620 0.6437 0.7431
-2.2257 1.5926 2.0382
-2.3473 1.4094 2.0382
-2.4537 1.2170 2.0382
-2.5443 1.0166 2.0382
-2.6184 0.8094 2.0382
-2.6757 0.5970 2.0382
-2.7156 0.3806 2.0382
-2.7379 0.1616 2.0382
-2.7425 -0.0585 2.0382
-2.7294 -0.2782 2.0382
-2.6985 -0.4962 2.0382
-2.6502 -0.7110 2.0382
-2.5847 -0.9212 2.0382
-2.5024 -1.1255 2.0382
-2.4040 -1.3224 2.0382
-2.2899 -1.5107 2.0382
-0.7842 -0.6130 0.7396
-0.7323 -0.6737 0.7395
-0.6758 -0.7301 0.7395
-0.6149 -0.7818 0.7396
-0.5501 -0.8284 0.7396
-0.4818 -0.8697 0.7397
-0.4104 -0.9054 0.7398
-0.3363 -0.9352 0.7399
-0.2602 -0.9590 0.7401
-0.1823 -0.9766 0.7402
-0.1033 -0.9879 0.7404
-0.0237 -0.9928 0.7406
0.0561 -0.9913 0.7409
0.1355 -0.9835 0.7411
0.2141 -0.9693 0.7414
0.2912 -0.9488 0.7416
0.3665 -0.9222 0.7419
0.4394 -0.8897 0.7422
0.5094 -0.8514 0.7425
0.5762 -0.8077 0.7428
0.6393 -0.7587 0.7432
0.6982 -0.7048 0.7435
0.7526 -0.6464 0.7438
2.1972 -1.5988 2.0382
2.3178 -1.4163 2.0382
2.4234 -1.2247 2.0382
2.5132 -1.0253 2.0382
2.5868 -0.8195 2.0382
2.6436 -0.6084 2.0382
2.6834 -0.3935 2.0382
2.7058 -0.1761 2.0382
2.7107 0.0423 2.0382
2.6981 0.2604 2.0382
2.6682 0.4768 2.0382
2.6209 0.6901 2.0382
2.5568 0.8989 2.0382
2.4762 1.1019 2.0382
2.3795 1.2979 2.0382
2.2675 1.4854 2.0382
0.7851 0.6100 0.7474
0.7336 0.6714 0.7474
0.6773 0.7284 0.7474
0.6166 0.7807 0.7474
0.5518 0.8280 0.7474
0.4835 0.8699 0.7473
0.4120 0.9062 0.7472
0.3378 0.9366 0.7471
0.2614 0.9610 0.7469
0.1833 0.9791 0.7467
0.1040 0.9908 0.7465
0.0239 0.9962 0.7463
-0.0562 0.9950 0.7461
-0.1361 0.9874 0.7459
-0.2150 0.9734 0.7456
-0.2926 0.9531 0.7453
-0.3683 0.9266 0.7450
-0.4416 0.8941 0.7447
-0.5120 0.8559 0.7444
-0.5792 0.8120 0.7441
-0.6425 0.7629 0.7438
-0.7017 0.7089 0.7435
-0.7564 0.6503 0.7432
-2.2117 1.6119 2.0382
-2.3348 1.4298 2.0382
-2.4429 1.2383 2.0382
-2.5352 1.0387 2.0382
-2.6112 0.8322 2.0382
-2.6703 0.6202 2.0382
-2.7121 0.4042 2.0382
-2.7363 0.1854 2.0382
-2.7429 -0.0346 2.0382
-2.7316 -0.2545 2.0382
-2.7027 -0.4727 2.0382
-2.6563 -0.6879 2.0382
-2.5926 -0.8987 2.0382
-2.5121 -1.1037 2.0382
-2.4154 -1.3015 2.0382
-2.3030 -1.4908 2.0382
-2.1758 -1.6704 2.0382
-0.7382 -0.6673 0.7395
-0.6822 -0.7242 0.7395
-0.6217 -0.7764 0.7396
-0.5573 -0.8236 0.7396
-0.4894 -0.8655 0.7397
-0.4183 -0.9018 0.7398
-0.3445 -0.9322 0.7399
-0.2685 -0.9567 0.7401
-0.1908 -0.9750 0.7402
-0.1119 -0.9869 0.7404
-0.0323 -0.9926 0.7406
0.0475 -0.9918 0.7408
0.1270 -0.9846 0.7411
0.2056 -0.9711 0.7413
0.2829 -0.9513 0.7416
0.3584 -0.9254 0.7419
0.4316 -0.8935 0.7422
0.5020 -0.8559 0.7425
0.5691 -0.8127 0.7428
0.6326 -0.7642 0.7431
0.6920 -0.7109 0.7434
0.7469 -0.6529 0.7438
2.1832 -1.6180 2.0382
2.3054 -1.4365 2.0382
2.4127 -1.2459 2.0382
2.5042 -1.0473 2.0382
2.5796 -0.8421 2.0382
2.6383 -0.6315 2.0382
2.6799 -0.4169 2.0382
2.7042 -0.1998 2.0382
2.7110 0.0186 2.0382
2.7003 0.2368 2.0382
2.6722 0.4535 2.0382
2.6269 0.6672 2.0382
2.5646 0.8765 2.0382
2.4857 1.0803 2.0382
2.3908 1.2770 2.0382
2.2804 1.4655 2.0382
2.1553 1.6446 2.0382
0.7394 0.6649 0.7474
0.6836 0.7224 0.7474
0.6233 0.7753 0.7474
0.5590 0.8231 0.7474
0.4911 0.8657 0.7473
0.4199 0.9026 0.7472
0.3460 0.9336 0.7471
0.2698 0.9586 0.7469
0.1918 0.9774 0.7468
0.1126 0.9899 0.7466
0.0326 0.9959 0.7464
-0.0476 0.9955 0.7461
-0.1275 0.9886 0.7459
-0.2065 0.9753 0.7456
-0.2843 0.9556 0.7454
-0.3602 0.9298 0.7451
-0.4338 0.8980 0.7448
-0.5045 0.8603 0.7445
-0.5720 0.8170 0.7442
-0.6358 0.7685 0.7438
-0.6955 0.7150 0.7435
-0.7507 0.6569 0.7432
-2.1975 1.6310 2.0382
-2.3222 1.4500 2.0382
-2.4319 1.2594 2.0382
-2.5260 1.0606 2.0382
-2.6038 0.8549 2.0382
-2.6647 0.6435 2.0382
-2.7084 0.4278 2.0382
-0.4901 0.8030 0.7444
-0.5531 0.7612 0.7441
-0.6125 0.7143 0.7438
-0.6679 0.6629 0.7435
-0.7189 0.6072 0.7432
-0.7653 0.5475 0.7429
-2.2145 1.3294 2.0382
-2.3148 1.1478 2.0382
-2.4002 0.9588 2.0382
-2.4701 0.7634 2.0382
-2.5241 0.5630 2.0382
-2.5617 0.3588 2.0382
-2.5828 0.1523 2.0382
-2.5871 -0.0553 2.0382
-2.5747 -0.2625 2.0382
-2.5456 -0.4682 2.0382
-2.5000 -0.6708 2.0382
-2.4382 -0.8690 2.0382
-2.3606 -1.0617 2.0382
-2.2677 -1.2474 2.0382
-0.7841 -0.5173 0.7398
-0.7400 -0.5784 0.7398
-0.6911 -0.6357 0.7398
-0.6377 -0.6889 0.7398
-0.5803 -0.7377 0.7398
-0.5192 -0.7817 0.7398
-0.4547 -0.8206 0.7399
-0.3873 -0.8543 0.7400
-0.3175 -0.8824 0.7401
-0.2456 -0.9049 0.7403
-0.1721 -0.9215 0.7404
-0.0976 -0.9321 0.7406
-0.0224 -0.9368 0.7408
0.0528 -0.9354 0.7410
0.1278 -0.9280 0.7412
0.2019 -0.9146 0.7415
0.2747 -0.8953 0.7418
0.3457 -0.8702 0.7420
0.4144 -0.8395 0.7423
0.4805 -0.8034 0.7426
0.5435 -0.7621 0.7429
0.6030 -0.7159 0.7432
0.6586 -0.6650 0.7435
0.7100 -0.6099 0.7438
0.7567 -0.5508 0.7441
2.1866 -1.3364 2.0382
2.2863 -1.1557 2.0382
2.3711 -0.9676 2.0382
2.4405 -0.7733 2.0382
2.4942 -0.5742 2.0382
2.5317 -0.3714 2.0382
2.5529 -0.1663 2.0382
2.5575 0.0398 2.0382
2.5457 0.2456 2.0382
2.5174 0.4498 2.0382
2.4729 0.6511 2.0382
2.4123 0.8481 2.0382
2.3363 1.0397 2.0382
2.2451 1.2246 2.0382
0.7842 0.5138 0.7471
0.7405 0.5754 0.7472
0.6919 0.6333 0.7472
0.6388 0.6871 0.7472
0.5815 0.7364 0.7472
0.5204 0.7810 0.7471
0.4560 0.8206 0.7471
0.3885 0.8548 0.7470
0.3185 0.8835 0.7469
0.2465 0.9064 0.7467
0.1728 0.9235 0.7466
0.0979 0.9346 0.7464
0.0225 0.9396 0.7462
-0.0532 0.9386 0.7460
-0.1285 0.9314 0.7457
-0.2030 0.9182 0.7455
-0.2761 0.8990 0.7452
-0.3475 0.8740 0.7450
-0.4167 0.8434 0.7447
-0.4831 0.8073 0.7444
-0.5464 0.7659 0.7441
-0.6062 0.7196 0.7438
-0.6621 0.6687 0.7435
-0.7136 0.6134 0.7432
-0.7605 0.5542 0.7429
-2.2027 1.3486 2.0382
-2.3046 1.1679 2.0382
-2.3917 0.9796 2.0382
-2.4633 0.7848 2.0382
-2.5190 0.5849 2.0382
-2.5584 0.3811 2.0382
-2.5813 0.1748 2.0382
-2.5874 -0.0328 2.0382
-2.5768 -0.2401 2.0382
-2.5495 -0.4460 2.0382
-2.5057 -0.6490 2.0382
-2.4457 -0.8478 2.0382
-2.3698 -1.0411 2.0382
-2.2785 -1.2276 2.0382
-2.1726 -1.4062 2.0382
-0.7450 -0.5719 0.7398
-0.6966 -0.6297 0.7398
-0.6437 -0.6834 0.7398
-0.5867 -0.7326 0.7398
-0.5260 -0.7772 0.7398
-0.4618 -0.8167 0.7399
-0.3948 -0.8509 0.7400
-0.3251 -0.8796 0.7401
-0.2535 -0.9027 0.7402
-0.1802 -0.9200 0.7404
-0.1057 -0.9313 0.7406
-0.0306 -0.9366 0.7408
0.0447 -0.9358 0.7410
0.1197 -0.9291 0.7412
