ply
format ascii 1.0
element vertex 2151
property float32 x
property float32 y
property float32 z
end_header
-15.3161 -2.8442 2.1178
-15.0388 -4.0627 2.1178
-14.6648 -5.2550 2.1178
-14.1964 -6.4135 2.1178
-13.6367 -7.5308 2.1178
-12.9892 -8.5996 2.1178
-12.2581 -9.6131 2.1178
-11.4481 -10.5647 2.1178
-10.5645 -11.4483 2.1178
-9.6129 -12.2582 2.1178
-8.5994 -12.9893 2.1178
-7.5306 -13.6368 2.1178
-6.4134 -14.1965 2.1178
-5.2548 -14.6649 2.1178
-4.0625 -15.0389 2.1178
-2.8440 -15.3161 2.1178
-0.7899 -7.6151 1.0408
-0.1762 -7.6206 1.0363
0.4361 -7.6261 1.0385
1.0549 -7.6316 1.0474
3.3631 -15.2106 2.1178
4.2425 -13.8204 1.9654
5.3366 -13.4359 1.9654
6.4211 -13.0153 1.9731
4.0732 -6.8174 1.0797
8.5593 -12.0200 2.0061
9.5690 -11.3829 2.0217
10.5268 -10.6566 2.0364
11.4240 -9.8448 2.0502
12.2519 -8.9526 2.0629
13.0021 -7.9860 2.0744
13.6670 -6.9521 2.0846
14.2395 -5.8586 2.0933
14.7136 -4.7146 2.1005
15.0839 -3.5294 2.1061
15.3465 -2.3133 2.1099
15.4984 -1.0768 2.1121
15.5379 0.1689 2.1125
15.4717 1.4135 2.1121
15.2689 2.6423 2.1067
14.8880 3.8267 2.0898
14.4325 4.9730 2.0753
13.9428 6.0943 2.0687
13.3585 7.1649 2.0608
12.6854 8.1765 2.0518
11.9301 9.1219 2.0417
11.1000 9.9942 2.0306
10.2028 10.7878 2.0186
9.2466 11.4979 2.0059
8.2399 12.1206 1.9925
7.1912 12.6530 1.9786
6.1093 13.0930 1.9642
5.0432 13.5488 1.9654
4.0466 14.2820 2.0181
3.0316 15.2801 2.1178
1.7971 15.4739 2.1178
0.5510 15.5682 2.1178
-0.6986 15.5623 2.1178
-1.9437 15.4562 2.1178
-3.1763 15.2507 2.1178
-4.3885 14.9470 2.1178
-5.5724 14.5472 2.1178
-6.7205 14.0537 2.1178
-7.8253 13.4698 2.1178
-8.8798 12.7993 2.1178
-9.8771 12.0464 2.1178
-10.8109 11.2159 2.1178
-11.6751 10.3133 2.1178
-12.4642 9.3443 2.1178
-13.1730 8.3152 2.1178
-13.7972 7.2326 2.1178
-14.3325 6.1035 2.1178
-14.7756 4.9350 2.1178
-15.1236 3.7348 2.1178
-15.3743 2.5106 2.1178
-15.5261 1.2702 2.1178
-15.5779 0.0217 2.1178
-15.5295 -1.2270 2.1178
-15.3812 -2.4678 2.1178
-15.1339 -3.6927 2.1178
-14.7893 -4.8938 2.1178
-14.3494 -6.0635 2.1178
-13.8172 -7.1942 2.1178
-13.1961 -8.2785 2.1178
-12.4901 -9.3096 2.1178
-11.7038 -10.2807 2.1178
-10.8421 -11.1858 2.1178
-9.9106 -12.0188 2.1178
-8.9154 -12.7745 2.1178
-7.8628 -13.4480 2.1178
-6.7596 -14.0349 2.1178
-5.6129 -14.5316 2.1178
-4.4301 -14.9347 2.1178
-3.2188 -15.2418 2.1178
-0.9790 -7.6135 1.0436
-0.3633 -7.6190 1.0370
0.2486 -7.6244 1.0371
0.8646 -7.6299 1.0439
2.9891 -15.2885 2.1178
3.9023 -13.9203 1.9654
5.0055 -13.5628 1.9654
6.0839 -13.1340 1.9678
7.1783 -12.7125 1.9848
8.2418 -12.1964 2.0012
-5.1817 11.7651 2.1178
-6.1080 11.3119 2.1178
-6.9951 10.7860 2.1178
-7.8371 10.1906 2.1178
-8.6287 9.5296 2.1178
-9.3647 8.8073 2.1178
-10.0405 8.0284 2.1178
-10.6517 7.1978 2.1178
-11.1944 6.3209 2.1178
-11.6650 5.4033 2.1178
-12.0606 4.4509 2.1178
-12.3785 3.4699 2.1178
-12.6168 2.4665 2.1178
-12.7739 1.4473 2.1178
-12.8488 0.4188 2.1178
-12.8411 -0.6124 2.1178
-12.7507 -1.6397 2.1178
-12.5782 -2.6564 2.1178
-12.3248 -3.6561 2.1178
-11.9921 -4.6322 2.1178
-11.5822 -5.5785 2.1178
-11.0978 -6.4889 2.1178
-10.5420 -7.3575 2.1178
-9.9184 -8.1789 2.1178
-9.2309 -8.9475 2.1178
-8.4840 -9.6586 2.1178
-7.6826 -10.3076 2.1178
-6.8317 -10.8902 2.1178
-5.9368 -11.4027 2.1178
-5.0037 -11.8419 2.1178
-4.0385 -12.2049 2.1178
-3.0472 -12.4893 2.1178
-2.0364 -12.6933 2.1178
-0.6017 -7.6162 1.2586
0.0107 -7.6217 1.2556
0.6241 -7.6271 1.2607
2.0721 -12.6876 2.1178
3.0823 -12.4807 2.1178
3.7959 -11.3646 1.9739
4.6746 -10.9766 1.9654
5.5393 -10.5667 1.9654
4.2592 -6.7472 1.3145
7.2280 -9.6410 1.9850
8.0270 -9.0867 1.9974
8.7802 -8.4629 2.0090
9.4809 -7.7734 2.0197
10.1225 -7.0225 2.0296
10.6991 -6.2155 2.0384
11.2052 -5.3581 2.0461
11.6357 -4.4569 2.0527
11.9863 -3.5190 2.0580
12.2535 -2.5519 2.0620
12.4346 -1.5635 2.0646
12.5278 -0.5622 2.0659
12.5319 0.4438 2.0658
12.4471 1.4458 2.0643
12.2743 2.4354 2.0615
12.0169 3.4050 2.0576
11.6312 4.3296 2.0446
11.1793 5.2165 2.0323
10.6905 6.0761 2.0257
10.1315 6.8878 2.0182
9.5073 7.6460 2.0099
8.8236 8.3453 2.0007
8.0864 8.9814 1.9909
7.3020 9.5503 1.9805
6.4769 10.0489 1.9695
5.6389 10.5138 1.9654
4.7781 10.9320 1.9654
4.0171 11.6589 2.0315
3.2001 12.4510 2.1178
2.1919 12.6674 2.1178
1.1695 12.8024 2.1178
0.1396 12.8549 2.1178
-0.8912 12.8247 2.1178
-1.9163 12.7120 2.1178
-2.9291 12.5175 2.1178
-3.9230 12.2425 2.1178
-4.8916 11.8886 2.1178
-5.8288 11.4583 2.1178
-6.7285 10.9543 2.1178
-7.5848 10.3797 2.1178
-8.3924 9.7384 2.1178
-9.1459 9.0344 2.1178
-9.8407 8.2722 2.1178
-10.4720 7.4568 2.1178
-11.0360 6.5935 2.1178
-11.5290 5.6877 2.1178
-11.9478 4.7453 2.1178
-12.2897 3.7724 2.1178
-12.5525 2.7752 2.1178
-12.7346 1.7601 2.1178
-12.8347 0.7338 2.1178
-12.8522 -0.2973 2.1178
-12.7870 -1.3265 2.1178
-12.6396 -2.3472 2.1178
-12.4108 -3.3527 2.1178
-12.1021 -4.3367 2.1178
-11.7156 -5.2928 2.1178
-11.2536 -6.2148 2.1178
-10.7193 -7.0968 2.1178
-10.1160 -7.9332 2.1178
-9.4476 -8.7185 2.1178
-8.7183 -9.4477 2.1178
-7.9330 -10.1161 2.1178
-7.0967 -10.7194 2.1178
-6.2146 -11.2537 2.1178
-5.2926 -11.7156 2.1178
-4.3366 -12.1022 2.1178
-3.3526 -12.4108 2.1178
-2.3470 -12.6396 2.1178
-0.7898 -7.6145 1.2611
-0.1762 -7.6200 1.2556
0.4360 -7.6255 1.2583
1.0548 -7.6310 1.2691
2.7754 -12.5525 2.1178
3.7564 -12.2371 2.1088
4.4040 -11.0880 1.9654
5.2786 -10.6993 1.9654
4.0631 -6.8005 1.3050
6.9757 -9.7961 1.9812
7.7874 -9.2636 1.9937
8.5553 -8.6607 2.0055
9.2727 -7.9908 2.0165
9.9330 -7.2582 2.0267
10.5301 -6.4677 2.0358
11.0583 -5.6251 2.0439
11.5124 -4.7366 2.0508
11.8878 -3.8092 2.0565
12.1809 -2.8501 2.0609
12.3886 -1.8674 2.0639
12.5087 -0.8691 2.0656
12.5401 0.1363 2.0660
12.4825 1.1404 2.0649
12.3364 2.1348 2.0625
12.1087 3.1124 2.0596
11.7614 4.0526 2.0494
11.3139 4.9452 2.0341
10.8476 5.8181 2.0278
10.3095 6.6451 2.0206
9.7046 7.4202 2.0125
9.0385 8.1381 2.0036
8.3170 8.7939 1.9940
7.5463 9.3837 1.9837
6.7330 9.9041 1.9729
5.8951 10.3724 1.9654
5.0447 10.8115 1.9654
4.1619 11.1811 1.9654
3.5045 12.3688 2.1178
2.5018 12.6099 2.1178
1.4831 12.7698 2.1178
0.4547 12.8476 2.1178
-0.5765 12.8427 2.1178
-1.6040 12.7552 2.1178
-2.6212 12.5856 2.1178
-3.6216 12.3350 2.1178
-4.5986 12.0050 2.1178
-5.5461 11.5978 2.1178
-6.4578 11.1160 2.1178
-7.3280 10.5626 2.1178
-8.1511 9.9412 2.1178
-8.9217 9.2559 2.1178
-9.6348 8.5110 2.1178
-10.2860 7.7114 2.1178
-10.8710 6.8621 2.1178
-11.3861 5.9687 2.1178
-11.8279 5.0369 2.1178
-12.1935 4.0726 2.1178
-12.4807 3.0822 2.1178
-12.6876 2.0719 2.1178
-12.8128 1.0483 2.1178
-12.8556 0.0179 2.1178
-12.8157 -1.0126 2.1178
-12.6933 -2.0365 2.1178
-12.4893 -3.0474 2.1178
-12.2048 -4.0386 2.1178
-11.8418 -5.0039 2.1178
-11.4026 -5.9370 2.1178
-10.8901 -6.8318 2.1178
-10.3075 -7.6827 2.1178
-9.6585 -8.4841 2.1178
-8.9474 -9.2310 2.1178
-8.1787 -9.9185 2.1178
-7.3574 -10.5421 2.1178
-6.4887 -11.0979 2.1178
-5.5783 -11.5823 2.1178
-4.6320 -11.9922 2.1178
-3.6559 -12.3249 2.1178
-2.6563 -12.5782 2.1178
-0.9789 -7.6128 1.2645
-0.3632 -7.6183 1.2565
0.2486 -7.6238 1.2566
0.8645 -7.6293 1.2649
2.4667 -12.6168 2.1178
3.4700 -12.3785 2.1178
4.1307 -11.1926 1.9654
5.0146 -10.8255 1.9654
5.8661 -10.3888 1.9654
6.7200 -9.9444 1.9772
-4.4048 10.0011 2.1178
-5.1922 9.6159 2.1178
-5.9462 9.1688 2.1178
-6.6620 8.6627 2.1178
-7.3349 8.1008 2.1178
-7.9606 7.4868 2.1178
-8.5351 6.8247 2.1178
-9.0547 6.1186 2.1178
-9.5160 5.3731 2.1178
-9.9160 4.5931 2.1178
-10.2523 3.7835 2.1178
-10.5225 2.9496 2.1178
-10.7251 2.0967 2.1178
-10.8587 1.2303 2.1178
-10.9223 0.3560 2.1178
-10.9157 -0.5206 2.1178
-10.8389 -1.3939 2.1178
-10.6923 -2.2582 2.1178
-10.4769 -3.1079 2.1178
-10.1941 -3.9377 2.1178
-9.8457 -4.7421 2.1178
-9.4339 -5.5160 2.1178
-8.9614 -6.2544 2.1178
-8.4313 -6.9525 2.1178
-7.8469 -7.6060 2.1178
-7.2120 -8.2105 2.1178
-6.5307 -8.7621 2.1178
-5.8074 -9.2574 2.1178
-5.0467 -9.6931 2.1178
-4.2535 -10.0664 2.1178
-3.4330 -10.3749 2.1178
-2.5903 -10.6167 2.1178
-1.7310 -10.7902 2.1178
-0.6016 -7.6156 1.4805
0.0107 -7.6210 1.4769
0.6241 -7.6265 1.4829
1.7614 -10.7852 2.1178
2.6202 -10.6094 2.1178
3.4621 -10.3653 2.1178
3.9764 -9.3371 1.9668
4.7088 -8.9823 1.9654
4.2153 -6.6778 1.5304
6.0888 -8.1214 1.9671
6.7552 -7.6470 1.9774
7.3823 -7.1155 1.9870
7.9646 -6.5302 1.9960
8.4970 -5.8948 2.0042
8.9748 -5.2137 2.0115
9.3935 -4.4918 2.0178
9.7494 -3.7344 2.0233
10.0390 -2.9473 2.0276
10.2595 -2.1366 2.0309
10.4090 -1.3088 2.0331
10.4859 -0.4705 2.0342
10.4894 0.3714 2.0341
10.4197 1.2103 2.0329
10.2773 2.0392 2.0305
10.0637 2.8516 2.0271
9.7809 3.6409 2.0226
9.4282 4.3994 2.0163
8.9873 5.1080 2.0034
8.5223 5.7938 1.9971
8.0025 6.4358 1.9902
7.4324 7.0295 1.9825
6.8167 7.5711 1.9743
6.1600 8.0566 1.9654
5.4944 8.5245 1.9654
4.7935 8.9374 1.9654
4.0617 9.2929 1.9654
3.5599 10.3320 2.1178
2.7203 10.5842 2.1178
1.8632 10.7681 2.1178
0.9941 10.8828 2.1178
0.1186 10.9275 2.1178
-0.7576 10.9018 2.1178
-1.6290 10.8061 2.1178
-2.4899 10.6407 2.1178
-3.3348 10.4069 2.1178
-4.1582 10.1061 2.1178
-4.9548 9.7403 2.1178
-5.7196 9.3118 2.1178
-6.4476 8.8234 2.1178
-7.1341 8.2782 2.1178
-7.7746 7.6798 2.1178
-8.3652 7.0319 2.1178
-8.9019 6.3388 2.1178
-9.3813 5.6049 2.1178
-9.8004 4.8349 2.1178
-10.1564 4.0338 2.1178
-10.4470 3.2068 2.1178
-10.6705 2.3591 2.1178
-10.8252 1.4962 2.1178
-10.9103 0.6237 2.1178
-10.9252 -0.2528 2.1178
-10.8698 -1.1277 2.1178
-10.7444 -1.9953 2.1178
-10.5499 -2.8501 2.1178
-10.2876 -3.6865 2.1178
-9.9590 -4.4992 2.1178
-9.5663 -5.2830 2.1178
-9.1121 -6.0327 2.1178
-8.5992 -6.7437 2.1178
-8.0310 -7.4113 2.1178
-7.4112 -8.0311 2.1178
-6.7436 -8.5993 2.1178
-6.0326 -9.1122 2.1178
-5.2828 -9.5664 2.1178
-4.4991 -9.9590 2.1178
-3.6863 -10.2876 2.1178
-2.8499 -10.5500 2.1178
-1.9951 -10.7445 2.1178
-0.7898 -7.6139 1.4835
-0.1762 -7.6194 1.4770
0.4360 -7.6248 1.4801
1.0547 -7.6303 1.4928
2.3592 -10.6704 2.1178
3.2069 -10.4470 2.1178
3.8045 -9.5784 1.9973
4.4871 -9.0951 1.9654
3.9976 -6.6909 1.5105
5.8781 -8.2546 1.9639
6.5555 -7.7982 1.9743
7.1951 -7.2838 1.9842
7.7917 -6.7146 1.9933
8.3399 -6.0940 2.0017
8.8348 -5.4264 2.0093
9.2720 -4.7165 2.0160
9.6475 -3.9693 2.0217
9.9577 -3.1907 2.0264
10.1996 -2.3865 2.0300
10.3710 -1.5633 2.0326
10.4701 -0.7275 2.0340
10.4961 0.1141 2.0342
10.4488 0.9546 2.0334
10.3284 1.7873 2.0314
10.1364 2.6054 2.0282
9.8745 3.4024 2.0241
9.5465 4.1727 2.0191
9.1261 4.8948 2.0069
8.6704 5.5887 1.9991
8.1670 6.2445 1.9924
7.6117 6.8534 1.9849
7.0094 7.4113 1.9769
6.3651 7.9148 1.9683
5.7018 8.3872 1.9654
5.0112 8.8172 1.9654
4.2883 9.1905 1.9654
3.8122 10.2416 2.1178
2.9791 10.5142 2.1178
2.1267 10.7192 2.1178
1.2607 10.8552 2.1178
0.3866 10.9213 2.1178
-0.4901 10.9172 2.1178
-1.3635 10.8427 2.1178
-2.2282 10.6986 2.1178
-3.0786 10.4856 2.1178
-3.9091 10.2050 2.1178
-4.7145 9.8589 2.1178
-5.4896 9.4493 2.1178
-6.2293 8.9789 2.1178
-6.9289 8.4507 2.1178
-7.5840 7.8681 2.1178
-8.1902 7.2349 2.1178
-8.7438 6.5552 2.1178
-9.2411 5.8333 2.1178
-9.6789 5.0738 2.1178
-10.0544 4.2816 2.1178
-10.3653 3.4620 2.1178
-10.6094 2.6200 2.1178
-10.7853 1.7612 2.1178
-10.8917 0.8911 2.1178
-10.9281 0.0152 2.1178
-10.8942 -0.8607 2.1178
-10.7901 -1.7312 2.1178
-10.6167 -2.5905 2.1178
-10.3749 -3.4331 2.1178
-10.0663 -4.2536 2.1178
-9.6930 -5.0468 2.1178
-9.2573 -5.8075 2.1178
-8.7620 -6.5308 2.1178
-8.2104 -7.2121 2.1178
-7.6059 -7.8470 2.1178
-6.9524 -8.4314 2.1178
-6.2543 -8.9615 2.1178
-5.5158 -9.4340 2.1178
-4.7420 -9.8457 2.1178
-3.9375 -10.1941 2.1178
-3.1078 -10.4769 2.1178
-2.2580 -10.6923 2.1178
-0.9788 -7.6122 1.4874
-0.3632 -7.6177 1.4780
0.2486 -7.6232 1.4781
0.8644 -7.6286 1.4879
2.0969 -10.7251 2.1178
2.9498 -10.5225 2.1178
3.7762 -10.2319 2.1136
4.2627 -9.2024 1.9654
3.9550 -7.0042 1.5588
5.6784 -8.4030 1.9654
-3.8250 8.6847 2.1178
-4.5088 8.3502 2.1178
-5.1636 7.9619 2.1178
-5.7851 7.5224 2.1178
-6.3694 7.0345 2.1178
-6.9128 6.5014 2.1178
-7.4117 5.9264 2.1178
-7.8628 5.3132 2.1178
-8.2634 4.6659 2.1178
-8.6108 3.9885 2.1178
-8.9028 3.2855 2.1178
-9.1375 2.5614 2.1178
-9.3134 1.8207 2.1178
-9.4294 1.0684 2.1178
-9.4847 0.3091 2.1178
-9.4789 -0.4521 2.1178
-9.4122 -1.2104 2.1178
-9.2849 -1.9609 2.1178
-9.0978 -2.6988 2.1178
-8.8522 -3.4194 2.1178
-8.5497 -4.1179 2.1178
-8.1921 -4.7899 2.1178
-7.7818 -5.4311 2.1178
-7.3215 -6.0374 2.1178
-6.8140 -6.6048 2.1178
-6.2627 -7.1297 2.1178
-5.6711 -7.6088 2.1178
-5.0430 -8.0388 2.1178
-4.3824 -8.4172 2.1178
-3.6936 -8.7414 2.1178
-2.9811 -9.0093 2.1178
-2.2494 -9.2192 2.1178
-1.5032 -9.3699 2.1178
-0.6016 -7.6149 1.7047
0.0107 -7.6204 1.7007
0.6240 -7.6258 1.7076
1.5295 -9.3656 2.1178
2.2753 -9.2129 2.1178
3.0064 -9.0009 2.1178
3.7182 -8.7309 2.1178
4.0890 -7.8000 1.9654
4.1963 -6.6477 1.7544
5.2828 -7.0464 1.9654
5.8306 -6.6003 1.9654
6.3588 -6.1290 1.9710
6.8561 -5.6213 1.9786
7.3102 -5.0715 1.9856
7.7173 -4.4832 1.9918
8.0738 -3.8607 1.9973
8.3765 -3.2085 2.0018
8.6227 -2.5315 2.0056
8.8102 -1.8348 2.0084
8.9371 -1.1238 2.0102
9.0025 -0.4040 2.0111
9.0056 0.3189 2.0111
8.9465 1.0392 2.0100
8.8256 1.7512 2.0080
8.6443 2.4493 2.0051
8.4040 3.1283 2.0013
8.1071 3.7829 1.9965
7.7561 4.4083 1.9910
7.3532 4.9990 1.9843
6.8987 5.5480 1.9757
6.4105 6.0631 1.9692
5.8927 6.5449 1.9654
5.3492 6.9962 1.9654
4.7712 7.4024 1.9654
4.1625 7.7610 1.9654
3.8005 8.6954 2.1178
3.0913 8.9721 2.1178
2.3623 9.1910 2.1178
1.6180 9.3507 2.1178
0.8633 9.4503 2.1178
0.1030 9.4891 2.1178
-0.6579 9.4669 2.1178
-1.4146 9.3837 2.1178
-2.1622 9.2401 2.1178
-2.8958 9.0371 2.1178
-3.6109 8.7759 2.1178
-4.3027 8.4582 2.1178
-4.9668 8.0861 2.1178
-5.5989 7.6620 2.1178
-6.1950 7.1886 2.1178
-6.7513 6.6689 2.1178
-7.2641 6.1063 2.1178
-7.7302 5.5044 2.1178
-8.1465 4.8671 2.1178
-8.5104 4.1985 2.1178
-8.8195 3.5029 2.1178
-9.0719 2.7847 2.1178
-9.2659 2.0486 2.1178
-9.4003 1.2993 2.1178
-9.4742 0.5416 2.1178
-9.4872 -0.2195 2.1178
-9.4390 -0.9792 2.1178
-9.3302 -1.7326 2.1178
-9.1613 -2.4749 2.1178
-8.9334 -3.2012 2.1178
-8.6481 -3.9070 2.1178
-8.3071 -4.5876 2.1178
-7.9127 -5.2387 2.1178
-7.4673 -5.8560 2.1178
-6.9739 -6.4357 2.1178
-6.4356 -6.9740 2.1178
-5.8559 -7.4674 2.1178
-5.2386 -7.9127 2.1178
-4.5875 -8.3072 2.1178
-3.9069 -8.6482 2.1178
-3.2011 -8.9335 2.1178
-2.4748 -9.1613 2.1178
-1.7325 -9.3302 2.1178
-0.7897 -7.6132 1.7082
-0.1762 -7.6187 1.7007
0.4360 -7.6242 1.7043
1.0547 -7.6297 1.7189
2.0487 -9.2659 2.1178
2.7848 -9.0719 2.1178
3.5030 -8.8195 2.1178
3.8965 -7.8979 1.9654
3.9781 -6.6583 1.7310
5.1084 -7.1738 1.9654
5.6670 -6.7413 1.9654
6.1988 -6.2752 1.9685
6.7085 -5.7811 1.9764
7.1762 -5.2438 1.9835
7.5981 -4.6669 1.9900
7.9704 -4.0544 1.9957
8.2899 -3.4107 2.0005
8.5536 -2.7408 2.0045
8.7592 -2.0495 2.0076
8.9048 -1.3422 2.0098
8.9891 -0.6246 2.0109
9.0113 0.0980 2.0112
8.9711 0.8196 2.0104
8.8691 1.5348 2.0087
8.7060 2.2377 2.0061
8.4836 2.9232 2.0025
8.2037 3.5858 1.9981
7.8690 4.2206 1.9928
7.4832 4.8234 1.9869
7.0393 5.3823 1.9776
6.5641 5.9102 1.9712
6.0481 6.3949 1.9643
5.5191 6.8629 1.9654
4.9513 7.2832 1.9654
4.3516 7.6566 1.9654
3.9726 8.5138 2.0967
3.3104 8.8936 2.1178
2.5869 9.1303 2.1178
1.8468 9.3083 2.1178
1.0948 9.4263 2.1178
0.3357 9.4838 2.1178
-0.4255 9.4802 2.1178
-1.1840 9.4155 2.1178
-1.9349 9.2903 2.1178
-2.6733 9.1054 2.1178
-3.3946 8.8618 2.1178
-4.0939 8.5612 2.1178
-4.7670 8.2055 2.1178
-5.4093 7.7970 2.1178
-6.0169 7.3384 2.1178
-6.5857 6.8324 2.1178
-7.1122 6.2826 2.1178
-7.5929 5.6923 2.1178
-8.0247 5.0654 2.1178
-8.4049 4.4059 2.1178
-8.7310 3.7181 2.1178
-9.0009 3.0063 2.1178
-9.2129 2.2752 2.1178
-9.3656 1.5294 2.1178
-9.4581 0.7738 2.1178
-9.4897 0.0132 2.1178
-9.4602 -0.7475 2.1178
-9.3699 -1.5033 2.1178
-9.2192 -2.2495 2.1178
-9.0093 -2.9812 2.1178
-8.7413 -3.6937 2.1178
-8.4171 -4.3825 2.1178
-8.0388 -5.0431 2.1178
-7.6087 -5.6712 2.1178
-7.1296 -6.2628 2.1178
-6.6047 -6.8141 2.1178
-6.0373 -7.3215 2.1178
-5.4310 -7.7819 2.1178
-4.7898 -8.1922 2.1178
-4.1178 -8.5497 2.1178
-3.4192 -8.8523 2.1178
-2.6987 -9.0979 2.1178
-1.9608 -9.2849 2.1178
-0.9787 -7.6115 1.7127
-0.3632 -7.6170 1.7018
0.2485 -7.6225 1.7020
0.8644 -7.6280 1.7132
1.8209 -9.3134 2.1178
2.5615 -9.1374 2.1178
3.2856 -8.9027 2.1178
3.8133 -8.2321 2.0247
3.9273 -6.9551 1.7826
4.9310 -7.2970 1.9654
-3.3751 7.6632 2.1178
-3.9785 7.3681 2.1178
-4.5562 7.0255 2.1178
-5.1047 6.6377 2.1178
-5.6203 6.2071 2.1178
-6.0997 5.7367 2.1178
-6.5399 5.2293 2.1178
-6.9380 4.6883 2.1178
-7.2915 4.1171 2.1178
-7.5980 3.5194 2.1178
-7.8557 2.8991 2.1178
-8.0628 2.2601 2.1178
-8.2180 1.6066 2.1178
-8.3203 0.9427 2.1178
-8.3691 0.2728 2.1178
-8.3640 -0.3989 2.1178
-8.3052 -1.0680 2.1178
-8.1928 -1.7303 2.1178
-8.0278 -2.3814 2.1178
-7.8111 -3.0172 2.1178
-7.5441 -3.6336 2.1178
-7.2286 -4.2265 2.1178
-6.8666 -4.7923 2.1178
-6.4604 -5.3273 2.1178
-6.0126 -5.8280 2.1178
-5.5261 -6.2911 2.1178
-5.0041 -6.7138 2.1178
-4.4498 -7.0933 2.1178
-3.8670 -7.4272 2.1178
-3.2592 -7.7132 2.1178
-2.6305 -7.9497 2.1178
-1.9848 -8.1349 2.1178
-1.3264 -8.2678 2.1178
-0.6594 -8.3475 2.1178
0.0118 -8.3735 2.1178
0.6829 -8.3457 2.1178
1.3496 -8.2641 2.1178
2.0077 -8.1293 2.1178
2.6528 -7.9422 2.1178
3.2809 -7.7040 2.1178
3.8134 -7.2743 2.0773
4.1481 -6.5713 1.9654
4.6615 -6.2176 1.9654
5.1448 -5.8240 1.9654
5.5951 -5.3929 1.9654
6.0091 -4.9269 1.9654
6.4044 -4.4431 1.9714
6.7584 -3.9262 1.9768
7.0682 -3.3799 1.9816
7.3311 -2.8081 1.9856
7.5449 -2.2151 1.9888
7.7075 -1.6052 1.9912
7.8177 -0.9830 1.9928
7.8744 -0.3534 1.9936
7.8772 0.2789 1.9935
7.8260 0.9090 1.9926
7.7212 1.5320 1.9909
7.5639 2.1432 1.9884
7.3555 2.7380 1.9850
7.0977 3.3119 1.9809
6.7928 3.8608 1.9761
6.4435 4.3805 1.9706
6.0556 4.8701 1.9654
5.6458 5.3398 1.9654
5.1996 5.7751 1.9654
4.7200 6.1733 1.9654
4.2100 6.5318 1.9654
3.9570 7.3779 2.1175
3.3535 7.6727 2.1178
2.7277 7.9168 2.1178
2.0844 8.1100 2.1178
1.4277 8.2509 2.1178
0.7617 8.3388 2.1178
0.0909 8.3731 2.1178
-0.5805 8.3534 2.1178
-1.2482 8.2800 2.1178
-1.9079 8.1533 2.1178
-2.5552 7.9742 2.1178
-3.1862 7.7437 2.1178
-3.7966 7.4634 2.1178
-4.3826 7.1351 2.1178
-4.9404 6.7608 2.1178
-5.4664 6.3431 2.1178
-5.9572 5.8845 2.1178
-6.4097 5.3881 2.1178
-6.8210 4.8570 2.1178
-7.1883 4.2947 2.1178
-7.5094 3.7047 2.1178
-7.7822 3.0909 2.1178
-8.0049 2.4571 2.1178
-8.1761 1.8076 2.1178
-8.2947 1.1465 2.1178
-8.3599 0.4779 2.1178
-8.3713 -0.1937 2.1178
-8.3289 -0.8640 2.1178
-8.2328 -1.5289 2.1178
-8.0838 -2.1838 2.1178
-7.8827 -2.8247 2.1178
-7.6309 -3.4475 2.1178
-7.3301 -4.0480 2.1178
-6.9820 -4.6225 2.1178
-6.5891 -5.1673 2.1178
-6.1537 -5.6788 2.1178
-5.6787 -6.1537 2.1178
-5.1672 -6.5891 2.1178
-4.6224 -6.9821 2.1178
-4.0479 -7.3301 2.1178
-3.4474 -7.6310 2.1178
-2.8246 -7.8828 2.1178
-2.1837 -8.0838 2.1178
-1.5287 -8.2328 2.1178
-0.8639 -8.3289 2.1178
-0.1936 -8.3713 2.1178
0.4780 -8.3599 2.1178
1.1466 -8.2947 2.1178
1.8077 -8.1761 2.1178
2.4573 -8.0049 2.1178
3.0910 -7.7822 2.1178
3.7048 -7.5094 2.1178
3.9493 -6.6100 1.9474
4.5076 -6.3301 1.9654
5.0005 -5.9484 1.9654
5.4612 -5.5285 1.9654
5.8867 -5.0730 1.9654
6.2878 -4.5946 1.9696
6.6548 -4.0875 1.9753
6.9784 -3.5498 1.9802
7.2559 -2.9853 1.9844
7.4849 -2.3983 1.9879
7.6633 -1.7931 1.9905
7.7897 -1.1742 1.9924
7.8628 -0.5463 1.9934
7.8821 0.0857 1.9936
7.8473 0.7170 1.9930
7.7589 1.3427 1.9915
7.6175 1.9580 1.9892
7.4245 2.5582 1.9861
7.1816 3.1390 1.9823
6.8908 3.6959 1.9777
6.5548 4.2250 1.9724
6.1763 4.7225 1.9664
5.7751 5.1997 1.9654
5.3397 5.6459 1.9654
4.8700 6.0557 1.9654
4.3689 6.4266 1.9654
3.9689 6.9832 2.0315
3.5407 7.5882 2.1178
2.9211 7.8475 2.1178
2.2827 8.0564 2.1178
1.6296 8.2135 2.1178
0.9660 8.3177 2.1178
0.2962 8.3683 2.1178
-0.3755 8.3651 2.1178
-1.0448 8.3081 2.1178
-1.7073 8.1977 2.1178
-2.3589 8.0344 2.1178
-2.9953 7.8195 2.1178
-3.6124 7.5543 2.1178
-4.2063 7.2404 2.1178
-4.7731 6.8800 2.1178
-5.3092 6.4753 2.1178
-5.8111 6.0289 2.1178
-6.2757 5.5437 2.1178
-6.6998 5.0228 2.1178
-7.0809 4.4697 2.1178
-7.4163 3.8877 2.1178
-7.7041 3.2808 2.1178
-7.9423 2.6527 2.1178
-8.1293 2.0076 2.1178
-8.2641 1.3495 2.1178
-8.3457 0.6828 2.1178
-8.3735 0.0117 2.1178
-8.3475 -0.6595 2.1178
-8.2678 -1.3265 2.1178
-8.1349 -1.9849 2.1178
-7.9496 -2.6306 2.1178
-7.7132 -3.2593 2.1178
-7.4271 -3.8671 2.1178
-7.0933 -4.4499 2.1178
-6.7138 -5.0041 2.1178
-6.2911 -5.5262 2.1178
-5.8279 -6.0127 2.1178
-5.3272 -6.4604 2.1178
-4.7923 -6.8666 2.1178
-4.2265 -7.2287 2.1178
-3.6335 -7.5441 2.1178
-3.0171 -7.8112 2.1178
-2.3813 -8.0278 2.1178
-1.7302 -8.1929 2.1178
-1.0679 -8.3052 2.1178
-0.3988 -8.3641 2.1178
0.2729 -8.3691 2.1178
0.9428 -8.3203 2.1178
1.6067 -8.2180 2.1178
2.2602 -8.0627 2.1178
2.8992 -7.8556 2.1178
3.5195 -7.5979 2.1178
3.8410 -6.8023 1.9758
4.3510 -6.4387 1.9654
-3.0154 6.8464 2.1178
-3.5544 6.5827 2.1178
-4.0706 6.2766 2.1178
-4.5606 5.9302 2.1178
-5.0212 5.5455 2.1178
-5.4496 5.1252 2.1178
-5.8429 4.6719 2.1178
-6.1985 4.1886 2.1178
-6.5143 3.6783 2.1178
-6.7882 3.1443 2.1178
-7.0184 2.5901 2.1178
-7.2034 2.0192 2.1178
-7.3421 1.4353 2.1178
-7.4335 0.8423 2.1178
-7.4771 0.2437 2.1178
-7.4725 -0.3564 2.1178
-7.4199 -0.9542 2.1178
-7.3196 -1.5459 2.1178
-7.1721 -2.1276 2.1178
-6.9785 -2.6956 2.1178
-6.7400 -3.2463 2.1178
-6.4581 -3.7761 2.1178
-6.1347 -4.2816 2.1178
-5.7718 -4.7595 2.1178
-5.3717 -5.2068 2.1178
-4.9371 -5.6206 2.1178
-4.4707 -5.9982 2.1178
-3.9755 -6.3373 2.1178
-3.4548 -6.6355 2.1178
-2.9118 -6.8911 2.1178
-2.3501 -7.1023 2.1178
-1.7733 -7.2678 2.1178
-1.1850 -7.3866 2.1178
-0.5891 -7.4578 2.1178
0.0105 -7.4810 2.1178
0.6101 -7.4561 2.1178
1.2058 -7.3832 2.1178
1.7937 -7.2628 2.1178
2.3701 -7.0957 2.1178
2.9312 -6.8829 2.1178
3.4734 -6.6257 2.1178
3.8339 -6.0735 2.0333
4.1646 -5.5549 1.9654
4.5965 -5.2032 1.9654
4.9987 -4.8181 1.9654
5.3688 -4.4019 1.9654
5.7044 -3.9574 1.9654
6.0020 -3.4867 1.9650
6.2754 -3.0008 1.9692
6.5074 -2.4926 1.9727
6.6958 -1.9658 1.9756
6.8393 -1.4243 1.9777
6.9364 -0.8722 1.9791
6.9864 -0.3135 1.9798
6.9889 0.2475 1.9797
6.9438 0.8065 1.9790
6.8516 1.3595 1.9774
6.7129 1.9021 1.9752
6.5291 2.4304 1.9723
6.3018 2.9405 1.9686
6.0359 3.4306 1.9654
5.7415 3.9033 1.9654
5.4102 4.3510 1.9654
5.0440 4.7706 1.9654
4.6454 5.1596 1.9654
4.2169 5.5153 1.9654
3.9537 6.1341 2.0660
3.5359 6.5927 2.1178
2.9961 6.8549 2.1178
2.4370 7.0730 2.1178
1.8622 7.2456 2.1178
1.2755 7.3715 2.1178
0.6805 7.4500 2.1178
0.0812 7.4806 2.1178
-0.5186 7.4630 2.1178
-1.1152 7.3975 2.1178
-1.7045 7.2843 2.1178
-2.2829 7.1242 2.1178
-2.8466 6.9183 2.1178
-3.3919 6.6679 2.1178
-3.9155 6.3746 2.1178
-4.4138 6.0402 2.1178
-4.8838 5.6670 2.1178
-5.3223 5.2573 2.1178
-5.7265 4.8138 2.1178
-6.0940 4.3393 2.1178
-6.4222 3.8369 2.1178
-6.7090 3.3098 2.1178
-6.9527 2.7614 2.1178
-7.1517 2.1953 2.1178
-7.3047 1.6150 2.1178
-7.4106 1.0243 2.1178
-7.4688 0.4270 2.1178
-7.4790 -0.1730 2.1178
-7.4411 -0.7720 2.1178
-7.3553 -1.3659 2.1178
-7.2221 -1.9510 2.1178
-7.0425 -2.5236 2.1178
-6.8176 -3.0800 2.1178
-6.5488 -3.6165 2.1178
-6.2378 -4.1298 2.1178
-5.8867 -4.6165 2.1178
-5.4978 -5.0735 2.1178
-5.0734 -5.4978 2.1178
-4.6164 -5.8868 2.1178
-4.1297 -6.2379 2.1178
-3.6165 -6.5488 2.1178
-3.0799 -6.8176 2.1178
-2.5236 -7.0426 2.1178
-1.9510 -7.2222 2.1178
-1.3658 -7.3553 2.1178
-0.7718 -7.4411 2.1178
-0.1729 -7.4790 2.1178
0.4271 -7.4689 2.1178
1.0244 -7.4106 2.1178
1.6151 -7.3046 2.1178
2.1953 -7.1517 2.1178
2.7615 -6.9527 2.1178
3.3099 -6.7090 2.1178
3.8171 -6.3887 2.1068
4.0271 -5.6554 1.9654
4.4675 -5.3144 1.9654
4.8791 -4.9392 1.9654
5.2593 -4.5322 1.9654
5.6056 -4.0961 1.9654
5.9159 -3.6336 1.9654
6.1961 -3.1518 1.9680
6.4410 -2.6500 1.9717
6.6430 -2.1286 1.9748
6.8003 -1.5912 1.9771
6.9117 -1.0418 1.9788
6.9762 -0.4847 1.9797
6.9932 0.0760 1.9798
6.9626 0.6361 1.9793
6.8847 1.1914 1.9780
6.7602 1.7376 1.9760
6.5900 2.2707 1.9732
6.3758 2.7868 1.9698
6.1192 3.2821 1.9658
5.8355 3.7614 1.9654
5.5153 4.2170 1.9654
5.1595 4.6455 1.9654
4.7706 5.0441 1.9654
4.3509 5.4103 1.9654
3.9636 5.8303 1.9958
3.6965 6.5040 2.1178
3.1633 6.7794 2.1178
2.6097 7.0111 2.1178
2.0394 7.1977 2.1178
1.4559 7.3380 2.1178
0.8630 7.4311 2.1178
0.2646 7.4764 2.1178
-0.3355 7.4735 2.1178
-0.9334 7.4226 2.1178
-1.5254 7.3239 2.1178
-2.1075 7.1781 2.1178
-2.6761 6.9860 2.1178
-3.2274 6.7491 2.1178
-3.7580 6.4687 2.1178
-4.2644 6.1466 2.1178
-4.7433 5.7851 2.1178
-5.1917 5.3863 2.1178
-5.6068 4.9528 2.1178
-5.9857 4.4875 2.1178
-6.3261 3.9933 2.1178
-6.6259 3.4733 2.1178
-6.8829 2.9311 2.1178
-7.0957 2.3700 2.1178
-7.2629 1.7936 2.1178
-7.3832 1.2057 2.1178
-7.4561 0.6100 2.1178
-7.4810 0.0104 2.1178
-7.4578 -0.5892 2.1178
-7.3866 -1.1851 2.1178
-7.2678 -1.7734 2.1178
-7.1023 -2.3502 2.1178
-6.8911 -2.9119 2.1178
-6.6355 -3.4549 2.1178
-6.3372 -3.9756 2.1178
-5.9982 -4.4708 2.1178
-5.6205 -4.9371 2.1178
-5.2067 -5.3718 2.1178
-4.7594 -5.7718 2.1178
-4.2815 -6.1347 2.1178
-3.7760 -6.4582 2.1178
-3.2462 -6.7400 2.1178
-2.6955 -6.9785 2.1178
-2.1275 -7.1722 2.1178
-1.5458 -7.3196 2.1178
-0.9541 -7.4200 2.1178
-0.3563 -7.4726 2.1178
0.2438 -7.4771 2.1178
0.8423 -7.4334 2.1178
1.4354 -7.3420 2.1178
2.0193 -7.2034 2.1178
2.5902 -7.0183 2.1178
3.1444 -6.7881 2.1178
3.6784 -6.5142 2.1178
3.8872 -5.7525 1.9654
-2.7207 6.1774 2.1178
-3.2071 5.9395 2.1178
-3.6728 5.6633 2.1178
-4.1150 5.3507 2.1178
-4.5306 5.0037 2.1178
-4.9171 4.6244 2.1178
-5.2719 4.2154 2.1178
-5.5928 3.7793 2.1178
-5.8778 3.3188 2.1178
-6.1249 2.8371 2.1178
-6.3326 2.3370 2.1178
-6.4995 1.8219 2.1178
-6.6246 1.2951 2.1178
-6.7071 0.7599 2.1178
-6.7464 0.2199 2.1178
-6.7424 -0.3216 2.1178
-6.6949 -0.8609 2.1178
-6.6043 -1.3948 2.1178
-6.4713 -1.9197 2.1178
-6.2966 -2.4322 2.1178
-6.0814 -2.9290 2.1178
-5.8271 -3.4071 2.1178
-5.5352 -3.8632 2.1178
-5.2078 -4.2944 2.1178
-4.8468 -4.6980 2.1178
-4.4546 -5.0714 2.1178
-4.0338 -5.4121 2.1178
-3.5871 -5.7180 2.1178
-3.1172 -5.9871 2.1178
-2.6273 -6.2177 2.1178
-2.1205 -6.4083 2.1178
-1.6000 -6.5576 2.1178
-1.0692 -6.6648 2.1178
-0.5316 -6.7291 2.1178
0.0095 -6.7500 2.1178
0.5505 -6.7275 2.1178
1.0880 -6.6618 2.1178
1.6184 -6.5531 2.1178
2.1385 -6.4023 2.1178
2.6448 -6.2103 2.1178
3.1340 -5.9783 2.1178
3.6031 -5.7079 2.1178
3.8475 -5.1319 2.0124
4.1473 -4.6948 1.9654
4.5103 -4.3473 1.9654
4.8442 -3.9718 1.9654
5.1470 -3.5707 1.9654
5.4166 -3.1467 1.9654
5.6514 -2.7024 1.9654
5.8498 -2.2407 1.9654
6.0088 -1.7641 1.9649
6.1369 -1.2780 1.9668
6.2236 -0.7825 1.9680
6.2682 -0.2813 1.9686
6.2704 0.2220 1.9686
6.2302 0.7237 1.9679
6.1479 1.2199 1.9665
6.0243 1.7070 1.9645
5.8707 2.1853 1.9654
5.6767 2.6489 1.9654
5.4461 3.0954 1.9654
5.1805 3.5219 1.9654
4.8815 3.9258 1.9654
4.5511 4.3045 1.9654
4.1915 4.6554 1.9654
3.9486 5.1644 2.0397
3.6569 5.6736 2.1178
3.1904 5.9485 2.1178
2.7033 6.1850 2.1178
2.1989 6.3818 2.1178
1.6803 6.5375 2.1178
1.1509 6.6512 2.1178
0.6140 6.7220 2.1178
0.0733 6.7496 2.1178
-0.4680 6.7338 2.1178
-1.0062 6.6746 2.1178
-1.5379 6.5725 2.1178
-2.0598 6.4281 2.1178
-2.5684 6.2423 2.1178
-3.0605 6.0163 2.1178
-3.5329 5.7517 2.1178
-3.9825 5.4500 2.1178
-4.4065 5.1132 2.1178
-4.8022 4.7436 2.1178
-5.1670 4.3434 2.1178
-5.4985 3.9153 2.1178
-5.7946 3.4620 2.1178
-6.0534 2.9864 2.1178
-6.2733 2.4916 2.1178
-6.4529 1.9807 2.1178
-6.5909 1.4572 2.1178
-6.6865 0.9242 2.1178
-6.7390 0.3853 2.1178
-6.7482 -0.1561 2.1178
-6.7140 -0.6965 2.1178
-6.6366 -1.2324 2.1178
-6.5164 -1.7604 2.1178
-6.3544 -2.2770 2.1178
-6.1514 -2.7789 2.1178
-5.9089 -3.2633 2.1178
-5.6283 -3.7263 2.1178
-5.3115 -4.1654 2.1178
-4.9606 -4.5777 2.1178
-4.5777 -4.9606 2.1178
-4.1653 -5.3116 2.1178
-3.7262 -5.6283 2.1178
-3.2631 -5.9089 2.1178
-2.7790 -6.1514 2.1178
-2.2770 -6.3544 2.1178
-1.7603 -6.5164 2.1178
-1.2323 -6.6366 2.1178
-0.6964 -6.7140 2.1178
-0.1560 -6.7482 2.1178
0.3854 -6.7390 2.1178
0.9243 -6.6864 2.1178
1.4572 -6.5908 2.1178
1.9808 -6.4528 2.1178
2.4917 -6.2733 2.1178
2.9865 -6.0534 2.1178
3.4621 -5.7945 2.1178
3.8336 -5.3835 2.0736
4.0309 -4.7951 1.9654
4.4023 -4.4566 1.9654
4.7454 -4.0894 1.9654
5.0579 -3.6958 1.9654
5.3378 -3.2785 1.9654
5.5834 -2.8402 1.9654
5.7931 -2.3835 1.9654
5.9616 -1.9102 1.9641
6.1021 -1.4278 1.9662
6.2015 -0.9348 1.9677
6.2591 -0.4349 1.9685
6.2743 0.0682 1.9687
6.2470 0.5708 1.9682
6.1775 1.0690 1.9670
6.0664 1.5593 1.9652
5.9226 2.0407 1.9654
5.7399 2.5089 1.9654
5.5204 2.9609 1.9654
5.2653 3.3938 1.9654
4.9763 3.8049 1.9654
4.6553 4.1916 1.9654
4.3044 4.5512 1.9654
3.9569 4.9204 1.9811
3.7949 5.5822 2.1178
3.3353 5.8685 2.1178
2.8542 6.1169 2.1178
2.3547 6.3260 2.1178
1.8401 6.4944 2.1178
1.3136 6.6210 2.1178
0.7787 6.7050 2.1178
0.2388 6.7458 2.1178
-0.3027 6.7432 2.1178
-0.8422 6.6973 2.1178
-1.3763 6.6082 2.1178
-1.9015 6.4766 2.1178
-2.4146 6.3034 2.1178
-2.9120 6.0896 2.1178
-3.3908 5.8366 2.1178
-3.8477 5.5460 2.1178
-4.2798 5.2198 2.1178
-4.6844 4.8599 2.1178
-5.0589 4.4688 2.1178
-5.4008 4.0490 2.1178
-5.7080 3.6030 2.1178
-5.9784 3.1334 2.1178
-6.2104 2.6447 2.1178
-6.4023 2.1384 2.1178
-6.5531 1.6183 2.1178
-6.6618 1.0879 2.1178
-6.7275 0.5504 2.1178
-6.7500 0.0094 2.1178
-6.7290 -0.5317 2.1178
-6.6648 -1.0693 2.1178
-6.5576 -1.6001 2.1178
-6.4083 -2.1205 2.1178
-6.2177 -2.6274 2.1178
-5.9871 -3.1173 2.1178
-5.7180 -3.5871 2.1178
-5.4121 -4.0339 2.1178
-5.0713 -4.4547 2.1178
-4.6979 -4.8469 2.1178
-4.2943 -5.2078 2.1178
-3.8631 -5.5353 2.1178
-3.4070 -5.8271 2.1178
-2.9290 -6.0814 2.1178
-2.4321 -6.2966 2.1178
-1.9196 -6.4713 2.1178
-1.3947 -6.6043 2.1178
-0.8609 -6.6949 2.1178
-0.3215 -6.7423 2.1178
0.2200 -6.7464 2.1178
0.7600 -6.7071 2.1178
1.2952 -6.6246 2.1178
1.8220 -6.4995 2.1178
2.3371 -6.3325 2.1178
2.8371 -6.1248 2.1178
3.3189 -5.8777 2.1178
3.7794 -5.5928 2.1178
-2.4746 5.6186 2.1178
-2.9170 5.4022 2.1178
-3.3406 5.1510 2.1178
-3.7427 4.8667 2.1178
-4.1207 4.5510 2.1178
-4.4723 4.2061 2.1178
-4.7950 3.8341 2.1178
-5.0869 3.4374 2.1178
-5.3460 3.0186 2.1178
-5.5708 2.5804 2.1178
-5.7597 2.1256 2.1178
-5.9115 1.6571 2.1178
-6.0252 1.1826 2.1178
-6.1004 0.6912 2.1178
-6.1361 0.2000 2.1178
-6.1324 -0.2925 2.1178
-6.0893 -0.7831 2.1178
-6.0069 -1.2686 2.1178
-5.8859 -1.7460 2.1178
-5.7270 -2.2122 2.1178
-5.5313 -2.6641 2.1178
-5.2999 -3.0989 2.1178
-5.0345 -3.5137 2.1178
-4.7367 -3.9059 2.1178
-4.4083 -4.2730 2.1178
-4.0517 -4.6126 2.1178
-3.6689 -4.9225 2.1178
-3.2626 -5.2008 2.1178
-2.8352 -5.4455 2.1178
-2.3896 -5.6553 2.1178
-1.9286 -5.8286 2.1178
-1.4552 -5.9644 2.1178
-0.9725 -6.0619 2.1178
-0.4835 -6.1203 2.1178
0.0086 -6.1394 2.1178
0.5007 -6.1189 2.1178
0.9895 -6.0591 2.1178
1.4720 -5.9603 2.1178
0.6794 -2.0340 0.7397
2.4055 -5.6485 2.1178
2.8505 -5.4375 2.1178
3.2772 -5.1916 2.1178
3.6827 -4.9122 2.1178
3.8560 -4.3650 2.0091
4.1023 -3.9540 1.9654
4.4060 -3.6125 1.9654
4.6814 -3.2477 1.9654
4.9266 -2.8620 1.9654
5.1402 -2.4579 1.9654
5.3206 -2.0380 1.9654
5.4669 -1.6050 1.9654
5.5779 -1.1616 1.9654
5.6531 -0.7108 1.9654
5.6919 -0.2554 1.9654
5.6940 0.2016 1.9654
5.6596 0.6574 1.9654
5.5887 1.1089 1.9654
5.4818 1.5533 1.9654
5.3397 1.9876 1.9654
5.1632 2.4093 1.9654
4.9534 2.8154 1.9654
4.7118 3.2033 1.9654
4.4399 3.5707 1.9654
4.1394 3.9151 1.9654
3.9419 4.3782 2.0322
3.7290 4.8772 2.1178
3.3261 5.1604 2.1178
2.9018 5.4104 2.1178
2.4588 5.6255 2.1178
2.0000 5.8045 2.1178
1.5283 5.9461 2.1178
1.0468 6.0495 2.1178
0.5585 6.1140 2.1178
0.0666 6.1391 2.1178
-0.4256 6.1246 2.1178
-0.9152 6.0708 2.1178
-1.3988 5.9779 2.1178
-1.8735 5.8466 2.1178
-2.3361 5.6776 2.1178
-2.7836 5.4721 2.1178
-3.2133 5.2314 2.1178
-3.6222 4.9570 2.1178
-4.0079 4.6507 2.1178
-4.3678 4.3145 2.1178
-4.6995 3.9505 2.1178
-5.0011 3.5611 2.1178
-5.2704 3.1488 2.1178
-5.5058 2.7162 2.1178
-5.7058 2.2662 2.1178
-5.8691 1.8014 2.1178
-5.9946 1.3252 2.1178
-6.0816 0.8406 2.1178
-6.1294 0.3504 2.1178
-6.1378 -0.1420 2.1178
-6.1066 -0.6334 2.1178
-6.0362 -1.1209 2.1178
-5.9269 -1.6012 2.1178
-5.7795 -2.0711 2.1178
-5.5949 -2.5276 2.1178
-5.3743 -2.9680 2.1178
-5.1191 -3.3892 2.1178
-4.8310 -3.7886 2.1178
-4.5118 -4.1636 2.1178
-4.1636 -4.5119 2.1178
-3.7885 -4.8311 2.1178
-3.3891 -5.1192 2.1178
-2.9679 -5.3744 2.1178
-2.5276 -5.5950 2.1178
-0.7234 -2.0188 0.7398
-1.6011 -5.9269 2.1178
-1.1209 -6.0362 2.1178
-0.6334 -6.1066 2.1178
-0.1419 -6.1377 2.1178
0.3505 -6.1294 2.1178
0.8407 -6.0816 2.1178
1.3254 -5.9946 2.1178
1.8016 -5.8691 2.1178
2.2663 -5.7058 2.1178
2.7163 -5.5058 2.1178
3.1489 -5.2704 2.1178
3.5612 -5.0010 2.1178
3.8443 -4.5731 2.0609
4.0041 -4.0534 1.9654
4.3161 -3.7194 1.9654
4.6003 -3.3615 1.9654
4.8549 -2.9820 1.9654
5.0783 -2.5832 1.9654
5.2691 -2.1679 1.9654
5.4259 -1.7386 1.9654
5.5478 -1.2981 1.9654
5.6340 -0.8492 1.9654
5.6839 -0.3949 1.9654
5.6973 0.0619 1.9654
5.6740 0.5184 1.9654
5.6142 0.9715 1.9654
5.5182 1.4184 1.9654
5.3868 1.8561 1.9654
5.2207 2.2819 1.9654
5.0210 2.6930 1.9654
4.7890 3.0868 1.9654
4.5262 3.4607 1.9654
4.2342 3.8124 1.9654
3.9490 4.1755 1.9825
3.8475 4.7843 2.1178
3.4516 5.0773 2.1178
3.0336 5.3376 2.1178
2.5960 5.5636 2.1178
2.1417 5.7537 2.1178
1.6736 5.9069 2.1178
1.1948 6.0220 2.1178
0.7083 6.0984 2.1178
0.2172 6.1356 2.1178
-0.2753 6.1332 2.1178
-0.7660 6.0914 2.1178
-1.2518 6.0104 2.1178
-1.7295 5.8908 2.1178
-2.1961 5.7332 2.1178
-2.6486 5.5387 2.1178
-3.0840 5.3086 2.1178
-3.4996 5.0443 2.1178
-3.8927 4.7476 2.1178
-4.2607 4.4203 2.1178
-4.6013 4.0646 2.1178
-4.9122 3.6827 2.1178
-5.1916 3.2771 2.1178
-5.4376 2.8504 2.1178
-5.6486 2.4054 2.1178
-5.8232 1.9449 2.1178
-5.9603 1.4719 2.1178
-6.0591 0.9893 2.1178
-6.1190 0.5006 2.1178
-6.1394 0.0086 2.1178
-6.1203 -0.4836 2.1178
-6.0619 -0.9726 2.1178
-5.9644 -1.4553 2.1178
-5.8286 -1.9287 2.1178
-5.6552 -2.3897 2.1178
-5.4455 -2.8353 2.1178
-5.2007 -3.2626 2.1178
-4.9225 -3.6690 2.1178
-4.6126 -4.0517 2.1178
-4.2730 -4.4084 2.1178
-3.9059 -4.7367 2.1178
-3.5136 -5.0345 2.1178
-3.0988 -5.3000 2.1178
-2.6640 -5.5313 2.1178
-0.7727 -2.0005 0.7398
-1.7459 -5.8859 2.1178
-1.2685 -6.0069 2.1178
-0.7830 -6.0893 2.1178
-0.2924 -6.1324 2.1178
0.2001 -6.1361 2.1178
0.6913 -6.1004 2.1178
1.1780 -6.0253 2.1178
1.6572 -5.9115 2.1178
0.7425 -2.0119 0.7398
2.5805 -5.5708 2.1178
3.0187 -5.3460 2.1178
3.4375 -5.0869 2.1178
-2.2656 5.1441 2.1178
-2.6706 4.9460 2.1178
-3.0585 4.7160 2.1178
-3.4266 4.4557 2.1178
-3.7728 4.1667 2.1178
-4.0946 3.8509 2.1178
-4.3901 3.5103 2.1178
-4.6573 3.1471 2.1178
-4.8946 2.7637 2.1178
-5.1004 2.3625 2.1178
-5.2733 1.9461 2.1178
-5.4123 1.5172 2.1178
-5.5165 1.0785 2.1178
-5.5852 0.6328 2.1178
-5.6180 0.1831 2.1178
-5.6146 -0.2678 2.1178
-5.5750 -0.7169 2.1178
-5.4996 -1.1615 2.1178
-5.3888 -1.5986 2.1178
-5.2434 -2.0253 2.1178
-5.0642 -2.4391 2.1178
-4.8524 -2.8372 2.1178
-4.6093 -3.2170 2.1178
-4.3367 -3.5761 2.1178
-4.0361 -3.9122 2.1178
-3.7095 -4.2231 2.1178
-3.3591 -4.5068 2.1178
-2.9870 -4.7616 2.1178
-2.5958 -4.9857 2.1178
-0.7646 -1.8095 0.7401
-0.6170 -1.8647 0.7400
-0.4655 -1.9080 0.7400
-0.3111 -1.9390 0.7399
-0.1546 -1.9576 0.7399
0.0028 -1.9637 0.7399
0.1601 -1.9572 0.7399
0.3165 -1.9381 0.7399
0.4709 -1.9067 0.7400
0.6223 -1.8630 0.7401
0.7697 -1.8074 0.7402
2.6098 -4.9784 2.1178
3.0004 -4.7531 2.1178
3.3718 -4.4974 2.1178
3.7214 -4.2126 2.1178
3.8606 -3.7211 2.0203
4.0379 -3.3107 1.9674
4.2860 -2.9734 1.9654
4.5106 -2.6203 1.9654
4.7061 -2.2504 1.9654
4.8713 -1.8659 1.9654
5.0052 -1.4694 1.9654
5.1069 -1.0635 1.9654
5.1757 -0.6508 1.9654
5.2112 -0.2339 1.9654
5.2132 0.1846 1.9654
5.1816 0.6018 1.9654
5.1167 1.0153 1.9654
5.0189 1.4221 1.9654
4.8887 1.8198 1.9654
4.7271 2.2058 1.9654
4.5351 2.5776 1.9654
4.3139 2.9328 1.9654
4.0650 3.2692 1.9654
3.9337 3.7204 2.0400
3.7610 4.1773 2.1178
3.4141 4.4653 2.1178
3.0452 4.7246 2.1178
2.6567 4.9535 2.1178
0.7938 1.8163 0.7468
0.6458 1.8743 0.7469
0.4935 1.9203 0.7470
0.3381 1.9538 0.7471
0.5113 5.5976 2.1178
0.0610 5.6206 2.1178
-0.3897 5.6074 2.1178
-0.2956 1.9607 0.7471
-0.4517 1.9305 0.7470
-0.6050 1.8879 0.7470
-0.7542 1.8331 0.7468
-2.5486 5.0100 2.1178
-2.9419 4.7896 2.1178
-3.3163 4.5384 2.1178
-3.6694 4.2580 2.1178
-3.9989 3.9501 2.1178
-4.3027 3.6169 2.1178
-4.5787 3.2604 2.1178
-4.8253 2.8829 2.1178
-5.0409 2.4869 2.1178
-5.2240 2.0748 2.1178
-5.3735 1.6494 2.1178
-5.4884 1.2134 2.1178
-5.5680 0.7696 2.1178
-5.6118 0.3208 2.1178
-5.6194 -0.1300 2.1178
-5.5909 -0.5800 2.1178
-5.5265 -1.0263 2.1178
-5.4264 -1.4659 2.1178
-5.2915 -1.8962 2.1178
-5.1225 -2.3142 2.1178
-4.9205 -2.7173 2.1178
-4.6868 -3.1030 2.1178
-4.4231 -3.4687 2.1178
-4.1308 -3.8120 2.1178
-3.8120 -4.1309 2.1178
-3.4686 -4.4231 2.1178
-3.1029 -4.6869 2.1178
-2.7173 -4.9205 2.1178
-2.3141 -5.1225 2.1178
-0.6626 -1.8491 0.7401
-0.5122 -1.8960 0.7400
-0.3585 -1.9308 0.7399
-0.2026 -1.9532 0.7399
-0.0454 -1.9631 0.7399
0.1121 -1.9605 0.7399
0.2689 -1.9453 0.7399
0.4240 -1.9176 0.7400
0.5764 -1.8776 0.7400
0.7251 -1.8256 0.7401
2.4869 -5.0409 2.1178
2.8830 -4.8253 2.1178
3.2605 -4.5787 2.1178
3.6170 -4.3026 2.1178
3.8506 -3.8980 2.0644
3.9516 -3.4053 1.9654
4.2118 -3.0776 1.9654
4.4450 -2.7302 1.9654
4.6495 -2.3651 1.9654
4.8241 -1.9848 1.9654
4.9677 -1.5918 1.9654
5.0793 -1.1885 1.9654
5.1582 -0.7775 1.9654
5.2039 -0.3616 1.9654
5.2162 0.0567 1.9654
5.1948 0.4746 1.9654
5.1401 0.8895 1.9654
5.0522 1.2986 1.9654
4.9319 1.6994 1.9654
4.7798 2.0892 1.9654
4.5970 2.4656 1.9654
4.3846 2.8261 1.9654
4.1439 3.1685 1.9654
3.9398 3.5473 1.9974
3.8623 4.0838 2.1178
3.5226 4.3803 2.1178
3.1601 4.6485 2.1178
2.7774 4.8868 2.1178
2.3768 5.0937 2.1178
0.6915 1.8578 0.7469
0.5405 1.9075 0.7470
0.3859 1.9449 0.7471
0.2288 1.9697 0.7471
0.1988 5.6174 2.1178
-0.2521 5.6153 2.1178
-0.2474 1.9674 0.7471
-0.4043 1.9411 0.7470
-0.5585 1.9023 0.7470
-0.7091 1.8511 0.7469
-2.4249 5.0710 2.1178
-2.8236 4.8603 2.1178
-3.2041 4.6183 2.1178
-3.5639 4.3467 2.1178
-3.9009 4.0470 2.1178
-4.2127 3.7213 2.1178
-4.4974 3.3717 2.1178
-4.7532 3.0004 2.1178
-4.9784 2.6097 2.1178
-5.1715 2.2023 2.1178
-5.3314 1.7807 2.1178
-5.4570 1.3476 2.1178
-5.5475 0.9059 2.1178
-5.6022 0.4583 2.1178
-5.6209 0.0078 2.1178
-5.6035 -0.4427 2.1178
-5.5500 -0.8905 2.1178
-5.4607 -1.3324 2.1178
-5.3364 -1.7658 2.1178
-5.1777 -2.1879 2.1178
-4.9856 -2.5959 2.1178
-4.7615 -2.9871 2.1178
-4.5068 -3.3591 2.1178
-4.2230 -3.7096 2.1178
-3.9121 -4.0361 2.1178
-3.5760 -4.3367 2.1178
-3.2169 -4.6094 2.1178
-2.8371 -4.8524 2.1178
-2.4390 -5.0642 2.1178
-0.7078 -1.8324 0.7401
-0.5585 -1.8830 0.7400
-0.4058 -1.9215 0.7399
-0.2504 -1.9477 0.7399
-0.0935 -1.9615 0.7399
0.0640 -1.9626 0.7399
0.2211 -1.9513 0.7399
0.3768 -1.9274 0.7399
0.5301 -1.8911 0.7400
0.6801 -1.8428 0.7401
2.3626 -5.1003 2.1178
2.7638 -4.8945 2.1178
3.1472 -4.6573 2.1178
-0.7352 1.6693 0.7465
-2.4586 4.5532 2.1178
-2.8156 4.3415 2.1178
-3.1545 4.1019 2.1178
-3.4732 3.8358 2.1178
-3.7694 3.5451 2.1178
-4.0415 3.2316 2.1178
-4.2875 2.8972 2.1178
-4.5059 2.5442 2.1178
-4.6953 2.1749 2.1178
-4.8546 1.7916 2.1178
-4.9825 1.3967 2.1178
-5.0785 0.9928 2.1178
-5.1417 0.5826 2.1178
-5.1718 0.1686 2.1178
-5.1687 -0.2465 2.1178
-5.1323 -0.6600 2.1178
-5.0629 -1.0693 2.1178
-4.9609 -1.4716 2.1178
-4.8270 -1.8645 2.1178
-4.6620 -2.2454 2.1178
-4.4670 -2.6119 2.1178
-4.2433 -2.9615 2.1178
-3.9923 -3.2921 2.1178
-3.7156 -3.6016 2.1178
-3.4150 -3.8877 2.1178
-3.0924 -4.1489 2.1178
-2.7498 -4.3835 2.1178
-2.3897 -4.5898 2.1178
-0.7041 -1.6664 0.7404
-0.5682 -1.7173 0.7403
-0.4287 -1.7571 0.7402
-0.2865 -1.7857 0.7402
-0.1424 -1.8028 0.7402
0.0025 -1.8084 0.7401
0.1475 -1.8024 0.7402
0.2915 -1.7849 0.7402
0.4337 -1.7559 0.7402
0.5731 -1.7157 0.7403
0.7088 -1.6645 0.7404
2.4026 -4.5830 2.1178
2.7622 -4.3757 2.1178
3.1040 -4.1402 2.1178
3.4259 -3.8781 2.1178
3.7257 -3.5910 2.1178
3.8619 -3.1664 2.0439
3.9457 -2.7373 1.9654
4.1524 -2.4123 1.9654
4.3324 -2.0717 1.9654
4.4845 -1.7177 1.9654
4.6078 -1.3528 1.9654
4.7014 -0.9791 1.9654
4.7647 -0.5991 1.9654
4.7974 -0.2153 1.9654
4.7992 0.1699 1.9654
4.7702 0.5541 1.9654
4.7104 0.9346 1.9654
4.6203 1.3092 1.9654
4.5005 1.6753 1.9654
4.3518 2.0306 1.9654
4.1750 2.3729 1.9654
3.9714 2.6999 1.9654
3.9240 3.1557 2.0609
3.7595 3.5557 2.1178
3.4624 3.8456 2.1178
3.1430 4.1107 2.1178
2.8034 4.3494 2.1178
2.4458 4.5601 2.1178
0.7305 1.6714 0.7466
0.5943 1.7248 0.7467
0.4542 1.7671 0.7467
0.3111 1.7980 0.7468
0.1660 1.8172 0.7468
0.0198 1.8247 0.7468
-0.1265 1.8204 0.7468
-0.2720 1.8043 0.7468
-0.4157 1.7766 0.7467
-0.5567 1.7374 0.7467
-0.6941 1.6869 0.7466
-2.3462 4.6122 2.1178
-2.7083 4.4093 2.1178
-3.0530 4.1780 2.1178
-3.3781 3.9198 2.1178
-3.6814 3.6365 2.1178
-3.9610 3.3297 2.1178
-4.2151 3.0015 2.1178
-4.4422 2.6540 2.1178
-4.6406 2.2894 2.1178
-4.8092 1.9101 2.1178
-4.9468 1.5184 2.1178
-5.0526 1.1171 2.1178
-5.1259 0.7085 2.1178
-5.1662 0.2953 2.1178
-5.1732 -0.1197 2.1178
-5.1470 -0.5339 2.1178
-5.0876 -0.9448 2.1178
-4.9955 -1.3495 2.1178
-4.8713 -1.7456 2.1178
-4.7157 -2.1304 2.1178
-4.5298 -2.5016 2.1178
-4.3147 -2.8566 2.1178
-4.0718 -3.1932 2.1178
-3.8028 -3.5093 2.1178
-3.5093 -3.8028 2.1178
-3.1932 -4.0719 2.1178
-2.8565 -4.3147 2.1178
-2.5015 -4.5298 2.1178
-0.7448 -1.6487 0.7404
-0.6102 -1.7029 0.7403
-0.4717 -1.7461 0.7403
-0.3302 -1.7782 0.7402
-0.1866 -1.7988 0.7402
-0.0418 -1.8080 0.7401
0.1032 -1.8055 0.7402
0.2476 -1.7915 0.7402
0.3905 -1.7660 0.7402
0.5308 -1.7292 0.7403
0.6678 -1.6813 0.7404
2.2894 -4.6406 2.1178
2.6540 -4.4421 2.1178
3.0015 -4.2151 2.1178
3.3297 -3.9610 2.1178
3.6365 -3.6813 2.1178
3.8533 -3.3206 2.0819
3.8872 -2.8405 1.9704
4.0920 -2.5134 1.9654
4.2803 -2.1773 1.9654
4.4410 -1.8272 1.9654
4.5732 -1.4654 1.9654
4.6759 -1.0941 1.9654
4.7486 -0.7158 1.9654
4.7907 -0.3328 1.9654
4.8019 0.0522 1.9654
4.7823 0.4369 1.9654
4.7319 0.8188 1.9654
4.6510 1.1955 1.9654
4.5403 1.5644 1.9654
4.4003 1.9233 1.9654
4.2319 2.2698 1.9654
4.0364 2.6017 1.9654
3.9292 3.0043 2.0243
3.8455 3.4624 2.1178
3.5556 3.7595 2.1178
3.2428 4.0324 2.1178
2.9092 4.2794 2.1178
2.5568 4.4988 2.1178
0.7713 1.6529 0.7465
0.6364 1.7097 0.7466
0.4974 1.7554 0.7467
0.3551 1.7898 0.7468
0.2105 1.8125 0.7468
0.0645 1.8236 0.7468
-0.0818 1.8229 0.7468
-0.2277 1.8105 0.7468
-0.3720 1.7863 0.7468
-0.5140 1.7505 0.7467
-0.6525 1.7035 0.7466
-2.2324 4.6683 2.1178
-2.5994 4.4743 2.1178
-2.9496 4.2516 2.1178
-3.2809 4.0015 2.1178
-3.5911 3.7256 2.1178
-3.8782 3.4258 2.1178
-4.1403 3.1039 2.1178
-4.3758 2.7621 2.1178
-4.5831 2.4025 2.1178
-4.7609 2.0274 2.1178
-4.9081 1.6393 2.1178
-5.0237 1.2406 2.1178
-5.1069 0.8340 2.1178
-5.1574 0.4219 2.1178
-5.1746 0.0072 2.1178
-5.1585 -0.4076 2.1178
-5.1093 -0.8197 2.1178
-5.0271 -1.2266 2.1178
-4.9126 -1.6256 2.1178
-4.7665 -2.0141 2.1178
-4.5897 -2.3897 2.1178
-4.3834 -2.7499 2.1178
-4.1489 -3.0924 2.1178
-3.8877 -3.4150 2.1178
-3.6015 -3.7156 2.1178
-3.2921 -3.9923 2.1178
-2.9615 -4.2434 2.1178
-2.6118 -4.4671 2.1178
-0.7851 -1.6300 0.7405
-0.6518 -1.6875 0.7404
-0.5144 -1.7341 0.7403
-0.3737 -1.7696 0.7402
-0.2306 -1.7937 0.7402
-0.0861 -1.8064 0.7402
0.0589 -1.8075 0.7402
0.2036 -1.7970 0.7402
0.3470 -1.7750 0.7402
0.4882 -1.7416 0.7403
0.6263 -1.6971 0.7404
0.7604 -1.6416 0.7405
2.5443 -4.5059 2.1178
2.8973 -4.2874 2.1178
-0.6798 1.5434 0.7463
-2.2738 4.2110 2.1178
-2.6040 4.0152 2.1178
-2.9175 3.7936 2.1178
-3.2121 3.5476 2.1178
-3.4862 3.2787 2.1178
-3.7377 2.9887 2.1178
-3.9653 2.6795 2.1178
-4.1673 2.3530 2.1178
-4.3425 2.0114 2.1178
-4.4897 1.6569 2.1178
-4.6081 1.2917 2.1178
-4.6968 0.9182 2.1178
-4.7553 0.5387 2.1178
-4.7832 0.1559 2.1178
-4.7803 -0.2280 2.1178
-4.7466 -0.6104 2.1178
-4.6824 -0.9889 2.1178
-4.5881 -1.3610 2.1178
-4.4642 -1.7244 2.1178
-4.3117 -2.0767 2.1178
-4.1313 -2.4156 2.1178
-3.9244 -2.7390 2.1178
-3.6923 -3.0447 2.1178
-3.4363 -3.3308 2.1178
-3.1583 -3.5956 2.1178
-2.8600 -3.8371 2.1178
-2.5432 -4.0540 2.1178
-0.7730 -1.4847 0.7407
-0.6514 -1.5416 0.7406
-0.5257 -1.5887 0.7405
-0.3966 -1.6256 0.7405
-0.2650 -1.6520 0.7404
-0.1318 -1.6679 0.7404
0.0024 -1.6731 0.7404
0.1365 -1.6675 0.7404
0.2697 -1.6513 0.7404
0.4012 -1.6245 0.7405
0.5302 -1.5873 0.7406
0.6558 -1.5398 0.7406
0.7772 -1.4825 0.7408
2.5546 -4.0469 2.1178
2.8707 -3.8291 2.1178
3.1684 -3.5867 2.1178
3.4457 -3.3211 2.1178
3.7008 -3.0343 2.1178
3.8604 -2.6782 2.0792
3.8819 -2.2550 1.9867
4.0068 -1.9160 1.9654
4.1475 -1.5886 1.9654
4.2615 -1.2511 1.9654
4.3480 -0.9055 1.9654
4.4066 -0.5541 1.9654
4.4369 -0.1991 1.9654
4.4385 0.1572 1.9654
4.4117 0.5124 1.9654
4.3564 0.8644 1.9654
4.2731 1.2108 1.9654
4.1623 1.5494 1.9654
4.0247 1.8780 1.9654
3.9260 2.2314 1.9984
3.9128 2.6601 2.0938
3.7293 2.9992 2.1178
3.4769 3.2885 2.1178
3.2022 3.5566 2.1178
2.9068 3.8018 2.1178
2.5927 4.0225 2.1178
2.2619 4.2174 2.1178
0.6754 1.5453 0.7463
0.5495 1.5947 0.7464
0.4199 1.6338 0.7465
0.2876 1.6623 0.7465
0.1535 1.6801 0.7466
0.0183 1.6870 0.7466
-0.1170 1.6830 0.7466
-0.2515 1.6681 0.7465
-0.3843 1.6425 0.7465
-0.5147 1.6063 0.7464
-0.6417 1.5597 0.7463
-0.7646 1.5030 0.7462
-2.5048 4.0779 2.1178
-2.8236 3.8640 2.1178
-3.1242 3.6252 2.1178
-3.4047 3.3632 2.1178
-3.6633 3.0795 2.1178
-3.8984 2.7759 2.1178
-4.1083 2.4545 2.1178
-4.2918 2.1173 2.1178
-4.4477 1.7665 2.1178
-4.5750 1.4043 2.1178
-4.6729 1.0331 2.1178
-4.7406 0.6552 2.1178
-4.7779 0.2732 2.1178
-4.7844 -0.1107 2.1178
-4.7602 -0.4938 2.1178
-4.7053 -0.8738 2.1178
-4.6201 -1.2481 2.1178
-4.5052 -1.6144 2.1178
-4.3613 -1.9703 2.1178
-4.1893 -2.3135 2.1178
-3.9904 -2.6419 2.1178
-3.7658 -2.9533 2.1178
-3.5170 -3.2456 2.1178
-3.2455 -3.5170 2.1178
-2.9532 -3.7659 2.1178
-2.6418 -3.9904 2.1178
-2.3135 -4.1894 2.1178
-0.6891 -1.5253 0.7407
-0.5645 -1.5754 0.7406
-0.4364 -1.6154 0.7405
-0.3055 -1.6451 0.7404
-0.1726 -1.6642 0.7404
-0.0387 -1.6726 0.7404
0.0955 -1.6704 0.7404
0.2291 -1.6574 0.7404
0.3612 -1.6338 0.7405
0.4911 -1.5997 0.7405
0.6178 -1.5554 0.7406
0.7406 -1.5011 0.7407
2.4546 -4.1083 2.1178
2.7760 -3.8983 2.1178
3.0795 -3.6633 2.1178
3.3632 -3.4047 2.1178
3.6253 -3.1241 2.1178
3.8530 -2.8154 2.1118
3.8758 -2.3806 2.0129
3.9586 -2.0137 1.9654
4.1073 -1.6899 1.9654
4.2295 -1.3552 1.9654
4.3245 -1.0119 1.9654
4.3917 -0.6620 1.9654
4.4306 -0.3078 1.9654
4.4411 0.0483 1.9654
4.4229 0.4041 1.9654
4.3763 0.7573 1.9654
4.3015 1.1056 1.9654
4.1990 1.4469 1.9654
4.0696 1.7788 1.9654
3.9335 2.1097 1.9753
3.9172 2.5249 2.0624
3.8017 2.9068 2.1178
3.5565 3.2022 2.1178
3.2884 3.4770 2.1178
2.9991 3.7294 2.1178
2.6906 3.9577 2.1178
2.3647 4.1607 2.1178
0.7131 1.5282 0.7463
0.5884 1.5807 0.7464
0.4598 1.6229 0.7465
0.3283 1.6547 0.7465
0.1946 1.6758 0.7466
0.0597 1.6860 0.7466
-0.0757 1.6854 0.7466
-0.2105 1.6738 0.7466
-0.3440 1.6515 0.7465
-0.4752 1.6185 0.7465
-0.6033 1.5750 0.7464
-0.7275 1.5214 0.7463
-2.4040 4.1381 2.1178
-2.7280 3.9321 2.1178
-3.0343 3.7008 2.1178
-3.3212 3.4457 2.1178
-3.5867 3.1684 2.1178
-3.8291 2.8707 2.1178
-4.0469 2.5545 2.1178
-4.2386 2.2219 2.1178
-4.4031 1.8750 2.1178
-4.5392 1.5161 2.1178
-4.6461 1.1474 2.1178
-4.7231 0.7713 2.1178
-4.7698 0.3902 2.1178
-4.7857 0.0067 2.1178
-4.7708 -0.3769 2.1178
-4.7253 -0.7581 2.1178
-4.6493 -1.1344 2.1178
-4.5434 -1.5034 2.1178
-4.4083 -1.8628 2.1178
-4.2448 -2.2101 2.1178
-4.0540 -2.5433 2.1178
-3.8371 -2.8600 2.1178
-3.5955 -3.1583 2.1178
-3.3308 -3.4364 2.1178
-3.0446 -3.6923 2.1178
-2.7389 -3.9245 2.1178
-2.4155 -4.1314 2.1178
-0.7263 -1.5080 0.7407
-0.6030 -1.5611 0.7406
-0.4759 -1.6043 0.7405
-0.3457 -1.6371 0.7405
-0.2134 -1.6595 0.7404
-0.0797 -1.6712 0.7404
0.0545 -1.6722 0.7404
0.1884 -1.6625 0.7404
0.3211 -1.6421 0.7405
0.4517 -1.6112 0.7405
0.5794 -1.5700 0.7406
0.7035 -1.5187 0.7407
2.3531 -4.1672 2.1178
2.6795 -3.9652 2.1178
-0.6310 1.4326 0.7461
-0.7437 1.3772 0.7460
-2.4177 3.7280 2.1178
-2.7088 3.5222 2.1178
-2.9824 3.2938 2.1178
-3.2368 3.0441 2.1178
-3.4703 2.7749 2.1178
-3.6816 2.4878 2.1178
-3.8692 2.1847 2.1178
-4.0318 1.8676 2.1178
-4.1685 1.5384 2.1178
-4.2784 1.1993 2.1178
-4.3608 0.8525 2.1178
-4.4151 0.5003 2.1178
-4.4410 0.1447 2.1178
-4.4383 -0.2117 2.1178
-4.4070 -0.5668 2.1178
-4.3475 -0.9181 2.1178
-4.2599 -1.2636 2.1178
-4.1449 -1.6010 2.1178
-4.0032 -1.9281 2.1178
-3.8358 -2.2428 2.1178
-3.6437 -2.5430 2.1178
-3.4281 -2.8269 2.1178
-3.1905 -3.0926 2.1178
-2.9324 -3.3383 2.1178
-2.6554 -3.5626 2.1178
-2.3613 -3.7640 2.1178
-0.7179 -1.3788 0.7409
-0.6050 -1.4318 0.7408
-0.4882 -1.4755 0.7408
-0.3684 -1.5097 0.7407
-0.2461 -1.5343 0.7407
-0.1224 -1.5491 0.7406
0.0022 -1.5539 0.7406
0.1267 -1.5487 0.7406
0.2505 -1.5336 0.7407
0.3726 -1.5087 0.7407
0.4924 -1.4741 0.7408
0.6090 -1.4301 0.7408
0.7218 -1.3768 0.7409
2.3718 -3.7573 2.1178
2.6654 -3.5552 2.1178
2.9417 -3.3301 2.1178
3.1992 -3.0836 2.1178
3.4361 -2.8172 2.1178
3.6508 -2.5328 2.1178
3.8421 -2.2320 2.1178
3.8749 -1.8529 2.0472
3.8900 -1.4901 1.9855
3.9566 -1.1616 1.9654
4.0370 -0.8407 1.9654
4.0914 -0.5144 1.9654
4.1195 -0.1849 1.9654
4.1210 0.1459 1.9654
4.0961 0.4758 1.9654
4.0448 0.8026 1.9654
