ply
format ascii 1.0
element vertex 2175
property float32 x
property float32 y
property float32 z
end_header
3.9959 -8.3460 2.0384
4.6590 -8.0129 2.0384
5.2937 -7.6265 2.0384
5.8959 -7.1892 2.0384
6.4611 -6.7036 2.0384
6.9856 -6.1728 2.0384
7.4655 -5.6005 2.0384
7.8974 -4.9901 2.0384
8.2783 -4.3460 2.0384
8.6054 -3.6723 2.0384
8.8764 -2.9740 2.0384
8.9683 -2.2250 2.0113
8.9799 -1.4778 1.9805
8.9888 -0.7480 1.9628
4.3414 0.9540 1.1004
4.3436 1.3264 1.1250
4.3459 1.7179 1.1585
4.3483 2.1356 1.2020
4.3510 2.5881 1.2574
4.3539 3.0867 1.3271
4.3571 3.6462 1.4145
4.2730 4.2010 1.4939
4.3653 5.0400 1.6647
4.8269 6.5695 2.0384
4.2788 6.9237 2.0384
3.7048 7.2321 2.0384
3.1086 7.4927 2.0384
2.4945 7.7041 2.0384
1.8663 7.8651 2.0384
1.2283 7.9751 2.0384
0.5846 8.0334 2.0384
-0.0606 8.0401 2.0384
-0.7032 7.9953 2.0384
-1.3391 7.8995 2.0384
-1.9644 7.7537 2.0384
-2.5751 7.5589 2.0384
-3.1676 7.3166 2.0384
-3.7381 7.0286 2.0384
-4.2833 6.6967 2.0384
-4.7998 6.3234 2.0384
-5.2847 5.9109 2.0384
-5.7350 5.4619 2.0384
-6.1482 4.9794 2.0384
-6.5217 4.4664 2.0384
-6.8534 3.9260 2.0384
-7.1415 3.3616 2.0384
-7.3842 2.7765 2.0384
-7.5802 2.1746 2.0384
-7.7282 1.5593 2.0384
-7.8276 0.9344 2.0384
-7.8776 0.3037 2.0384
-7.8779 -0.3291 2.0384
-7.8286 -0.9601 2.0384
-7.7299 -1.5855 2.0384
-7.5823 -2.2016 2.0384
-7.3867 -2.8045 2.0384
-7.1441 -3.3907 2.0384
-6.8558 -3.9564 2.0384
-6.5236 -4.4982 2.0384
-6.1494 -5.0127 2.0384
-5.7352 -5.4966 2.0384
-5.2835 -5.9468 2.0384
-4.7969 -6.3605 2.0384
-4.2784 -6.7349 2.0384
-3.7310 -7.0675 2.0384
-3.1580 -7.3560 2.0384
-2.5629 -7.5984 2.0384
-1.9494 -7.7929 2.0384
-1.3212 -7.9381 2.0384
-0.6825 -8.0328 2.0384
-0.0371 -8.0761 2.0384
0.6108 -8.0674 2.0384
1.2570 -8.0067 2.0384
1.8972 -7.8939 2.0384
2.5273 -7.7297 2.0384
3.1429 -7.5148 2.0384
3.7401 -7.2504 2.0384
4.3147 -6.9381 2.0384
4.8628 -6.5798 2.0384
5.3807 -6.1776 2.0384
5.8647 -5.7341 2.0384
6.3114 -5.2522 2.0384
6.7178 -4.7350 2.0384
7.0810 -4.1860 2.0384
7.3983 -3.6087 2.0384
7.6676 -3.0070 2.0384
7.8869 -2.3851 2.0384
8.0547 -1.7472 2.0384
8.1697 -1.0975 2.0384
8.2313 -0.4405 2.0384
8.2389 0.2192 2.0384
4.3386 0.4646 1.0795
4.3407 0.8201 1.0934
4.3428 1.1870 1.1149
4.3450 1.5708 1.1450
4.3474 1.9779 1.1847
4.3500 2.4164 1.2355
4.3528 2.8964 1.2995
4.3559 3.4314 1.3799
4.3594 4.0396 1.4809
4.3636 4.7468 1.6089
5.0219 6.4275 2.0384
4.4844 6.7982 2.0384
3.9194 7.1237 2.0384
3.3310 7.4021 2.0384
2.7230 7.6318 2.0384
2.0995 7.8116 2.0384
1.4647 7.9405 2.0384
0.8226 8.0179 2.0384
0.1775 8.0436 2.0384
-0.4666 8.0178 2.0384
-1.1054 7.9407 2.0384
-1.7351 7.8133 2.0384
-2.3516 7.6364 2.0384
-2.9512 7.4115 2.0384
-3.5303 7.1401 2.0384
-4.0852 6.8242 2.0384
-4.6127 6.4659 2.0384
-5.1096 6.0675 2.0384
-5.5730 5.6317 2.0384
-6.0001 5.1613 2.0384
-6.3886 4.6591 2.0384
-6.7360 4.1284 2.0384
-7.0404 3.5725 2.0384
-7.3000 2.9947 2.0384
-7.5134 2.3985 2.0384
-7.6792 1.7878 2.0384
-7.7966 1.1660 2.0384
-7.8649 0.5369 2.0384
-7.8836 -0.0955 2.0384
-7.8526 -0.7276 2.0384
-7.7721 -1.3556 2.0384
-7.6425 -1.9755 2.0384
-7.4645 -2.5837 2.0384
-7.2390 -3.1765 2.0384
-6.9674 -3.7501 2.0384
-6.6513 -4.3012 2.0384
-6.2923 -4.8261 2.0384
-5.8926 -5.3217 2.0384
-5.4544 -5.7847 2.0384
-4.9804 -6.2122 2.0384
-4.4733 -6.6015 2.0384
-3.9362 -6.9497 2.0384
-3.3722 -7.2548 2.0384
-2.7849 -7.5144 2.0384
-2.1777 -7.7268 2.0384
-1.5546 -7.8903 2.0384
-0.9192 -8.0038 2.0384
-0.2758 -8.0661 2.0384
0.3716 -8.0767 2.0384
1.0189 -8.0352 2.0384
1.6618 -7.9416 2.0384
2.2961 -7.7963 2.0384
2.9176 -7.6000 2.0384
3.5221 -7.3537 2.0384
4.1055 -7.0589 2.0384
4.6638 -6.7173 2.0384
5.1933 -6.3310 2.0384
5.6902 -5.9025 2.0384
6.1511 -5.4344 2.0384
6.5727 -4.9298 2.0384
6.9521 -4.3921 2.0384
7.2866 -3.8248 2.0384
7.5739 -3.2317 2.0384
7.8119 -2.6168 2.0384
7.9988 -1.9843 2.0384
8.1335 -1.3384 2.0384
8.2148 -0.6836 2.0384
4.3415 0.9537 1.2341
4.3436 1.3261 1.2617
4.3459 1.7176 1.2991
4.3483 2.1352 1.3478
4.3510 2.5876 1.4098
4.3539 3.0860 1.4877
4.3571 3.6454 1.5855
4.2335 4.1611 1.6587
4.7705 5.5064 2.0384
4.3086 5.8624 2.0384
3.8201 6.1795 2.0384
3.3083 6.4558 2.0384
2.7766 6.6896 2.0384
2.2287 6.8795 2.0384
1.6680 7.0246 2.0384
1.0984 7.1241 2.0384
0.5235 7.1775 2.0384
-0.0530 7.1847 2.0384
-0.6274 7.1459 2.0384
-1.1960 7.0616 2.0384
-1.7552 6.9324 2.0384
-2.3016 6.7593 2.0384
-2.8318 6.5437 2.0384
-3.3426 6.2870 2.0384
-3.8308 5.9910 2.0384
-4.2935 5.6577 2.0384
-4.7280 5.2893 2.0384
-5.1315 4.8881 2.0384
-5.5018 4.4568 2.0384
-5.8367 3.9979 2.0384
-6.1341 3.5144 2.0384
-6.3924 3.0094 2.0384
-6.6100 2.4858 2.0384
-6.7857 1.9469 2.0384
-6.9185 1.3961 2.0384
-7.0075 0.8365 2.0384
-7.0522 0.2718 2.0384
-7.0524 -0.2948 2.0384
-7.0081 -0.8597 2.0384
-6.9194 -1.4197 2.0384
-6.7869 -1.9711 2.0384
-6.6112 -2.5107 2.0384
-6.3935 -3.0351 2.0384
-6.1349 -3.5411 2.0384
-5.8370 -4.0256 2.0384
-5.5014 -4.4855 2.0384
-5.1301 -4.9179 2.0384
-4.7253 -5.3200 2.0384
-4.2894 -5.6892 2.0384
-3.8251 -6.0232 2.0384
-3.3350 -6.3196 2.0384
-2.8221 -6.5765 2.0384
-2.2897 -6.7920 2.0384
-1.7410 -6.9647 2.0384
-1.1795 -7.0932 2.0384
-0.6086 -7.1765 2.0384
-0.0320 -7.2139 2.0384
0.5467 -7.2049 2.0384
1.1235 -7.1494 2.0384
1.6949 -7.0475 2.0384
2.2570 -6.8997 2.0384
2.8061 -6.7068 2.0384
3.3385 -6.4698 2.0384
3.8507 -6.1902 2.0384
4.3391 -5.8697 2.0384
4.8004 -5.5102 2.0384
5.2315 -5.1140 2.0384
5.6293 -4.6837 2.0384
5.9911 -4.2221 2.0384
6.3143 -3.7322 2.0384
6.5968 -3.2173 2.0384
6.8365 -2.6808 2.0384
7.0317 -2.1263 2.0384
7.1810 -1.5575 2.0384
7.2835 -0.9784 2.0384
7.3383 -0.3928 2.0384
7.3452 0.1953 2.0384
4.3386 0.4644 1.2108
4.3407 0.8199 1.2263
4.3428 1.1868 1.2504
4.3450 1.5704 1.2841
4.3474 1.9775 1.3284
4.3500 2.4159 1.3852
4.3528 2.8958 1.4568
4.3559 3.4306 1.5468
4.3211 4.0031 1.6452
4.3636 4.7456 1.8029
4.4824 5.7354 2.0384
4.0033 6.0671 2.0384
3.4997 6.3587 2.0384
2.9750 6.6083 2.0384
2.4326 6.8146 2.0384
1.8762 6.9763 2.0384
1.3095 7.0927 2.0384
0.7361 7.1632 2.0384
0.1597 7.1874 2.0384
-0.4158 7.1656 2.0384
-0.9870 7.0980 2.0384
-1.5501 6.9852 2.0384
-2.1016 6.8282 2.0384
-2.6382 6.6281 2.0384
-3.1565 6.3864 2.0384
-3.6534 6.1048 2.0384
-4.1259 5.7850 2.0384
-4.5711 5.4293 2.0384
-4.9863 5.0399 2.0384
-5.3691 4.6193 2.0384
-5.7173 4.1703 2.0384
-6.0288 3.6956 2.0384
-6.3017 3.1981 2.0384
-6.5345 2.6810 2.0384
-6.7258 2.1474 2.0384
-6.8745 1.6006 2.0384
-6.9798 1.0439 2.0384
-7.0409 0.4806 2.0384
-7.0576 -0.0857 2.0384
-7.0296 -0.6516 2.0384
-6.9573 -1.2138 2.0384
-6.8408 -1.7687 2.0384
-6.6810 -2.3131 2.0384
-6.4787 -2.8435 2.0384
-6.2351 -3.3567 2.0384
-5.9515 -3.8495 2.0384
-5.6295 -4.3188 2.0384
-5.2712 -4.7617 2.0384
-4.8785 -5.1753 2.0384
-4.4538 -5.5569 2.0384
-3.9996 -5.9042 2.0384
-3.5187 -6.2147 2.0384
-3.0139 -6.4864 2.0384
-2.4883 -6.7174 2.0384
-1.9452 -6.9060 2.0384
-1.3880 -7.0510 2.0384
-0.8202 -7.1511 2.0384
-0.2452 -7.2055 2.0384
0.3331 -7.2136 2.0384
0.9110 -7.1753 2.0384
1.4849 -7.0905 2.0384
2.0508 -6.9595 2.0384
2.6051 -6.7832 2.0384
3.1441 -6.5623 2.0384
3.6642 -6.2983 2.0384
4.1618 -5.9926 2.0384
4.6335 -5.6473 2.0384
5.0761 -5.2643 2.0384
5.4865 -4.8463 2.0384
5.8619 -4.3959 2.0384
6.1996 -3.9161 2.0384
6.4974 -3.4100 2.0384
6.7531 -2.8811 2.0384
6.9649 -2.3328 2.0384
7.1313 -1.7689 2.0384
7.2512 -1.1931 2.0384
7.3237 -0.6095 2.0384
4.3415 0.9535 1.3700
4.3436 1.3258 1.4005
4.3459 1.7172 1.4419
4.3483 2.1347 1.4959
4.3510 2.5870 1.5645
4.3539 3.0853 1.6508
4.3572 3.6445 1.7591
4.2701 4.1961 1.8560
4.3008 4.9629 2.0384
3.8850 5.2845 2.0384
3.4451 5.5710 2.0384
2.9841 5.8209 2.0384
2.5050 6.0326 2.0384
2.0112 6.2048 2.0384
1.5057 6.3365 2.0384
0.9920 6.4272 2.0384
0.4734 6.4764 2.0384
-0.0468 6.4838 2.0384
-0.5652 6.4497 2.0384
-1.0786 6.3745 2.0384
-1.5836 6.2587 2.0384
-2.0772 6.1033 2.0384
-2.5563 5.9094 2.0384
-3.0180 5.6783 2.0384
-3.4593 5.4116 2.0384
-3.8777 5.1111 2.0384
-4.2706 4.7787 2.0384
-4.6356 4.4167 2.0384
-4.9707 4.0272 2.0384
-5.2736 3.6128 2.0384
-5.5428 3.1761 2.0384
-5.7765 2.7198 2.0384
-5.9735 2.2467 2.0384
-6.1325 1.7597 2.0384
-6.2526 1.2618 2.0384
-6.3331 0.7561 2.0384
-6.3735 0.2456 2.0384
-6.3736 -0.2665 2.0384
-6.3334 -0.7772 2.0384
-6.2530 -1.2832 2.0384
-6.1329 -1.7815 2.0384
-5.9738 -2.2691 2.0384
-5.7767 -2.7428 2.0384
-5.5426 -3.1999 2.0384
-5.2729 -3.6374 2.0384
-4.9692 -4.0525 2.0384
-4.6332 -4.4427 2.0384
-4.2671 -4.8054 2.0384
-3.8729 -5.1383 2.0384
-3.4531 -5.4392 2.0384
-3.0101 -5.7061 2.0384
-2.5467 -5.9372 2.0384
-2.0658 -6.1310 2.0384
-1.5703 -6.2859 2.0384
-1.0633 -6.4010 2.0384
-0.5480 -6.4752 2.0384
-0.0278 -6.5080 2.0384
0.4941 -6.4989 2.0384
1.0143 -6.4479 2.0384
1.5294 -6.3551 2.0384
2.0360 -6.2210 2.0384
2.5307 -6.0462 2.0384
3.0103 -5.8318 2.0384
3.4715 -5.5791 2.0384
3.9113 -5.2896 2.0384
4.3265 -4.9651 2.0384
4.7145 -4.6077 2.0384
5.0725 -4.2196 2.0384
5.3980 -3.8035 2.0384
5.6888 -3.3619 2.0384
5.9429 -2.8979 2.0384
6.1584 -2.4146 2.0384
6.3340 -1.9151 2.0384
6.4684 -1.4028 2.0384
6.5606 -0.8812 2.0384
6.6100 -0.3539 2.0384
6.6163 0.1758 2.0384
4.3386 0.4643 1.3442
4.3407 0.8197 1.3613
4.3428 1.1865 1.3880
4.3451 1.5701 1.4253
4.3474 1.9770 1.4744
4.3500 2.4154 1.5373
4.3528 2.8952 1.6166
4.3559 3.4299 1.7162
4.3454 4.0247 1.8355
4.4476 4.8358 2.0384
4.0414 5.1697 2.0384
3.6101 5.4694 2.0384
3.1565 5.7331 2.0384
2.6838 5.9590 2.0384
2.1950 6.1459 2.0384
1.6934 6.2926 2.0384
1.1824 6.3986 2.0384
0.6652 6.4631 2.0384
0.1452 6.4859 2.0384
-0.3743 6.4671 2.0384
-0.8899 6.4070 2.0384
-1.3984 6.3061 2.0384
-1.8966 6.1652 2.0384
-2.3814 5.9854 2.0384
-2.8498 5.7678 2.0384
-3.2990 5.5141 2.0384
-3.7261 5.2258 2.0384
-4.1287 4.9050 2.0384
-4.5043 4.5536 2.0384
-4.8506 4.1740 2.0384
-5.1656 3.7685 2.0384
-5.4475 3.3398 2.0384
-5.6945 2.8904 2.0384
-5.9051 2.4231 2.0384
-6.0783 1.9409 2.0384
-6.2128 1.4467 2.0384
-6.3080 0.9435 2.0384
-6.3633 0.4344 2.0384
-6.3783 -0.0775 2.0384
-6.3529 -0.5891 2.0384
-6.2873 -1.0972 2.0384
-6.1818 -1.5987 2.0384
-6.0370 -2.0906 2.0384
-5.8538 -2.5698 2.0384
-5.6332 -3.0333 2.0384
-5.3765 -3.4783 2.0384
-5.0851 -3.9020 2.0384
-4.7609 -4.3017 2.0384
-4.4056 -4.6748 2.0384
-4.0215 -5.0190 2.0384
-3.6109 -5.3320 2.0384
-3.1761 -5.6117 2.0384
-2.7200 -5.8562 2.0384
-2.2452 -6.0639 2.0384
-1.7547 -6.2333 2.0384
-1.2516 -6.3632 2.0384
-0.7390 -6.4526 2.0384
-0.2202 -6.5007 2.0384
0.3015 -6.5071 2.0384
0.8227 -6.4716 2.0384
1.3401 -6.3942 2.0384
1.8502 -6.2753 2.0384
2.3497 -6.1154 2.0384
2.8353 -5.9155 2.0384
3.3036 -5.6768 2.0384
3.7517 -5.4007 2.0384
4.1763 -5.0888 2.0384
4.5746 -4.7433 2.0384
4.9440 -4.3663 2.0384
5.2817 -3.9602 2.0384
5.5856 -3.5277 2.0384
5.8535 -3.0716 2.0384
6.0835 -2.5951 2.0384
6.2740 -2.1011 2.0384
6.4237 -1.5932 2.0384
6.5315 -1.0746 2.0384
6.5968 -0.5490 2.0384
4.3415 0.9533 1.5082
4.2666 1.3020 1.5144
4.3459 1.7168 1.5873
4.3484 2.1342 1.6465
4.3510 2.5864 1.7219
4.3539 3.0846 1.8167
4.5882 3.8369 2.0384
4.2622 4.1873 2.0384
3.9092 4.5098 2.0384
3.5318 4.8026 2.0384
3.1323 5.0636 2.0384
2.7136 5.2913 2.0384
2.2784 5.4843 2.0384
1.8296 5.6415 2.0384
1.3702 5.7620 2.0384
0.9032 5.8452 2.0384
0.4316 5.8906 2.0384
-0.0416 5.8982 2.0384
-0.5132 5.8679 2.0384
-0.9804 5.8001 2.0384
-1.4401 5.6954 2.0384
-1.8896 5.5546 2.0384
-2.3258 5.3787 2.0384
-2.7463 5.1689 2.0384
-3.1484 4.9266 2.0384
-3.5296 4.6534 2.0384
-3.8877 4.3512 2.0384
-4.2204 4.0218 2.0384
-4.5257 3.6674 2.0384
-4.8020 3.2903 2.0384
-5.0474 2.8927 2.0384
-5.2605 2.4772 2.0384
-5.4401 2.0463 2.0384
-5.5850 1.6028 2.0384
-5.6945 1.1493 2.0384
-5.7679 0.6886 2.0384
-5.8047 0.2236 2.0384
-5.8047 -0.2429 2.0384
-5.7679 -0.7080 2.0384
-5.6946 -1.1689 2.0384
-5.5850 -1.6227 2.0384
-5.4398 -2.0667 2.0384
-5.2599 -2.4981 2.0384
-5.0464 -2.9141 2.0384
-4.8005 -3.3122 2.0384
-4.5235 -3.6900 2.0384
-4.2173 -4.0448 2.0384
-3.8836 -4.3747 2.0384
-3.5244 -4.6773 2.0384
-3.1419 -4.9506 2.0384
-2.7384 -5.1930 2.0384
-2.3164 -5.4027 2.0384
-0.6841 -2.0314 0.7423
-1.4276 -5.7187 2.0384
-0.9662 -5.8226 2.0384
-0.4975 -5.8894 2.0384
-0.0243 -5.9185 2.0384
0.4503 -5.9095 2.0384
0.9232 -5.8624 2.0384
1.3913 -5.7774 2.0384
0.6678 -2.0394 0.7351
2.3011 -5.4953 2.0384
2.7367 -5.2999 2.0384
3.1555 -5.0698 2.0384
3.5548 -4.8062 2.0384
3.9317 -4.5110 2.0384
4.2838 -4.1859 2.0384
4.6087 -3.8331 2.0384
4.9040 -3.4548 2.0384
5.1679 -3.0536 2.0384
5.3984 -2.6321 2.0384
5.5940 -2.1930 2.0384
5.7532 -1.7393 2.0384
5.8752 -1.2741 2.0384
5.9588 -0.8004 2.0384
6.0037 -0.3214 2.0384
6.0095 0.1595 2.0384
4.3386 0.4641 1.4799
4.3407 0.8195 1.4987
4.2785 1.1686 1.5054
4.3451 1.5697 1.5690
4.3474 1.9766 1.6229
4.3500 2.4148 1.6920
4.3528 2.8945 1.7792
4.7013 3.7009 2.0384
4.3858 4.0611 2.0384
4.0425 4.3941 2.0384
3.6738 4.6981 2.0384
3.2822 4.9710 2.0384
2.8702 5.2112 2.0384
2.4408 5.4172 2.0384
1.9967 5.5877 2.0384
1.5408 5.7219 2.0384
1.0763 5.8189 2.0384
0.6060 5.8783 2.0384
0.1330 5.8998 2.0384
-0.3395 5.8834 2.0384
-0.8087 5.8294 2.0384
-1.2715 5.7383 2.0384
-1.7250 5.6107 2.0384
-2.1665 5.4476 2.0384
-2.5931 5.2502 2.0384
-3.0023 5.0197 2.0384
-3.3915 4.7577 2.0384
-3.7583 4.4660 2.0384
-4.1006 4.1464 2.0384
-4.4163 3.8010 2.0384
-4.7035 3.4320 2.0384
-4.9605 3.0417 2.0384
-5.1857 2.6325 2.0384
-5.3778 2.2070 2.0384
-5.5356 1.7678 2.0384
-5.6583 1.3177 2.0384
-5.7451 0.8593 2.0384
-5.7954 0.3956 2.0384
-5.8090 -0.0707 2.0384
-5.7858 -0.5367 2.0384
-5.7259 -0.9995 2.0384
-5.6296 -1.4562 2.0384
-5.4975 -1.9042 2.0384
-5.3303 -2.3405 2.0384
-5.1291 -2.7625 2.0384
-4.8949 -3.1675 2.0384
-4.6293 -3.5531 2.0384
-4.3336 -3.9166 2.0384
-4.0099 -4.2560 2.0384
-3.6598 -4.5689 2.0384
-3.2857 -4.8533 2.0384
-2.8896 -5.1073 2.0384
-2.4742 -5.3292 2.0384
-0.7439 -2.0103 0.7427
-1.5954 -5.6711 2.0384
-1.1375 -5.7885 2.0384
-0.6712 -5.8691 2.0384
-0.1993 -5.9122 2.0384
0.2752 -5.9173 2.0384
0.7490 -5.8843 2.0384
1.2193 -5.8132 2.0384
1.6828 -5.7044 2.0384
0.7701 -2.0034 0.7347
2.5777 -5.3762 2.0384
3.0031 -5.1587 2.0384
3.4098 -4.9073 2.0384
3.7953 -4.6235 2.0384
4.1569 -4.3092 2.0384
4.4921 -3.9664 2.0384
4.7986 -3.5973 2.0384
5.0743 -3.2042 2.0384
5.3173 -2.7898 2.0384
5.5259 -2.3569 2.0384
5.6987 -1.9083 2.0384
5.8346 -1.4469 2.0384
5.9324 -0.9760 2.0384
5.9917 -0.4986 2.0384
4.3415 0.9530 1.6491
4.2323 1.2912 1.6425
4.3459 1.7164 1.7354
4.3484 2.1338 1.8001
4.7116 2.8002 2.0384
4.4690 3.1654 2.0384
4.1978 3.5095 2.0384
3.8999 3.8304 2.0384
3.5773 4.1258 2.0384
3.2323 4.3940 2.0384
2.8671 4.6332 2.0384
2.4842 4.8420 2.0384
0.7612 1.8315 0.7438
0.6122 1.8865 0.7447
0.4591 1.9294 0.7456
0.3031 1.9598 0.7465
0.3960 5.3933 2.0384
-0.0372 5.4007 2.0384
-0.1724 1.9747 0.7491
-0.3300 1.9541 0.7498
-0.4854 1.9209 0.7506
-0.6376 1.8753 0.7513
-2.1299 4.9275 2.0384
-2.5153 4.7357 2.0384
-2.8839 4.5141 2.0384
-3.2335 4.2641 2.0384
-3.5618 3.9874 2.0384
-3.8670 3.6858 2.0384
-4.1471 3.3612 2.0384
-4.4005 3.0157 2.0384
-4.6256 2.6514 2.0384
-4.8212 2.2707 2.0384
-4.9859 1.8758 2.0384
-5.1189 1.4692 2.0384
-5.2194 1.0535 2.0384
-5.2867 0.6312 2.0384
-5.3204 0.2049 2.0384
-5.3204 -0.2228 2.0384
-5.2866 -0.6491 2.0384
-5.2192 -1.0716 2.0384
-5.1185 -1.4876 2.0384
-4.9853 -1.8944 2.0384
-4.8202 -2.2897 2.0384
-4.6242 -2.6709 2.0384
-4.3985 -3.0356 2.0384
-4.1444 -3.3815 2.0384
-3.8635 -3.7065 2.0384
-3.5574 -4.0084 2.0384
-3.2280 -4.2852 2.0384
-2.8773 -4.5353 2.0384
-2.5075 -4.7569 2.0384
-0.7733 -1.8045 0.7433
-0.6263 -1.8607 0.7424
-0.4752 -1.9050 0.7415
-0.3211 -1.9371 0.7406
-0.1650 -1.9568 0.7397
-0.0077 -1.9640 0.7389
0.1496 -1.9587 0.7381
0.3060 -1.9408 0.7373
0.4604 -1.9105 0.7365
0.6120 -1.8680 0.7358
0.7597 -1.8136 0.7352
2.5047 -4.8490 2.0384
2.8877 -4.6380 2.0384
3.2526 -4.3966 2.0384
3.5972 -4.1262 2.0384
3.9190 -3.8286 2.0384
4.2158 -3.5057 2.0384
4.4857 -3.1596 2.0384
4.7267 -2.7925 2.0384
4.9373 -2.4069 2.0384
5.1160 -2.0053 2.0384
5.2615 -1.5904 2.0384
5.3729 -1.1650 2.0384
5.4494 -0.7319 2.0384
5.4904 -0.2940 2.0384
5.4957 0.1458 2.0384
4.3386 0.4640 1.6182
4.3407 0.8193 1.6387
4.2437 1.1589 1.6326
4.3451 1.5694 1.7154
4.3474 1.9762 1.7743
4.7937 2.6605 2.0384
4.5620 3.0329 2.0384
4.3011 3.3851 2.0384
4.0129 3.7148 2.0384
3.6991 4.0198 2.0384
3.3621 4.2983 2.0384
3.0041 4.5484 2.0384
2.6274 4.7686 2.0384
2.2346 4.9576 2.0384
0.6677 1.8676 0.7444
0.5160 1.9150 0.7453
0.3610 1.9500 0.7462
0.2037 1.9724 0.7471
0.1227 5.4020 2.0384
-0.3100 5.3876 2.0384
-0.2720 1.9632 0.7496
-0.4283 1.9346 0.7503
-0.5819 1.8936 0.7510
-0.7316 1.8403 0.7517
-2.3749 4.8100 2.0384
-2.7499 4.5992 2.0384
-3.1068 4.3596 2.0384
-3.4432 4.0926 2.0384
-3.7572 3.7999 2.0384
-4.0467 3.4836 2.0384
-4.3102 3.1456 2.0384
-4.5459 2.7879 2.0384
-4.7525 2.4130 2.0384
-4.9288 2.0230 2.0384
-5.0736 1.6205 2.0384
-5.1862 1.2078 2.0384
-5.2658 0.7877 2.0384
-5.3119 0.3626 2.0384
-5.3244 -0.0649 2.0384
-5.3030 -0.4921 2.0384
-5.2479 -0.9163 2.0384
-5.1595 -1.3350 2.0384
-5.0382 -1.7455 2.0384
-4.8848 -2.1453 2.0384
-4.7000 -2.5320 2.0384
-4.4852 -2.9030 2.0384
-4.2414 -3.2562 2.0384
-3.9702 -3.5891 2.0384
-3.6732 -3.8997 2.0384
-3.3522 -4.1861 2.0384
-3.0091 -4.4462 2.0384
-2.6461 -4.6785 2.0384
-2.2653 -4.8814 2.0384
-0.6811 -1.8413 0.7427
-0.5314 -1.8901 0.7418
-0.3783 -1.9267 0.7409
-0.2228 -1.9510 0.7401
-0.0658 -1.9628 0.7392
0.0916 -1.9621 0.7384
0.2484 -1.9489 0.7376
0.4037 -1.9231 0.7368
0.5564 -1.8851 0.7361
0.7057 -1.8351 0.7354
2.3593 -4.9189 2.0384
2.7483 -4.7195 2.0384
3.1202 -4.4892 2.0384
3.4725 -4.2293 2.0384
3.8030 -3.9415 2.0384
4.1093 -3.6277 2.0384
4.3893 -3.2899 2.0384
4.6412 -2.9303 2.0384
4.8632 -2.5512 2.0384
5.0538 -2.1552 2.0384
5.2117 -1.7450 2.0384
5.3358 -1.3231 2.0384
5.4252 -0.8925 2.0384
5.4794 -0.4560 2.0384
4.3415 0.9528 1.7930
4.2523 1.2970 1.7941
4.6955 1.8541 2.0384
4.5295 2.2222 2.0384
4.3344 2.5754 2.0384
4.1115 2.9115 2.0384
3.8623 3.2282 2.0384
3.5885 3.5236 2.0384
3.2920 3.7956 2.0384
2.9748 4.0426 2.0384
2.6390 4.2631 2.0384
2.2868 4.4556 2.0384
0.7008 1.6854 0.7438
0.5637 1.7360 0.7446
0.4228 1.7754 0.7455
0.2793 1.8034 0.7463
0.1339 1.8197 0.7471
-0.0122 1.8243 0.7479
-0.1583 1.8171 0.7486
-0.3034 1.7982 0.7493
-0.4464 1.7677 0.7500
-0.5865 1.7258 0.7507
-0.7227 1.6727 0.7513
-2.3161 4.3622 2.0384
-2.6559 4.1584 2.0384
-2.9781 3.9284 2.0384
-3.2808 3.6737 2.0384
-3.5622 3.3960 2.0384
-3.8205 3.0971 2.0384
-4.0541 2.7789 2.0384
-4.2618 2.4433 2.0384
-4.4421 2.0924 2.0384
-4.5941 1.7286 2.0384
-4.7167 1.3539 2.0384
-4.8094 0.9708 2.0384
-4.8714 0.5816 2.0384
-4.9025 0.1887 2.0384
-4.9024 -0.2054 2.0384
-4.8712 -0.5983 2.0384
-4.8089 -0.9876 2.0384
-4.7161 -1.3709 2.0384
-4.5931 -1.7458 2.0384
-4.4408 -2.1100 2.0384
-4.2600 -2.4611 2.0384
-4.0518 -2.7970 2.0384
-3.8175 -3.1155 2.0384
-3.5584 -3.4147 2.0384
-3.2762 -3.6926 2.0384
-2.9726 -3.9473 2.0384
-2.6493 -4.1774 2.0384
-2.3085 -4.3811 2.0384
-0.7119 -1.6618 0.7433
-0.5764 -1.7136 0.7425
-0.4373 -1.7544 0.7417
-0.2954 -1.7840 0.7408
-0.1516 -1.8022 0.7400
-0.0068 -1.8088 0.7393
0.1381 -1.8039 0.7385
0.2821 -1.7874 0.7378
0.4243 -1.7595 0.7371
0.5639 -1.7204 0.7365
0.7000 -1.6702 0.7359
2.3053 -4.4613 2.0384
2.6574 -4.2669 2.0384
2.9929 -4.0445 2.0384
3.3097 -3.7955 2.0384
3.6054 -3.5215 2.0384
3.8783 -3.2244 2.0384
4.1263 -2.9059 2.0384
4.3478 -2.5682 2.0384
4.5413 -2.2135 2.0384
4.7055 -1.8442 2.0384
4.8392 -1.4626 2.0384
4.9415 -1.0714 2.0384
5.0118 -0.6731 2.0384
5.0496 -0.2704 2.0384
5.0545 0.1340 2.0384
4.3386 0.4638 1.7594
4.3407 0.8191 1.7817
4.2573 1.1623 1.7807
4.7492 1.7149 2.0384
4.5943 2.0879 2.0384
4.4098 2.4469 2.0384
4.1969 2.7896 2.0384
3.9572 3.1137 2.0384
3.6923 3.4171 2.0384
3.4040 3.6980 2.0384
3.0941 3.9545 2.0384
2.7649 4.1849 2.0384
2.4186 4.3879 2.0384
0.7504 1.6640 0.7435
0.6148 1.7186 0.7443
0.4752 1.7622 0.7451
0.3325 1.7944 0.7460
0.1877 1.8151 0.7468
0.0418 1.8240 0.7476
-0.1045 1.8212 0.7483
-0.2500 1.8066 0.7491
-0.3939 1.7803 0.7498
-0.5352 1.7425 0.7504
-0.6729 1.6936 0.7510
-2.1867 4.4306 2.0384
-2.5324 4.2367 2.0384
-2.8613 4.0162 2.0384
-3.1715 3.7705 2.0384
-3.4609 3.5011 2.0384
-3.7279 3.2098 2.0384
-3.9709 2.8985 2.0384
-4.1882 2.5690 2.0384
-4.3788 2.2236 2.0384
-4.5413 1.8643 2.0384
-4.6749 1.4933 2.0384
-4.7787 1.1131 2.0384
-4.8521 0.7258 2.0384
-4.8947 0.3340 2.0384
-4.9061 -0.0599 2.0384
-4.8863 -0.4536 2.0384
-4.8355 -0.8445 2.0384
-4.7539 -1.2303 2.0384
-4.6419 -1.6086 2.0384
-4.5004 -1.9769 2.0384
-4.3299 -2.3331 2.0384
-4.1317 -2.6749 2.0384
-3.9069 -3.0001 2.0384
-3.6568 -3.3066 2.0384
-3.3830 -3.5926 2.0384
-3.0870 -3.8561 2.0384
-2.7708 -4.0954 2.0384
-2.4362 -4.3090 2.0384
-0.7608 -1.6400 0.7436
-0.6269 -1.6958 0.7428
-0.4891 -1.7406 0.7420
-0.3481 -1.7744 0.7411
-0.2049 -1.7968 0.7403
-0.0603 -1.8077 0.7395
0.0846 -1.8070 0.7388
0.2291 -1.7948 0.7380
0.3721 -1.7711 0.7373
0.5128 -1.7361 0.7367
0.6502 -1.6900 0.7361
0.7836 -1.6330 0.7355
2.5292 -4.3420 2.0384
2.8712 -4.1297 2.0384
3.1951 -3.8904 2.0384
3.4988 -3.6255 2.0384
3.7804 -3.3366 2.0384
4.0377 -3.0258 2.0384
4.2692 -2.6949 2.0384
4.4732 -2.3463 2.0384
4.6484 -1.9820 2.0384
4.7934 -1.6047 2.0384
4.9075 -1.2168 2.0384
4.9896 -0.8208 2.0384
5.0394 -0.4194 2.0384
4.5612 1.0008 2.0384
4.4649 1.3615 2.0384
4.3396 1.7132 2.0384
4.1864 2.0534 2.0384
4.0063 2.3799 2.0384
3.8005 2.6906 2.0384
3.5704 2.9835 2.0384
3.3175 3.2566 2.0384
3.0437 3.5083 2.0384
2.7506 3.7369 2.0384
2.4404 3.9409 2.0384
0.7709 1.5014 0.7430
0.6483 1.5582 0.7437
0.5214 1.6050 0.7445
0.3912 1.6414 0.7453
0.2585 1.6673 0.7461
0.1241 1.6824 0.7468
-0.0110 1.6866 0.7475
-0.1461 1.6800 0.7482
-0.2802 1.6625 0.7489
-0.4124 1.6343 0.7495
-0.5419 1.5955 0.7501
-0.6679 1.5465 0.7507
-2.1424 4.0365 2.0384
-2.4570 3.8481 2.0384
-2.7553 3.6355 2.0384
-3.0356 3.4000 2.0384
-3.2962 3.1431 2.0384
-3.5354 2.8666 2.0384
-3.7518 2.5721 2.0384
-3.9442 2.2616 2.0384
-4.1112 1.9369 2.0384
-4.2520 1.6001 2.0384
-4.3656 1.2533 2.0384
-4.4514 0.8986 2.0384
-4.5089 0.5383 2.0384
-4.5376 0.1747 2.0384
-4.5375 -0.1902 2.0384
-4.5085 -0.5540 2.0384
-4.4508 -0.9144 2.0384
-4.3647 -1.2691 2.0384
-4.2508 -1.6161 2.0384
-4.1096 -1.9531 2.0384
-3.9421 -2.2780 2.0384
-3.7492 -2.5888 2.0384
-3.5322 -2.8834 2.0384
-3.2923 -3.1601 2.0384
-3.0309 -3.4171 2.0384
-2.7498 -3.6526 2.0384
-2.4505 -3.8652 2.0384
-0.7794 -1.4797 0.7441
-0.6583 -1.5375 0.7433
-0.5330 -1.5854 0.7426
-0.4043 -1.6231 0.7418
-0.2730 -1.6505 0.7410
-0.1400 -1.6673 0.7403
-0.0060 -1.6734 0.7396
0.1280 -1.6689 0.7389
0.2613 -1.6537 0.7382
0.3929 -1.6278 0.7376
0.5220 -1.5916 0.7370
0.6478 -1.5452 0.7364
0.7696 -1.4889 0.7359
2.4570 -3.9439 2.0384
2.7670 -3.7381 2.0384
3.0596 -3.5078 2.0384
3.3327 -3.2545 2.0384
3.5847 -2.9797 2.0384
3.8137 -2.6853 2.0384
4.0183 -2.3731 2.0384
4.1969 -2.0453 2.0384
4.3485 -1.7040 2.0384
4.4720 -1.3515 2.0384
4.5665 -0.9900 2.0384
4.6314 -0.6220 2.0384
4.6663 -0.2499 2.0384
4.6709 0.1237 2.0384
4.6452 0.4964 2.0384
4.5894 0.8658 2.0384
4.4456 1.2134 2.0120
4.3892 1.5846 2.0384
4.2462 1.9293 2.0384
4.0759 2.2611 2.0384
3.8794 2.5779 2.0384
3.6580 2.8776 2.0384
3.4134 3.1582 2.0384
3.1471 3.4180 2.0384
2.8609 3.6553 2.0384
2.5568 3.8685 2.0384
2.2368 4.0565 2.0384
0.6941 1.5384 0.7435
0.5687 1.5889 0.7442
0.4396 1.6292 0.7450
0.3077 1.6590 0.7458
0.1739 1.6781 0.7465
0.0389 1.6863 0.7473
-0.0963 1.6837 0.7480
-0.2308 1.6702 0.7487
-0.3639 1.6459 0.7493
-0.4945 1.6110 0.7499
-0.6219 1.5658 0.7505
-0.7452 1.5104 0.7510
-2.3426 3.9205 2.0384
-2.6472 3.7167 2.0384
-2.9344 3.4895 2.0384
-3.2024 3.2403 2.0384
-3.4497 2.9709 2.0384
-3.6747 2.6828 2.0384
-3.8760 2.3779 2.0384
-4.0525 2.0582 2.0384
-4.2031 1.7257 2.0384
-4.3269 1.3823 2.0384
-4.4230 1.0304 2.0384
-4.4910 0.6718 2.0384
-4.5304 0.3092 2.0384
-4.5409 -0.0555 2.0384
-4.5226 -0.4199 2.0384
-4.4754 -0.7818 2.0384
-4.3998 -1.1389 2.0384
-4.2960 -1.4891 2.0384
-4.1648 -1.8300 2.0384
-4.0069 -2.1596 2.0384
-3.8233 -2.4758 2.0384
-3.6151 -2.7767 2.0384
-3.3834 -3.0602 2.0384
-3.1298 -3.3246 2.0384
-2.8558 -3.5683 2.0384
-2.5630 -3.7895 2.0384
-2.2532 -3.9868 2.0384
-0.7035 -1.5173 0.7436
-0.5797 -1.5688 0.7428
-0.4522 -1.6104 0.7421
-0.3217 -1.6416 0.7413
-0.1892 -1.6623 0.7406
-0.0555 -1.6724 0.7398
0.0786 -1.6718 0.7391
0.2122 -1.6605 0.7384
0.3445 -1.6386 0.7378
0.4747 -1.6062 0.7372
0.6018 -1.5635 0.7366
0.7252 -1.5108 0.7361
2.3386 -4.0134 2.0384
2.6545 -3.8170 2.0384
2.9537 -3.5956 2.0384
3.2343 -3.3506 2.0384
3.4943 -3.0835 2.0384
3.7320 -2.7961 2.0384
3.9457 -2.4903 2.0384
4.1340 -2.1679 2.0384
4.2958 -1.8314 2.0384
4.4298 -1.4828 2.0384
4.5350 -1.1243 2.0384
4.6109 -0.7584 2.0384
4.6569 -0.3876 2.0384
4.2322 0.9283 2.0384
4.1429 1.2630 2.0384
4.0269 1.5893 2.0384
3.8849 1.9050 2.0384
3.7179 2.2080 2.0384
3.5271 2.4964 2.0384
3.3137 2.7683 2.0384
3.0793 3.0219 2.0384
2.8253 3.2556 2.0384
2.5535 3.4679 2.0384
2.2657 3.6576 2.0384
0.7158 1.3936 0.7430
0.6020 1.4463 0.7437
0.4843 1.4897 0.7445
0.3634 1.5235 0.7452
0.2402 1.5475 0.7459
0.1155 1.5615 0.7466
-0.0099 1.5655 0.7472
-0.1353 1.5593 0.7479
-0.2598 1.5431 0.7485
-0.3825 1.5169 0.7491
-0.5027 1.4809 0.7496
-0.6197 1.4354 0.7501
-0.7326 1.3807 0.7506
-2.2816 3.5746 2.0384
-2.5589 3.3773 2.0384
-2.8195 3.1586 2.0384
-3.0617 2.9202 2.0384
-3.2841 2.6633 2.0384
-3.4853 2.3898 2.0384
-3.6641 2.1013 2.0384
-3.8194 1.7997 2.0384
-3.9503 1.4867 2.0384
-4.0559 1.1645 2.0384
-4.1357 0.8350 2.0384
-4.1891 0.5002 2.0384
-4.2158 0.1622 2.0384
-4.2157 -0.1768 2.0384
-4.1887 -0.5148 2.0384
-4.1350 -0.8497 2.0384
-4.0549 -1.1793 2.0384
-3.9489 -1.5017 2.0384
-3.8176 -1.8148 2.0384
-3.6619 -2.1166 2.0384
-3.4825 -2.4052 2.0384
-3.2807 -2.6789 2.0384
-3.0577 -2.9358 2.0384
-2.8147 -3.1743 2.0384
-2.5534 -3.3929 2.0384
-2.2753 -3.5901 2.0384
-0.7235 -1.3742 0.7441
-0.6111 -1.4279 0.7433
-0.4947 -1.4724 0.7426
-0.3752 -1.5075 0.7419
-0.2533 -1.5329 0.7412
-0.1297 -1.5485 0.7405
-0.0053 -1.5542 0.7398
0.1192 -1.5500 0.7392
0.2429 -1.5358 0.7386
0.3651 -1.5118 0.7380
0.4851 -1.4782 0.7374
0.6019 -1.4351 0.7369
0.7150 -1.3827 0.7365
2.2808 -3.6599 2.0384
2.5683 -3.4688 2.0384
2.8397 -3.2549 2.0384
3.0930 -3.0197 2.0384
3.3266 -2.7646 2.0384
3.5390 -2.4914 2.0384
3.7287 -2.2017 2.0384
3.8943 -1.8975 2.0384
4.0349 -1.5809 2.0384
4.1493 -1.2538 2.0384
4.2370 -0.9184 2.0384
4.2971 -0.5771 2.0384
4.3295 -0.2319 2.0384
4.3338 0.1147 2.0384
4.3100 0.4605 2.0384
4.2583 0.8031 2.0384
4.1790 1.1404 2.0384
4.0728 1.4700 2.0384
3.9403 1.7898 2.0384
3.7824 2.0978 2.0384
3.6002 2.3918 2.0384
3.3950 2.6700 2.0384
3.1682 2.9305 2.0384
2.9212 3.1718 2.0384
2.6558 3.3922 2.0384
2.3737 3.5903 2.0384
0.7567 1.3719 0.7427
0.6445 1.4279 0.7435
0.5281 1.4748 0.7442
0.4083 1.5122 0.7449
0.2859 1.5398 0.7456
0.1617 1.5575 0.7463
0.0364 1.5652 0.7470
-0.0891 1.5627 0.7477
-0.2140 1.5502 0.7483
-0.3374 1.5277 0.7489
-0.4587 1.4953 0.7494
-0.5769 1.4533 0.7500
-0.6914 1.4020 0.7504
-2.1754 3.6418 2.0384
-2.4584 3.4527 2.0384
-2.7253 3.2417 2.0384
-2.9745 3.0104 2.0384
-3.2044 2.7602 2.0384
-3.4135 2.4926 2.0384
-3.6008 2.2094 2.0384
-3.7649 1.9124 2.0384
-3.9049 1.6034 2.0384
-4.0199 1.2844 2.0384
-4.1093 0.9573 2.0384
-4.1725 0.6242 2.0384
-4.2091 0.2872 2.0384
-4.2189 -0.0517 2.0384
-4.2018 -0.3903 2.0384
-4.1579 -0.7266 2.0384
-4.0875 -1.0584 2.0384
-3.9910 -1.3837 2.0384
-3.8690 -1.7004 2.0384
-3.7222 -2.0066 2.0384
-3.5514 -2.3003 2.0384
-3.3578 -2.5797 2.0384
-3.1424 -2.8430 2.0384
-2.9066 -3.0885 2.0384
-2.6519 -3.3146 2.0384
-2.3798 -3.5199 2.0384
-0.7639 -1.3522 0.7443
-0.6531 -1.4091 0.7436
-0.5381 -1.4570 0.7429
-0.4196 -1.4956 0.7422
-0.2985 -1.5246 0.7415
-0.1755 -1.5439 0.7408
-0.0513 -1.5533 0.7401
0.0733 -1.5527 0.7394
0.1974 -1.5422 0.7388
0.3203 -1.5218 0.7382
0.4411 -1.4917 0.7376
0.5592 -1.4521 0.7371
0.6738 -1.4031 0.7366
0.7841 -1.3451 0.7362
2.4640 -3.5421 2.0384
2.7415 -3.3364 2.0384
3.0017 -3.1089 2.0384
3.2428 -2.8610 2.0384
3.4632 -2.5942 2.0384
3.6614 -2.3104 2.0384
3.8360 -2.0114 2.0384
3.9860 -1.6991 2.0384
4.1102 -1.3756 2.0384
4.2078 -1.0431 2.0384
4.2781 -0.7036 2.0384
4.3208 -0.3596 2.0384
3.9403 0.8641 2.0384
3.8573 1.1757 2.0384
3.7494 1.4794 2.0384
3.6173 1.7734 2.0384
3.4620 2.0555 2.0384
3.2845 2.3241 2.0384
3.0860 2.5773 2.0384
2.8678 2.8136 2.0384
2.6315 3.0313 2.0384
2.3785 3.2292 2.0384
0.7687 1.2404 0.7424
0.6670 1.2979 0.7430
0.5609 1.3470 0.7437
0.4513 1.3874 0.7444
0.3387 1.4189 0.7451
0.2240 1.4412 0.7457
0.1078 1.4542 0.7464
-0.0090 1.4579 0.7470
-0.1257 1.4521 0.7476
-0.2416 1.4370 0.7482
-0.3560 1.4127 0.7487
-0.4679 1.3792 0.7492
-0.5768 1.3368 0.7497
-0.6820 1.2858 0.7501
-2.1257 3.3314 2.0384
-2.3842 3.1476 2.0384
-2.6272 2.9440 2.0384
-2.8531 2.7218 2.0384
-3.0604 2.4825 2.0384
-3.2481 2.2276 2.0384
-3.4149 1.9588 2.0384
-3.5597 1.6776 2.0384
-3.6818 1.3859 2.0384
-3.7803 1.0855 2.0384
-3.8547 0.7783 2.0384
-3.9045 0.4662 2.0384
-3.9295 0.1512 2.0384
-3.9293 -0.1649 2.0384
-3.9041 -0.4800 2.0384
-3.8540 -0.7922 2.0384
-3.7793 -1.0994 2.0384
-3.6804 -1.3999 2.0384
-3.5579 -1.6917 2.0384
-3.4126 -1.9730 2.0384
-3.2453 -2.2419 2.0384
-3.0571 -2.4969 2.0384
-2.8490 -2.7362 2.0384
-2.6225 -2.9584 2.0384
-2.3788 -3.1620 2.0384
-0.7743 -1.2223 0.7447
-0.6739 -1.2805 0.7440
-0.5691 -1.3305 0.7433
-0.4607 -1.3720 0.7427
-0.3493 -1.4047 0.7420
-0.2357 -1.4284 0.7414
-0.1206 -1.4429 0.7407
-0.0047 -1.4482 0.7401
0.1113 -1.4443 0.7395
0.2266 -1.4311 0.7389
0.3405 -1.4087 0.7384
0.4523 -1.3774 0.7378
0.5611 -1.3372 0.7374
0.6665 -1.2884 0.7369
0.7676 -1.2314 0.7365
2.3920 -3.2298 2.0384
2.6446 -3.0305 2.0384
2.8803 -2.8114 2.0384
3.0977 -2.5738 2.0384
3.2953 -2.3194 2.0384
3.4717 -2.0496 2.0384
3.6259 -1.7664 2.0384
3.7566 -1.4716 2.0384
3.8631 -1.1672 2.0384
3.9446 -0.8550 2.0384
4.0006 -0.5372 2.0384
4.0308 -0.2160 2.0384
4.0348 0.1067 2.0384
4.0127 0.4285 2.0384
3.9646 0.7475 2.0384
3.8909 1.0615 2.0384
3.7921 1.3683 2.0384
3.6688 1.6661 2.0384
3.5220 1.9529 2.0384
3.3525 2.2267 2.0384
3.1616 2.4857 2.0384
2.9505 2.7284 2.0384
2.7207 2.9532 2.0384
2.4737 3.1586 2.0384
2.2112 3.3433 2.0384
0.7050 1.2776 0.7428
0.6005 1.3298 0.7435
0.4921 1.3735 0.7441
0.3806 1.4083 0.7448
0.2665 1.4340 0.7455
0.1508 1.4505 0.7461
0.0342 1.4576 0.7468
-0.0827 1.4554 0.7474
-0.1990 1.4437 0.7479
-0.3140 1.4227 0.7485
-0.4269 1.3926 0.7490
-0.5370 1.3535 0.7495
-0.6437 1.3056 0.7500
-0.7461 1.2494 0.7504
-2.2905 3.2178 2.0384
-2.5394 3.0214 2.0384
-2.7718 2.8059 2.0384
-2.9861 2.5727 2.0384
-3.1812 2.3234 2.0384
-3.3558 2.0595 2.0384
-3.5089 1.7827 2.0384
-3.6395 1.4947 2.0384
-3.7468 1.1973 2.0384
-3.8301 0.8924 2.0384
-3.8890 0.5819 2.0384
-3.9232 0.2677 2.0384
-3.9323 -0.0483 2.0384
-3.9163 -0.3639 2.0384
-3.8754 -0.6774 2.0384
-3.8097 -0.9867 2.0384
-3.7196 -1.2899 2.0384
-3.6058 -1.5851 2.0384
-3.4688 -1.8705 2.0384
-3.3095 -2.1442 2.0384
-3.1289 -2.4045 2.0384
-2.9281 -2.6498 2.0384
-2.7082 -2.8785 2.0384
-2.4707 -3.0891 2.0384
-2.2170 -3.2802 2.0384
-0.7115 -1.2599 0.7443
-0.6083 -1.3130 0.7436
-0.5011 -1.3577 0.7429
-0.3908 -1.3936 0.7423
-0.2779 -1.4207 0.7416
-0.1632 -1.4386 0.7410
-0.0475 -1.4474 0.7403
0.0685 -1.4468 0.7397
0.1842 -1.4370 0.7391
0.2987 -1.4181 0.7386
0.4113 -1.3900 0.7380
0.5213 -1.3530 0.7375
0.6281 -1.3074 0.7371
0.7308 -1.2534 0.7367
2.2949 -3.2980 2.0384
2.5532 -3.1064 2.0384
2.7953 -2.8945 2.0384
3.0197 -2.6635 2.0384
3.2247 -2.4151 2.0384
3.4091 -2.1509 2.0384
3.5716 -1.8724 2.0384
3.7111 -1.5817 2.0384
3.8267 -1.2805 2.0384
3.9175 -0.9710 2.0384
3.9830 -0.6550 2.0384
4.0227 -0.3348 2.0384
3.6793 0.8066 2.0384
3.6019 1.0975 2.0384
3.5012 1.3811 2.0384
3.3780 1.6556 2.0384
3.2331 1.9191 2.0384
3.0674 2.1699 2.0384
2.8822 2.4065 2.0384
2.6786 2.6272 2.0384
2.4580 2.8306 2.0384
2.2219 3.0156 2.0384
0.7182 1.1585 0.7424
0.6232 1.2122 0.7431
0.5241 1.2580 0.7437
0.4217 1.2958 0.7443
0.3166 1.3251 0.7449
0.2095 1.3460 0.7456
0.1010 1.3582 0.7462
-0.0081 1.3616 0.7467
-0.1172 1.3562 0.7473
-0.2254 1.3421 0.7478
-0.3322 1.3194 0.7484
-0.4368 1.2881 0.7488
-0.5385 1.2485 0.7493
-0.6367 1.2009 0.7497
-0.7308 1.1456 0.7501
-2.2276 2.9417 2.0384
-2.4548 2.7515 2.0384
-2.6660 2.5440 2.0384
-2.8599 2.3204 2.0384
-3.0354 2.0822 2.0384
-3.1914 1.8309 2.0384
-3.3269 1.5681 2.0384
-3.4410 1.2955 2.0384
-3.5332 1.0147 2.0384
-3.6028 0.7275 2.0384
-3.6493 0.4358 2.0384
-3.6726 0.1412 2.0384
-3.6725 -0.1542 2.0384
-3.6489 -0.4488 2.0384
-3.6020 -0.7406 2.0384
-3.5320 -1.0278 2.0384
-3.4395 -1.3086 2.0384
-3.3249 -1.5813 2.0384
-3.1890 -1.8442 2.0384
-3.0326 -2.0955 2.0384
-2.8565 -2.3337 2.0384
-2.6620 -2.5573 2.0384
-2.4502 -2.7649 2.0384
-2.2224 -2.9550 2.0384
-0.7233 -1.1421 0.7446
-0.6294 -1.1965 0.7440
-0.5315 -1.2432 0.7434
-0.4302 -1.2820 0.7427
-0.3262 -1.3125 0.7421
-0.2200 -1.3347 0.7415
-0.1124 -1.3483 0.7409
-0.0041 -1.3533 0.7403
0.1043 -1.3496 0.7398
0.2120 -1.3372 0.7392
0.3184 -1.3163 0.7387
0.4228 -1.2870 0.7382
0.5246 -1.2495 0.7378
0.6230 -1.2039 0.7374
0.7175 -1.1506 0.7370
2.2343 -3.0159 2.0384
2.4700 -2.8297 2.0384
2.6900 -2.6250 2.0384
2.8929 -2.4031 2.0384
3.0773 -2.1655 2.0384
3.2419 -1.9136 2.0384
3.3857 -1.6492 2.0384
3.5077 -1.3739 2.0384
3.6071 -1.0897 2.0384
3.6832 -0.7982 2.0384
3.7355 -0.5016 2.0384
3.7636 -0.2017 2.0384
3.7673 0.0995 2.0384
3.7467 0.4000 2.0384
3.7019 0.6978 2.0384
3.6332 0.9909 2.0384
3.5410 1.2774 2.0384
3.4260 1.5555 2.0384
3.2890 1.8232 2.0384
3.1309 2.0789 2.0384
2.9528 2.3209 2.0384
2.7558 2.5476 2.0384
2.5413 2.7576 2.0384
2.3108 2.9495 2.0384
0.7522 1.1368 0.7422
0.6588 1.1933 0.7428
0.5611 1.2420 0.7435
0.4599 1.2828 0.7441
0.3557 1.3153 0.7447
0.2492 1.3393 0.7453
0.1411 1.3547 0.7459
0.0322 1.3613 0.7465
-0.0770 1.3592 0.7471
-0.1856 1.3483 0.7477
-0.2930 1.3288 0.7482
-0.3985 1.3006 0.7487
-0.5013 1.2641 0.7491
-0.6009 1.2194 0.7495
-0.6966 1.1669 0.7499
-2.1400 3.0073 2.0384
-2.3727 2.8238 2.0384
-2.5900 2.6225 2.0384
-2.7904 2.4047 2.0384
-2.9729 2.1717 2.0384
-3.1362 1.9251 2.0384
-3.2793 1.6663 2.0384
-3.4014 1.3971 2.0384
-3.5018 1.1192 2.0384
-3.5797 0.8342 2.0384
-3.6348 0.5439 2.0384
-3.6667 0.2502 2.0384
-3.6752 -0.0452 2.0384
-3.6603 -0.3403 2.0384
-3.6220 -0.6333 2.0384
-3.5605 -0.9224 2.0384
-3.4763 -1.2058 2.0384
-3.3698 -1.4817 2.0384
-3.2416 -1.7484 2.0384
-3.0926 -2.0042 2.0384
-2.9237 -2.2474 2.0384
-2.7359 -2.4766 2.0384
-2.5303 -2.6902 2.0384
-2.3082 -2.8869 2.0384
-0.7568 -1.1201 0.7448
-0.6646 -1.1773 0.7442
-0.5681 -1.2269 0.7436
-0.4680 -1.2686 0.7430
-0.3649 -1.3022 0.7423
-0.2594 -1.3275 0.7417
-0.1523 -1.3443 0.7411
-0.0441 -1.3524 0.7405
0.0643 -1.3519 0.7400
0.1724 -1.3428 0.7394
0.2793 -1.3251 0.7389
0.3846 -1.2988 0.7384
0.4874 -1.2643 0.7379
0.5871 -1.2216 0.7375
0.6831 -1.1711 0.7371
0.7748 -1.1131 0.7368
2.3847 -2.9006 2.0384
2.6107 -2.7026 2.0384
2.8201 -2.4869 2.0384
3.0114 -2.2549 2.0384
3.1835 -2.0081 2.0384
3.3351 -1.7481 2.0384
3.4653 -1.4767 2.0384
3.5731 -1.1955 2.0384
3.6579 -0.9065 2.0384
3.7190 -0.6116 2.0384
3.7560 -0.3126 2.0384
3.4441 0.7548 2.0384
3.3717 1.0271 2.0384
3.2775 1.2926 2.0384
3.1623 1.5495 2.0384
3.0267 1.7961 2.0384
2.8718 2.0310 2.0384
2.6985 2.2525 2.0384
2.5080 2.4591 2.0384
2.3016 2.6497 2.0384
0.7573 1.0275 0.7419
0.6727 1.0847 0.7425
0.5837 1.1349 0.7431
0.4910 1.1778 0.7437
0.3951 1.2131 0.7443
0.2967 1.2406 0.7449
0.1964 1.2601 0.7454
0.0948 1.2715 0.7460
-0.0074 1.2747 0.7465
-0.1095 1.2697 0.7471
-0.2108 1.2565 0.7476
-0.3108 1.2352 0.7480
-0.4087 1.2059 0.7485
-0.5039 1.1689 0.7489
-0.5959 1.1244 0.7493
-0.6839 1.0726 0.7496
-0.7675 1.0139 0.7499
-2.2991 2.5777 2.0384
-2.4971 2.3833 2.0384
-2.6788 2.1739 2.0384
-2.8433 1.9508 2.0384
-2.9895 1.7154 2.0384
-3.1165 1.4692 2.0384
-3.2235 1.2138 2.0384
-3.3099 0.9507 2.0384
-3.3751 0.6816 2.0384
-3.4188 0.4082 2.0384
-3.4406 0.1323 2.0384
-3.4404 -0.1446 2.0384
-3.4183 -0.4206 2.0384
-3.3743 -0.6940 2.0384
-3.3087 -0.9631 2.0384
-3.2220 -1.2262 2.0384
-3.1145 -1.4817 2.0384
-2.9871 -1.7279 2.0384
-2.8404 -1.9633 2.0384
-2.6754 -2.1864 2.0384
-2.4931 -2.3958 2.0384
-2.2946 -2.5901 2.0384
-0.7607 -1.0119 0.7451
-0.6772 -1.0697 0.7445
-0.5893 -1.1207 0.7440
-0.4976 -1.1644 0.7434
-0.4027 -1.2008 0.7428
-0.3052 -1.2294 0.7422
-0.2058 -1.2501 0.7416
-0.1051 -1.2629 0.7411
-0.0036 -1.2675 0.7405
0.0979 -1.2641 0.7400
0.1988 -1.2525 0.7395
0.2985 -1.2330 0.7390
0.3963 -1.2055 0.7386
0.4916 -1.1703 0.7381
0.5838 -1.1276 0.7377
0.6723 -1.0777 0.7374
0.7565 -1.0208 0.7371
2.3126 -2.6487 2.0384
2.5185 -2.4570 2.0384
2.7083 -2.2493 2.0384
2.8808 -2.0268 2.0384
3.0348 -1.7910 2.0384
3.1694 -1.5435 2.0384
3.2835 -1.2859 2.0384
3.3765 -1.0198 2.0384
3.4476 -0.7471 2.0384
3.4965 -0.4695 2.0384
3.5229 -0.1888 2.0384
3.5264 0.0931 2.0384
3.5071 0.3743 2.0384
3.4652 0.6530 2.0384
3.4010 0.9273 2.0384
3.3148 1.1955 2.0384
3.2072 1.4557 2.0384
3.0791 1.7064 2.0384
2.9312 1.9458 2.0384
2.7645 2.1724 2.0384
2.5803 2.3846 2.0384
2.3796 2.5813 2.0384
0.7874 1.0047 0.7417
0.7045 1.0643 0.7423
0.6170 1.1172 0.7429
0.5256 1.1628 0.7435
0.4308 1.2010 0.7441
0.3333 1.2314 0.7446
0.2336 1.2539 0.7452
0.1324 1.2683 0.7458
0.0304 1.2745 0.7463
-0.0718 1.2725 0.7469
-0.1735 1.2623 0.7474
-0.2741 1.2440 0.7479
-0.3728 1.2177 0.7483
-0.4691 1.1835 0.7488
-0.5623 1.1417 0.7492
-0.6519 1.0925 0.7495
-0.7372 1.0363 0.7498
-2.2222 2.6454 2.0384
-2.4258 2.4569 2.0384
-2.6137 2.2529 2.0384
-2.7847 2.0347 2.0384
-2.9377 1.8036 2.0384
-3.0719 1.5612 2.0384
-3.1864 1.3090 2.0384
-3.2805 1.0486 2.0384
-3.3535 0.7815 2.0384
-3.4052 0.5096 2.0384
-3.4351 0.2343 2.0384
-3.4430 -0.0424 2.0384
-3.4290 -0.3189 2.0384
-3.3931 -0.5935 2.0384
-3.3354 -0.8643 2.0384
-3.2564 -1.1299 2.0384
-3.1566 -1.3884 2.0384
-3.0364 -1.6382 2.0384
-2.8968 -1.8778 2.0384
-2.7384 -2.1056 2.0384
-2.5624 -2.3202 2.0384
-2.3697 -2.5202 2.0384
-2.1615 -2.7044 2.0384
-0.7085 -1.0491 0.7447
-0.6222 -1.1027 0.7442
-0.5318 -1.1491 0.7436
-0.4381 -1.1882 0.7430
-0.3415 -1.2197 0.7424
-0.2427 -1.2434 0.7418
-0.1424 -1.2591 0.7413
-0.0411 -1.2668 0.7407
0.0605 -1.2663 0.7402
0.1617 -1.2577 0.7397
0.2619 -1.2411 0.7392
0.3604 -1.2165 0.7387
0.4567 -1.1842 0.7383
0.5501 -1.1442 0.7379
0.6401 -1.0969 0.7375
0.7259 -1.0426 0.7372
2.2328 -2.7151 2.0384
2.4443 -2.5297 2.0384
2.6402 -2.3277 2.0384
2.8192 -2.1105 2.0384
2.9802 -1.8795 2.0384
3.1220 -1.6362 2.0384
3.2438 -1.3821 2.0384
3.3447 -1.1189 2.0384
3.4239 -0.8484 2.0384
3.4811 -0.5724 2.0384
3.5158 -0.2927 2.0384
3.2307 0.7079 2.0384
3.1628 0.9632 2.0384
3.0746 1.2122 2.0384
2.9666 1.4532 2.0384
2.8395 1.6846 2.0384
2.6943 1.9049 2.0384
2.5318 2.1127 2.0384
2.3532 2.3066 2.0384
0.7856 0.9041 0.7415
0.7108 0.9640 0.7420
0.6314 1.0176 0.7426
0.5479 1.0647 0.7431
0.4609 1.1050 0.7437
0.3709 1.1381 0.7442
0.2786 1.1639 0.7448
0.1845 1.1822 0.7453
0.0892 1.1929 0.7458
-0.0067 1.1959 0.7463
-0.1024 1.1912 0.7468
-0.1975 1.1788 0.7473
-0.2913 1.1588 0.7478
-0.3832 1.1314 0.7482
-0.4725 1.0966 0.7486
-0.5588 1.0548 0.7489
-0.6414 1.0063 0.7492
-0.7199 0.9512 0.7495
-2.1576 2.4197 2.0384
-2.3435 2.2373 2.0384
-2.5142 2.0408 2.0384
-2.6687 1.8314 2.0384
-2.8060 1.6104 2.0384
-2.9253 1.3793 2.0384
-3.0258 1.1395 2.0384
-3.1069 0.8925 2.0384
-3.1681 0.6399 2.0384
-3.2091 0.3832 2.0384
-3.2296 0.1241 2.0384
-3.2294 -0.1358 2.0384
-3.2086 -0.3949 2.0384
-3.1673 -0.6516 2.0384
-3.1057 -0.9042 2.0384
-3.0242 -1.1512 2.0384
-2.9233 -1.3911 2.0384
-2.8036 -1.6222 2.0384
-2.6658 -1.8431 2.0384
-2.5108 -2.0525 2.0384
-2.3396 -2.2490 2.0384
-2.1532 -2.4313 2.0384
-0.7137 -0.9496 0.7450
-0.6353 -1.0039 0.7445
-0.5528 -1.0518 0.7439
-0.4668 -1.0929 0.7434
-0.3777 -1.1270 0.7428
-0.2862 -1.1538 0.7423
-0.1929 -1.1733 0.7417
-0.0984 -1.1853 0.7412
-0.0031 -1.1897 0.7407
0.0921 -1.1864 0.7402
0.1868 -1.1756 0.7397
0.2804 -1.1572 0.7393
0.3722 -1.1314 0.7389
0.4616 -1.0984 0.7385
0.5481 -1.0583 0.7381
0.6312 -1.0114 0.7378
0.7102 -0.9581 0.7375
0.7848 -0.8986 0.7372
2.3629 -2.3046 2.0384
2.5408 -2.1097 2.0384
2.7026 -1.9010 2.0384
2.8470 -1.6798 2.0384
2.9731 -1.4477 2.0384
3.0801 -1.2060 2.0384
3.1672 -0.9565 2.0384
3.2340 -0.7007 2.0384
3.2798 -0.4404 2.0384
3.3045 -0.1771 2.0384
3.3078 0.0872 2.0384
3.2898 0.3509 2.0384
3.2505 0.6123 2.0384
3.1903 0.8696 2.0384
3.1095 1.1211 2.0384
3.0087 1.3653 2.0384
2.8886 1.6004 2.0384
2.7500 1.8250 2.0384
2.5937 2.0375 2.0384
2.4210 2.2368 2.0384
2.2328 2.4213 2.0384
0.7390 0.9426 0.7418
0.6612 0.9985 0.7424
0.5791 1.0481 0.7429
0.4934 1.0909 0.7435
0.4044 1.1267 0.7440
0.3129 1.1552 0.7446
0.2194 1.1763 0.7451
0.1244 1.1898 0.7456
0.0287 1.1957 0.7462
-0.0671 1.1938 0.7467
-0.1626 1.1843 0.7471
-0.2569 1.1671 0.7476
-0.3495 1.1424 0.7480
-0.4399 1.1103 0.7484
-0.5273 1.0711 0.7488
-0.6114 1.0250 0.7491
-0.6914 0.9723 0.7494
-0.7670 0.9133 0.7497
-2.2766 2.3064 2.0384
-2.4530 2.1149 2.0384
-2.6136 1.9101 2.0384
-2.7574 1.6932 2.0384
-2.8834 1.4657 2.0384
-2.9909 1.2289 2.0384
-3.0792 0.9844 2.0384
-3.1479 0.7337 2.0384
-3.1964 0.4783 2.0384
-3.2245 0.2199 2.0384
-3.2319 -0.0399 2.0384
-3.2187 -0.2995 2.0384
-3.1849 -0.5572 2.0384
-3.1308 -0.8116 2.0384
-3.0566 -1.0608 2.0384
-2.9628 -1.3035 2.0384
-2.8499 -1.5380 2.0384
-2.7187 -1.7628 2.0384
-2.5700 -1.9767 2.0384
-2.4046 -2.1781 2.0384
-2.2237 -2.3657 2.0384
-0.7415 -0.9280 0.7452
-0.6647 -0.9846 0.7447
-0.5837 -1.0349 0.7441
-0.4989 -1.0785 0.7436
-0.4109 -1.1152 0.7430
-0.3203 -1.1448 0.7425
-0.2276 -1.1670 0.7419
-0.1334 -1.1817 0.7414
-0.0383 -1.1889 0.7409
0.0570 -1.1885 0.7404
0.1520 -1.1804 0.7399
0.2460 -1.1648 0.7394
0.3385 -1.1418 0.7390
0.4289 -1.1114 0.7386
0.5166 -1.0739 0.7382
0.6010 -1.0295 0.7379
0.6815 -0.9785 0.7376
0.7578 -0.9212 0.7373
2.2933 -2.3728 2.0384
2.4770 -2.1833 2.0384
2.6448 -1.9795 2.0384
2.7957 -1.7628 2.0384
2.9287 -1.5346 2.0384
3.0429 -1.2962 2.0384
3.1374 -1.0494 2.0384
3.2117 -0.7958 2.0384
3.2654 -0.5369 2.0384
3.2979 -0.2745 2.0384
3.0360 0.6650 2.0384
2.9723 0.9049 2.0384
2.8894 1.1389 2.0384
2.7880 1.3653 2.0384
2.6687 1.5828 2.0384
2.5323 1.7898 2.0384
2.3797 1.9851 2.0384
2.2119 2.1674 2.0384
0.7386 0.8497 0.7416
0.6683 0.9060 0.7421
0.5936 0.9564 0.7426
0.5152 1.0006 0.7431
0.4334 1.0384 0.7437
0.3488 1.0696 0.7442
0.2620 1.0938 0.7447
0.1736 1.1110 0.7452
0.0840 1.1211 0.7457
-0.0060 1.1239 0.7462
-0.0960 1.1195 0.7466
-0.1854 1.1078 0.7471
-0.2735 1.0891 0.7475
-0.3599 1.0633 0.7479
-0.4439 1.0306 0.7483
-0.5249 0.9914 0.7486
-0.6026 0.9457 0.7489
-0.6763 0.8940 0.7492
-0.7457 0.8365 0.7494
-2.2031 2.1038 2.0384
-2.3637 1.9191 2.0384
-2.5090 1.7222 2.0384
-2.6382 1.5144 2.0384
-2.7504 1.2971 2.0384
-2.8449 1.0716 2.0384
-2.9213 0.8393 2.0384
-2.9789 0.6017 2.0384
-3.0174 0.3604 2.0384
-3.0367 0.1167 2.0384
-3.0365 -0.1278 2.0384
-3.0169 -0.3715 2.0384
-2.9780 -0.6128 2.0384
-2.9200 -0.8504 2.0384
-2.8433 -1.0827 2.0384
-2.7484 -1.3082 2.0384
-2.6358 -1.5255 2.0384
-2.5062 -1.7332 2.0384
-2.3604 -1.9301 2.0384
-2.1993 -2.1148 2.0384
-0.7401 -0.8360 0.7454
-0.6707 -0.8928 0.7449
-0.5970 -0.9438 0.7444
-0.5195 -0.9888 0.7439
-0.4386 -1.0275 0.7434
-0.3549 -1.0595 0.7429
-0.2689 -1.0848 0.7423
-0.1811 -1.1031 0.7418
-0.0922 -1.1144 0.7413
-0.0027 -1.1185 0.7409
0.0869 -1.1154 0.7404
0.1759 -1.1052 0.7400
0.2638 -1.0880 0.7395
0.3501 -1.0637 0.7391
0.4342 -1.0326 0.7388
0.5155 -0.9950 0.7384
0.5936 -0.9509 0.7381
0.6679 -0.9007 0.7378
0.7380 -0.8448 0.7376
2.2208 -2.1655 2.0384
2.3880 -1.9823 2.0384
2.5399 -1.7862 2.0384
2.6755 -1.5783 2.0384
2.7940 -1.3602 2.0384
2.8945 -1.1332 2.0384
2.9763 -0.8987 2.0384
3.0390 -0.6584 2.0384
3.0820 -0.4138 2.0384
3.1052 -0.1665 2.0384
3.1084 0.0819 2.0384
3.0914 0.3296 2.0384
3.0546 0.5752 2.0384
2.9980 0.8170 2.0384
2.9222 1.0533 2.0384
2.8275 1.2827 2.0384
2.7147 1.5036 2.0384
2.5845 1.7147 2.0384
2.4378 1.9145 2.0384
2.2755 2.1018 2.0384
0.7634 0.8276 0.7414
0.6948 0.8859 0.7419
0.6216 0.9385 0.7424
0.5445 0.9850 0.7429
0.4639 1.0253 0.7435
0.3803 1.0589 0.7440
0.2943 1.0857 0.7445
0.2064 1.1055 0.7450
0.1172 1.1182 0.7455
0.0272 1.1237 0.7460
-0.0629 1.1220 0.7465
-0.1525 1.1130 0.7469
-0.2412 1.0968 0.7474
-0.3283 1.0736 0.7478
-0.4132 1.0435 0.7481
-0.4954 1.0066 0.7485
-0.5744 0.9633 0.7488
-0.6496 0.9138 0.7491
-0.7206 0.8584 0.7493
-2.1402 2.1687 2.0384
-2.3061 1.9887 2.0384
-2.4572 1.7962 2.0384
-2.5924 1.5923 2.0384
-2.7110 1.3783 2.0384
-2.8121 1.1557 2.0384
-2.8952 0.9257 2.0384
-2.9598 0.6900 2.0384
-3.0054 0.4498 2.0384
-3.0318 0.2068 2.0384
-3.0388 -0.0376 2.0384
-3.0264 -0.2817 2.0384
-2.9946 -0.5241 2.0384
-2.9436 -0.7633 2.0384
-2.8738 -0.9977 2.0384
-2.7855 -1.2258 2.0384
-2.6794 -1.4463 2.0384
-2.5559 -1.6578 2.0384
-2.4160 -1.8588 2.0384
-2.2605 -2.0481 2.0384
-0.7646 -0.8137 0.7456
-0.6969 -0.8725 0.7451
-0.6247 -0.9257 0.7446
-0.5485 -0.9730 0.7441
-0.4688 -1.0140 0.7436
-0.3861 -1.0485 0.7430
-0.3009 -1.0763 0.7425
-0.2137 -1.0972 0.7420
-0.1252 -1.1110 0.7415
-0.0358 -1.1178 0.7410
0.0538 -1.1174 0.7406
0.1431 -1.1098 0.7401
0.2315 -1.0951 0.7397
0.3185 -1.0735 0.7393
0.4035 -1.0449 0.7389
0.4859 -1.0096 0.7385
0.5652 -0.9679 0.7382
0.6410 -0.9199 0.7379
0.7127 -0.8661 0.7377
0.7798 -0.8067 0.7375
2.3280 -2.0515 2.0384
2.4856 -1.8600 2.0384
2.6274 -1.6563 2.0384
2.7523 -1.4418 2.0384
2.8595 -1.2179 2.0384
2.9483 -0.9860 2.0384
3.0181 -0.7477 2.0384
3.0685 -0.5045 2.0384
3.0990 -0.2580 2.0384
2.8573 0.6256 2.0384
2.7974 0.8514 2.0384
2.7195 1.0715 2.0384
2.6241 1.2846 2.0384
2.5118 1.4893 2.0384
2.3835 1.6842 2.0384
2.2400 1.8680 2.0384
0.7572 0.7417 0.7412
0.6954 0.7998 0.7417
0.6292 0.8527 0.7422
0.5590 0.9001 0.7427
0.4851 0.9418 0.7432
0.4081 0.9774 0.7436
0.3286 1.0067 0.7441
0.2469 1.0295 0.7446
0.1636 1.0457 0.7451
0.0793 1.0551 0.7456
-0.0055 1.0578 0.7460
-0.0902 1.0536 0.7465
-0.1743 1.0427 0.7469
-0.2572 1.0250 0.7473
-0.3385 1.0007 0.7476
-0.4175 0.9700 0.7480
-0.4939 0.9331 0.7483
-0.5670 0.8901 0.7486
-0.6364 0.8414 0.7488
-0.7016 0.7873 0.7491
-0.7623 0.7282 0.7492
-2.2253 1.8072 2.0384
-2.3622 1.6218 2.0384
-2.4839 1.4261 2.0384
-2.5896 1.2215 2.0384
-2.6787 1.0091 2.0384
-2.7506 0.7904 2.0384
-2.8048 0.5666 2.0384
-2.8412 0.3393 2.0384
-2.8593 0.1098 2.0384
-2.8591 -0.1204 2.0384
-2.8407 -0.3499 2.0384
-2.8040 -0.5772 2.0384
-2.7494 -0.8010 2.0384
-2.6771 -1.0197 2.0384
-2.5876 -1.2320 2.0384
-2.4815 -1.4367 2.0384
-2.3594 -1.6323 2.0384
-2.2220 -1.8176 2.0384
-0.7574 -0.7286 0.7458
-0.6966 -0.7871 0.7453
-0.6312 -0.8406 0.7448
-0.5618 -0.8886 0.7444
-0.4888 -0.9310 0.7439
-0.4127 -0.9674 0.7434
-0.3339 -0.9976 0.7429
-0.2529 -1.0214 0.7424
-0.1703 -1.0386 0.7419
-0.0866 -1.0492 0.7415
-0.0023 -1.0531 0.7410
0.0820 -1.0502 0.7406
0.1658 -1.0406 0.7402
0.2486 -1.0243 0.7398
0.3299 -1.0015 0.7394
0.4090 -0.9723 0.7390
0.4856 -0.9368 0.7387
0.5591 -0.8953 0.7384
0.6291 -0.8480 0.7382
0.6950 -0.7953 0.7379
0.7566 -0.7376 0.7378
2.2477 -1.8654 2.0384
2.3906 -1.6808 2.0384
2.5182 -1.4852 2.0384
2.6296 -1.2799 2.0384
2.7241 -1.0663 2.0384
2.8011 -0.8457 2.0384
2.8600 -0.6196 2.0384
2.9006 -0.3894 2.0384
2.9224 -0.1567 2.0384
2.9253 0.0770 2.0384
2.9094 0.3101 2.0384
2.8748 0.5412 2.0384
2.8216 0.7686 2.0384
2.7503 0.9910 2.0384
2.6613 1.2069 2.0384
2.5552 1.4149 2.0384
2.4327 1.6135 2.0384
2.2947 1.8015 2.0384
0.7788 0.7191 0.7411
0.7188 0.7789 0.7415
0.6542 0.8338 0.7420
0.5853 0.8833 0.7425
0.5127 0.9271 0.7430
0.4369 0.9650 0.7435
0.3582 0.9966 0.7440
0.2772 1.0218 0.7444
0.1945 1.0405 0.7449
0.1105 1.0524 0.7454
0.0259 1.0576 0.7459
-0.0589 1.0560 0.7463
-0.1433 1.0475 0.7467
-0.2268 1.0323 0.7471
-0.3087 1.0105 0.7475
-0.3886 0.9821 0.7479
-0.4660 0.9474 0.7482
-0.5404 0.9066 0.7485
-0.6112 0.8600 0.7487
-0.6780 0.8079 0.7490
-0.7405 0.7506 0.7492
-2.1711 1.8728 2.0384
-2.3134 1.6915 2.0384
-2.4408 1.4995 2.0384
-2.5525 1.2980 2.0384
-2.6478 1.0883 2.0384
-2.7261 0.8718 2.0384
-2.7869 0.6497 2.0384
-2.8299 0.4236 2.0384
-2.8547 0.1947 2.0384
-2.8613 -0.0354 2.0384
-2.8496 -0.2654 2.0384
-2.8196 -0.4937 2.0384
-2.7716 -0.7189 2.0384
-2.7058 -0.9396 2.0384
-2.6226 -1.1545 2.0384
-2.5226 -1.3621 2.0384
-2.4063 -1.5612 2.0384
-2.2745 -1.7504 2.0384
-0.7787 -0.7058 0.7459
-0.7196 -0.7661 0.7455
-0.6559 -0.8215 0.7450
-0.5879 -0.8715 0.7445
-0.5162 -0.9160 0.7440
-0.4411 -0.9547 0.7436
-0.3632 -0.9872 0.7431
-0.2830 -1.0133 0.7426
-0.2010 -1.0330 0.7421
-0.1176 -1.0461 0.7416
-0.0335 -1.0524 0.7412
0.0509 -1.0521 0.7407
0.1350 -1.0449 0.7403
0.2182 -1.0311 0.7399
0.3001 -1.0107 0.7395
0.3801 -0.9838 0.7392
0.4577 -0.9506 0.7388
0.5324 -0.9113 0.7385
0.6037 -0.8661 0.7383
0.6712 -0.8154 0.7380
0.7344 -0.7595 0.7378
2.1913 -1.9305 2.0384
2.3396 -1.7503 2.0384
2.4729 -1.5586 2.0384
2.5904 -1.3568 2.0384
2.6912 -1.1460 2.0384
2.7748 -0.9278 2.0384
2.8404 -0.7036 2.0384
2.8878 -0.4747 2.0384
2.9165 -0.2428 2.0384
2.6925 0.5894 2.0384
2.6361 0.8021 2.0384
2.5627 1.0095 2.0384
2.4729 1.2103 2.0384
2.3672 1.4031 2.0384
