ply
format ascii 1.0
element vertex 2174
property float32 x
property float32 y
property float32 z
end_header
5.5293 -9.9735 1.8786
6.3343 -9.5244 1.8844
7.1273 -9.0412 1.8966
7.8808 -8.4890 1.9082
8.5880 -7.8709 1.9191
9.2426 -7.1906 1.9291
9.8384 -6.4527 1.9383
10.3698 -5.6625 1.9464
10.8314 -4.8257 1.9534
11.2187 -3.9489 1.9593
11.5278 -3.0390 1.9640
11.7555 -2.1037 1.9674
11.8994 -1.1506 1.9694
11.9580 -0.1879 1.9702
11.9307 0.7762 1.9696
11.8179 1.7335 1.9677
11.6208 2.6760 1.9645
11.3432 3.5962 1.9603
10.9457 4.4698 1.9477
10.4882 5.3063 1.9364
9.9919 6.1132 1.9297
9.4298 6.8717 1.9222
8.8070 7.5764 1.9138
8.1291 8.2225 1.9048
7.4022 8.8059 1.8951
6.6324 9.3232 1.8849
5.8400 9.7949 1.8786
5.0316 10.2337 1.8786
4.1904 10.6059 1.8786
3.5915 11.7941 2.0310
2.6293 12.0452 2.0310
1.6500 12.2179 2.0310
0.6599 12.3112 2.0310
-0.3345 12.3243 2.0310
-1.3266 12.2572 2.0310
-2.3102 12.1105 2.0310
-3.2787 11.8849 2.0310
-4.2259 11.5820 2.0310
-5.1456 11.2037 2.0310
-6.0318 10.7525 2.0310
-6.8788 10.2314 2.0310
-7.6810 9.6438 2.0310
-8.4333 8.9933 2.0310
-9.1306 8.2844 2.0310
-9.7686 7.5216 2.0310
-10.3430 6.7098 2.0310
-10.8502 5.8544 2.0310
-11.2867 4.9609 2.0310
-11.6498 4.0351 2.0310
-11.9371 3.0831 2.0310
-12.1468 2.1110 2.0310
-12.2774 1.1251 2.0310
-12.3281 0.1319 2.0310
-12.2986 -0.8620 2.0310
-12.1892 -1.8505 2.0310
-12.0004 -2.8268 2.0310
-11.7335 -3.7848 2.0310
-11.3903 -4.7181 2.0310
-10.9730 -5.6208 2.0310
-10.4843 -6.4869 2.0310
-9.9274 -7.3107 2.0310
-9.3059 -8.0871 2.0310
-8.6238 -8.8107 2.0310
-7.8857 -9.4771 2.0310
-7.0962 -10.0818 2.0310
-6.2606 -10.6210 2.0310
-5.3842 -11.0910 2.0310
-4.4728 -11.4888 2.0310
-3.5324 -11.8120 2.0310
-2.5689 -12.0582 2.0310
9.9495 -1.0629 1.9391
10.0067 -0.2576 1.9399
9.9932 0.5496 1.9396
9.9090 1.3522 1.9381
9.7551 2.1436 1.9356
9.5330 2.9175 1.9320
9.2448 3.6675 1.9274
8.8945 4.3885 1.9221
8.4563 5.0578 1.9096
7.9952 5.7044 1.9034
7.4824 6.3074 1.8965
6.9223 6.8628 1.8890
6.3197 7.3669 1.8810
5.6982 7.8424 1.8786
5.0476 8.2761 1.8786
4.3642 8.6560 1.8786
3.9486 9.7080 2.0310
3.1534 9.9946 2.0310
2.3376 10.2163 2.0310
1.5066 10.3714 2.0310
0.6659 10.4591 2.0310
-0.1793 10.4788 2.0310
-1.0232 10.4302 2.0310
-1.8605 10.3138 2.0310
-2.6857 10.1303 2.0310
-3.4934 9.8809 2.0310
-4.2784 9.5672 2.0310
-5.0355 9.1913 2.0310
-5.7599 8.7556 2.0310
-6.4468 8.2629 2.0310
-7.0918 7.7164 2.0310
-7.6906 7.1197 2.0310
-8.2394 6.4768 2.0310
-8.7346 5.7916 2.0310
-9.1730 5.0688 2.0310
-9.5517 4.3130 2.0310
-9.8682 3.5292 2.0310
-10.1205 2.7224 2.0310
-10.3070 1.8979 2.0310
-10.4265 1.0610 2.0310
-10.4780 0.2172 2.0310
-10.4615 -0.6279 2.0310
-10.3768 -1.4690 2.0310
-10.2247 -2.3006 2.0310
-10.0060 -3.1172 2.0310
-9.7222 -3.9134 2.0310
-9.3752 -4.6843 2.0310
-8.9672 -5.4246 2.0310
-8.5008 -6.1297 2.0310
-7.9791 -6.7949 2.0310
-7.4055 -7.4158 2.0310
-6.7838 -7.9886 2.0310
-6.1179 -8.5093 2.0310
-5.4122 -8.9747 2.0310
-4.6712 -9.3817 2.0310
-3.8999 -9.7276 2.0310
-3.1033 -10.0103 2.0310
-2.2864 -10.2279 2.0310
-1.1880 -8.4765 1.6588
-0.4466 -7.6165 1.4786
0.1686 -7.6220 1.4775
0.7869 -7.6275 1.4860
1.9122 -10.3044 2.0310
2.7364 -10.1167 2.0310
3.5429 -9.8633 2.0310
4.0017 -8.8294 1.8786
4.7003 -8.4782 1.8786
5.3683 -8.0718 1.8786
6.0022 -7.6139 1.8789
6.6302 -7.1420 1.8886
7.2187 -6.6159 1.8976
7.7625 -6.0391 1.9060
8.2566 -5.4153 1.9136
8.6967 -4.7488 1.9203
9.0785 -4.0447 1.9261
9.3986 -3.3082 1.9309
9.6538 -2.5450 1.9348
9.8417 -1.7612 1.9376
9.9604 -0.9631 1.9393
10.0089 -0.1573 1.9399
9.9865 0.6497 1.9394
9.8937 1.4513 1.9379
9.7312 2.2409 1.9352
9.5007 3.0121 1.9315
9.2045 3.7588 1.9268
8.8457 4.4753 1.9212
8.4019 5.1404 1.9088
7.9342 5.7818 1.9026
7.4152 6.3791 1.8956
6.8496 6.9283 1.8881
6.2421 7.4258 1.8800
5.6193 7.8991 1.8786
4.9644 8.3263 1.8786
4.2772 8.6993 1.8786
3.8511 9.7471 2.0310
3.0530 10.0258 2.0310
2.2351 10.2392 2.0310
1.4026 10.3860 2.0310
0.5610 10.4653 2.0310
-0.2843 10.4764 2.0310
-1.1277 10.4194 2.0310
-1.9638 10.2947 2.0310
-2.7871 10.1029 2.0310
-3.5923 9.8454 2.0310
-4.3741 9.5239 2.0310
-5.1274 9.1404 2.0310
-5.8474 8.6974 2.0310
-6.5294 8.1978 2.0310
-7.1688 7.6449 2.0310
-7.7616 7.0423 2.0310
-8.3040 6.3938 2.0310
-8.7923 5.7037 2.0310
-9.2233 4.9766 2.0310
-9.5944 4.2170 2.0310
-9.9031 3.4301 2.0310
-10.1473 2.6208 2.0310
-10.3255 1.7944 2.0310
-10.4366 0.9564 2.0310
-10.4797 0.1122 2.0310
-10.4546 -0.7328 2.0310
-10.3616 -1.5730 2.0310
-10.2011 -2.4030 2.0310
-9.9742 -3.2173 2.0310
-9.6825 -4.0107 2.0310
-9.3278 -4.7780 2.0310
-8.9123 -5.5143 2.0310
-8.4389 -6.2146 2.0310
-7.9106 -6.8745 2.0310
-7.3308 -7.4897 2.0310
-6.7033 -8.0562 2.0310
-6.0323 -8.5702 2.0310
-5.3219 -9.0285 2.0310
-4.5770 -9.4280 2.0310
-3.8022 -9.7663 2.0310
-3.0027 -10.0409 2.0310
-2.1837 -10.2503 2.0310
8.5424 -0.9125 1.9173
8.5910 -0.2212 1.9179
8.5796 0.4718 1.9176
8.5083 1.1610 1.9164
8.3777 1.8409 1.9143
8.1891 2.5062 1.9112
7.9442 3.1515 1.9073
7.6453 3.7722 1.9026
7.2951 4.3633 1.8971
6.8968 4.9208 1.8908
6.4512 5.4382 1.8830
5.9715 5.9202 1.8766
5.4809 6.3891 1.8786
4.9482 6.8101 1.8786
4.3832 7.1867 1.8786
3.9735 7.8811 1.9697
3.4289 8.4301 2.0310
2.7383 8.6791 2.0310
2.0299 8.8715 2.0310
1.3083 9.0063 2.0310
0.5782 9.0824 2.0310
-0.1557 9.0995 2.0310
-0.8885 9.0573 2.0310
-1.6156 8.9563 2.0310
-2.3322 8.7969 2.0310
-3.0336 8.5803 2.0310
-3.7152 8.3079 2.0310
-4.3727 7.9815 2.0310
-5.0018 7.6031 2.0310
-5.5983 7.1753 2.0310
-6.1583 6.7007 2.0310
-6.6783 6.1826 2.0310
-7.1549 5.6242 2.0310
-7.5849 5.0293 2.0310
-7.9656 4.4016 2.0310
-8.2944 3.7453 2.0310
-8.5693 3.0647 2.0310
-8.7884 2.3641 2.0310
-8.9503 1.6481 2.0310
-9.0540 0.9213 2.0310
-9.0988 0.1886 2.0310
-9.0844 -0.5453 2.0310
-9.0110 -1.2757 2.0310
-8.8788 -1.9978 2.0310
-8.6889 -2.7068 2.0310
-8.4425 -3.3983 2.0310
-8.1412 -4.0677 2.0310
-7.7868 -4.7106 2.0310
-7.3819 -5.3228 2.0310
-6.9289 -5.9005 2.0310
-6.4308 -6.4397 2.0310
-5.8908 -6.9370 2.0310
-5.3126 -7.3892 2.0310
-4.6998 -7.7934 2.0310
-4.0564 -8.1468 2.0310
-3.3866 -8.4472 2.0310
-2.6948 -8.6927 2.0310
-1.9854 -8.8816 2.0310
-1.2632 -9.0127 2.0310
-0.4466 -7.6164 1.7027
0.1686 -7.6219 1.7014
0.7869 -7.6275 1.7113
1.6605 -8.9480 2.0310
2.3763 -8.7851 2.0310
3.0766 -8.5650 2.0310
3.7568 -8.2892 2.0310
3.9102 -7.0531 1.7998
4.4211 -6.6476 1.7817
5.2114 -6.6108 1.8786
5.7272 -6.1693 1.8786
6.2166 -5.6975 1.8819
6.6808 -5.1976 1.8890
7.1022 -4.6581 1.8955
7.4770 -4.0829 1.9012
7.8020 -3.4760 1.9062
8.0742 -2.8420 1.9103
8.2912 -2.1858 1.9136
8.4508 -1.5123 1.9159
8.5517 -0.8269 1.9174
8.5929 -0.1350 1.9179
8.5740 0.5578 1.9175
8.4953 1.2462 1.9162
8.3574 1.9245 1.9139
8.1616 2.5876 1.9108
7.9099 3.2301 1.9068
7.6045 3.8473 1.9019
7.2482 4.4345 1.8963
6.8442 4.9875 1.8900
6.3938 5.5003 1.8822
5.9183 5.9862 1.8786
5.4166 6.4437 1.8786
4.8796 6.8594 1.8786
4.3109 7.2303 1.8786
3.9685 8.0715 2.0073
3.3442 8.4641 2.0310
2.6512 8.7061 2.0310
1.9409 8.8914 2.0310
1.2180 9.0189 2.0310
0.4871 9.0878 2.0310
-0.2469 9.0974 2.0310
-0.9793 9.0480 2.0310
-1.7053 8.9396 2.0310
-2.4203 8.7731 2.0310
-3.1195 8.5495 2.0310
-3.7983 8.2703 2.0310
-4.4525 7.9372 2.0310
-5.0777 7.5526 2.0310
-5.6699 7.1188 2.0310
-6.2252 6.6386 2.0310
-6.7400 6.1153 2.0310
-7.2109 5.5522 2.0310
-7.6350 4.9530 2.0310
-8.0093 4.3215 2.0310
-8.3315 3.6620 2.0310
-8.5996 2.9786 2.0310
-8.8117 2.2758 2.0310
-8.9664 1.5583 2.0310
-9.0628 0.8305 2.0310
-9.1003 0.0974 2.0310
-9.0785 -0.6363 2.0310
-8.9977 -1.3659 2.0310
-8.8583 -2.0867 2.0310
-8.6614 -2.7938 2.0310
-8.4080 -3.4828 2.0310
-8.1000 -4.1491 2.0310
-7.7392 -4.7884 2.0310
-7.3281 -5.3966 2.0310
-6.8693 -5.9696 2.0310
-6.3659 -6.5038 2.0310
-5.8210 -6.9958 2.0310
-5.2382 -7.4421 2.0310
-4.6214 -7.8401 2.0310
-3.9745 -8.1871 2.0310
-3.3017 -8.4807 2.0310
-2.6075 -8.7192 2.0310
-1.8963 -8.9010 2.0310
7.4723 -0.7982 1.9006
7.5145 -0.1935 1.9012
7.5047 0.4127 1.9009
7.4429 1.0157 1.8999
7.3296 1.6106 1.8980
7.1660 2.1931 1.8954
6.9535 2.7585 1.8920
6.6940 3.3028 1.8879
6.3897 3.8218 1.8831
6.0466 4.3141 1.8786
5.6792 4.7874 1.8786
5.2749 5.2296 1.8786
4.8363 5.6377 1.8786
4.3662 6.0091 1.8786
3.9672 6.5047 1.9270
3.6153 7.1706 2.0310
3.0256 7.4386 2.0310
2.4162 7.6583 2.0310
1.7912 7.8281 2.0310
1.1544 7.9470 2.0310
0.5102 8.0142 2.0310
-0.1374 8.0292 2.0310
-0.7840 7.9921 2.0310
-1.4256 7.9029 2.0310
-2.0579 7.7622 2.0310
-2.6768 7.5712 2.0310
-3.2783 7.3308 2.0310
-3.8584 7.0427 2.0310
-4.4135 6.7089 2.0310
-4.9398 6.3313 2.0310
-5.4340 5.9126 2.0310
-5.8929 5.4554 2.0310
-6.3134 4.9627 2.0310
-6.6928 4.4378 2.0310
-7.0287 3.8839 2.0310
-7.3189 3.3048 2.0310
-7.5614 2.7042 2.0310
-7.7547 2.0860 2.0310
-7.8976 1.4542 2.0310
-7.9891 0.8130 2.0310
-8.0287 0.1665 2.0310
-8.0160 -0.4812 2.0310
-7.9511 -1.1256 2.0310
-7.8345 -1.7628 2.0310
-7.6670 -2.3885 2.0310
-7.4495 -2.9986 2.0310
-7.1836 -3.5893 2.0310
-6.8710 -4.1566 2.0310
-6.5136 -4.6968 2.0310
-6.1139 -5.2065 2.0310
-5.6744 -5.6823 2.0310
-5.1980 -6.1211 2.0310
-4.6877 -6.5202 2.0310
-4.1470 -6.8768 2.0310
-3.5793 -7.1886 2.0310
-2.9883 -7.4537 2.0310
-2.3778 -7.6703 2.0310
-1.7519 -7.8370 2.0310
-1.1146 -7.9527 2.0310
-0.4700 -8.0166 2.0310
0.1776 -8.0284 2.0310
0.8241 -7.9880 2.0310
1.4652 -7.8956 2.0310
2.0968 -7.7518 2.0310
2.7147 -7.5576 2.0310
3.3150 -7.3142 2.0310
3.8173 -6.8855 1.9912
4.1134 -6.1849 1.8786
4.5985 -5.8333 1.8786
5.0536 -5.4437 1.8786
5.4759 -5.0187 1.8786
5.8626 -4.5610 1.8786
6.2213 -4.0804 1.8817
6.5472 -3.5751 1.8867
6.8296 -3.0428 1.8910
7.0660 -2.4871 1.8946
7.2543 -1.9124 1.8974
7.3928 -1.3230 1.8995
7.4803 -0.7233 1.9007
7.5161 -0.1181 1.9012
7.4998 0.4879 1.9009
7.4316 1.0901 1.8997
7.3120 1.6838 1.8977
7.1422 2.2644 1.8950
6.9238 2.8274 1.8915
6.6585 3.3687 1.8873
6.3489 3.8843 1.8824
6.0030 4.3745 1.8786
5.6309 4.8441 1.8786
5.2222 5.2822 1.8786
4.7795 5.6859 1.8786
4.3057 6.0526 1.8786
3.9631 6.6469 1.9573
3.5432 7.2065 2.0310
2.9509 7.4686 2.0310
2.3393 7.6821 2.0310
1.7126 7.8457 2.0310
1.0747 7.9582 2.0310
0.4298 8.0189 2.0310
-0.2178 8.0275 2.0310
-0.8641 7.9838 2.0310
-1.5047 7.8882 2.0310
-2.1356 7.7412 2.0310
-2.7526 7.5439 2.0310
-3.3516 7.2975 2.0310
-3.9288 7.0037 2.0310
-4.4805 6.6643 2.0310
-5.0030 6.2815 2.0310
-5.4930 5.8578 2.0310
-5.9473 5.3961 2.0310
-6.3628 4.8992 2.0310
-6.7370 4.3704 2.0310
-7.0673 3.8133 2.0310
-7.3516 3.2313 2.0310
-7.5881 2.6283 2.0310
-7.7753 2.0082 2.0310
-7.9118 1.3750 2.0310
-7.9969 0.7328 2.0310
-8.0299 0.0859 2.0310
-8.0107 -0.5615 2.0310
-7.9394 -1.2053 2.0310
-7.8165 -1.8412 2.0310
-7.6426 -2.4652 2.0310
-7.4191 -3.0732 2.0310
-7.1473 -3.6611 2.0310
-6.8290 -4.2252 2.0310
-6.4662 -4.7619 2.0310
-6.0614 -5.2675 2.0310
-5.6172 -5.7389 2.0310
-5.1363 -6.1729 2.0310
-4.6221 -6.5668 2.0310
-4.0779 -6.9180 2.0310
-3.5070 -7.2241 2.0310
-2.9134 -7.4833 2.0310
-2.3008 -7.6937 2.0310
-1.6733 -7.8541 2.0310
6.6298 -0.7082 1.8875
6.6671 -0.1717 1.8880
6.6585 0.3662 1.8878
6.6040 0.9012 1.8869
6.5043 1.4293 1.8852
6.3601 1.9464 1.8829
6.1727 2.4488 1.8799
5.9512 2.9363 1.8786
5.6952 3.4064 1.8786
5.4021 3.8543 1.8786
5.0739 4.2771 1.8786
4.7127 4.6722 1.8786
4.3208 5.0368 1.8786
3.9600 5.4501 1.9072
3.7357 6.1251 2.0310
3.2299 6.4063 2.0310
2.7031 6.6458 2.0310
2.1587 6.8420 2.0310
1.6003 6.9937 2.0310
1.0314 7.0999 2.0310
0.4558 7.1600 2.0310
-0.1227 7.1734 2.0310
-0.7005 7.1402 2.0310
-1.2736 7.0605 2.0310
-1.8385 6.9349 2.0310
-2.3915 6.7642 2.0310
-2.9288 6.5494 2.0310
-3.4472 6.2921 2.0310
-3.9431 5.9938 2.0310
-4.4133 5.6565 2.0310
-4.8548 5.2824 2.0310
-5.2648 4.8739 2.0310
-5.6404 4.4338 2.0310
-5.9794 3.9648 2.0310
-6.2795 3.4699 2.0310
-6.5388 2.9526 2.0310
-6.7555 2.4160 2.0310
-6.9282 1.8637 2.0310
-7.0558 1.2992 2.0310
-7.1376 0.7263 2.0310
-7.1729 0.1487 2.0310
-7.1616 -0.4299 2.0310
-7.1036 -1.0057 2.0310
-6.9995 -1.5749 2.0310
-6.8498 -2.1339 2.0310
-6.6555 -2.6790 2.0310
-6.4179 -3.2067 2.0310
-6.1386 -3.7135 2.0310
-5.8194 -4.1962 2.0310
-5.4622 -4.6515 2.0310
-5.0696 -5.0766 2.0310
-4.6439 -5.4687 2.0310
-4.1881 -5.8252 2.0310
-3.7050 -6.1438 2.0310
-3.1978 -6.4224 2.0310
-2.6698 -6.6592 2.0310
-2.1244 -6.8527 2.0310
-1.5652 -7.0017 2.0310
-0.9958 -7.1050 2.0310
-0.4199 -7.1622 2.0310
0.1587 -7.1727 2.0310
0.7362 -7.1366 2.0310
1.3090 -7.0540 2.0310
1.8733 -6.9256 2.0310
2.4254 -6.7521 2.0310
2.9616 -6.5346 2.0310
3.4787 -6.2747 2.0310
3.8346 -5.7657 1.9602
4.1083 -5.2115 1.8786
4.5150 -4.8634 1.8786
4.8923 -4.4837 1.8786
5.2377 -4.0749 1.8786
5.5491 -3.6395 1.8786
5.8244 -3.1804 1.8786
6.0631 -2.7013 1.8791
6.2716 -2.2075 1.8822
6.4376 -1.6971 1.8847
6.5598 -1.1739 1.8865
6.6369 -0.6418 1.8876
6.6685 -0.1048 1.8880
6.6542 0.4329 1.8877
6.5941 0.9673 1.8867
6.4887 1.4942 1.8850
6.3391 2.0097 1.8826
6.1465 2.5100 1.8795
5.9214 2.9958 1.8786
5.6607 3.4633 1.8786
5.3632 3.9083 1.8786
5.0308 4.3278 1.8786
4.6656 4.7192 1.8786
4.2701 5.0798 1.8786
3.9565 5.5617 1.9322
3.6741 6.1623 2.0310
3.1655 6.4383 2.0310
2.6363 6.6725 2.0310
2.0900 6.8633 2.0310
1.5301 7.0094 2.0310
0.9602 7.1099 2.0310
0.3840 7.1642 2.0310
-0.1946 7.1718 2.0310
-0.7720 7.1328 2.0310
-1.3444 7.0474 2.0310
-1.9080 6.9161 2.0310
-2.4592 6.7399 2.0310
-2.9944 6.5197 2.0310
-3.5101 6.2572 2.0310
-4.0030 5.9539 2.0310
-4.4698 5.6120 2.0310
-4.9075 5.2335 2.0310
-5.3134 4.8209 2.0310
-5.6846 4.3770 2.0310
-6.0189 3.9046 2.0310
-6.3140 3.4068 2.0310
-6.5680 2.8869 2.0310
-6.7793 2.3481 2.0310
-6.9465 1.7941 2.0310
-7.0685 1.2284 2.0310
-7.1445 0.6547 2.0310
-7.1741 0.0768 2.0310
-7.1569 -0.5016 2.0310
-7.0932 -1.0768 2.0310
-6.9833 -1.6450 2.0310
-6.8280 -2.2025 2.0310
-6.6283 -2.7456 2.0310
-6.3855 -3.2709 2.0310
-6.1011 -3.7749 2.0310
-5.7770 -4.2543 2.0310
-5.4153 -4.7061 2.0310
-5.0184 -5.1272 2.0310
-4.5889 -5.5150 2.0310
-4.1295 -5.8669 2.0310
-3.6432 -6.1806 2.0310
-3.1332 -6.4541 2.0310
-2.6029 -6.6857 2.0310
-2.0556 -6.8737 2.0310
-1.4949 -7.0170 2.0310
5.9538 -0.6360 1.8786
5.9817 -0.1540 1.8774
5.9740 0.3286 1.8772
5.9327 0.8096 1.8786
5.8481 1.2851 1.8786
5.7255 1.7522 1.8786
5.5657 2.2080 1.8786
5.3696 2.6494 1.8786
5.1386 3.0735 1.8786
4.8742 3.4777 1.8786
4.5781 3.8592 1.8786
4.2522 4.2156 1.8786
3.9518 4.6067 1.9043
3.8051 5.2370 2.0310
3.3707 5.5266 2.0310
2.9143 5.7803 2.0310
2.4390 5.9964 2.0310
1.9478 6.1734 2.0310
1.4439 6.3103 2.0310
0.9306 6.4062 2.0310
0.4113 6.4603 2.0310
-0.1107 6.4725 2.0310
-0.6320 6.4425 2.0310
-1.1492 6.3706 2.0310
-1.6589 6.2573 2.0310
-2.1578 6.1032 2.0310
-2.6426 5.9094 2.0310
-3.1103 5.6772 2.0310
-3.5578 5.4081 2.0310
-3.9820 5.1037 2.0310
-4.3804 4.7662 2.0310
-4.7503 4.3977 2.0310
-5.0893 4.0005 2.0310
-5.3951 3.5773 2.0310
-5.6659 3.1309 2.0310
-5.8998 2.6640 2.0310
-6.0953 2.1799 2.0310
-6.2512 1.6816 2.0310
-6.3664 1.1723 2.0310
-6.4401 0.6554 2.0310
-6.4720 0.1342 2.0310
-6.4618 -0.3879 2.0310
-6.4095 -0.9074 2.0310
-6.3155 -1.4210 2.0310
-6.1804 -1.9254 2.0310
-6.0052 -2.4172 2.0310
-5.7908 -2.8933 2.0310
-5.5388 -3.3506 2.0310
-5.2507 -3.7861 2.0310
-4.9285 -4.1970 2.0310
-4.5742 -4.5806 2.0310
-4.1902 -4.9343 2.0310
-3.7788 -5.2560 2.0310
-3.3429 -5.5434 2.0310
-2.8853 -5.7948 2.0310
-2.4089 -6.0085 2.0310
-1.9168 -6.1831 2.0310
-1.4122 -6.3175 2.0310
-0.8985 -6.4107 2.0310
-0.3789 -6.4623 2.0310
0.1432 -6.4718 2.0310
0.6643 -6.4392 2.0310
1.1811 -6.3647 2.0310
1.6902 -6.2488 2.0310
2.1884 -6.0923 2.0310
2.6722 -5.8961 2.0310
3.1387 -5.6616 2.0310
3.5848 -5.3902 2.0310
3.8458 -4.8785 1.9490
4.0738 -4.3882 1.8786
4.4142 -4.0456 1.8786
4.7259 -3.6767 1.8786
5.0068 -3.2838 1.8786
5.2552 -2.8696 1.8786
5.4694 -2.4368 1.8786
5.6480 -1.9880 1.8786
5.7898 -1.5263 1.8786
5.8940 -1.0548 1.8786
5.9548 -0.5758 1.8770
5.9829 -0.0940 1.8774
5.9702 0.3884 1.8771
5.9243 0.8690 1.8786
5.8350 1.3437 1.8786
5.7077 1.8096 1.8786
5.5433 2.2637 1.8786
5.3428 2.7031 1.8786
5.1076 3.1249 1.8786
4.8391 3.5263 1.8786
4.5392 3.9049 1.8786
4.2097 4.2580 1.8786
3.9489 4.6977 1.9255
3.7524 5.2749 2.0310
3.3151 5.5601 2.0310
2.8562 5.8092 2.0310
2.3787 6.0205 2.0310
1.8858 6.1927 2.0310
1.3805 6.3245 2.0310
0.8663 6.4152 2.0310
0.3465 6.4641 2.0310
-0.1756 6.4710 2.0310
-0.6966 6.4358 2.0310
-1.2130 6.3587 2.0310
-1.7215 6.2403 2.0310
-2.2189 6.0813 2.0310
-2.7018 5.8826 2.0310
-3.1671 5.6458 2.0310
-3.6118 5.3721 2.0310
-4.0330 5.0636 2.0310
-4.4280 4.7221 2.0310
-4.7942 4.3498 2.0310
-5.1291 3.9493 2.0310
-5.4307 3.5231 2.0310
-5.6970 3.0739 2.0310
-5.9262 2.6048 2.0310
-6.1169 2.1187 2.0310
-6.2677 1.6188 2.0310
-6.3778 1.1084 2.0310
-6.4464 0.5907 2.0310
-6.4730 0.0693 2.0310
-6.4576 -0.4526 2.0310
-6.4001 -0.9716 2.0310
-6.3009 -1.4843 2.0310
-6.1608 -1.9872 2.0310
-5.9806 -2.4773 2.0310
-5.7615 -2.9513 2.0310
-5.5049 -3.4060 2.0310
-5.2125 -3.8386 2.0310
-4.8862 -4.2462 2.0310
-4.5281 -4.6262 2.0310
-4.1405 -4.9761 2.0310
-3.7260 -5.2936 2.0310
-3.2872 -5.5767 2.0310
-2.8271 -5.8235 2.0310
-2.3485 -6.0324 2.0310
-1.8547 -6.2020 2.0310
-1.3488 -6.3313 2.0310
5.4152 -0.5785 1.8786
5.4442 -0.1402 1.8786
5.4378 0.2991 1.8786
5.3960 0.7364 1.8786
5.3191 1.1688 1.8786
5.2076 1.5937 1.8786
5.0622 2.0083 1.8786
4.8839 2.4097 1.8786
4.6738 2.7955 1.8786
4.4333 3.1631 1.8786
4.1639 3.5101 1.8786
3.9426 3.9087 1.9151
3.8336 4.4688 2.0310
3.4609 4.7632 2.0310
3.0658 5.0267 2.0310
2.6507 5.2574 2.0310
2.2183 5.4539 2.0310
1.7716 5.6150 2.0310
1.3133 5.7395 2.0310
0.8464 5.8266 2.0310
0.3741 5.8759 2.0310
-0.1007 5.8869 2.0310
-0.5748 5.8597 2.0310
-1.0452 5.7943 2.0310
-1.5088 5.6912 2.0310
-1.9626 5.5511 2.0310
-2.4036 5.3749 2.0310
-2.8290 5.1636 2.0310
-3.2359 4.9189 2.0310
-3.6218 4.6421 2.0310
-3.9842 4.3351 2.0310
-4.3206 3.9998 2.0310
-4.6289 3.6386 2.0310
-4.9071 3.2537 2.0310
-5.1534 2.8477 2.0310
-5.3661 2.4231 2.0310
-5.5439 1.9827 2.0310
-5.6857 1.5294 2.0310
-5.7905 1.0662 2.0310
-5.8576 0.5961 2.0310
-5.8865 0.1220 2.0310
-5.8772 -0.3528 2.0310
-5.8297 -0.8253 2.0310
-5.7442 -1.2925 2.0310
-5.6213 -1.7512 2.0310
-5.4619 -2.1986 2.0310
-5.2670 -2.6316 2.0310
-5.0377 -3.0475 2.0310
-4.7757 -3.4436 2.0310
-4.4827 -3.8173 2.0310
-4.1604 -4.1662 2.0310
-3.8111 -4.4880 2.0310
-3.4370 -4.7805 2.0310
-3.0405 -5.0420 2.0310
-2.6243 -5.2706 2.0310
-2.1910 -5.4650 2.0310
-1.7434 -5.6238 2.0310
-1.2845 -5.7460 2.0310
-0.8172 -5.8308 2.0310
-0.3446 -5.8777 2.0310
0.1302 -5.8864 2.0310
0.6042 -5.8567 2.0310
1.0743 -5.7890 2.0310
1.5373 -5.6836 2.0310
0.7250 -2.0183 0.7398
2.4305 -5.3627 2.0310
2.8548 -5.1494 2.0310
3.2605 -4.9026 2.0310
3.6450 -4.6238 2.0310
3.8525 -4.1498 1.9533
4.0149 -3.6796 1.8786
4.2984 -3.3441 1.8786
4.5539 -2.9868 1.8786
4.7798 -2.6100 1.8786
4.9746 -2.2163 1.8786
5.1371 -1.8082 1.8786
5.2661 -1.3883 1.8786
5.3608 -0.9593 1.8786
5.4207 -0.5242 1.8786
5.4453 -0.0856 1.8786
5.4345 0.3536 1.8786
5.3883 0.7904 1.8786
5.3071 1.2221 1.8786
5.1914 1.6459 1.8786
5.0418 2.0589 1.8786
4.8595 2.4585 1.8786
4.6455 2.8422 1.8786
4.4014 3.2074 1.8786
4.1285 3.5517 1.8786
3.9401 3.9853 1.9332
3.7886 4.5070 2.0310
3.4130 4.7977 2.0310
3.0152 5.0571 2.0310
2.5978 5.2837 2.0310
2.1635 5.4759 2.0310
1.7152 5.6324 2.0310
1.2557 5.7523 2.0310
0.7880 5.8348 2.0310
0.3151 5.8794 2.0310
-0.1597 5.8856 2.0310
-0.6336 5.8536 2.0310
-1.1033 5.7835 2.0310
-1.5658 5.6758 2.0310
-2.0181 5.5311 2.0310
-2.4574 5.3505 2.0310
-2.8806 5.1350 2.0310
-3.2851 4.8862 2.0310
-3.6682 4.6055 2.0310
-4.0274 4.2949 2.0310
-4.3605 3.9563 2.0310
-4.6651 3.5920 2.0310
-4.9395 3.2044 2.0310
-5.1817 2.7958 2.0310
-5.3901 2.3691 2.0310
-5.5635 1.9270 2.0310
-5.7007 1.4724 2.0310
-5.8009 1.0081 2.0310
-5.8632 0.5373 2.0310
-5.8875 0.0629 2.0310
-5.8734 -0.4117 2.0310
-5.8211 -0.8837 2.0310
-5.7309 -1.3500 2.0310
-5.6035 -1.8075 2.0310
-5.4396 -2.2532 2.0310
-5.2403 -2.6843 2.0310
-5.0069 -3.0979 2.0310
-4.7410 -3.4913 2.0310
-4.4442 -3.8621 2.0310
-4.1184 -4.2077 2.0310
-3.7659 -4.5259 2.0310
-3.3889 -4.8147 2.0310
-2.9898 -5.0722 2.0310
-2.5713 -5.2967 2.0310
-0.7780 -1.9985 0.7398
-1.6869 -5.6410 2.0310
-1.2268 -5.7586 2.0310
4.9579 -0.5296 1.8786
4.9845 -0.1283 1.8786
4.9786 0.2738 1.8786
4.9403 0.6742 1.8786
4.8699 1.0701 1.8786
4.7678 1.4591 1.8786
4.6347 1.8387 1.8786
4.4715 2.2062 1.8786
4.2791 2.5594 1.8786
4.0589 2.8960 1.8786
3.9323 3.3148 1.9378
3.8282 3.7952 2.0310
3.5098 4.0914 2.0310
3.1687 4.3610 2.0310
2.8069 4.6022 2.0310
2.4268 4.8134 2.0310
0.7469 1.8362 0.7469
0.5965 1.8906 0.7470
0.4422 1.9328 0.7470
0.2851 1.9623 0.7471
0.3425 5.3797 2.0310
-0.0922 5.3898 2.0310
-0.1936 1.9734 0.7471
-0.3520 1.9513 0.7471
-0.5081 1.9164 0.7470
-0.6608 1.8690 0.7469
-2.2006 4.9210 2.0310
-2.5901 4.7276 2.0310
-2.9627 4.5035 2.0310
-3.3160 4.2501 2.0310
-3.6477 3.9690 2.0310
-3.9557 3.6621 2.0310
-4.2380 3.3314 2.0310
-4.4927 2.9790 2.0310
-4.7182 2.6072 2.0310
-4.9130 2.2184 2.0310
-5.0758 1.8153 2.0310
-5.2055 1.4003 2.0310
-5.3015 0.9762 2.0310
-5.3629 0.5457 2.0310
-5.3894 0.1117 2.0310
-5.3809 -0.3230 2.0310
-5.3374 -0.7556 2.0310
-5.2591 -1.1833 2.0310
-5.1466 -1.6033 2.0310
-5.0007 -2.0129 2.0310
-4.8222 -2.4094 2.0310
-4.6123 -2.7902 2.0310
-4.3724 -3.1528 2.0310
-4.1041 -3.4950 2.0310
-3.8091 -3.8144 2.0310
-3.4893 -4.1090 2.0310
-3.1468 -4.3768 2.0310
-2.7838 -4.6162 2.0310
-2.4027 -4.8255 2.0310
-0.7310 -1.8233 0.7401
-0.5816 -1.8760 0.7400
-0.4284 -1.9166 0.7399
-0.2726 -1.9448 0.7399
-0.1149 -1.9603 0.7399
0.0434 -1.9632 0.7399
0.2015 -1.9534 0.7399
0.3583 -1.9309 0.7399
0.5128 -1.8959 0.7400
0.6640 -1.8486 0.7401
2.2253 -4.9099 2.0310
2.6137 -4.7145 2.0310
2.9852 -4.4885 2.0310
3.3372 -4.2334 2.0310
3.6676 -3.9506 2.0310
3.8557 -3.5337 1.9705
3.9354 -3.0617 1.8786
4.1694 -2.7346 1.8786
4.3762 -2.3896 1.8786
4.5545 -2.0292 1.8786
4.7033 -1.6555 1.8786
4.8214 -1.2710 1.8786
4.9081 -0.8783 1.8786
4.9630 -0.4799 1.8786
4.9855 -0.0783 1.8786
4.9756 0.3237 1.8786
4.9333 0.7237 1.8786
4.8589 1.1189 1.8786
4.7530 1.5069 1.8786
4.6161 1.8850 1.8786
4.4491 2.2509 1.8786
4.2532 2.6022 1.8786
4.0297 2.9365 1.8786
3.9301 3.3810 1.9533
3.7899 3.8334 2.0310
3.4686 4.1264 2.0310
3.1248 4.3925 2.0310
2.7606 4.6301 2.0310
2.3785 4.8375 2.0310
0.7284 1.8436 0.7469
0.5775 1.8966 0.7470
0.4228 1.9371 0.7470
0.2654 1.9650 0.7471
0.2885 5.3829 2.0310
-0.1462 5.3886 2.0310
-0.2134 1.9714 0.7471
-0.3715 1.9477 0.7471
-0.5273 1.9112 0.7470
-0.6795 1.8623 0.7469
-2.2498 4.8987 2.0310
-2.6373 4.7014 2.0310
-3.0077 4.4735 2.0310
-3.3584 4.2166 2.0310
-3.6873 3.9322 2.0310
-3.9922 3.6222 2.0310
-4.2712 3.2887 2.0310
-4.5223 2.9338 2.0310
-4.7441 2.5597 2.0310
-4.9349 2.1691 2.0310
-5.0937 1.7643 2.0310
-5.2193 1.3480 2.0310
-5.3110 0.9230 2.0310
-5.3681 0.4919 2.0310
-5.3903 0.0577 2.0310
-5.3774 -0.3769 2.0310
-5.3295 -0.8091 2.0310
-5.2470 -1.2360 2.0310
-5.1303 -1.6548 2.0310
-4.9802 -2.0629 2.0310
-4.7978 -2.4576 2.0310
-4.5841 -2.8363 2.0310
-4.3406 -3.1965 2.0310
-4.0689 -3.5359 2.0310
-3.7706 -3.8524 2.0310
-3.4479 -4.1437 2.0310
-3.1027 -4.4081 2.0310
-2.7374 -4.6438 2.0310
-2.3542 -4.8494 2.0310
-0.7126 -1.8305 0.7401
-0.5627 -1.8817 0.7400
-0.4092 -1.9208 0.7399
4.5642 -0.4876 1.8786
4.5886 -0.1181 1.8786
4.5832 0.2521 1.8786
4.5480 0.6206 1.8786
4.4832 0.9852 1.8786
4.3892 1.3433 1.8786
4.2667 1.6927 1.8786
4.1164 2.0310 1.8786
3.9437 2.3588 1.8808
3.9208 2.7974 1.9713
3.7943 3.1985 2.0310
3.5242 3.4939 2.0310
3.2311 3.7665 2.0310
2.9170 4.0147 2.0310
2.5840 4.2367 2.0310
2.2341 4.4312 2.0310
0.6873 1.6898 0.7466
0.5489 1.7399 0.7467
0.4070 1.7786 0.7468
0.2623 1.8057 0.7468
0.1159 1.8211 0.7468
-0.0312 1.8245 0.7468
-0.1782 1.8160 0.7468
-0.3239 1.7957 0.7468
-0.4675 1.7636 0.7467
-0.6081 1.7200 0.7466
-0.7446 1.6651 0.7465
-2.3844 4.3522 2.0310
-2.7274 4.1459 2.0310
-3.0527 3.9126 2.0310
-3.3581 3.6538 2.0310
-3.6416 3.3713 2.0310
-3.9015 3.0668 2.0310
-4.1359 2.7424 2.0310
-4.3435 2.4001 2.0310
-4.5228 2.0423 2.0310
-4.6727 1.6711 2.0310
-4.7922 1.2891 2.0310
-4.8805 0.8987 2.0310
-4.9370 0.5024 2.0310
-4.9615 0.1029 2.0310
-4.9536 -0.2973 2.0310
-4.9135 -0.6956 2.0310
-4.8415 -1.0894 2.0310
-4.7379 -1.4760 2.0310
-4.6036 -1.8531 2.0310
-4.4393 -2.2180 2.0310
-4.2461 -2.5686 2.0310
-4.0252 -2.9025 2.0310
-3.7782 -3.2175 2.0310
-3.5066 -3.5115 2.0310
-3.2122 -3.7827 2.0310
-2.8969 -4.0292 2.0310
-2.5627 -4.2496 2.0310
-2.2119 -4.4423 2.0310
-0.6732 -1.6791 0.7404
-0.5356 -1.7277 0.7403
-0.3946 -1.7651 0.7402
-0.2510 -1.7910 0.7402
-0.1058 -1.8054 0.7402
0.0400 -1.8080 0.7401
0.1856 -1.7989 0.7402
0.3300 -1.7782 0.7402
0.4723 -1.7460 0.7403
0.6115 -1.7024 0.7403
0.7468 -1.6478 0.7404
2.4062 -4.3402 2.0310
2.7481 -4.1321 2.0310
3.0722 -3.8972 2.0310
3.3763 -3.6369 2.0310
3.6585 -3.3529 2.0310
3.8558 -2.9998 1.9994
3.8792 -2.5442 1.8987
4.0287 -2.1999 1.8786
4.1929 -1.8680 1.8786
4.3298 -1.5240 1.8786
4.4385 -1.1701 1.8786
4.5184 -0.8086 1.8786
4.5689 -0.4418 1.8786
4.5896 -0.0721 1.8786
4.5805 0.2980 1.8786
4.5416 0.6662 1.8786
4.4731 1.0301 1.8786
4.3755 1.3872 1.8786
4.2495 1.7353 1.8786
4.0958 2.0722 1.8786
3.9363 2.4083 1.8887
3.9189 2.8558 1.9846
3.7620 3.2364 2.0310
3.4890 3.5290 2.0310
3.1932 3.7987 2.0310
2.8766 4.0437 2.0310
2.5414 4.2624 2.0310
2.1896 4.4534 2.0310
0.6703 1.6966 0.7466
0.5315 1.7453 0.7467
0.3891 1.7826 0.7468
0.2442 1.8083 0.7468
0.0977 1.8222 0.7468
-0.0495 1.8241 0.7468
-0.1963 1.8141 0.7468
-0.3419 1.7923 0.7468
-0.4852 1.7588 0.7467
-0.6253 1.7138 0.7466
-0.7613 1.6576 0.7465
-2.4279 4.3281 2.0310
-2.7688 4.1183 2.0310
-3.0917 3.8818 2.0310
-3.3945 3.6200 2.0310
-3.6752 3.3346 2.0310
-3.9320 3.0275 2.0310
-4.1632 2.7008 2.0310
-4.3674 2.3565 2.0310
-4.5431 1.9968 2.0310
-4.6892 1.6242 2.0310
-4.8049 1.2410 2.0310
-4.8893 0.8497 2.0310
-4.9418 0.4529 2.0310
-4.9623 0.0531 2.0310
-4.9504 -0.3470 2.0310
-4.9063 -0.7448 2.0310
-4.8303 -1.1378 2.0310
-4.7229 -1.5234 2.0310
-4.5848 -1.8991 2.0310
-4.4168 -2.2624 2.0310
-4.2201 -2.6111 2.0310
-3.9959 -2.9427 2.0310
-3.7458 -3.2552 2.0310
-3.4712 -3.5465 2.0310
-3.1741 -3.8147 2.0310
-2.8563 -4.0581 2.0310
-2.5200 -4.2751 2.0310
-2.1672 -4.4643 2.0310
-0.6563 -1.6857 0.7404
-0.5182 -1.7329 0.7403
-0.3768 -1.7689 0.7402
4.2212 -0.4509 1.8786
4.2438 -0.1093 1.8786
4.2388 0.2331 1.8786
4.2062 0.5740 1.8786
4.1463 0.9111 1.8786
4.0594 1.2423 1.8786
3.9460 1.5655 1.8786
3.9188 1.9335 1.9338
3.9079 2.3374 2.0151
3.7361 2.6656 2.0310
3.5091 2.9581 2.0310
3.2593 3.2313 2.0310
2.9883 3.4835 2.0310
2.6978 3.7130 2.0310
2.3898 3.9183 2.0310
0.7592 1.5058 0.7463
0.6354 1.5623 0.7464
0.5075 1.6086 0.7464
0.3763 1.6444 0.7465
0.2425 1.6695 0.7466
0.1072 1.6836 0.7466
-0.0289 1.6868 0.7466
-0.1647 1.6790 0.7466
-0.2995 1.6602 0.7465
-0.4323 1.6305 0.7465
-0.5622 1.5902 0.7464
-0.6885 1.5395 0.7463
-2.2052 4.0251 2.0310
-2.5224 3.8343 2.0310
-2.8232 3.6185 2.0310
-3.1057 3.3792 2.0310
-3.3679 3.1179 2.0310
-3.6083 2.8363 2.0310
-3.8251 2.5363 2.0310
-4.0171 2.2198 2.0310
-4.1829 1.8888 2.0310
-4.3215 1.5455 2.0310
-4.4320 1.1922 2.0310
-4.5137 0.8311 2.0310
-4.5660 0.4646 2.0310
-4.5886 0.0951 2.0310
-4.5813 -0.2750 2.0310
-4.5443 -0.6433 2.0310
-4.4776 -1.0075 2.0310
-4.3819 -1.3651 2.0310
-4.2576 -1.7138 2.0310
-4.1056 -2.0514 2.0310
-3.9269 -2.3756 2.0310
-3.7227 -2.6843 2.0310
-3.4943 -2.9756 2.0310
-3.2431 -3.2476 2.0310
-2.9708 -3.4984 2.0310
-2.6792 -3.7264 2.0310
-2.3701 -3.9302 2.0310
-0.7460 -1.4984 0.7407
-0.6228 -1.5534 0.7406
-0.4955 -1.5984 0.7405
-0.3650 -1.6329 0.7405
-0.2322 -1.6570 0.7404
-0.0979 -1.6702 0.7404
0.0370 -1.6727 0.7404
0.1717 -1.6643 0.7404
0.3053 -1.6451 0.7405
0.4369 -1.6153 0.7405
0.5657 -1.5750 0.7406
0.6909 -1.5245 0.7407
2.2253 -4.0140 2.0310
2.5416 -3.8216 2.0310
2.8413 -3.6043 2.0310
3.1226 -3.3636 2.0310
3.3835 -3.1010 2.0310
3.6224 -2.8182 2.0310
3.8378 -2.5171 2.0310
3.8735 -2.1152 1.9531
3.8952 -1.7352 1.8871
4.0044 -1.4095 1.8786
4.1050 -1.0822 1.8786
4.1788 -0.7478 1.8786
4.2255 -0.4086 1.8786
4.2447 -0.0667 1.8786
4.2362 0.2756 1.8786
4.2003 0.6161 1.8786
4.1369 0.9526 1.8786
4.0467 1.2830 1.8786
3.9355 1.6071 1.8812
3.9176 1.9820 1.9429
3.9064 2.3899 2.0266
3.7092 2.7030 2.0310
3.4793 2.9931 2.0310
3.2267 3.2638 2.0310
2.9532 3.5132 2.0310
2.6605 3.7398 2.0310
2.3504 3.9421 2.0310
0.7441 1.5133 0.7463
0.6198 1.5686 0.7464
0.4914 1.6136 0.7465
0.3598 1.6481 0.7465
0.2258 1.6718 0.7466
0.0903 1.6846 0.7466
-0.0458 1.6865 0.7466
-0.1815 1.6772 0.7466
-0.3161 1.6571 0.7465
-0.4486 1.6261 0.7465
-0.5781 1.5845 0.7464
-0.7038 1.5325 0.7463
-2.2454 4.0028 2.0310
-2.5607 3.8088 2.0310
-2.8594 3.5900 2.0310
-3.1394 3.3479 2.0310
-3.3990 3.0840 2.0310
-3.6365 2.8000 2.0310
-3.8503 2.4978 2.0310
-4.0391 2.1794 2.0310
-4.2016 1.8468 2.0310
-4.3368 1.5021 2.0310
-4.4438 1.1477 2.0310
-4.5218 0.7858 2.0310
-4.5704 0.4188 2.0310
-4.5893 0.0491 2.0310
-4.5783 -0.3209 2.0310
-4.5376 -0.6888 2.0310
-4.4673 -1.0523 2.0310
-4.3680 -1.4090 2.0310
-4.2402 -1.7564 2.0310
-4.0849 -2.0925 2.0310
-3.9029 -2.4148 2.0310
-3.6956 -2.7215 2.0310
-3.4642 -3.0105 2.0310
-3.2104 -3.2799 2.0310
-2.9356 -3.5280 2.0310
-2.6417 -3.7531 2.0310
-2.3306 -3.9538 2.0310
-0.7310 -1.5057 0.7407
-0.6072 -1.5595 0.7406
-0.4794 -1.6032 0.7405
-0.3486 -1.6365 0.7405
3.9192 -0.4187 1.8786
3.9402 -0.1015 1.8786
3.9356 0.2165 1.8786
3.9200 0.5349 1.8857
3.9123 0.8597 1.9092
3.9086 1.1962 1.9482
3.9024 1.5481 2.0010
3.8214 1.8855 2.0310
3.6570 2.1873 2.0310
3.4688 2.4750 2.0310
3.2581 2.7465 2.0310
3.0261 3.0001 2.0310
2.7745 3.2343 2.0310
2.5048 3.4474 2.0310
2.2188 3.6380 2.0310
0.7047 1.3977 0.7461
0.5898 1.4501 0.7462
0.4711 1.4931 0.7462
0.3492 1.5263 0.7463
0.2251 1.5496 0.7463
0.0995 1.5627 0.7464
-0.0268 1.5657 0.7464
-0.1529 1.5584 0.7463
-0.2780 1.5409 0.7463
-0.4012 1.5134 0.7463
-0.5218 1.4760 0.7462
-0.6390 1.4290 0.7461
-0.7520 1.3727 0.7460
-2.3420 3.5600 2.0310
-2.6213 3.3596 2.0310
-2.8835 3.1375 2.0310
-3.1270 2.8949 2.0310
-3.3501 2.6334 2.0310
-3.5515 2.3549 2.0310
-3.7297 2.0610 2.0310
-3.8837 1.7537 2.0310
-4.0124 1.4350 2.0310
-4.1150 1.1069 2.0310
-4.1908 0.7717 2.0310
-4.2394 0.4314 2.0310
-4.2603 0.0883 2.0310
-4.2536 -0.2553 2.0310
-4.2192 -0.5973 2.0310
-4.1573 -0.9354 2.0310
-4.0684 -1.2674 2.0310
-3.9530 -1.5912 2.0310
-3.8119 -1.9046 2.0310
-3.6460 -2.2056 2.0310
-3.4564 -2.4923 2.0310
-3.2443 -2.7628 2.0310
-3.0111 -3.0153 2.0310
-2.7583 -3.2481 2.0310
-2.4875 -3.4599 2.0310
-2.2006 -3.6491 2.0310
-0.6929 -1.3915 0.7409
-0.5784 -1.4427 0.7408
-0.4602 -1.4844 0.7407
-0.3390 -1.5166 0.7407
-0.2157 -1.5389 0.7406
-0.0909 -1.5512 0.7406
0.0344 -1.5535 0.7406
0.1595 -1.5457 0.7406
0.2835 -1.5279 0.7407
0.4058 -1.5002 0.7407
0.5254 -1.4627 0.7408
0.6417 -1.4158 0.7409
0.7538 -1.3597 0.7410
2.3598 -3.5482 2.0310
2.6381 -3.3465 2.0310
2.8992 -3.1230 2.0310
3.1415 -2.8791 2.0310
3.3633 -2.6166 2.0310
3.5632 -2.3370 2.0310
3.7400 -2.0422 2.0310
3.8657 -1.7223 2.0171
3.8799 -1.3657 1.9605
3.8912 -1.0258 1.9180
3.9031 -0.6984 1.8899
3.9232 -0.3795 1.8786
3.9410 -0.0619 1.8786
3.9332 0.2559 1.8786
3.9185 0.5748 1.8876
3.9120 0.9008 1.9134
3.9079 1.2390 1.9540
3.9015 1.5932 2.0086
3.8023 1.9237 2.0310
3.6349 2.2239 2.0310
3.4439 2.5096 2.0310
3.2304 2.7790 2.0310
2.9959 3.0303 2.0310
2.7419 3.2619 2.0310
2.4701 3.4723 2.0310
2.1822 3.6601 2.0310
0.6906 1.4047 0.7461
0.5753 1.4560 0.7462
0.4561 1.4977 0.7462
0.3339 1.5298 0.7463
0.2096 1.5518 0.7463
0.0838 1.5637 0.7464
-0.0425 1.5653 0.7464
-0.1685 1.5568 0.7463
-0.2934 1.5381 0.7463
-0.4164 1.5093 0.7463
-0.5366 1.4707 0.7462
-0.6533 1.4225 0.7461
-0.7657 1.3650 0.7460
-2.3775 3.5363 2.0310
-2.6548 3.3332 2.0310
-2.9148 3.1084 2.0310
-3.1559 2.8634 2.0310
-3.3764 2.5997 2.0310
-3.5749 2.3191 2.0310
-3.7502 2.0235 2.0310
-3.9011 1.7146 2.0310
-4.0266 1.3947 2.0310
-4.1259 1.0656 2.0310
-4.1983 0.7296 2.0310
-4.2435 0.3889 2.0310
-4.2610 0.0456 2.0310
-4.2508 -0.2980 2.0310
-4.2130 -0.6396 2.0310
-4.1477 -0.9770 2.0310
-4.0555 -1.3081 2.0310
-3.9369 -1.6307 2.0310
-3.7926 -1.9427 2.0310
-3.6237 -2.2421 2.0310
-3.4312 -2.5268 2.0310
-3.2164 -2.7952 2.0310
-2.9807 -3.0453 2.0310
-2.7256 -3.2756 2.0310
-2.4527 -3.4846 2.0310
-2.1639 -3.6710 2.0310
-0.6789 -1.3984 0.7409
-0.5639 -1.4484 0.7408
-0.4453 -1.4890 0.7407
-0.3238 -1.5199 0.7407
3.8827 -0.4148 1.9979
3.8875 -0.1001 1.9897
3.8901 0.2139 1.9934
3.8904 0.5309 2.0090
3.8771 0.8520 2.0310
3.7958 1.1617 2.0310
3.6898 1.4638 2.0310
3.5598 1.7564 2.0310
3.4067 2.0376 2.0310
3.2314 2.3055 2.0310
3.0351 2.5585 2.0310
2.8190 2.7948 2.0310
2.5846 3.0129 2.0310
2.3334 3.2114 2.0310
0.7590 1.2444 0.7458
0.6563 1.3017 0.7459
0.5493 1.3505 0.7460
0.4387 1.3905 0.7460
0.3253 1.4215 0.7461
0.2096 1.4431 0.7461
0.0927 1.4554 0.7462
-0.0249 1.4581 0.7462
-0.1424 1.4513 0.7461
-0.2589 1.4351 0.7461
-0.3737 1.4095 0.7461
-0.4860 1.3746 0.7460
-0.5951 1.3309 0.7459
-0.7004 1.2784 0.7458
-2.1817 3.3163 2.0310
-2.4418 3.1297 2.0310
-2.6861 2.9227 2.0310
-2.9129 2.6967 2.0310
-3.1208 2.4532 2.0310
-3.3084 2.1937 2.0310
-3.4744 1.9199 2.0310
-3.6178 1.6336 2.0310
-3.7377 1.3367 2.0310
-3.8333 1.0312 2.0310
-3.9039 0.7188 2.0310
-3.9492 0.4019 2.0310
-3.9687 0.0823 2.0310
-3.9624 -0.2378 2.0310
-3.9304 -0.5564 2.0310
-3.8727 -0.8714 2.0310
-3.7899 -1.1807 2.0310
-3.6824 -1.4823 2.0310
-3.5510 -1.7742 2.0310
-3.3964 -2.0547 2.0310
-3.2198 -2.3217 2.0310
-3.0222 -2.5737 2.0310
-2.8050 -2.8088 2.0310
-2.5694 -3.0258 2.0310
-2.3172 -3.2230 2.0310
-0.7481 -1.2405 0.7412
-0.6456 -1.2966 0.7411
-0.5389 -1.3442 0.7410
-0.4288 -1.3832 0.7409
-0.3159 -1.4131 0.7409
-0.2010 -1.4339 0.7408
-0.0847 -1.4454 0.7408
0.0320 -1.4475 0.7408
0.1486 -1.4403 0.7408
0.2642 -1.4237 0.7409
0.3781 -1.3978 0.7409
0.4896 -1.3629 0.7410
0.5979 -1.3192 0.7411
0.7023 -1.2669 0.7412
2.1983 -3.3053 2.0310
2.4575 -3.1174 2.0310
2.7007 -2.9092 2.0310
2.9264 -2.6821 2.0310
3.1331 -2.4375 2.0310
3.3193 -2.1770 2.0310
3.4840 -1.9024 2.0310
3.6260 -1.6155 2.0310
3.7444 -1.3180 2.0310
3.8384 -1.0119 2.0310
3.8767 -0.6938 2.0150
3.8835 -0.3755 1.9963
3.8879 -0.0611 1.9895
3.8902 0.2531 1.9947
3.8903 0.5707 2.0118
3.8683 0.8908 2.0310
3.7839 1.1997 2.0310
3.6749 1.5007 2.0310
3.5420 1.7920 2.0310
3.3861 2.0717 2.0310
3.2081 2.3378 2.0310
3.0093 2.5888 2.0310
2.7908 2.8229 2.0310
2.5542 3.0386 2.0310
2.3010 3.2346 2.0310
0.7465 1.2520 0.7458
0.6432 1.3082 0.7459
0.5357 1.3560 0.7460
0.4248 1.3949 0.7460
0.3110 1.4247 0.7461
0.1952 1.4452 0.7461
0.0781 1.4562 0.7462
-0.0396 1.4578 0.7462
-0.1569 1.4498 0.7461
-0.2732 1.4324 0.7461
-0.3878 1.4056 0.7461
-0.4998 1.3697 0.7460
-0.6085 1.3248 0.7459
-0.7131 1.2713 0.7458
-2.2148 3.2943 2.0310
-2.4731 3.1050 2.0310
-2.7153 2.8956 2.0310
-2.9398 2.6674 2.0310
-3.1452 2.4218 2.0310
-3.3302 2.1604 2.0310
-3.4935 1.8849 2.0310
-3.6340 1.5973 2.0310
-3.7509 1.2992 2.0310
-3.8434 0.9927 2.0310
-3.9109 0.6797 2.0310
-3.9530 0.3623 2.0310
-3.9693 0.0425 2.0310
-3.9598 -0.2776 2.0310
-3.9246 -0.5958 2.0310
-3.8638 -0.9102 2.0310
-3.7779 -1.2186 2.0310
-3.6674 -1.5191 2.0310
-3.5330 -1.8097 2.0310
-3.3757 -2.0886 2.0310
-3.1964 -2.3539 2.0310
-2.9962 -2.6038 2.0310
-2.7766 -2.8368 2.0310
-2.5390 -3.0514 2.0310
-2.2848 -3.2461 2.0310
-0.7356 -1.2479 0.7412
-0.6325 -1.3030 0.7411
-0.5254 -1.3496 0.7410
-0.4149 -1.3874 0.7409
-0.3017 -1.4162 0.7409
3.6873 -0.3939 2.0310
3.7071 -0.0954 2.0310
3.7027 0.2036 2.0310
3.6742 0.5014 2.0310
3.6219 0.7959 2.0310
3.5459 1.0852 2.0310
3.4470 1.3675 2.0310
3.3255 1.6408 2.0310
3.1825 1.9035 2.0310
3.0187 2.1538 2.0310
2.8353 2.3901 2.0310
2.6335 2.6108 2.0310
2.4145 2.8146 2.0310
2.1798 3.0000 2.0310
0.7089 1.1622 0.7456
0.6130 1.2158 0.7457
0.5130 1.2613 0.7458
0.4098 1.2987 0.7459
0.3038 1.3276 0.7459
0.1958 1.3478 0.7460
0.0865 1.3593 0.7460
-0.0233 1.3618 0.7460
-0.1330 1.3555 0.7460
-0.2418 1.3403 0.7459
-0.3490 1.3164 0.7459
-0.4539 1.2839 0.7458
-0.5559 1.2430 0.7458
-0.6541 1.1940 0.7457
-0.7481 1.1372 0.7456
-2.2811 2.9237 2.0310
-2.5093 2.7303 2.0310
-2.7212 2.5192 2.0310
-2.9154 2.2917 2.0310
-3.0906 2.0493 2.0310
-3.2457 1.7935 2.0310
-3.3797 1.5261 2.0310
-3.4917 1.2488 2.0310
-3.5810 0.9633 2.0310
-3.6470 0.6715 2.0310
-3.6892 0.3754 2.0310
-3.7075 0.0769 2.0310
-3.7016 -0.2222 2.0310
-3.6717 -0.5198 2.0310
-3.6178 -0.8140 2.0310
-3.5405 -1.1029 2.0310
-3.4401 -1.3847 2.0310
-3.3173 -1.6575 2.0310
-3.1729 -1.9194 2.0310
-3.0079 -2.1689 2.0310
-2.8233 -2.4042 2.0310
-2.6203 -2.6240 2.0310
-2.4003 -2.8266 2.0310
-2.1647 -3.0109 2.0310
-0.6990 -1.1591 0.7413
-0.6032 -1.2115 0.7412
-0.5036 -1.2560 0.7412
-0.4007 -1.2924 0.7411
-0.2952 -1.3204 0.7410
-0.1878 -1.3398 0.7410
-0.0792 -1.3506 0.7410
0.0299 -1.3526 0.7410
0.1388 -1.3458 0.7410
0.2469 -1.3303 0.7410
0.3533 -1.3061 0.7411
0.4574 -1.2735 0.7411
0.5587 -1.2326 0.7412
0.6563 -1.1837 0.7413
0.7496 -1.1272 0.7414
2.2957 -2.9122 2.0310
2.5230 -2.7177 2.0310
2.7338 -2.5055 2.0310
2.9268 -2.2771 2.0310
3.1008 -2.0338 2.0310
3.2547 -1.7772 2.0310
3.3873 -1.5091 2.0310
3.4979 -1.2312 2.0310
3.5858 -0.9453 2.0310
3.6503 -0.6532 2.0310
3.6911 -0.3569 2.0310
3.7078 -0.0583 2.0310
3.7005 0.2408 2.0310
3.6690 0.5382 2.0310
3.6137 0.8322 2.0310
3.5349 1.1207 2.0310
3.4331 1.4019 2.0310
3.3089 1.6741 2.0310
3.1632 1.9353 2.0310
2.9970 2.1839 2.0310
2.8112 2.4184 2.0310
2.6071 2.6371 2.0310
2.3861 2.8386 2.0310
0.7890 1.1092 0.7455
0.6972 1.1693 0.7456
0.6008 1.2219 0.7457
0.5004 1.2664 0.7458
0.3967 1.3028 0.7459
0.2904 1.3306 0.7459
0.1823 1.3497 0.7460
0.0729 1.3601 0.7460
-0.0369 1.3615 0.7460
-0.1466 1.3541 0.7460
-0.2552 1.3378 0.7459
-0.3622 1.3128 0.7459
-0.4668 1.2792 0.7458
-0.5683 1.2373 0.7458
-0.6661 1.1874 0.7457
-0.7595 1.1297 0.7456
-2.3103 2.9007 2.0310
-2.5366 2.7050 2.0310
-2.7463 2.4918 2.0310
-2.9382 2.2623 2.0310
-3.1110 2.0182 2.0310
-3.2635 1.7609 2.0310
-3.3948 1.4921 2.0310
-3.5040 1.2137 2.0310
-3.5905 0.9273 2.0310
-3.6535 0.6349 2.0310
-3.6928 0.3384 2.0310
-3.7081 0.0397 2.0310
-3.6992 -0.2593 2.0310
-3.6663 -0.5566 2.0310
-3.6095 -0.8502 2.0310
-3.5292 -1.1384 2.0310
-3.4260 -1.4191 2.0310
-3.3005 -1.6906 2.0310
-3.1535 -1.9511 2.0310
-2.9860 -2.1989 2.0310
-2.7990 -2.4324 2.0310
-2.5939 -2.6501 2.0310
-2.3719 -2.8506 2.0310
-0.7792 -1.1070 0.7414
-0.6873 -1.1660 0.7413
-0.5910 -1.2175 0.7412
-0.4909 -1.2610 0.7412
-0.3877 -1.2964 0.7411
-0.2819 -1.3233 0.7410
3.4529 -0.3689 2.0310
3.4714 -0.0894 2.0310
3.4673 0.1907 2.0310
3.4407 0.4695 2.0310
3.3916 0.7453 2.0310
3.3205 1.0162 2.0310
3.2278 1.2805 2.0310
3.1141 1.5365 2.0310
2.9802 1.7825 2.0310
2.8268 2.0169 2.0310
2.6551 2.2381 2.0310
2.4661 2.4449 2.0310
2.2610 2.6357 2.0310
0.7491 1.0310 0.7454
0.6637 1.0882 0.7455
0.5739 1.1383 0.7456
0.4803 1.1809 0.7457
0.3836 1.2159 0.7457
0.2844 1.2430 0.7458
0.1833 1.2619 0.7458
0.0810 1.2726 0.7458
-0.0218 1.2750 0.7458
-0.1245 1.2691 0.7458
-0.2264 1.2549 0.7458
-0.3267 1.2325 0.7457
-0.4250 1.2020 0.7457
-0.5204 1.1638 0.7456
-0.6125 1.1179 0.7455
-0.7005 1.0648 0.7454
-2.1361 2.7378 2.0310
-2.3498 2.5568 2.0310
-2.5482 2.3591 2.0310
-2.7301 2.1460 2.0310
-2.8942 1.9190 2.0310
-3.0394 1.6795 2.0310
-3.1649 1.4291 2.0310
-3.2698 1.1694 2.0310
-3.3534 0.9020 2.0310
-3.4152 0.6289 2.0310
-3.4547 0.3516 2.0310
-3.4718 0.0720 2.0310
-3.4663 -0.2081 2.0310
-3.4383 -0.4867 2.0310
-3.3879 -0.7623 2.0310
-3.3154 -1.0328 2.0310
-3.2214 -1.2967 2.0310
-3.1064 -1.5521 2.0310
-2.9712 -1.7974 2.0310
-2.8167 -2.0310 2.0310
-2.6438 -2.2514 2.0310
-2.4538 -2.4572 2.0310
-2.2478 -2.6469 2.0310
-0.7401 -1.0295 0.7416
-0.6547 -1.0856 0.7415
-0.5650 -1.1347 0.7414
-0.4716 -1.1764 0.7413
-0.3753 -1.2105 0.7412
-0.2765 -1.2367 0.7412
-0.1759 -1.2549 0.7412
-0.0742 -1.2650 0.7411
0.0280 -1.2669 0.7411
0.1300 -1.2605 0.7412
0.2312 -1.2460 0.7412
0.3309 -1.2234 0.7412
0.4285 -1.1928 0.7413
0.5232 -1.1545 0.7414
0.6147 -1.1087 0.7414
0.7021 -1.0557 0.7415
0.7850 -0.9958 0.7417
2.3626 -2.5450 2.0310
2.5600 -2.3463 2.0310
2.7408 -2.1323 2.0310
2.9037 -1.9045 2.0310
3.0478 -1.6642 2.0310
3.1720 -1.4132 2.0310
3.2756 -1.1530 2.0310
3.3578 -0.8852 2.0310
3.4183 -0.6117 2.0310
3.4564 -0.3342 2.0310
3.4721 -0.0546 2.0310
3.4652 0.2255 2.0310
3.4358 0.5040 2.0310
3.3840 0.7793 2.0310
3.3102 1.0495 2.0310
3.2148 1.3128 2.0310
3.0986 1.5677 2.0310
2.9622 1.8123 2.0310
2.8065 2.0451 2.0310
2.6325 2.2647 2.0310
2.4414 2.4694 2.0310
2.2345 2.6582 2.0310
0.7388 1.0385 0.7454
0.6527 1.0948 0.7455
0.5625 1.1440 0.7456
0.4685 1.1857 0.7457
0.3714 1.2197 0.7457
0.2719 1.2458 0.7458
0.1707 1.2637 0.7458
0.0683 1.2733 0.7458
-0.0346 1.2747 0.7458
-0.1372 1.2677 0.7458
-0.2389 1.2525 0.7458
-0.3391 1.2291 0.7457
-0.4370 1.1977 0.7457
-0.5321 1.1585 0.7456
-0.6236 1.1117 0.7455
-0.7111 1.0577 0.7454
-2.1635 2.7163 2.0310
-2.3753 2.5331 2.0310
-2.5718 2.3334 2.0310
-2.7515 2.1185 2.0310
-2.9133 1.8899 2.0310
-3.0561 1.6490 2.0310
-3.1790 1.3973 2.0310
-3.2813 1.1365 2.0310
-3.3622 0.8684 2.0310
-3.4213 0.5946 2.0310
-3.4581 0.3169 2.0310
-3.4724 0.0372 2.0310
-3.4641 -0.2428 2.0310
-3.4332 -0.5212 2.0310
-3.3801 -0.7962 2.0310
-3.3049 -1.0660 2.0310
-3.2082 -1.3289 2.0310
-3.0907 -1.5832 2.0310
-2.9530 -1.8271 2.0310
-2.7962 -2.0592 2.0310
-2.6211 -2.2778 2.0310
-2.4290 -2.4816 2.0310
-2.2211 -2.6694 2.0310
-0.7298 -1.0368 0.7416
-0.6437 -1.0921 0.7415
-0.5536 -1.1403 0.7414
-0.4598 -1.1811 0.7413
-0.3631 -1.2142 0.7412
-0.2641 -1.2394 0.7412
3.2401 -0.3461 2.0310
3.2574 -0.0839 2.0310
3.2536 0.1789 2.0310
3.2286 0.4406 2.0310
3.1826 0.6993 2.0310
3.1159 0.9536 2.0310
3.0289 1.2016 2.0310
2.9222 1.4418 2.0310
2.7965 1.6726 2.0310
2.6526 1.8926 2.0310
2.4914 2.1002 2.0310
2.3140 2.2941 2.0310
0.7784 0.9074 0.7452
0.7028 0.9673 0.7453
0.6227 1.0209 0.7454
0.5384 1.0679 0.7454
0.4506 1.1079 0.7455
0.3599 1.1407 0.7456
0.2668 1.1661 0.7456
0.1720 1.1839 0.7457
0.0760 1.1939 0.7457
-0.0205 1.1962 0.7457
-0.1168 1.1906 0.7457
-0.2124 1.1773 0.7456
-0.3065 1.1563 0.7456
-0.3987 1.1277 0.7456
-0.4883 1.0918 0.7455
-0.5746 1.0488 0.7454
-0.6572 0.9990 0.7453
-0.7354 0.9426 0.7452
-2.2050 2.3992 2.0310
-2.3912 2.2137 2.0310
-2.5618 2.0137 2.0310
-2.7157 1.8007 2.0310
-2.8520 1.5760 2.0310
-2.9698 1.3410 2.0310
-3.0682 1.0973 2.0310
-3.1467 0.8465 2.0310
-3.2046 0.5901 2.0310
-3.2418 0.3299 2.0310
-3.2578 0.0676 2.0310
-3.2527 -0.1952 2.0310
-3.2263 -0.4567 2.0310
-3.1790 -0.7153 2.0310
-3.1110 -0.9692 2.0310
-3.0228 -1.2167 2.0310
-2.9149 -1.4564 2.0310
-2.7880 -1.6866 2.0310
-2.6430 -1.9058 2.0310
-2.4808 -2.1126 2.0310
-2.3025 -2.3057 2.0310
-0.7703 -0.9072 0.7418
-0.6946 -0.9662 0.7417
-0.6144 -1.0189 0.7416
-0.5302 -1.0649 0.7415
-0.4427 -1.1041 0.7414
-0.3522 -1.1361 0.7414
-0.2595 -1.1607 0.7413
-0.1651 -1.1778 0.7413
-0.0696 -1.1873 0.7413
0.0263 -1.1890 0.7413
0.1220 -1.1830 0.7413
0.2170 -1.1694 0.7413
0.3106 -1.1482 0.7414
0.4021 -1.1195 0.7414
0.4911 -1.0835 0.7415
0.5769 -1.0405 0.7416
0.6589 -0.9908 0.7417
0.7367 -0.9346 0.7418
2.2170 -2.3881 2.0310
2.4022 -2.2016 2.0310
2.5718 -2.0009 2.0310
2.7247 -1.7871 2.0310
2.8599 -1.5617 2.0310
2.9765 -1.3261 2.0310
3.0737 -1.0819 2.0310
3.1509 -0.8306 2.0310
3.2076 -0.5740 2.0310
3.2434 -0.3136 2.0310
3.2581 -0.0512 2.0310
3.2516 0.2115 2.0310
3.2240 0.4729 2.0310
3.1754 0.7312 2.0310
3.1061 0.9848 2.0310
3.0167 1.2319 2.0310
2.9076 1.4710 2.0310
2.7796 1.7006 2.0310
2.6335 1.9191 2.0310
2.4702 2.1250 2.0310
2.2909 2.3172 2.0310
0.7693 0.9151 0.7452
0.6931 0.9743 0.7453
0.6124 1.0271 0.7454
0.5277 1.0733 0.7455
0.4395 1.1124 0.7455
0.3485 1.1443 0.7456
0.2551 1.1687 0.7456
0.1601 1.1855 0.7457
0.0640 1.1946 0.7457
-0.0325 1.1959 0.7457
-0.1287 1.1894 0.7457
-0.2242 1.1751 0.7456
-0.3181 1.1531 0.7456
-0.4100 1.1237 0.7455
-0.4992 1.0869 0.7455
-0.5851 1.0430 0.7454
-0.6671 0.9923 0.7453
-0.7448 0.9352 0.7452
-2.2289 2.3769 2.0310
-2.4132 2.1896 2.0310
-2.5818 1.9879 2.0310
-2.7337 1.7734 2.0310
-2.8677 1.5473 2.0310
-2.9831 1.3112 2.0310
-3.0790 1.0665 2.0310
-3.1550 0.8149 2.0310
-3.2104 0.5579 2.0310
-3.2449 0.2974 2.0310
-3.2583 0.0349 2.0310
-3.2505 -0.2278 2.0310
-3.2216 -0.4891 2.0310
-3.1717 -0.7471 2.0310
-3.1012 -1.0003 2.0310
-3.0105 -1.2470 2.0310
-2.9002 -1.4856 2.0310
-2.7710 -1.7145 2.0310
-2.6238 -1.9322 2.0310
-2.4595 -2.1374 2.0310
-2.2793 -2.3287 2.0310
-0.7612 -0.9148 0.7418
-0.6849 -0.9730 0.7417
-0.6042 -1.0249 0.7416
-0.5195 -1.0702 0.7415
-0.4316 -1.1085 0.7414
-0.3408 -1.1396 0.7414
-0.2478 -1.1633 0.7413
3.0456 -0.3254 2.0310
3.0619 -0.0788 2.0310
3.0583 0.1682 2.0310
3.0348 0.4141 2.0310
2.9916 0.6574 2.0310
2.9289 0.8963 2.0310
2.8471 1.1295 2.0310
2.7468 1.3553 2.0310
2.6286 1.5722 2.0310
2.4934 1.7790 2.0310
2.3419 1.9741 2.0310
2.1752 2.1565 2.0310
0.7316 0.8528 0.7451
0.6606 0.9091 0.7452
0.5852 0.9595 0.7452
0.5060 1.0037 0.7453
0.4235 1.0413 0.7454
0.3383 1.0721 0.7455
0.2508 1.0959 0.7455
0.1616 1.1126 0.7455
0.0714 1.1221 0.7455
-0.0192 1.1242 0.7455
-0.1098 1.1189 0.7455
-0.1996 1.1064 0.7455
-0.2881 1.0867 0.7455
-0.3747 1.0599 0.7454
-0.4589 1.0261 0.7454
-0.5400 0.9857 0.7453
-0.6176 0.9389 0.7452
-0.6912 0.8859 0.7451
-0.7603 0.8272 0.7450
-2.2477 2.0808 2.0310
-2.4080 1.8929 2.0310
-2.5528 1.6927 2.0310
-2.6809 1.4814 2.0310
-2.7915 1.2605 2.0310
-2.8841 1.0314 2.0310
-2.9578 0.7956 2.0310
-3.0123 0.5547 2.0310
-3.0472 0.3101 2.0310
-3.0623 0.0635 2.0310
-3.0574 -0.1835 2.0310
-3.0327 -0.4293 2.0310
-2.9882 -0.6724 2.0310
-2.9243 -0.9110 2.0310
-2.8414 -1.1437 2.0310
-2.7400 -1.3690 2.0310
-2.6207 -1.5854 2.0310
-2.4844 -1.7914 2.0310
-2.3320 -1.9859 2.0310
-2.1643 -2.1673 2.0310
-0.7242 -0.8528 0.7419
-0.6530 -0.9083 0.7418
-0.5776 -0.9579 0.7417
-0.4985 -1.0012 0.7416
-0.4162 -1.0380 0.7416
-0.3311 -1.0681 0.7415
-0.2439 -1.0912 0.7415
-0.1552 -1.1073 0.7414
-0.0654 -1.1162 0.7414
0.0247 -1.1178 0.7414
0.1147 -1.1122 0.7414
0.2040 -1.0994 0.7415
0.2920 -1.0794 0.7415
0.3780 -1.0525 0.7415
0.4617 -1.0187 0.7416
0.5423 -0.9782 0.7417
0.6195 -0.9314 0.7418
0.6926 -0.8786 0.7419
0.7613 -0.8200 0.7420
2.2581 -2.0695 2.0310
2.4175 -1.8808 2.0310
2.5612 -1.6798 2.0310
2.6883 -1.4679 2.0310
2.7978 -1.2465 2.0310
2.8892 -1.0170 2.0310
2.9618 -0.7808 2.0310
3.0150 -0.5396 2.0310
3.0487 -0.2948 2.0310
3.0626 -0.0481 2.0310
3.0565 0.1989 2.0310
3.0305 0.4445 2.0310
2.9848 0.6874 2.0310
2.9197 0.9257 2.0310
2.8356 1.1580 2.0310
2.7331 1.3827 2.0310
2.6127 1.5985 2.0310
2.4754 1.8039 2.0310
2.3220 1.9975 2.0310
0.7898 0.7989 0.7450
0.7230 0.8601 0.7451
0.6514 0.9157 0.7452
0.5756 0.9653 0.7453
0.4959 1.0087 0.7453
0.4131 1.0455 0.7454
0.3275 1.0754 0.7455
0.2398 1.0984 0.7455
0.1505 1.1142 0.7455
0.0602 1.1227 0.7455
-0.0305 1.1239 0.7455
-0.1210 1.1178 0.7455
-0.2107 1.1044 0.7455
-0.2990 1.0837 0.7455
-0.3853 1.0560 0.7454
-0.4691 1.0215 0.7454
-0.5499 0.9802 0.7453
-0.6270 0.9326 0.7452
-0.7000 0.8789 0.7451
-0.7685 0.8195 0.7450
-2.2684 2.0581 2.0310
-2.4269 1.8686 2.0310
-2.5696 1.6670 2.0310
-2.6956 1.4545 2.0310
-2.8040 1.2325 2.0310
-2.8943 1.0025 2.0310
-2.9656 0.7660 2.0310
-3.0177 0.5244 2.0310
-3.0502 0.2795 2.0310
-3.0628 0.0328 2.0310
-3.0555 -0.2142 2.0310
-3.0283 -0.4597 2.0310
-2.9813 -0.7023 2.0310
-2.9150 -0.9403 2.0310
-2.8298 -1.1722 2.0310
-2.7261 -1.3964 2.0310
-2.6047 -1.6116 2.0310
-2.4663 -1.8163 2.0310
-2.3119 -2.0091 2.0310
-0.7827 -0.7997 0.7420
-0.7156 -0.8600 0.7419
-0.6439 -0.9148 0.7418
-0.5680 -0.9636 0.7417
-0.4884 -1.0061 0.7416
-0.4057 -1.0421 0.7416
-0.3204 -1.0714 0.7415
-0.2330 -1.0936 0.7415
2.8670 -0.3063 2.0310
2.8824 -0.0742 2.0310
2.8790 0.1583 2.0310
2.8568 0.3898 2.0310
2.8161 0.6188 2.0310
2.7571 0.8438 2.0310
2.6801 1.0632 2.0310
2.5857 1.2758 2.0310
2.4745 1.4800 2.0310
2.3471 1.6746 2.0310
2.2045 1.8584 2.0310
0.7509 0.7445 0.7449
0.6886 0.8027 0.7450
0.6217 0.8557 0.7451
0.5508 0.9031 0.7451
0.4763 0.9447 0.7452
0.3986 0.9801 0.7453
0.3184 1.0091 0.7453
0.2360 1.0315 0.7454
0.1521 1.0472 0.7454
0.0672 1.0561 0.7454
-0.0181 1.0581 0.7454
-0.1033 1.0532 0.7454
-0.1879 1.0414 0.7454
-0.2712 1.0228 0.7454
-0.3527 0.9976 0.7453
-0.4319 0.9658 0.7453
-0.5083 0.9278 0.7452
-0.5813 0.8837 0.7451
-0.6506 0.8339 0.7450
-0.7156 0.7786 0.7449
-0.7759 0.7183 0.7448
-2.2668 1.7819 2.0310
-2.4031 1.5934 2.0310
-2.5237 1.3945 2.0310
-2.6278 1.1866 2.0310
-2.7149 0.9709 2.0310
-2.7843 0.7490 2.0310
-2.8356 0.5221 2.0310
-2.8685 0.2919 2.0310
-2.8827 0.0598 2.0310
-2.8781 -0.1728 2.0310
-2.8549 -0.4042 2.0310
-2.8130 -0.6329 2.0310
-2.7528 -0.8576 2.0310
-2.6748 -1.0767 2.0310
-2.5793 -1.2887 2.0310
-2.4670 -1.4924 2.0310
-2.3387 -1.6864 2.0310
-2.1952 -1.8694 2.0310
-0.7444 -0.7455 0.7421
-0.6818 -0.8029 0.7420
-0.6148 -0.8551 0.7419
-0.5438 -0.9018 0.7418
-0.4693 -0.9426 0.7417
-0.3918 -0.9773 0.7417
-0.3117 -1.0056 0.7416
-0.2297 -1.0274 0.7416
-0.1461 -1.0425 0.7416
-0.0616 -1.0509 0.7415
0.0233 -1.0525 0.7415
0.1080 -1.0472 0.7416
0.1921 -1.0351 0.7416
0.2749 -1.0163 0.7416
