ply
format ascii 1.0
element vertex 2180
property float32 x
property float32 y
property float32 z
end_header
-5.0228 -5.1865 2.0382
-4.5921 -5.5727 2.0382
-4.1317 -5.9232 2.0382
-3.6446 -6.2356 2.0382
-3.1339 -6.5078 2.0382
-2.6029 -6.7382 2.0382
-2.0552 -6.9252 2.0382
-1.4942 -7.0676 2.0382
-0.9235 -7.1645 2.0382
-0.3470 -7.2153 2.0382
0.2318 -7.2195 2.0382
0.8090 -7.1773 2.0382
1.3809 -7.0888 2.0382
1.9438 -6.9547 2.0382
2.4941 -6.7759 2.0382
3.0281 -6.5535 2.0382
3.5425 -6.2890 2.0382
4.0339 -5.9841 2.0382
2.9013 -3.6375 1.3144
2.6646 -2.8406 1.1004
2.4933 -2.2638 0.9517
2.3621 -1.8220 0.8433
2.2571 -1.4688 0.7614
2.1703 -1.1764 0.6982
2.0964 -0.9276 0.6485
2.0319 -0.7105 0.6091
1.9745 -0.5173 0.5777
1.9224 -0.3420 0.5528
1.9379 -0.1864 0.5513
1.9473 -0.0307 0.5517
1.9444 0.1255 0.5521
1.9289 0.2809 0.5524
2.8470 0.6509 0.8279
6.3440 1.9969 1.8858
6.1623 2.4980 1.8858
5.9411 2.9829 1.8858
5.7568 3.4938 1.9107
5.5877 4.0371 1.9563
5.4073 4.6088 2.0166
5.0738 5.0802 2.0382
4.6499 5.4695 2.0382
4.1964 5.8236 2.0382
3.7161 6.1404 2.0382
3.2120 6.4178 2.0382
2.6875 6.6541 2.0382
2.1458 6.8477 2.0382
1.5904 6.9975 2.0382
1.0247 7.1024 2.0382
0.4526 7.1618 2.0382
-0.1225 7.1754 2.0382
-0.6969 7.1430 2.0382
-1.2670 7.0648 2.0382
-1.8290 6.9414 2.0382
-2.3794 6.7735 2.0382
-2.9147 6.5621 2.0382
-3.4315 6.3085 2.0382
-3.9264 6.0145 2.0382
-4.3964 5.6818 2.0382
-4.8383 5.3126 2.0382
-5.2494 4.9091 2.0382
-5.6270 4.4739 2.0382
-5.9687 4.0098 2.0382
-6.2722 3.5198 2.0382
-6.5357 3.0070 2.0382
-6.7572 2.4746 2.0382
-6.9355 1.9260 2.0382
-7.0694 1.3648 2.0382
-7.1579 0.7945 2.0382
-7.2004 0.2188 2.0382
-7.1967 -0.3586 2.0382
-7.1467 -0.9339 2.0382
-7.0507 -1.5036 2.0382
-6.9094 -2.0638 2.0382
-6.7235 -2.6110 2.0382
-6.4943 -3.1417 2.0382
-6.2232 -3.6523 2.0382
-5.9119 -4.1396 2.0382
-5.5625 -4.6005 2.0382
-5.1771 -5.0319 2.0382
-4.7583 -5.4310 2.0382
-4.3088 -5.7953 2.0382
-3.8313 -6.1223 2.0382
-3.3292 -6.4099 2.0382
-2.8055 -6.6563 2.0382
-2.2637 -6.8598 2.0382
-1.7072 -7.0192 2.0382
-1.1398 -7.1334 2.0382
-0.5650 -7.2016 2.0382
0.0133 -7.2234 2.0382
0.5916 -7.1987 2.0382
1.1659 -7.1276 2.0382
1.7326 -7.0107 2.0382
2.2881 -6.8486 2.0382
2.8287 -6.6425 2.0382
3.3509 -6.3937 2.0382
3.8513 -6.1038 2.0382
3.0168 -4.0263 1.4211
2.7443 -3.1089 1.1716
2.5522 -2.4622 1.0021
2.4079 -1.9764 0.8805
2.2942 -1.5937 0.7898
2.2013 -1.2809 0.7202
2.1230 -1.0172 0.6659
2.0553 -0.7893 0.6229
1.9955 -0.5879 0.5887
1.9415 -0.4064 0.5615
1.9311 -0.2449 0.5512
1.9452 -0.0895 0.5515
1.9470 0.0666 0.5519
1.9362 0.2224 0.5523
1.9396 0.3821 0.5603
6.4021 1.8042 1.8858
6.2355 2.3106 1.8858
6.0293 2.8015 1.8858
5.8206 3.2958 1.8977
5.6527 3.8292 1.9374
5.4769 4.3891 1.9920
5.2255 4.9246 2.0382
4.8135 5.3265 2.0382
4.3709 5.6942 2.0382
3.9003 6.0254 2.0382
3.4049 6.3179 2.0382
2.8877 6.5699 2.0382
2.3520 6.7797 2.0382
1.8014 6.9462 2.0382
1.2392 7.0681 2.0382
0.6691 7.1448 2.0382
0.0946 7.1757 2.0382
-0.4805 7.1606 2.0382
-1.0526 7.0997 2.0382
-1.6180 6.9933 2.0382
-2.1732 6.8420 2.0382
-2.7146 6.6469 2.0382
-3.2388 6.4091 2.0382
-3.7424 6.1301 2.0382
-4.2221 5.8118 2.0382
-4.6750 5.4561 2.0382
-5.0981 5.0652 2.0382
-5.4886 4.6417 2.0382
-5.8441 4.1882 2.0382
-6.1623 3.7076 2.0382
-6.4411 3.2030 2.0382
-6.6786 2.6776 2.0382
-5.7707 -3.0105 2.0382
-5.5121 -3.4634 2.0382
-5.2180 -3.8943 2.0382
-4.8903 -4.3003 2.0382
-4.5309 -4.6787 2.0382
-4.1423 -5.0270 2.0382
-3.7269 -5.3431 2.0382
-3.2875 -5.6248 2.0382
-2.8268 -5.8704 2.0382
-2.3479 -6.0782 2.0382
-1.8538 -6.2468 2.0382
-1.3478 -6.3753 2.0382
-0.8331 -6.4627 2.0382
-0.3130 -6.5084 2.0382
0.2091 -6.5123 2.0382
0.7297 -6.4742 2.0382
1.2456 -6.3945 2.0382
1.7534 -6.2736 2.0382
2.2497 -6.1124 2.0382
2.7315 -5.9118 2.0382
3.1956 -5.6733 2.0382
3.6389 -5.3983 2.0382
2.9014 -3.6377 1.4570
2.6647 -2.8408 1.2199
2.4933 -2.2640 1.0550
2.3621 -1.8222 0.9347
2.2572 -1.4689 0.8440
2.1703 -1.1765 0.7739
2.0964 -0.9276 0.7188
2.0319 -0.7106 0.6751
1.9745 -0.5174 0.6403
1.9225 -0.3421 0.6127
1.8744 -0.1804 0.5910
1.8294 -0.0288 0.5744
1.7866 0.1152 0.5622
1.7454 0.2541 0.5539
2.8494 0.6514 0.9182
6.1875 1.9475 2.0382
6.0104 2.4363 2.0382
5.7948 2.9093 2.0382
5.5421 3.3634 2.0382
5.2540 3.7959 2.0382
4.9323 4.2038 2.0382
4.5791 4.5847 2.0382
4.1966 4.9361 2.0382
3.7873 5.2558 2.0382
3.3539 5.5418 2.0382
2.8990 5.7922 2.0382
2.4255 6.0055 2.0382
1.9366 6.1802 2.0382
1.4353 6.3154 2.0382
0.9249 6.4101 2.0382
0.4084 6.4637 2.0382
-0.1106 6.4760 2.0382
-0.6290 6.4467 2.0382
-1.1435 6.3761 2.0382
-1.6507 6.2646 2.0382
-2.1475 6.1130 2.0382
-2.6305 5.9221 2.0382
-3.0969 5.6932 2.0382
-3.5435 5.4278 2.0382
-3.9676 5.1274 2.0382
-4.3663 4.7941 2.0382
-4.7373 4.4300 2.0382
-5.0779 4.0371 2.0382
-5.3861 3.6183 2.0382
-5.6599 3.1760 2.0382
-5.8975 2.7132 2.0382
-6.0973 2.2327 2.0382
-6.2580 1.7377 2.0382
-6.3786 1.2312 2.0382
-6.4583 0.7167 2.0382
-6.4965 0.1972 2.0382
-6.4930 -0.3237 2.0382
-6.4478 -0.8428 2.0382
-6.3610 -1.3566 2.0382
-6.2334 -1.8620 2.0382
-6.0656 -2.3557 2.0382
-5.8587 -2.8343 2.0382
-5.6140 -3.2949 2.0382
-5.3331 -3.7345 2.0382
-5.0178 -4.1502 2.0382
-4.6701 -4.5392 2.0382
-4.2923 -4.8992 2.0382
-3.8867 -5.2277 2.0382
-3.4560 -5.5226 2.0382
-3.0030 -5.7820 2.0382
-2.5306 -6.0043 2.0382
-2.0419 -6.1878 2.0382
-1.5400 -6.3316 2.0382
-1.0281 -6.4345 2.0382
-0.5097 -6.4961 2.0382
0.0120 -6.5158 2.0382
0.5336 -6.4935 2.0382
1.0516 -6.4295 2.0382
1.5629 -6.3240 2.0382
2.0639 -6.1779 2.0382
2.5516 -5.9921 2.0382
3.0227 -5.7677 2.0382
3.4742 -5.5063 2.0382
3.0169 -4.0266 1.5754
2.7444 -3.1091 1.2987
2.5523 -2.4624 1.1109
2.4080 -1.9765 0.9760
2.2943 -1.5938 0.8754
2.2013 -1.2810 0.7983
2.1230 -1.0173 0.7381
2.0553 -0.7893 0.6904
1.9955 -0.5879 0.6525
1.9416 -0.4064 0.6224
1.8921 -0.2400 0.5985
1.8461 -0.0850 0.5801
1.8025 0.0616 0.5663
1.7608 0.2022 0.5566
1.9407 0.3823 0.6213
6.2439 1.7595 2.0382
6.0818 2.2535 2.0382
5.8806 2.7328 2.0382
5.6418 3.1944 2.0382
5.3668 3.6354 2.0382
5.0576 4.0528 2.0382
4.7160 4.4443 2.0382
4.3443 4.8071 2.0382
3.9448 5.1390 2.0382
3.5201 5.4380 2.0382
3.0730 5.7020 2.0382
2.6062 5.9294 2.0382
2.1228 6.1189 2.0382
1.6258 6.2691 2.0382
1.1184 6.3792 2.0382
0.6038 6.4484 2.0382
0.0854 6.4762 2.0382
-0.4337 6.4626 2.0382
-0.9500 6.4076 2.0382
-1.4603 6.3115 2.0382
-1.9614 6.1749 2.0382
-2.4500 5.9987 2.0382
-2.9230 5.7840 2.0382
-3.3775 5.5322 2.0382
-3.8104 5.2448 2.0382
-4.2190 4.9237 2.0382
-4.6007 4.5708 2.0382
-4.9530 4.1886 2.0382
-5.2737 3.7792 2.0382
-5.5607 3.3455 2.0382
-5.8121 2.8901 2.0382
-6.0264 2.4159 2.0382
-5.2478 -2.7378 2.0382
-5.0126 -3.1498 2.0382
-4.7451 -3.5415 2.0382
-4.4470 -3.9106 2.0382
-4.1202 -4.2547 2.0382
-3.7668 -4.5714 2.0382
-3.3890 -4.8588 2.0382
-2.9894 -5.1149 2.0382
-2.5705 -5.3382 2.0382
-0.7730 -2.0011 0.7379
-1.6857 -5.6805 2.0382
-1.2256 -5.7972 2.0382
-0.7575 -5.8767 2.0382
-0.2846 -5.9184 2.0382
0.1901 -5.9219 2.0382
0.6635 -5.8873 2.0382
1.1326 -5.8148 2.0382
1.5944 -5.7050 2.0382
0.7409 -2.0131 0.7382
2.4839 -5.3761 2.0382
2.9059 -5.1593 2.0382
3.3091 -4.9093 2.0382
2.7639 -3.4654 1.5263
2.6647 -2.8410 1.3414
2.4934 -2.2641 1.1601
2.3621 -1.8223 1.0278
2.2572 -1.4690 0.9280
2.1703 -1.1766 0.8509
2.0964 -0.9277 0.7903
2.0319 -0.7107 0.7423
1.9745 -0.5174 0.7040
1.9225 -0.3421 0.6736
1.8744 -0.1804 0.6498
1.8294 -0.0289 0.6315
1.7866 0.1152 0.6180
1.7454 0.2541 0.6090
2.8518 0.6519 1.0103
5.6284 1.7714 2.0382
5.4674 2.2160 2.0382
5.2714 2.6464 2.0382
5.0416 3.0595 2.0382
4.7796 3.4529 2.0382
4.4870 3.8241 2.0382
4.1657 4.1707 2.0382
3.8178 4.4904 2.0382
3.4455 4.7813 2.0382
3.0512 5.0415 2.0382
2.6373 5.2694 2.0382
2.2066 5.4634 2.0382
1.7619 5.6224 2.0382
1.3058 5.7454 2.0382
0.8414 5.8316 2.0382
0.3716 5.8803 2.0382
-0.1007 5.8914 2.0382
-0.5723 5.8648 2.0382
-1.0403 5.8005 2.0382
-1.5018 5.6991 2.0382
-1.9536 5.5610 2.0382
-2.3931 5.3873 2.0382
-2.8173 5.1791 2.0382
-3.2236 4.9375 2.0382
-3.6093 4.6642 2.0382
-3.9720 4.3609 2.0382
-4.3093 4.0295 2.0382
-4.6191 3.6722 2.0382
-4.8994 3.2911 2.0382
-5.1483 2.8888 2.0382
-5.3643 2.4677 2.0382
-5.5459 2.0306 2.0382
-5.6920 1.5804 2.0382
-5.8016 1.1197 2.0382
-5.8740 0.6517 2.0382
-5.9086 0.1792 2.0382
-5.9053 -0.2945 2.0382
-5.8641 -0.7666 2.0382
-5.7851 -1.2340 2.0382
-5.6689 -1.6935 2.0382
-5.5161 -2.1424 2.0382
-5.3279 -2.5777 2.0382
-5.1053 -2.9965 2.0382
-4.8498 -3.3962 2.0382
-4.5630 -3.7741 2.0382
-4.2468 -4.1279 2.0382
-3.9031 -4.4552 2.0382
-3.5343 -4.7539 2.0382
-3.1427 -5.0220 2.0382
-2.7307 -5.2579 2.0382
-2.3012 -5.4599 2.0382
-1.8568 -5.6268 2.0382
-1.4003 -5.7575 2.0382
-0.9349 -5.8511 2.0382
-0.4635 -5.9071 2.0382
0.0109 -5.9250 2.0382
0.4852 -5.9048 2.0382
0.9563 -5.8466 2.0382
1.4211 -5.7508 2.0382
0.6796 -2.0345 0.7381
2.3203 -5.4490 2.0382
2.7487 -5.2451 2.0382
3.1593 -5.0074 2.0382
3.0170 -4.0270 1.7325
2.7445 -3.1093 1.4282
2.5523 -2.4625 1.2216
2.4080 -1.9767 1.0732
2.2943 -1.5940 0.9626
2.2014 -1.2811 0.8778
2.1230 -1.0174 0.8115
2.0553 -0.7894 0.7591
1.9955 -0.5880 0.7174
1.9416 -0.4065 0.6843
1.8922 -0.2401 0.6581
1.8461 -0.0851 0.6378
1.8026 0.0615 0.6226
1.7608 0.2021 0.6119
1.9418 0.3825 0.6834
5.6799 1.6004 2.0382
5.5324 2.0497 2.0382
5.3494 2.4858 2.0382
5.1322 2.9058 2.0382
4.8822 3.3069 2.0382
4.6009 3.6868 2.0382
4.2902 4.0429 2.0382
3.9521 4.3730 2.0382
3.5887 4.6750 2.0382
3.2024 4.9470 2.0382
2.7956 5.1873 2.0382
2.3710 5.3942 2.0382
1.9312 5.5666 2.0382
1.4791 5.7033 2.0382
1.0175 5.8034 2.0382
0.5493 5.8663 2.0382
0.0776 5.8917 2.0382
-0.3946 5.8793 2.0382
-0.8643 5.8291 2.0382
-1.3286 5.7417 2.0382
-1.7844 5.6174 2.0382
-2.2289 5.4570 2.0382
-2.6592 5.2617 2.0382
-3.0725 5.0325 2.0382
-3.4663 4.7710 2.0382
-3.8380 4.4788 2.0382
-4.1851 4.1578 2.0382
-4.5056 3.8100 2.0382
-4.7972 3.4376 2.0382
-5.0582 3.0430 2.0382
-5.2868 2.6287 2.0382
-5.4815 2.1973 2.0382
-4.8041 -2.5064 2.0382
-4.5887 -2.8835 2.0382
-4.3438 -3.2421 2.0382
-4.0708 -3.5799 2.0382
-3.7716 -3.8948 2.0382
-3.4481 -4.1847 2.0382
-3.1023 -4.4477 2.0382
-2.7365 -4.6822 2.0382
-2.3530 -4.8865 2.0382
-0.7080 -1.8329 0.7384
-0.5589 -1.8835 0.7383
-0.4063 -1.9220 0.7382
-0.2511 -1.9483 0.7382
-0.0944 -1.9621 0.7382
0.0630 -1.9633 0.7382
0.2200 -1.9520 0.7383
0.3756 -1.9282 0.7383
0.5288 -1.8921 0.7385
0.6786 -1.8439 0.7386
2.2737 -4.9214 2.0382
2.6600 -4.7229 2.0382
3.0292 -4.4942 2.0382
2.7174 -3.4073 1.6392
2.6648 -2.8412 1.4654
2.4934 -2.2643 1.2673
2.3622 -1.8224 1.1228
2.2572 -1.4691 1.0137
2.1704 -1.1767 0.9295
2.0964 -0.9278 0.8633
2.0320 -0.7108 0.8108
1.9746 -0.5175 0.7690
1.9225 -0.3422 0.7358
1.8745 -0.1805 0.7097
1.8294 -0.0289 0.6897
1.7866 0.1151 0.6750
1.7454 0.2540 0.6651
2.8543 0.6524 1.1044
5.1536 1.6218 2.0382
5.0063 2.0290 2.0382
4.8268 2.4230 2.0382
4.6165 2.8014 2.0382
4.3766 3.1617 2.0382
4.1087 3.5016 2.0382
3.8146 3.8190 2.0382
3.4960 4.1118 2.0382
3.1551 4.3783 2.0382
2.7940 4.6166 2.0382
2.4151 4.8252 2.0382
0.7421 1.8374 0.7486
0.5926 1.8912 0.7487
0.4393 1.9328 0.7488
0.2831 1.9619 0.7488
0.3402 5.3847 2.0382
-0.0922 5.3949 2.0382
-0.1925 1.9729 0.7488
-0.3499 1.9511 0.7487
-0.5051 1.9166 0.7486
-0.6569 1.8698 0.7484
-2.1914 4.9331 2.0382
-2.5799 4.7423 2.0382
-2.9518 4.5211 2.0382
-3.3050 4.2708 2.0382
-3.6371 3.9930 2.0382
-3.9459 3.6895 2.0382
-4.2295 3.3622 2.0382
-4.4861 3.0133 2.0382
-4.7139 2.6448 2.0382
-4.9116 2.2593 2.0382
-5.0778 1.8591 2.0382
-5.2115 1.4468 2.0382
-5.3117 1.0250 2.0382
-5.3779 0.5965 2.0382
-5.4095 0.1640 2.0382
-5.4064 -0.2698 2.0382
-5.3685 -0.7020 2.0382
-5.2961 -1.1298 2.0382
-5.1896 -1.5505 2.0382
-5.0498 -1.9614 2.0382
-4.8774 -2.3599 2.0382
-4.6735 -2.7432 2.0382
-4.4396 -3.1091 2.0382
-4.1770 -3.4550 2.0382
-3.8875 -3.7788 2.0382
-3.5729 -4.0784 2.0382
-3.2353 -4.3517 2.0382
-2.8767 -4.5972 2.0382
-2.4996 -4.8130 2.0382
-0.7632 -1.8108 0.7385
-0.6157 -1.8658 0.7383
-0.4643 -1.9089 0.7382
-0.3100 -1.9398 0.7382
-0.1537 -1.9583 0.7382
0.0036 -1.9643 0.7382
0.1608 -1.9577 0.7382
0.3171 -1.9387 0.7383
0.4713 -1.9072 0.7384
0.6225 -1.8635 0.7386
0.7698 -1.8079 0.7387
2.5161 -4.8015 2.0382
2.8920 -4.5840 2.0382
3.2493 -4.3371 2.0382
2.7445 -3.1096 1.5602
2.5524 -2.4627 1.3344
2.4081 -1.9768 1.1724
2.2944 -1.5941 1.0515
2.2014 -1.2812 0.9588
2.1231 -1.0175 0.8865
2.0554 -0.7895 0.8292
1.9955 -0.5881 0.7836
1.9416 -0.4066 0.7474
1.8922 -0.2402 0.7188
1.8461 -0.0851 0.6966
1.8026 0.0615 0.6800
1.7608 0.2021 0.6683
1.9430 0.3826 0.7469
5.2007 1.4652 2.0382
5.0657 1.8767 2.0382
4.8982 2.2760 2.0382
4.6994 2.6606 2.0382
4.4705 3.0280 2.0382
4.2130 3.3759 2.0382
3.9286 3.7020 2.0382
3.6190 4.0043 2.0382
3.2863 4.2809 2.0382
2.9325 4.5300 2.0382
2.5601 4.7500 2.0382
2.1712 4.9396 2.0382
0.6496 1.8723 0.7486
0.4975 1.9185 0.7487
0.3423 1.9524 0.7488
0.1848 1.9736 0.7488
0.0711 5.3951 2.0382
-0.3614 5.3837 2.0382
-0.2908 1.9608 0.7487
-0.4469 1.9311 0.7486
-0.6001 1.8889 0.7485
-0.7493 1.8345 0.7483
-2.4351 4.8180 2.0382
-2.8135 4.6081 2.0382
-3.1741 4.3686 2.0382
-3.5143 4.1010 2.0382
-3.8322 3.8070 2.0382
-4.1255 3.4884 2.0382
-4.3925 3.1474 2.0382
-4.6314 2.7861 2.0382
-4.8406 2.4067 2.0382
-5.0188 2.0117 2.0382
-4.4221 -2.3073 2.0382
-4.2238 -2.6543 2.0382
-3.9983 -2.9844 2.0382
-3.7470 -3.2953 2.0382
-3.4716 -3.5851 2.0382
-3.1738 -3.8519 2.0382
-2.8555 -4.0940 2.0382
-2.5188 -4.3098 2.0382
-0.7852 -1.6307 0.7389
-0.6520 -1.6881 0.7388
-0.5148 -1.7346 0.7387
-0.3742 -1.7701 0.7386
-0.2313 -1.7943 0.7386
-0.0869 -1.8070 0.7386
0.0580 -1.8081 0.7386
0.2026 -1.7977 0.7387
0.3459 -1.7758 0.7387
0.4869 -1.7426 0.7389
0.6249 -1.6982 0.7390
0.7590 -1.6429 0.7392
2.4484 -4.3474 2.0382
2.7883 -4.1369 2.0382
2.7553 -3.4549 1.8057
2.6649 -2.8414 1.5920
2.4935 -2.2644 1.3768
2.3622 -1.8225 1.2198
2.2573 -1.4692 1.1013
2.1704 -1.1768 1.0097
2.0965 -0.9279 0.9378
2.0320 -0.7108 0.8808
1.9746 -0.5176 0.8353
1.9225 -0.3423 0.7993
1.8745 -0.1805 0.7709
1.8295 -0.0290 0.7492
1.7867 0.1151 0.7332
1.7454 0.2540 0.7225
2.8569 0.6529 1.2006
4.7448 1.4930 2.0382
4.6091 1.8679 2.0382
4.4440 2.2307 2.0382
4.2504 2.5791 2.0382
4.0296 2.9109 2.0382
3.7830 3.2239 2.0382
3.5122 3.5161 2.0382
3.2189 3.7858 2.0382
2.9050 4.0311 2.0382
2.5726 4.2505 2.0382
2.2237 4.4427 2.0382
0.6829 1.6908 0.7482
0.5454 1.7403 0.7483
0.4042 1.7786 0.7483
0.2605 1.8054 0.7484
0.1150 1.8205 0.7484
-0.0312 1.8239 0.7484
-0.1772 1.8155 0.7483
-0.3220 1.7954 0.7483
-0.4648 1.7637 0.7482
-0.6045 1.7206 0.7480
-0.7403 1.6665 0.7478
-2.3754 4.3662 2.0382
-2.7178 4.1625 2.0382
-3.0429 3.9320 2.0382
-3.3486 3.6762 2.0382
-3.6329 3.3967 2.0382
-3.8940 3.0954 2.0382
-4.1301 2.7741 2.0382
-4.3398 2.4348 2.0382
-4.5218 2.0798 2.0382
-4.6747 1.7114 2.0382
-4.7977 1.3318 2.0382
-4.8899 0.9435 2.0382
-4.9508 0.5490 2.0382
-4.9798 0.1508 2.0382
-4.9769 -0.2485 2.0382
-4.9419 -0.6463 2.0382
-4.8752 -1.0401 2.0382
-4.7772 -1.4274 2.0382
-4.6483 -1.8056 2.0382
-4.4896 -2.1724 2.0382
-4.3019 -2.5252 2.0382
-4.0865 -2.8619 2.0382
-3.8448 -3.1803 2.0382
-3.5783 -3.4783 2.0382
-3.2887 -3.7540 2.0382
-2.9779 -4.0056 2.0382
-2.6479 -4.2315 2.0382
-2.3008 -4.4302 2.0382
-0.7028 -1.6676 0.7389
-0.5670 -1.7183 0.7387
-0.4276 -1.7581 0.7387
-0.2855 -1.7865 0.7386
-0.1415 -1.8036 0.7386
0.0033 -1.8091 0.7386
0.1481 -1.8030 0.7386
0.2920 -1.7854 0.7387
0.4340 -1.7564 0.7388
0.5733 -1.7162 0.7390
0.7089 -1.6650 0.7391
2.3160 -4.4197 2.0382
2.6620 -4.2196 2.0382
2.9908 -3.9923 2.0382
2.7446 -3.1098 1.6950
2.5525 -2.4629 1.4497
2.4081 -1.9770 1.2737
2.2944 -1.5942 1.1423
2.2014 -1.2813 1.0416
2.1231 -1.0175 0.9630
2.0554 -0.7896 0.9008
1.9956 -0.5881 0.8513
1.9416 -0.4066 0.8119
1.8922 -0.2402 0.7808
1.8462 -0.0852 0.7567
1.8026 0.0614 0.7386
1.7608 0.2020 0.7259
1.9441 0.3828 0.8117
4.7881 1.3489 2.0382
4.6639 1.7277 2.0382
4.5097 2.0954 2.0382
4.3267 2.4495 2.0382
4.1160 2.7878 2.0382
3.8790 3.1081 2.0382
3.6171 3.4084 2.0382
3.3321 3.6868 2.0382
3.0258 3.9415 2.0382
2.7001 4.1709 2.0382
2.3571 4.3735 2.0382
0.7338 1.6693 0.7481
0.5978 1.7229 0.7482
0.4579 1.7655 0.7483
0.3150 1.7966 0.7484
0.1701 1.8162 0.7484
0.0240 1.8240 0.7484
-0.1222 1.8200 0.7484
-0.2676 1.8043 0.7483
-0.4112 1.7770 0.7482
-0.5522 1.7382 0.7481
-0.6896 1.6882 0.7479
-2.2420 4.4359 2.0382
-2.5905 4.2426 2.0382
-2.9224 4.0220 2.0382
-3.2357 3.7756 2.0382
-3.5283 3.5049 2.0382
-3.7983 3.2116 2.0382
-4.0440 2.8976 2.0382
-4.2639 2.5648 2.0382
-4.4565 2.2155 2.0382
-4.6205 1.8519 2.0382
-4.0894 -2.1338 2.0382
-3.9060 -2.4547 2.0382
-3.6974 -2.7599 2.0382
-3.4650 -3.0474 2.0382
-3.2103 -3.3154 2.0382
-2.9349 -3.5621 2.0382
-2.6405 -3.7859 2.0382
-2.3291 -3.9854 2.0382
-0.7264 -1.5086 0.7393
-0.6032 -1.5617 0.7392
-0.4762 -1.6048 0.7391
-0.3462 -1.6377 0.7390
-0.2140 -1.6601 0.7390
-0.0804 -1.6718 0.7390
0.0537 -1.6729 0.7390
0.1874 -1.6632 0.7390
0.3200 -1.6430 0.7391
0.4505 -1.6122 0.7392
0.5781 -1.5711 0.7393
0.7021 -1.5199 0.7395
2.2641 -4.0204 2.0382
2.5784 -3.8257 2.0382
2.8760 -3.6065 2.0382
2.6650 -2.8416 1.7216
2.4936 -2.2646 1.4888
2.3623 -1.8227 1.3190
2.2573 -1.4693 1.1909
2.1704 -1.1769 1.0918
2.0965 -0.9280 1.0141
2.0320 -0.7109 0.9524
1.9746 -0.5176 0.9032
1.9225 -0.3423 0.8642
1.8745 -0.1806 0.8336
1.8295 -0.0290 0.8101
1.7867 0.1150 0.7928
1.7454 0.2539 0.7812
2.8595 0.6534 1.2993
4.3885 1.3808 2.0382
4.2631 1.7276 2.0382
4.1104 2.0632 2.0382
3.9314 2.3854 2.0382
3.7272 2.6923 2.0382
3.4991 2.9819 2.0382
3.2486 3.2522 2.0382
2.9774 3.5016 2.0382
2.6871 3.7286 2.0382
2.3796 3.9316 2.0382
0.7545 1.5074 0.7477
0.6314 1.5632 0.7478
0.5042 1.6090 0.7479
0.3737 1.6443 0.7480
0.2408 1.6691 0.7480
0.1063 1.6831 0.7480
-0.0288 1.6862 0.7480
-0.1638 1.6784 0.7480
-0.2978 1.6599 0.7479
-0.4297 1.6306 0.7478
-0.5589 1.5908 0.7477
-0.6845 1.5407 0.7475
-2.1971 4.0385 2.0382
-2.5139 3.8500 2.0382
-2.8146 3.6367 2.0382
-3.0973 3.4001 2.0382
-3.3602 3.1416 2.0382
-3.6016 2.8628 2.0382
-3.8200 2.5656 2.0382
-4.0139 2.2518 2.0382
-4.1822 1.9235 2.0382
-4.3235 1.5827 2.0382
-4.4372 1.2316 2.0382
-4.5225 0.8724 2.0382
-4.5787 0.5076 2.0382
-4.6055 0.1393 2.0382
-4.6027 -0.2299 2.0382
-4.5703 -0.5979 2.0382
-4.5086 -0.9620 2.0382
-4.4178 -1.3202 2.0382
-4.2987 -1.6699 2.0382
-4.1518 -2.0090 2.0382
-3.9782 -2.3353 2.0382
-3.7790 -2.6467 2.0382
-3.5554 -2.9411 2.0382
-3.3090 -3.2166 2.0382
-3.0411 -3.4716 2.0382
-2.7537 -3.7042 2.0382
-2.4485 -3.9130 2.0382
-0.7717 -1.4860 0.7393
-0.6502 -1.5428 0.7392
-0.5246 -1.5898 0.7391
-0.3956 -1.6265 0.7390
-0.2641 -1.6528 0.7390
-0.1309 -1.6686 0.7390
0.0030 -1.6737 0.7390
0.1370 -1.6681 0.7390
0.2701 -1.6519 0.7391
0.4015 -1.6250 0.7392
0.5304 -1.5878 0.7393
0.6558 -1.5404 0.7394
0.7771 -1.4831 0.7396
2.4616 -3.9021 2.0382
2.7657 -3.6920 2.0382
2.7447 -3.1100 1.8330
2.5525 -2.4631 1.5677
2.4082 -1.9771 1.3773
2.2944 -1.5943 1.2353
2.2015 -1.2814 1.1264
2.1231 -1.0176 1.0413
2.0554 -0.7897 0.9740
1.9956 -0.5882 0.9205
1.9417 -0.4067 0.8779
1.8922 -0.2403 0.8442
1.8462 -0.0852 0.8182
1.8026 0.0614 0.7986
1.7609 0.2020 0.7849
1.9453 0.3830 0.8782
4.4285 1.2474 2.0382
4.3137 1.5979 2.0382
4.1712 1.9380 2.0382
4.0020 2.2655 2.0382
3.8071 2.5784 2.0382
3.5879 2.8747 2.0382
3.3457 3.1525 2.0382
3.0821 3.4101 2.0382
2.7988 3.6457 2.0382
2.4975 3.8579 2.0382
2.1803 4.0453 2.0382
0.6784 1.5433 0.7478
0.5526 1.5929 0.7479
0.4233 1.6322 0.7480
0.2912 1.6610 0.7480
0.1572 1.6790 0.7480
0.0222 1.6863 0.7480
-0.1130 1.6826 0.7480
-0.2474 1.6681 0.7479
-0.3802 1.6429 0.7478
-0.5106 1.6070 0.7477
-0.6376 1.5608 0.7476
-0.7605 1.5045 0.7474
-2.3961 3.9241 2.0382
-2.7031 3.7200 2.0382
-2.9928 3.4921 2.0382
-3.2634 3.2416 2.0382
-3.5131 2.9703 2.0382
-3.7404 2.6798 2.0382
-3.9437 2.3721 2.0382
-4.1217 2.0490 2.0382
-4.2734 1.7126 2.0382
-3.7965 -1.9811 2.0382
-3.6262 -2.2790 2.0382
-3.4326 -2.5623 2.0382
-3.2168 -2.8292 2.0382
-2.9803 -3.0780 2.0382
-2.7246 -3.3070 2.0382
-2.4513 -3.5147 2.0382
-0.7847 -1.3428 0.7397
-0.6746 -1.4011 0.7396
-0.5602 -1.4505 0.7395
-0.4423 -1.4905 0.7394
-0.3216 -1.5210 0.7393
-0.1988 -1.5418 0.7393
-0.0747 -1.5527 0.7393
0.0498 -1.5537 0.7393
0.1740 -1.5447 0.7393
0.2971 -1.5259 0.7394
0.4184 -1.4973 0.7395
0.5369 -1.4591 0.7396
0.6521 -1.4116 0.7398
0.7631 -1.3550 0.7400
2.3937 -3.5518 2.0382
2.6700 -3.3483 2.0382
2.9291 -3.1233 2.0382
2.4936 -2.2648 1.6037
2.3623 -1.8228 1.4208
2.2574 -1.4694 1.2827
2.1705 -1.1770 1.1760
2.0965 -0.9280 1.0923
2.0321 -0.7110 1.0258
1.9746 -0.5177 0.9729
1.9226 -0.3424 0.9308
1.8745 -0.1806 0.8978
1.8295 -0.0291 0.8725
1.7867 0.1150 0.8539
1.7454 0.2539 0.8413
2.8622 0.6540 1.4006
4.0748 1.2820 2.0382
3.9584 1.6040 2.0382
3.8167 1.9156 2.0382
3.6505 2.2149 2.0382
3.4609 2.4998 2.0382
3.2491 2.7687 2.0382
3.0166 3.0198 2.0382
2.7647 3.2514 2.0382
2.4951 3.4622 2.0382
2.2096 3.6507 2.0382
0.7003 1.3992 0.7474
0.5861 1.4509 0.7475
0.4680 1.4934 0.7476
0.3469 1.5262 0.7477
0.2235 1.5492 0.7477
0.0987 1.5621 0.7477
-0.0268 1.5650 0.7477
-0.1521 1.5579 0.7477
-0.2764 1.5406 0.7476
-0.3989 1.5134 0.7475
-0.5188 1.4765 0.7474
-0.6354 1.4301 0.7472
-0.7478 1.3744 0.7471
-2.3343 3.5748 2.0382
-2.6135 3.3768 2.0382
-2.8760 3.1570 2.0382
-3.1201 2.9169 2.0382
-3.3442 2.6581 2.0382
-3.5470 2.3821 2.0382
-3.7270 2.0907 2.0382
-3.8831 1.7858 2.0382
-4.0144 1.4693 2.0382
-4.1199 1.1433 2.0382
-4.1990 0.8099 2.0382
-4.2511 0.4711 2.0382
-4.2759 0.1292 2.0382
-4.2733 -0.2136 2.0382
-4.2432 -0.5552 2.0382
-4.1858 -0.8933 2.0382
-4.1015 -1.2258 2.0382
-3.9909 -1.5505 2.0382
-3.8545 -1.8653 2.0382
-3.6933 -2.1682 2.0382
-3.5083 -2.4572 2.0382
-3.3008 -2.7305 2.0382
-3.0719 -2.9863 2.0382
-2.8233 -3.2229 2.0382
-2.5564 -3.4389 2.0382
-2.2731 -3.6328 2.0382
-0.7167 -1.3801 0.7396
-0.6039 -1.4329 0.7395
-0.4872 -1.4765 0.7394
-0.3674 -1.5106 0.7393
-0.2453 -1.5351 0.7393
-0.1216 -1.5498 0.7393
0.0028 -1.5545 0.7393
0.1272 -1.5493 0.7393
0.2509 -1.5342 0.7394
0.3729 -1.5092 0.7395
0.4925 -1.4747 0.7396
0.6091 -1.4306 0.7397
0.7217 -1.3774 0.7399
2.2853 -3.6227 2.0382
2.5676 -3.4277 2.0382
2.8334 -3.2107 2.0382
2.5526 -2.4633 1.6887
2.4082 -1.9773 1.4836
2.2945 -1.5944 1.3305
2.2015 -1.2815 1.2132
2.1232 -1.0177 1.1216
2.0554 -0.7897 1.0491
1.9956 -0.5883 0.9914
1.9417 -0.4068 0.9455
1.8923 -0.2403 0.9093
1.8462 -0.0853 0.8812
1.8026 0.0613 0.8601
1.7609 0.2019 0.8454
1.9466 0.3832 0.9464
4.1120 1.1582 2.0382
4.0054 1.4835 2.0382
3.8731 1.7993 2.0382
3.7160 2.1035 2.0382
3.5351 2.3941 2.0382
3.3316 2.6692 2.0382
3.1067 2.9272 2.0382
2.8619 3.1664 2.0382
2.5988 3.3852 2.0382
2.3191 3.5822 2.0382
0.7423 1.3773 0.7473
0.6297 1.4325 0.7475
0.5130 1.4785 0.7476
0.3929 1.5150 0.7476
0.2703 1.5417 0.7477
0.1459 1.5584 0.7477
0.0206 1.5651 0.7477
-0.1049 1.5618 0.7477
-0.2296 1.5483 0.7476
-0.3529 1.5249 0.7475
-0.4739 1.4916 0.7474
-0.5918 1.4487 0.7473
-0.7059 1.3965 0.7471
-2.2250 3.6436 2.0382
-2.5100 3.4541 2.0382
-2.7790 3.2424 2.0382
-3.0302 3.0098 2.0382
-3.2621 2.7579 2.0382
-3.4730 2.4881 2.0382
-3.6618 2.2024 2.0382
-3.8270 1.9023 2.0382
-3.9678 1.5900 2.0382
-3.5364 -1.8455 2.0382
-3.3777 -2.1229 2.0382
-3.1973 -2.3868 2.0382
-2.9963 -2.6354 2.0382
-2.7760 -2.8671 2.0382
-2.5378 -3.0804 2.0382
-2.2833 -3.2739 2.0382
-0.7312 -1.2512 0.7400
-0.6286 -1.3056 0.7398
-0.5220 -1.3515 0.7397
-0.4121 -1.3889 0.7397
-0.2996 -1.4173 0.7396
-0.1852 -1.4367 0.7396
-0.0696 -1.4468 0.7396
0.0464 -1.4478 0.7396
0.1622 -1.4394 0.7396
0.2769 -1.4219 0.7397
0.3898 -1.3952 0.7398
0.5003 -1.3596 0.7399
0.6076 -1.3153 0.7400
0.7110 -1.2626 0.7402
2.2296 -3.3085 2.0382
2.4870 -3.1190 2.0382
2.7283 -2.9095 2.0382
2.4937 -2.2649 1.7217
2.3624 -1.8230 1.5253
2.2574 -1.4695 1.3771
2.1705 -1.1771 1.2625
2.0966 -0.9281 1.1726
2.0321 -0.7111 1.1012
1.9747 -0.5178 1.0444
1.9226 -0.3425 0.9992
1.8745 -0.1807 0.9638
1.8295 -0.0292 0.9366
1.7867 0.1149 0.9166
1.7455 0.2538 0.9031
2.8650 0.6545 1.5050
3.7961 1.1942 2.0382
3.6877 1.4942 2.0382
3.5556 1.7845 2.0382
3.4008 2.0633 2.0382
3.2242 2.3288 2.0382
3.0270 2.5793 2.0382
2.8103 2.8132 2.0382
2.5757 3.0291 2.0382
2.3246 3.2254 2.0382
0.7544 1.2464 0.7470
0.6522 1.3030 0.7471
0.5458 1.3512 0.7472
0.4358 1.3908 0.7473
0.3230 1.4213 0.7474
0.2081 1.4427 0.7474
0.0919 1.4548 0.7474
-0.0250 1.4575 0.7474
-0.1416 1.4508 0.7474
-0.2574 1.4347 0.7473
-0.3715 1.4094 0.7472
-0.4832 1.3750 0.7471
-0.5917 1.3318 0.7470
-0.6964 1.2800 0.7468
-2.1747 3.3303 2.0382
-2.4348 3.1457 2.0382
-2.6793 2.9410 2.0382
-2.9067 2.7173 2.0382
-3.1155 2.4761 2.0382
-3.3043 2.2190 2.0382
-3.4720 1.9475 2.0382
-3.6174 1.6635 2.0382
-3.7397 1.3687 2.0382
-3.8379 1.0650 2.0382
-3.9115 0.7543 2.0382
-3.9601 0.4388 2.0382
-3.9832 0.1203 2.0382
-3.9807 -0.1991 2.0382
-3.9526 -0.5173 2.0382
-3.8991 -0.8322 2.0382
-3.8206 -1.1419 2.0382
-3.7174 -1.4444 2.0382
-3.5904 -1.7376 2.0382
-3.4402 -2.0197 2.0382
-3.2679 -2.2889 2.0382
-3.0745 -2.5435 2.0382
-2.8613 -2.7817 2.0382
-2.6297 -3.0021 2.0382
-2.3812 -3.2032 2.0382
-0.7687 -1.2286 0.7400
-0.6678 -1.2860 0.7399
-0.5627 -1.3352 0.7398
-0.4540 -1.3758 0.7397
-0.3424 -1.4076 0.7396
-0.2286 -1.4304 0.7396
-0.1133 -1.4441 0.7396
0.0026 -1.4485 0.7396
0.1186 -1.4437 0.7396
0.2337 -1.4296 0.7397
0.3474 -1.4063 0.7397
0.4589 -1.3741 0.7399
0.5675 -1.3331 0.7400
0.6725 -1.2835 0.7401
0.7731 -1.2257 0.7403
2.3916 -3.1929 2.0382
2.6392 -2.9908 2.0382
2.5526 -2.4635 1.8130
2.4083 -1.9774 1.5927
2.2945 -1.5946 1.4284
2.2016 -1.2816 1.3025
2.1232 -1.0178 1.2041
2.0555 -0.7898 1.1263
1.9956 -0.5883 1.0643
1.9417 -0.4068 1.0150
1.8923 -0.2404 0.9761
1.8462 -0.0853 0.9459
1.8027 0.0613 0.9233
1.7609 0.2019 0.9075
1.9478 0.3834 1.0166
3.8307 1.0788 2.0382
3.7314 1.3820 2.0382
3.6082 1.6762 2.0382
3.4619 1.9595 2.0382
3.2934 2.2303 2.0382
3.1038 2.4866 2.0382
2.8943 2.7270 2.0382
2.6663 2.9498 2.0382
2.4212 3.1537 2.0382
0.7918 1.2230 0.7469
0.6913 1.2826 0.7471
0.5864 1.3341 0.7472
0.4777 1.3769 0.7473
0.3659 1.4108 0.7474
0.2517 1.4357 0.7474
0.1359 1.4513 0.7474
0.0192 1.4576 0.7474
-0.0977 1.4544 0.7474
-0.2139 1.4419 0.7473
-0.3287 1.4201 0.7473
-0.4414 1.3891 0.7471
-0.5512 1.3491 0.7470
-0.6574 1.3005 0.7469
-0.7594 1.2435 0.7467
-2.3384 3.2178 2.0382
-2.5890 3.0206 2.0382
-2.8230 2.8039 2.0382
-3.0390 2.5691 2.0382
-3.2355 2.3178 2.0382
-3.4113 2.0516 2.0382
-3.5652 1.7721 2.0382
-3.6963 1.4811 2.0382
-3.3034 -1.7240 2.0382
-3.1552 -1.9832 2.0382
-2.9867 -2.2296 2.0382
-2.7989 -2.4618 2.0382
-2.5931 -2.6782 2.0382
-2.3706 -2.8774 2.0382
-0.7747 -1.1108 0.7403
-0.6832 -1.1691 0.7402
-0.5874 -1.2199 0.7401
-0.4878 -1.2629 0.7400
-0.3851 -1.2978 0.7399
-0.2800 -1.3244 0.7399
-0.1731 -1.3425 0.7398
-0.0651 -1.3520 0.7398
0.0434 -1.3528 0.7398
0.1515 -1.3450 0.7399
0.2587 -1.3286 0.7399
0.3642 -1.3037 0.7400
0.4675 -1.2705 0.7401
0.5677 -1.2291 0.7403
0.6643 -1.1798 0.7404
0.7567 -1.1230 0.7406
2.3231 -2.9136 2.0382
2.5486 -2.7179 2.0382
2.4937 -2.2651 1.8432
2.3624 -1.8231 1.6329
2.2574 -1.4697 1.4742
2.1706 -1.1772 1.3516
2.0966 -0.9282 1.2553
2.0321 -0.7111 1.1788
1.9747 -0.5179 1.1180
1.9226 -0.3425 1.0696
1.8746 -0.1808 1.0317
1.8296 -0.0292 1.0026
1.7867 0.1149 0.9812
1.7455 0.2538 0.9667
2.8678 0.6551 1.6125
3.5464 1.1155 2.0382
3.4451 1.3958 2.0382
3.3218 1.6671 2.0382
3.1772 1.9275 2.0382
3.0122 2.1756 2.0382
2.8280 2.4097 2.0382
2.6256 2.6282 2.0382
2.4064 2.8299 2.0382
2.1718 3.0133 2.0382
0.7046 1.1641 0.7467
0.6092 1.2170 0.7469
0.5098 1.2620 0.7470
0.4070 1.2989 0.7471
0.3017 1.3274 0.7471
0.1944 1.3474 0.7471
0.0858 1.3587 0.7472
-0.0233 1.3612 0.7471
-0.1323 1.3549 0.7471
-0.2404 1.3399 0.7471
-0.3470 1.3163 0.7470
-0.4513 1.2842 0.7469
-0.5527 1.2438 0.7467
-0.6505 1.1954 0.7466
-0.7441 1.1394 0.7464
-2.2748 2.9388 2.0382
-2.5032 2.7475 2.0382
-2.7156 2.5385 2.0382
-2.9106 2.3132 2.0382
-3.0870 2.0729 2.0382
-3.2436 1.8193 2.0382
-3.3794 1.5539 2.0382
-3.4936 1.2785 2.0382
-3.5854 0.9948 2.0382
-3.6541 0.7046 2.0382
-3.6994 0.4098 2.0382
-3.7210 0.1122 2.0382
-3.7186 -0.1861 2.0382
-3.6924 -0.4833 2.0382
-3.6424 -0.7775 2.0382
-3.5690 -1.0668 2.0382
-3.4726 -1.3493 2.0382
-3.3539 -1.6232 2.0382
-3.2136 -1.8868 2.0382
-3.0526 -2.1382 2.0382
-2.8719 -2.3760 2.0382
-2.6728 -2.5985 2.0382
-2.4564 -2.8044 2.0382
-2.2242 -2.9922 2.0382
-0.7183 -1.1480 0.7403
-0.6240 -1.2017 0.7401
-0.5258 -1.2476 0.7400
-0.4242 -1.2856 0.7399
-0.3199 -1.3153 0.7399
-0.2136 -1.3366 0.7398
-0.1059 -1.3494 0.7398
0.0024 -1.3535 0.7398
0.1108 -1.3490 0.7399
0.2184 -1.3358 0.7399
0.3246 -1.3141 0.7400
0.4288 -1.2840 0.7401
0.5303 -1.2456 0.7402
0.6283 -1.1993 0.7404
0.7224 -1.1453 0.7405
2.2340 -2.9827 2.0382
2.4653 -2.7939 2.0382
2.6807 -2.5872 2.0382
2.4083 -1.9776 1.7051
2.2946 -1.5947 1.5292
2.2016 -1.2817 1.3943
2.1232 -1.0179 1.2890
2.0555 -0.7899 1.2057
1.9957 -0.5884 1.1393
1.9417 -0.4069 1.0866
1.8923 -0.2405 1.0449
1.8462 -0.0854 1.0126
1.8027 0.0612 0.9884
1.7609 0.2018 0.9714
1.9491 0.3836 1.0889
3.5787 1.0078 2.0382
3.4860 1.2910 2.0382
3.3709 1.5658 2.0382
3.2342 1.8306 2.0382
3.0768 2.0835 2.0382
2.8997 2.3231 2.0382
2.7040 2.5476 2.0382
2.4910 2.7558 2.0382
2.2620 2.9463 2.0382
0.7395 1.1422 0.7467
0.6457 1.1979 0.7468
0.5477 1.2459 0.7469
0.4462 1.2859 0.7470
0.3417 1.3176 0.7471
0.2351 1.3409 0.7471
0.1269 1.3554 0.7472
0.0179 1.3613 0.7472
-0.0912 1.3583 0.7471
-0.1998 1.3466 0.7471
-0.3070 1.3262 0.7470
-0.4122 1.2973 0.7469
-0.5148 1.2600 0.7468
-0.6140 1.2146 0.7466
-0.7093 1.1614 0.7465
-2.1847 3.0062 2.0382
-2.4188 2.8218 2.0382
-2.6374 2.6194 2.0382
-2.8391 2.4001 2.0382
-3.0227 2.1653 2.0382
-3.1869 1.9165 2.0382
-3.3307 1.6554 2.0382
-3.4531 1.3835 2.0382
-3.0932 -1.6145 2.0382
-2.9544 -1.8571 2.0382
-2.7966 -2.0878 2.0382
-2.6208 -2.3053 2.0382
-2.4281 -2.5079 2.0382
-2.2197 -2.6944 2.0382
-0.7256 -1.0404 0.7405
-0.6399 -1.0951 0.7404
-0.5501 -1.1426 0.7403
-0.4569 -1.1829 0.7402
-0.3607 -1.2156 0.7401
-0.2622 -1.2405 0.7401
-0.1621 -1.2574 0.7401
-0.0609 -1.2663 0.7401
0.0406 -1.2672 0.7401
0.1419 -1.2598 0.7401
0.2423 -1.2445 0.7402
0.3411 -1.2211 0.7402
0.4378 -1.1900 0.7403
0.5317 -1.1512 0.7405
0.6222 -1.1051 0.7406
0.7087 -1.0518 0.7408
2.1753 -2.7283 2.0382
2.3864 -2.5451 2.0382
2.5822 -2.3456 2.0382
2.3625 -1.8233 1.7439
2.2575 -1.4698 1.5744
2.1706 -1.1773 1.4434
2.0966 -0.9283 1.3405
2.0321 -0.7112 1.2589
1.9747 -0.5179 1.1939
1.9226 -0.3426 1.1423
1.8746 -0.1808 1.1017
1.8296 -0.0293 1.0706
1.7868 0.1148 1.0477
1.7455 0.2537 1.0323
2.8708 0.6556 1.7237
3.3211 1.0445 2.0382
3.2263 1.3070 2.0382
3.1108 1.5611 2.0382
2.9754 1.8050 2.0382
2.8209 2.0374 2.0382
2.6484 2.2566 2.0382
2.4589 2.4612 2.0382
2.2536 2.6501 2.0382
0.7448 1.0334 0.7464
0.6597 1.0899 0.7465
0.5703 1.1394 0.7467
0.4773 1.1815 0.7468
0.3811 1.2160 0.7468
0.2825 1.2427 0.7469
0.1820 1.2614 0.7469
0.0803 1.2720 0.7469
-0.0218 1.2744 0.7469
-0.1239 1.2685 0.7469
-0.2251 1.2545 0.7468
-0.3249 1.2324 0.7467
-0.4225 1.2023 0.7466
-0.5174 1.1645 0.7465
-0.6090 1.1192 0.7464
-0.6967 1.0667 0.7462
-2.1303 2.7521 2.0382
-2.3442 2.5729 2.0382
-2.5431 2.3772 2.0382
-2.7257 2.1661 2.0382
-2.8909 1.9411 2.0382
-3.0376 1.7036 2.0382
-3.1647 1.4551 2.0382
-3.2716 1.1971 2.0382
-3.3575 0.9314 2.0382
-3.4219 0.6597 2.0382
-3.4643 0.3836 2.0382
-3.4844 0.1050 2.0382
-3.4822 -0.1744 2.0382
-3.4576 -0.4527 2.0382
-3.4107 -0.7282 2.0382
-3.3420 -0.9991 2.0382
-3.2517 -1.2636 2.0382
-3.1405 -1.5201 2.0382
-3.0091 -1.7668 2.0382
-2.8584 -2.0023 2.0382
-2.6892 -2.2249 2.0382
-2.5027 -2.4332 2.0382
-2.3001 -2.6260 2.0382
-0.7568 -1.0181 0.7406
-0.6728 -1.0753 0.7405
-0.5845 -1.1255 0.7403
-0.4925 -1.1686 0.7402
-0.3973 -1.2042 0.7402
-0.2996 -1.2320 0.7401
-0.2001 -1.2520 0.7401
-0.0992 -1.2639 0.7401
0.0023 -1.2678 0.7401
0.1037 -1.2636 0.7401
0.2046 -1.2512 0.7401
0.3041 -1.2309 0.7402
0.4016 -1.2027 0.7403
0.4966 -1.1667 0.7404
0.5885 -1.1233 0.7406
0.6766 -1.0727 0.7407
0.7604 -1.0152 0.7409
2.3085 -2.6162 2.0382
2.5102 -2.4227 2.0382
2.4084 -1.9777 1.8210
2.2946 -1.5948 1.6331
2.2016 -1.2818 1.4891
2.1233 -1.0180 1.3765
2.0555 -0.7900 1.2875
1.9957 -0.5885 1.2167
1.9418 -0.4070 1.1604
1.8923 -0.2405 1.1158
1.8463 -0.0855 1.0813
1.8027 0.0612 1.0555
1.7609 0.2018 1.0373
1.9505 0.3838 1.1636
3.3514 0.9436 2.0382
3.2646 1.2089 2.0382
3.1568 1.4663 2.0382
3.0288 1.7142 2.0382
2.8814 1.9511 2.0382
2.7156 2.1754 2.0382
2.5323 2.3858 2.0382
2.3328 2.5808 2.0382
0.7757 1.0103 0.7463
0.6924 1.0694 0.7465
0.6045 1.1215 0.7466
0.5128 1.1665 0.7467
0.4177 1.2039 0.7468
0.3199 1.2336 0.7469
0.2201 1.2553 0.7469
0.1188 1.2690 0.7469
0.0167 1.2744 0.7469
-0.0854 1.2717 0.7469
-0.1870 1.2607 0.7468
-0.2874 1.2416 0.7468
-0.3859 1.2146 0.7467
-0.4820 1.1797 0.7466
-0.5749 1.1372 0.7464
-0.6641 1.0873 0.7463
-0.7490 1.0305 0.7461
-2.2652 2.6425 2.0382
-2.4699 2.4529 2.0382
-2.6588 2.2475 2.0382
-2.8307 2.0276 2.0382
-2.9844 1.7946 2.0382
-3.1191 1.5501 2.0382
-3.2337 1.2955 2.0382
-2.9024 -1.5149 2.0382
-2.7722 -1.7426 2.0382
-2.6241 -1.9591 2.0382
-2.4591 -2.1631 2.0382
-2.2782 -2.3532 2.0382
-0.7570 -0.9190 0.7409
-0.6810 -0.9765 0.7407
-0.6006 -1.0278 0.7406
-0.5163 -1.0724 0.7405
-0.4288 -1.1102 0.7404
-0.3385 -1.1409 0.7403
-0.2461 -1.1643 0.7403
-0.1522 -1.1802 0.7403
-0.0572 -1.1886 0.7403
0.0381 -1.1893 0.7403
0.1332 -1.1825 0.7403
0.2274 -1.1680 0.7404
0.3202 -1.1461 0.7404
0.4109 -1.1169 0.7405
0.4990 -1.0805 0.7407
0.5839 -1.0371 0.7408
0.6652 -0.9872 0.7409
0.7421 -0.9309 0.7411
2.2392 -2.3882 2.0382
2.4228 -2.2010 2.0382
2.5909 -1.9997 2.0382
2.2575 -1.4699 1.6779
2.1706 -1.1774 1.5383
2.0967 -0.9284 1.4286
2.0322 -0.7113 1.3417
1.9748 -0.5180 1.2724
1.9227 -0.3427 1.2173
1.8746 -0.1809 1.1741
1.8296 -0.0293 1.1409
1.7868 0.1148 1.1166
1.7455 0.2537 1.1001
2.8738 0.6563 1.8388
3.1165 0.9801 2.0382
3.0276 1.2264 2.0382
2.9192 1.4648 2.0382
2.7922 1.6938 2.0382
2.6472 1.9118 2.0382
2.4853 2.1175 2.0382
2.3074 2.3096 2.0382
0.7741 0.9103 0.7461
0.6988 0.9695 0.7462
0.6189 1.0225 0.7463
0.5351 1.0689 0.7465
0.4477 1.1084 0.7465
0.3575 1.1408 0.7466
0.2650 1.1659 0.7467
0.1707 1.1834 0.7467
0.0754 1.1933 0.7467
-0.0205 1.1955 0.7467
-0.1162 1.1900 0.7467
-0.2112 1.1769 0.7466
-0.3048 1.1561 0.7465
-0.3964 1.1279 0.7465
-0.4855 1.0925 0.7463
-0.5714 1.0500 0.7462
-0.6536 1.0008 0.7461
-0.7316 0.9451 0.7459
-2.1999 2.4143 2.0382
-2.3865 2.2306 2.0382
-2.5579 2.0326 2.0382
-2.7128 1.8214 2.0382
-2.8504 1.5985 2.0382
-2.9697 1.3653 2.0382
-3.0700 1.1232 2.0382
-3.1506 0.8739 2.0382
-3.2109 0.6189 2.0382
-3.2507 0.3598 2.0382
-3.2696 0.0984 2.0382
-3.2675 -0.1637 2.0382
-3.2443 -0.4249 2.0382
-3.2004 -0.6834 2.0382
-3.1358 -0.9376 2.0382
-3.0511 -1.1857 2.0382
-2.9468 -1.4264 2.0382
-2.8235 -1.6579 2.0382
-2.6820 -1.8788 2.0382
-2.5233 -2.0877 2.0382
-2.3483 -2.2832 2.0382
-2.1582 -2.4640 2.0382
-0.7102 -0.9555 0.7408
-0.6314 -1.0092 0.7406
-0.5485 -1.0564 0.7405
-0.4622 -1.0968 0.7404
-0.3729 -1.1302 0.7404
-0.2812 -1.1563 0.7403
-0.1878 -1.1751 0.7403
-0.0931 -1.1863 0.7403
0.0021 -1.1899 0.7403
0.0974 -1.1859 0.7403
0.1920 -1.1744 0.7403
0.2854 -1.1553 0.7404
0.3769 -1.1288 0.7405
0.4661 -1.0950 0.7406
0.5523 -1.0543 0.7407
0.6350 -1.0068 0.7409
0.7136 -0.9528 0.7410
2.1660 -2.4549 2.0382
2.3553 -2.2734 2.0382
2.5294 -2.0772 2.0382
2.2947 -1.5950 1.7405
2.2017 -1.2819 1.5870
2.1233 -1.0181 1.4670
2.0556 -0.7901 1.3722
1.9957 -0.5886 1.2967
1.9418 -0.4070 1.2366
1.8923 -0.2406 1.1892
1.8463 -0.0855 1.1524
1.8027 0.0611 1.1248
1.7610 0.2017 1.1055
1.9519 0.3840 1.2409
3.1449 0.8854 2.0382
3.0634 1.1343 2.0382
2.9624 1.3759 2.0382
2.8423 1.6086 2.0382
2.7040 1.8309 2.0382
2.5483 2.0414 2.0382
2.3764 2.2388 2.0382
2.1892 2.4218 2.0382
0.7278 0.9479 0.7462
0.6496 1.0032 0.7463
0.5672 1.0522 0.7464
0.4811 1.0943 0.7465
0.3919 1.1294 0.7466
0.3001 1.1573 0.7467
0.2065 1.1777 0.7467
0.1114 1.1905 0.7467
0.0157 1.1956 0.7467
-0.0801 1.1930 0.7467
-0.1755 1.1827 0.7466
-0.2697 1.1648 0.7466
-0.3621 1.1394 0.7465
-0.4522 1.1067 0.7464
-0.5394 1.0668 0.7463
-0.6230 1.0201 0.7461
-0.7027 0.9668 0.7460
-2.1257 2.4797 2.0382
-2.3178 2.3017 2.0382
-2.4950 2.1089 2.0382
-2.6563 1.9026 2.0382
-2.8006 1.6840 2.0382
-2.9269 1.4544 2.0382
-3.0344 1.2155 2.0382
-2.7281 -1.4240 2.0382
-2.6057 -1.6380 2.0382
-2.4665 -1.8415 2.0382
-2.3114 -2.0333 2.0382
-0.7787 -0.8043 0.7412
-0.7117 -0.8640 0.7410
-0.6402 -0.9181 0.7409
-0.5646 -0.9663 0.7408
-0.4854 -1.0083 0.7407
-0.4031 -1.0438 0.7406
-0.3183 -1.0726 0.7405
-0.2314 -1.0946 0.7405
-0.1431 -1.1096 0.7405
-0.0538 -1.1175 0.7405
0.0358 -1.1182 0.7405
0.1252 -1.1117 0.7405
0.2138 -1.0982 0.7406
0.3010 -1.0776 0.7406
0.3863 -1.0501 0.7407
0.4691 -1.0158 0.7408
0.5490 -0.9751 0.7409
0.6253 -0.9281 0.7411
0.6977 -0.8751 0.7412
0.7656 -0.8166 0.7414
2.2773 -2.0689 2.0382
2.4353 -1.8797 2.0382
2.2576 -1.4701 1.7851
2.1707 -1.1775 1.6366
2.0967 -0.9285 1.5199
2.0322 -0.7114 1.4274
1.9748 -0.5181 1.3536
1.9227 -0.3427 1.2951
1.8746 -0.1810 1.2491
1.8296 -0.0294 1.2138
1.7868 0.1147 1.1879
1.7456 0.2536 1.1704
2.9943 0.6837 2.0382
2.9295 0.9212 2.0382
2.8460 1.1528 2.0382
2.7441 1.3769 2.0382
2.6247 1.5921 2.0382
2.4885 1.7970 2.0382
2.3363 1.9904 2.0382
2.1691 2.1710 2.0382
0.7275 0.8555 0.7459
0.6567 0.9111 0.7461
0.5817 0.9609 0.7462
0.5029 1.0045 0.7463
0.4208 1.0417 0.7464
0.3360 1.0721 0.7464
0.2490 1.0957 0.7465
0.1604 1.1121 0.7465
0.0708 1.1214 0.7465
-0.0193 1.1235 0.7465
-0.1092 1.1184 0.7465
-0.1985 1.1060 0.7464
-0.2865 1.0865 0.7464
-0.3726 1.0600 0.7463
-0.4563 1.0267 0.7462
-0.5370 0.9868 0.7460
-0.6143 0.9405 0.7459
-0.6876 0.8882 0.7458
-0.7565 0.8302 0.7456
-2.2434 2.0967 2.0382
-2.4045 1.9106 2.0382
-2.5501 1.7121 2.0382
-2.6794 1.5025 2.0382
-2.7916 1.2833 2.0382
-2.8858 1.0557 2.0382
-2.9615 0.8214 2.0382
-3.0183 0.5816 2.0382
-3.0556 0.3381 2.0382
-3.0733 0.0924 2.0382
-3.0713 -0.1540 2.0382
-3.0496 -0.3995 2.0382
-3.0082 -0.6425 2.0382
-2.9475 -0.8814 2.0382
-2.8679 -1.1146 2.0382
-2.7698 -1.3408 2.0382
-2.6539 -1.5584 2.0382
-2.5209 -1.7661 2.0382
-2.3717 -1.9624 2.0382
-2.2072 -2.1461 2.0382
-0.7376 -0.8421 0.7411
-0.6677 -0.8983 0.7409
-0.5936 -0.9488 0.7408
-0.5157 -0.9932 0.7407
-0.4345 -1.0312 0.7406
-0.3506 -1.0626 0.7406
-0.2644 -1.0871 0.7405
-0.1765 -1.1048 0.7405
-0.0876 -1.1153 0.7405
0.0020 -1.1187 0.7405
0.0915 -1.1150 0.7405
0.1805 -1.1041 0.7405
0.2683 -1.0862 0.7406
0.3544 -1.0612 0.7407
0.4382 -1.0295 0.7408
0.5192 -0.9912 0.7409
0.5970 -0.9466 0.7410
0.6709 -0.8958 0.7412
0.7405 -0.8393 0.7413
2.2138 -2.1369 2.0382
2.3775 -1.9526 2.0382
2.5258 -1.7557 2.0382
2.2017 -1.2820 1.6884
2.1234 -1.0182 1.5608
2.0556 -0.7902 1.4598
1.9958 -0.5887 1.3795
1.9418 -0.4071 1.3156
1.8924 -0.2407 1.2651
1.8463 -0.0856 1.2260
1.8028 0.0610 1.1966
1.7610 0.2017 1.1760
1.9533 0.3842 1.3210
2.9562 0.8322 2.0382
2.8797 1.0662 2.0382
2.7847 1.2933 2.0382
2.6718 1.5120 2.0382
2.5418 1.7210 2.0382
2.3955 1.9189 2.0382
2.2339 2.1045 2.0382
0.7531 0.8330 0.7459
0.6840 0.8908 0.7460
0.6105 0.9429 0.7461
0.5330 0.9888 0.7462
0.4521 1.0284 0.7463
0.3683 1.0614 0.7464
0.2821 1.0876 0.7465
0.1940 1.1068 0.7465
0.1047 1.1188 0.7465
0.0148 1.1236 0.7465
-0.0753 1.1212 0.7465
-0.1649 1.1115 0.7464
-0.2534 1.0947 0.7464
-0.3403 1.0708 0.7463
-0.4250 1.0401 0.7462
-0.5069 1.0026 0.7461
-0.5856 0.9587 0.7460
-0.6604 0.9086 0.7458
-0.7310 0.8527 0.7457
-2.1788 2.1636 2.0382
-2.3454 1.9823 2.0382
-2.4970 1.7883 2.0382
-2.6326 1.5828 2.0382
-2.7513 1.3671 2.0382
-2.8524 1.1425 2.0382
-2.5680 -1.3406 2.0382
-2.4527 -1.5420 2.0382
-2.3217 -1.7335 2.0382
-2.1757 -1.9140 2.0382
-0.7331 -0.7573 0.7413
-0.6701 -0.8135 0.7412
-0.6028 -0.8644 0.7410
-0.5316 -0.9098 0.7409
-0.4570 -0.9493 0.7408
-0.3796 -0.9828 0.7408
-0.2997 -1.0099 0.7407
-0.2179 -1.0306 0.7407
-0.1347 -1.0447 0.7406
-0.0507 -1.0521 0.7406
0.0337 -1.0528 0.7406
0.1179 -1.0467 0.7407
0.2013 -1.0340 0.7407
0.2834 -1.0146 0.7408
0.3637 -0.9887 0.7409
0.4417 -0.9564 0.7410
0.5168 -0.9181 0.7411
0.5887 -0.8738 0.7412
0.6568 -0.8240 0.7414
0.7208 -0.7688 0.7415
0.7801 -0.7087 0.7417
2.2924 -1.7695 2.0382
2.4264 -1.5801 2.0382
2.1707 -1.1776 1.7387
2.0967 -0.9286 1.6147
1.9849 -0.6949 1.4810
1.9399 -0.5090 1.4126
1.9227 -0.3428 1.3758
1.8747 -0.1810 1.3269
1.8296 -0.0295 1.2894
1.7868 0.1147 1.2619
1.7456 0.2536 1.2433
2.8188 0.6435 2.0382
2.7578 0.8671 2.0382
2.6792 1.0851 2.0382
2.5833 1.2961 2.0382
2.4709 1.4987 2.0382
2.3426 1.6917 2.0382
2.1994 1.8737 2.0382
0.7470 0.7476 0.7456
0.6848 0.8052 0.7458
0.6181 0.8576 0.7459
0.5475 0.9044 0.7460
0.4733 0.9455 0.7461
0.3961 0.9804 0.7462
0.3162 1.0091 0.7463
0.2344 1.0312 0.7463
0.1510 1.0467 0.7463
0.0666 1.0555 0.7463
-0.0181 1.0574 0.7463
-0.1028 1.0526 0.7463
-0.1868 1.0409 0.7463
-0.2696 1.0226 0.7462
-0.3507 0.9977 0.7461
-0.4295 0.9663 0.7460
-0.5055 0.9287 0.7459
-0.5782 0.8852 0.7458
-0.6472 0.8360 0.7456
-0.7120 0.7813 0.7455
-0.7722 0.7217 0.7453
-2.2635 1.7985 2.0382
-2.4007 1.6116 2.0382
-2.5224 1.4143 2.0382
-2.6279 1.2079 2.0382
-2.7166 0.9937 2.0382
-2.7879 0.7731 2.0382
-2.8413 0.5474 2.0382
-2.8764 0.3182 2.0382
-2.8931 0.0869 2.0382
-2.8912 -0.1451 2.0382
-2.8707 -0.3761 2.0382
-2.8317 -0.6049 2.0382
-2.7746 -0.8297 2.0382
-2.6996 -1.0493 2.0382
-2.6073 -1.2622 2.0382
-2.4982 -1.4671 2.0382
-2.3730 -1.6625 2.0382
-2.2325 -1.8473 2.0382
-0.7557 -0.7348 0.7414
-0.6944 -0.7929 0.7412
-0.6286 -0.8458 0.7411
-0.5589 -0.8933 0.7410
-0.4855 -0.9351 0.7409
-0.4091 -0.9709 0.7408
-0.3301 -1.0004 0.7407
-0.2489 -1.0236 0.7407
-0.1662 -1.0402 0.7406
-0.0824 -1.0501 0.7406
0.0019 -1.0533 0.7406
0.0862 -1.0498 0.7407
0.1699 -1.0396 0.7407
0.2526 -1.0226 0.7408
0.3336 -0.9992 0.7408
0.4125 -0.9693 0.7409
0.4888 -0.9333 0.7410
0.5620 -0.8912 0.7412
0.6316 -0.8434 0.7413
0.6972 -0.7902 0.7415
0.7583 -0.7320 0.7416
2.2379 -1.8381 2.0382
2.3776 -1.6528 2.0382
2.2018 -1.2822 1.7937
2.1234 -1.0183 1.6581
2.0556 -0.7903 1.5509
1.9451 -0.5738 1.4283
1.9419 -0.4072 1.3976
1.8924 -0.2407 1.3439
1.8463 -0.0857 1.3023
1.8028 0.0610 1.2712
1.7610 0.2016 1.2493
1.9548 0.3844 1.4044
2.7829 0.7833 2.0382
2.7109 1.0036 2.0382
2.6215 1.2174 2.0382
2.5152 1.4233 2.0382
2.3929 1.6200 2.0382
2.2552 1.8064 2.0382
0.7693 0.7247 0.7456
0.7088 0.7841 0.7457
0.6438 0.8384 0.7459
0.5746 0.8874 0.7460
0.5017 0.9307 0.7461
0.4255 0.9680 0.7462
0.3466 0.9990 0.7462
0.2655 1.0236 0.7463
0.1826 1.0417 0.7463
0.0986 1.0530 0.7463
0.0139 1.0575 0.7463
-0.0709 1.0552 0.7463
-0.1552 1.0461 0.7463
-0.2385 1.0303 0.7462
-0.3203 1.0078 0.7461
-0.4000 0.9789 0.7460
-0.4771 0.9436 0.7459
-0.5512 0.9023 0.7458
-0.6216 0.8552 0.7457
-0.6881 0.8026 0.7455
-0.7501 0.7448 0.7454
-2.2080 1.8661 2.0382
-2.3507 1.6834 2.0382
-2.4783 1.4899 2.0382
-2.5900 1.2868 2.0382
-2.6852 1.0754 2.0382
-2.4202 -1.2635 2.0382
-2.3116 -1.4533 2.0382
-2.1881 -1.6339 2.0382
-0.7460 -0.6563 0.7416
-0.6910 -0.7139 0.7414
-0.6316 -0.7668 0.7413
-0.5682 -0.8148 0.7412
-0.5011 -0.8576 0.7411
-0.4308 -0.8949 0.7410
-0.3578 -0.9264 0.7409
-0.2825 -0.9520 0.7409
-0.2054 -0.9715 0.7408
-0.1270 -0.9848 0.7408
-0.0478 -0.9918 0.7408
0.0318 -0.9924 0.7408
0.1111 -0.9867 0.7408
0.1897 -0.9747 0.7409
0.2671 -0.9564 0.7409
0.3428 -0.9320 0.7410
0.4163 -0.9016 0.7411
0.4872 -0.8654 0.7412
0.5549 -0.8237 0.7414
0.6191 -0.7767 0.7415
0.6794 -0.7247 0.7416
0.7353 -0.6681 0.7418
0.7865 -0.6071 0.7420
2.2868 -1.4893 2.0382
2.1708 -1.1778 1.8448
2.0968 -0.9287 1.7133
1.9338 -0.6771 1.5309
1.8953 -0.4974 1.4643
1.9197 -0.3424 1.4575
1.8747 -0.1811 1.4079
1.8297 -0.0295 1.3681
1.7869 0.1146 1.3389
1.7456 0.2535 1.3191
2.6567 0.6064 2.0382
2.5993 0.8172 2.0382
2.5252 1.0226 2.0382
2.4348 1.2215 2.0382
2.3289 1.4125 2.0382
2.2080 1.5944 2.0382
0.7581 0.6458 0.7454
0.7040 0.7045 0.7455
0.6453 0.7588 0.7456
0.5825 0.8081 0.7458
0.5159 0.8523 0.7459
0.4460 0.8909 0.7460
0.3732 0.9239 0.7460
0.2980 0.9509 0.7461
0.2209 0.9717 0.7461
0.1423 0.9863 0.7462
0.0628 0.9946 0.7462
-0.0171 0.9964 0.7462
-0.0969 0.9919 0.7461
-0.1761 0.9809 0.7461
-0.2541 0.9636 0.7460
-0.3305 0.9401 0.7460
-0.4047 0.9106 0.7459
-0.4763 0.8752 0.7458
-0.5449 0.8342 0.7456
-0.6099 0.7878 0.7455
-0.6710 0.7363 0.7453
-0.7278 0.6801 0.7452
-2.1335 1.6950 2.0382
-2.2627 1.5189 2.0382
-2.3774 1.3329 2.0382
-2.4769 1.1384 2.0382
-2.5604 0.9365 2.0382
-2.6276 0.7285 2.0382
-2.6779 0.5159 2.0382
-2.7110 0.2998 2.0382
-2.7267 0.0818 2.0382
-2.7249 -0.1368 2.0382
-2.7055 -0.3546 2.0382
-2.6688 -0.5702 2.0382
-2.6150 -0.7821 2.0382
-2.5443 -0.9890 2.0382
-2.4572 -1.1897 2.0382
-2.3544 -1.3827 2.0382
-2.2364 -1.5669 2.0382
-0.7656 -0.6335 0.7416
-0.7123 -0.6927 0.7415
-0.6545 -0.7474 0.7413
-0.5926 -0.7973 0.7412
-0.5268 -0.8421 0.7411
-0.4577 -0.8815 0.7410
-0.3856 -0.9152 0.7409
-0.3112 -0.9431 0.7409
-0.2347 -0.9649 0.7408
-0.1567 -0.9806 0.7408
-0.0777 -0.9899 0.7408
0.0018 -0.9930 0.7408
0.0812 -0.9896 0.7408
0.1602 -0.9800 0.7409
0.2381 -0.9640 0.7409
0.3145 -0.9419 0.7410
0.3889 -0.9137 0.7411
0.4608 -0.8797 0.7412
0.5298 -0.8401 0.7413
0.5953 -0.7951 0.7414
0.6571 -0.7449 0.7416
0.7147 -0.6900 0.7417
0.7677 -0.6306 0.7419
2.2408 -1.5578 2.0382
2.3580 -1.3732 2.0382
2.1234 -1.0185 1.7593
2.0041 -0.7705 1.6042
1.8994 -0.5604 1.4799
1.9050 -0.3995 1.4547
1.8924 -0.2408 1.4260
1.8464 -0.0857 1.3818
1.8028 0.0609 1.3487
1.7610 0.2016 1.3255
1.9564 0.3847 1.4912
2.6230 0.7382 2.0382
2.5551 0.9458 2.0382
2.4708 1.1473 2.0382
2.3707 1.3414 2.0382
2.2553 1.5269 2.0382
0.7772 0.6225 0.7453
0.7249 0.6829 0.7455
0.6680 0.7388 0.7456
0.6067 0.7901 0.7457
0.5415 0.8362 0.7458
0.4728 0.8770 0.7459
0.4010 0.9121 0.7460
0.3266 0.9414 0.7461
0.2502 0.9646 0.7461
0.1721 0.9816 0.7462
0.0929 0.9922 0.7462
0.0131 0.9965 0.7462
-0.0668 0.9943 0.7462
-0.1463 0.9858 0.7461
-0.2248 0.9709 0.7461
-0.3019 0.9497 0.7460
-0.3770 0.9224 0.7459
-0.4496 0.8892 0.7458
-0.5194 0.8503 0.7457
-0.5858 0.8059 0.7456
-0.6484 0.7563 0.7454
-0.7069 0.7018 0.7452
-0.7608 0.6429 0.7451
-2.2156 1.5865 2.0382
-2.3358 1.4042 2.0382
-2.4411 1.2127 2.0382
-2.5308 1.0135 2.0382
-2.2832 -1.1921 2.0382
-2.1807 -1.3711 2.0382
-0.7513 -0.5610 0.7418
-0.7039 -0.6193 0.7417
-0.6520 -0.6736 0.7415
-0.5959 -0.7235 0.7414
-0.5361 -0.7688 0.7413
-0.4728 -0.8092 0.7412
-0.4065 -0.8444 0.7411
-0.3376 -0.8741 0.7411
-0.2665 -0.8983 0.7410
-0.1938 -0.9167 0.7410
-0.1198 -0.9293 0.7410
-0.0451 -0.9359 0.7409
0.0300 -0.9364 0.7410
0.1048 -0.9310 0.7410
0.1790 -0.9197 0.7410
0.2520 -0.9024 0.7411
0.3234 -0.8794 0.7412
0.3928 -0.8507 0.7413
0.4597 -0.8166 0.7414
0.5236 -0.7772 0.7415
0.5841 -0.7329 0.7416
0.6410 -0.6838 0.7417
0.6937 -0.6304 0.7419
0.7420 -0.5729 0.7421
0.7856 -0.5117 0.7422
2.2625 -1.2277 2.0382
2.0968 -0.9288 1.8161
1.8998 -0.6653 1.5943
1.8609 -0.4884 1.5240
1.8849 -0.3362 1.5169
1.8747 -0.1812 1.4924
1.8297 -0.0296 1.4502
1.7869 0.1145 1.4192
1.7456 0.2535 1.3983
2.5065 0.5720 2.0382
2.4523 0.7708 2.0382
2.3823 0.9647 2.0382
2.2971 1.1523 2.0382
2.1972 1.3325 2.0382
0.7615 0.5498 0.7451
0.7151 0.6092 0.7452
0.6641 0.6646 0.7454
0.6087 0.7157 0.7455
0.5495 0.7623 0.7456
0.4867 0.8039 0.7457
0.4207 0.8404 0.7458
0.3520 0.8714 0.7459
0.2811 0.8969 0.7459
0.2083 0.9166 0.7460
0.1342 0.9304 0.7460
0.0592 0.9381 0.7460
-0.0161 0.9399 0.7460
-0.0914 0.9356 0.7460
-0.1661 0.9252 0.7459
-0.2397 0.9089 0.7459
-0.3117 0.8868 0.7458
-0.3818 0.8589 0.7457
-0.4493 0.8255 0.7456
-0.5140 0.7868 0.7455
-0.5753 0.7431 0.7454
-0.6330 0.6945 0.7452
-0.6865 0.6415 0.7451
-0.7356 0.5844 0.7449
-2.1347 1.4328 2.0382
-2.2429 1.2574 2.0382
-2.3368 1.0739 2.0382
-2.4156 0.8834 2.0382
-2.4789 0.6872 2.0382
-2.5264 0.4866 2.0382
-2.5576 0.2827 2.0382
-2.5724 0.0770 2.0382
-2.5707 -0.1292 2.0382
-2.5524 -0.3346 2.0382
-2.5178 -0.5380 2.0382
-2.4669 -0.7379 2.0382
-2.4002 -0.9331 2.0382
-2.3181 -1.1224 2.0382
-2.2211 -1.3045 2.0382
-0.7679 -0.5381 0.7419
-0.7223 -0.5977 0.7417
-0.6721 -0.6536 0.7416
-0.6176 -0.7052 0.7415
-0.5591 -0.7523 0.7414
-0.4971 -0.7946 0.7412
-0.4318 -0.8317 0.7412
-0.3639 -0.8636 0.7411
-0.2936 -0.8899 0.7410
-0.2214 -0.9105 0.7410
-0.1479 -0.9252 0.7410
-0.0733 -0.9341 0.7409
0.0016 -0.9369 0.7410
0.0766 -0.9338 0.7410
0.1511 -0.9247 0.7410
0.2246 -0.9096 0.7411
0.2967 -0.8888 0.7411
0.3669 -0.8622 0.7412
0.4348 -0.8301 0.7413
0.4998 -0.7927 0.7414
0.5617 -0.7502 0.7416
0.6200 -0.7029 0.7417
0.6743 -0.6510 0.7418
0.7243 -0.5950 0.7420
0.7697 -0.5352 0.7422
2.2245 -1.2956 2.0382
2.3208 -1.1132 2.0382
1.9766 -0.7601 1.6772
1.8651 -0.5504 1.5403
1.8704 -0.3924 1.5140
1.8925 -0.2409 1.5115
1.8464 -0.0858 1.4647
1.8028 0.0609 1.4296
1.7611 0.2015 1.4050
1.9580 0.3849 1.5820
2.4746 0.6963 2.0382
2.4106 0.8922 2.0382
2.3310 1.0823 2.0382
2.2366 1.2654 2.0382
0.7778 0.5265 0.7450
0.7332 0.5872 0.7452
0.6838 0.6441 0.7453
0.6301 0.6969 0.7455
0.5723 0.7452 0.7456
0.5108 0.7888 0.7457
0.4460 0.8272 0.7458
