ply
format ascii 1.0
element vertex 2151
property float32 x
property float32 y
property float32 z
end_header
0.4984 -7.6249 0.8205
1.1182 -7.6305 0.8281
3.8983 -16.9740 1.8701
5.2463 -16.6069 1.8701
6.5987 -16.2270 1.8810
7.9668 -15.8220 1.9022
4.1247 -6.7775 0.8520
10.6164 -14.6546 1.9432
11.8744 -13.8939 1.9626
13.0715 -13.0187 1.9810
14.1959 -12.0333 1.9983
15.2355 -10.9435 2.0143
16.1790 -9.7566 2.0288
17.0155 -8.4816 2.0416
17.7353 -7.1285 2.0525
18.3296 -5.7090 2.0615
18.7912 -4.2356 2.0685
19.1143 -2.7221 2.0732
19.2947 -1.1827 2.0758
19.3512 0.3681 2.0783
19.1701 1.9091 2.0687
18.7408 3.4005 2.0453
18.2781 4.8572 2.0309
17.7692 6.2852 2.0239
17.1355 7.6567 2.0154
16.3841 8.9604 2.0053
15.5234 10.1858 1.9937
-13.6963 5.8085 2.0225
-14.1178 4.6920 2.0225
-14.4485 3.5453 2.0225
-14.6861 2.3758 2.0225
-14.8293 1.1910 2.0225
-14.8771 -0.0014 2.0225
-14.8291 -1.1939 2.0225
-14.6857 -2.3786 2.0225
-14.4478 -3.5481 2.0225
-14.1169 -4.6947 2.0225
-13.6952 -5.8111 2.0225
-13.1853 -6.8901 2.0225
-12.5906 -7.9248 2.0225
-11.9149 -8.9085 2.0225
-11.1626 -9.8349 2.0225
-10.3384 -10.6979 2.0225
-9.4476 -11.4921 2.0225
-8.4961 -12.2124 2.0225
-7.4899 -12.8541 2.0225
-6.4355 -13.4131 2.0225
-5.3397 -13.8858 2.0225
-4.2095 -14.2691 2.0225
-3.0523 -14.5606 2.0225
-0.9672 -7.6118 1.0432
-0.3518 -7.6173 1.0367
0.2599 -7.6228 1.0369
0.8759 -7.6283 1.0439
2.8763 -14.5964 2.0225
3.7681 -13.3650 1.8878
4.7820 -12.8981 1.8701
5.8004 -12.4734 1.8701
6.8318 -12.0569 1.8840
7.8405 -11.5654 1.8996
8.8113 -10.9857 1.9146
9.7353 -10.3203 1.9288
10.6042 -9.5727 1.9422
11.4097 -8.7473 1.9546
12.1436 -7.8496 1.9658
12.7986 -6.8859 1.9758
13.3678 -5.8636 1.9845
13.8450 -4.7906 1.9917
14.2253 -3.6761 1.9975
14.5042 -2.5293 2.0016
14.6787 -1.3603 2.0041
14.7469 -0.1794 2.0050
14.7081 1.0028 2.0042
14.5724 2.1773 2.0031
14.2810 3.3220 1.9933
13.8192 4.4083 1.9720
13.3810 5.4852 1.9661
12.8515 6.5163 1.9589
12.2360 7.4937 1.9507
11.5406 8.4100 1.9414
10.7721 9.2587 1.9311
9.9377 10.0342 1.9200
9.0451 10.7316 1.9081
8.1023 11.3470 1.8955
7.1172 11.8773 1.8824
6.0982 12.3204 1.8689
5.0944 12.7780 1.8701
4.0561 13.1525 1.8712
3.2306 14.5221 2.0225
2.0562 14.7343 2.0225
0.8686 14.8517 2.0225
-0.3246 14.8735 2.0225
-1.5157 14.7996 2.0225
-2.6971 14.6305 2.0225
-3.8611 14.3673 2.0225
-5.0003 14.0116 2.0225
-6.1072 13.5657 2.0225
-7.1749 13.0326 2.0225
-8.1964 12.4155 2.0225
-9.1652 11.7186 2.0225
-10.0750 10.9463 2.0225
-10.9200 10.1035 2.0225
-11.6947 9.1958 2.0225
-12.3941 8.2288 2.0225
-13.0138 7.2089 2.0225
-13.5497 6.1426 2.0225
-13.9985 5.0368 2.0225
-14.3572 3.8986 2.0225
-14.6235 2.7352 2.0225
-14.7956 1.5543 2.0225
-14.8726 0.3634 2.0225
-14.8539 -0.8298 2.0225
-14.7396 -2.0178 2.0225
-14.5304 -3.1927 2.0225
-14.2278 -4.3471 2.0225
-13.8336 -5.4735 2.0225
-13.3503 -6.5647 2.0225
-12.7812 -7.6136 2.0225
-12.1298 -8.6136 2.0225
-11.4004 -9.5582 2.0225
-10.5976 -10.4412 2.0225
-9.7266 -11.2570 2.0225
-8.7930 -12.0004 2.0225
-7.8029 -12.6666 2.0225
-6.7625 -13.2513 2.0225
-5.6786 -13.7506 2.0225
-4.5582 -14.1616 2.0225
-3.4084 -14.4813 2.0225
-2.2367 -14.7080 2.0225
-0.5392 -7.6157 1.0379
0.0728 -7.6211 1.0361
0.6867 -7.6266 1.0410
2.5175 -14.6625 2.0225
3.6846 -14.4136 2.0225
4.4643 -13.0115 1.8701
5.4928 -12.6119 1.8701
6.5172 -12.1893 1.8791
7.5358 -11.7251 1.8949
8.5191 -11.1721 1.9101
9.4584 -10.5326 1.9245
10.3450 -9.8097 1.9382
11.1707 -9.0076 1.9509
11.9273 -8.1313 1.9625
12.6072 -7.1871 1.9729
13.2033 -6.1818 1.9820
13.7092 -5.1234 1.9897
14.1196 -4.0206 1.9959
14.4299 -2.8826 2.0005
14.6366 -1.7193 2.0035
14.7375 -0.5410 2.0049
14.7313 0.6419 2.0046
14.6257 1.8198 2.0037
14.3863 2.9766 1.9973
13.9798 4.0846 1.9800
13.5249 5.1605 1.9680
13.0227 6.2065 1.9612
12.4329 7.2011 1.9533
11.7613 8.1368 1.9443
11.0144 9.0068 1.9343
10.1993 9.8052 1.9234
9.3237 10.5269 1.9118
8.3953 11.1678 1.8994
7.4223 11.7244 1.8865
6.4128 12.1943 1.8731
5.4062 12.6492 1.8701
4.2996 12.8171 1.8379
3.5858 14.4385 2.0225
2.4169 14.6794 2.0225
1.2325 14.8259 2.0225
0.0402 14.8770 2.0225
-1.1523 14.8324 2.0225
-2.3375 14.6923 2.0225
-3.5076 14.4577 2.0225
-4.6551 14.1300 2.0225
-5.7727 13.7114 2.0225
-6.8532 13.2046 2.0225
-7.8895 12.6128 2.0225
-8.8751 11.9399 2.0225
-9.8035 11.1901 2.0225
-10.6689 10.3683 2.0225
-11.4656 9.4798 2.0225
-12.1886 8.5303 2.0225
-12.8331 7.5259 2.0225
-13.3950 6.4730 2.0225
-13.8708 5.3786 2.0225
-14.2572 4.2495 2.0225
-14.5520 3.0931 2.0225
-14.7531 1.9167 2.0225
-14.8592 0.7280 2.0225
-14.8698 -0.4653 2.0225
-14.7846 -1.6557 2.0225
-14.6044 -2.8354 2.0225
-14.3301 -3.9969 2.0225
-13.9636 -5.1326 2.0225
-13.5073 -6.2353 2.0225
-12.9641 -7.2979 2.0225
-12.3374 -8.3135 2.0225
-11.6314 -9.2757 2.0225
-10.8505 -10.1781 2.0225
-9.9998 -11.0151 2.0225
-9.0847 -11.7811 2.0225
-8.1112 -12.4714 2.0225
-7.0855 -13.0814 2.0225
-6.0141 -13.6072 2.0225
-4.9041 -14.0455 2.0225
-3.7626 -14.3934 2.0225
-2.5968 -14.6487 2.0225
-0.7271 -7.6140 1.0398
-0.1141 -7.6194 1.0360
0.4984 -7.6249 1.0388
1.1182 -7.6305 1.0484
3.3300 -14.4996 2.0225
4.1438 -13.1171 1.8701
5.1818 -12.7428 1.8701
6.2001 -12.3132 1.8742
4.1242 -6.7768 1.0785
8.2228 -11.3505 1.9055
9.1764 -10.7371 1.9202
10.0801 -10.0393 1.9341
10.9253 -9.2609 1.9471
11.7038 -8.4067 1.9591
12.4079 -7.4825 1.9699
13.0303 -6.4951 1.9794
13.5645 -5.4521 1.9875
14.0046 -4.3619 1.9941
14.3459 -3.2336 1.9993
14.5846 -2.0770 2.0028
14.7180 -0.9022 2.0047
14.7446 0.2805 2.0049
14.6641 1.4604 2.0035
14.4800 2.6274 2.0007
14.1210 3.7525 1.9864
13.6601 4.8317 1.9698
13.1858 5.8918 1.9634
12.6222 6.9030 1.9558
11.9749 7.8574 1.9472
-11.3028 4.7934 2.0225
-11.6507 3.8720 2.0225
-11.9236 2.9258 2.0225
-12.1197 1.9606 2.0225
-12.2379 0.9829 2.0225
-12.2773 -0.0012 2.0225
-12.2377 -0.9852 2.0225
-12.1193 -1.9630 2.0225
-11.9230 -2.9280 2.0225
-11.6499 -3.8743 2.0225
-11.3019 -4.7956 2.0225
-10.8812 -5.6861 2.0225
-10.3904 -6.5399 2.0225
-9.8328 -7.3517 2.0225
-9.2119 -8.1162 2.0225
-8.5317 -8.8284 2.0225
-7.7966 -9.4839 2.0225
-7.0114 -10.0783 2.0225
-6.1810 -10.6080 2.0225
-5.3109 -11.0691 2.0225
-4.4066 -11.4592 2.0225
-3.4739 -11.7755 2.0225
-2.5189 -12.0161 2.0225
-0.9672 -7.6118 1.2640
-0.3518 -7.6173 1.2562
0.2599 -7.6228 1.2565
0.8759 -7.6283 1.2649
2.3737 -12.0456 2.0225
3.3315 -11.8166 2.0225
3.9463 -10.6441 1.8701
4.7868 -10.2936 1.8701
3.9726 -7.0110 1.3275
6.3926 -9.4296 1.8768
7.1736 -8.9440 1.8888
7.9150 -8.3906 1.9002
8.6103 -7.7727 1.9109
9.2532 -7.0941 1.9208
9.8377 -6.3591 1.9298
10.3583 -5.5730 1.9377
10.8099 -4.7416 1.9446
11.1881 -3.8713 1.9503
11.4890 -2.9689 1.9549
11.7096 -2.0419 1.9581
11.8476 -1.0979 1.9601
11.9017 -0.1448 1.9608
11.8712 0.8094 1.9602
11.7565 1.7565 1.9583
11.5589 2.6888 1.9550
11.2824 3.5990 1.9509
10.8886 4.4635 1.9386
10.4336 5.2903 1.9272
9.9418 6.0887 1.9205
9.3852 6.8393 1.9131
8.7689 7.5369 1.9049
8.0984 8.1770 1.8959
7.3794 8.7553 1.8863
6.6182 9.2686 1.8762
5.8351 9.7377 1.8701
5.0358 10.1741 1.8701
4.2042 10.5450 1.8701
3.6180 11.7321 2.0225
2.6660 11.9843 2.0225
1.6969 12.1594 2.0225
0.7168 12.2563 2.0225
-0.2679 12.2743 2.0225
-1.2509 12.2134 2.0225
-2.2258 12.0738 2.0225
-3.1864 11.8566 2.0225
-4.1264 11.5630 2.0225
-5.0400 11.1951 2.0225
-5.9211 10.7551 2.0225
-6.7641 10.2459 2.0225
-7.5636 9.6708 2.0225
-8.3144 9.0334 2.0225
-9.0117 8.3379 2.0225
-9.6510 7.5888 2.0225
-10.2282 6.7908 2.0225
-10.7396 5.9491 2.0225
-11.1819 5.0692 2.0225
-11.5522 4.1566 2.0225
-11.8482 3.2173 2.0225
-12.0680 2.2572 2.0225
-12.2101 1.2827 2.0225
-12.2736 0.2999 2.0225
-12.2582 -0.6848 2.0225
-12.1638 -1.6652 2.0225
-11.9912 -2.6348 2.0225
-11.7415 -3.5874 2.0225
-11.4161 -4.5170 2.0225
-11.0173 -5.4175 2.0225
-10.5477 -6.2831 2.0225
-10.0101 -7.1083 2.0225
-9.4081 -7.8878 2.0225
-8.7456 -8.6165 2.0225
-8.0269 -9.2898 2.0225
-7.2564 -9.9033 2.0225
-6.4393 -10.4531 2.0225
-5.5807 -10.9356 2.0225
-4.6863 -11.3477 2.0225
-3.7616 -11.6868 2.0225
-2.8128 -11.9507 2.0225
-1.8459 -12.1377 2.0225
-0.5392 -7.6156 1.2577
0.0728 -7.6211 1.2556
0.6867 -7.6266 1.2615
2.0775 -12.1002 2.0225
3.0407 -11.8947 2.0225
3.7858 -11.0340 1.9218
4.5329 -10.4079 1.8701
5.3526 -10.0111 1.8701
4.3043 -6.6971 1.3115
6.9388 -9.0997 1.8852
7.6930 -8.5668 1.8968
8.4031 -7.9683 1.9077
9.0626 -7.3077 1.9179
9.6656 -6.5894 1.9271
10.2063 -5.8184 1.9354
10.6795 -5.0002 1.9426
11.0805 -4.1410 1.9487
11.4054 -3.2477 1.9536
11.6508 -2.3274 1.9573
11.8143 -1.3878 1.9597
11.8941 -0.4366 1.9607
11.8895 0.5181 1.9605
11.8005 1.4682 1.9590
11.6280 2.4059 1.9562
11.3794 3.3248 1.9530
11.0210 4.2051 1.9433
10.5703 5.0377 1.9290
10.0992 5.8494 1.9227
9.5619 6.6152 1.9155
8.9633 7.3296 1.9075
8.3088 7.9877 1.8987
7.6040 8.5853 1.8893
6.8550 9.1188 1.8794
6.0681 9.5852 1.8689
5.2838 10.0475 1.8701
4.4615 10.4387 1.8701
3.9047 11.6398 2.0225
2.9591 11.9153 2.0225
1.9946 12.1142 2.0225
1.0171 12.2351 2.0225
0.0332 12.2772 2.0225
-0.9510 12.2404 2.0225
-1.9290 12.1248 2.0225
-2.8946 11.9312 2.0225
-3.8416 11.6608 2.0225
-4.7639 11.3153 2.0225
-5.6556 10.8971 2.0225
-6.5108 10.4087 2.0225
-7.3241 9.8533 2.0225
-8.0903 9.2346 2.0225
-8.8045 8.5564 2.0225
-9.4620 7.8232 2.0225
-10.0586 7.0396 2.0225
-10.5905 6.2107 2.0225
-11.0542 5.3419 2.0225
-11.4468 4.4387 2.0225
-11.7658 3.5069 2.0225
-12.0090 2.5525 2.0225
-12.1749 1.5818 2.0225
-12.2626 0.6008 2.0225
-12.2713 -0.3840 2.0225
-12.2010 -1.3664 2.0225
-12.0522 -2.3399 2.0225
-11.8259 -3.2984 2.0225
-11.5235 -4.2357 2.0225
-11.1469 -5.1457 2.0225
-10.6986 -6.0226 2.0225
-10.1814 -6.8607 2.0225
-9.5988 -7.6547 2.0225
-8.9543 -8.3995 2.0225
-8.2523 -9.0902 2.0225
-7.4971 -9.7224 2.0225
-6.6937 -10.2920 2.0225
-5.8473 -10.7954 2.0225
-4.9632 -11.2293 2.0225
-4.0471 -11.5910 2.0225
-3.1051 -11.8781 2.0225
-2.1430 -12.0888 2.0225
-0.7271 -7.6140 1.2600
-0.1141 -7.6194 1.2554
0.4984 -7.6249 1.2588
1.1182 -7.6304 1.2705
2.7481 -11.9657 2.0225
3.6984 -11.7070 2.0225
4.2763 -10.5159 1.8701
5.1054 -10.1393 1.8701
4.0771 -6.6993 1.2920
6.7005 -9.2491 1.8815
7.4669 -8.7368 1.8933
8.1911 -8.1580 1.9045
8.8667 -7.5160 1.9149
9.4876 -6.8148 1.9244
10.0479 -6.0593 1.9330
10.5423 -5.2549 1.9405
10.9658 -4.4076 1.9470
11.3144 -3.5240 1.9522
11.5844 -2.6112 1.9563
11.7731 -1.6766 1.9591
11.8787 -0.7281 1.9606
11.8999 0.2264 1.9607
11.8366 1.1788 1.9596
11.6895 2.1211 1.9572
11.4624 3.0460 1.9538
11.1430 3.9414 1.9471
10.7004 4.7813 1.9307
10.2505 5.6059 1.9247
9.7329 6.3864 1.9177
-9.6082 4.0747 2.0225
-9.9038 3.2915 2.0225
-10.1358 2.4871 2.0225
-10.3025 1.6667 2.0225
-10.4030 0.8355 2.0225
-10.4365 -0.0010 2.0225
-10.4028 -0.8375 2.0225
-10.3022 -1.6687 2.0225
-10.1353 -2.4890 2.0225
-9.9032 -3.2934 2.0225
-9.6074 -4.0766 2.0225
-9.2497 -4.8335 2.0225
-8.8325 -5.5594 2.0225
-8.3585 -6.2494 2.0225
-7.8307 -6.8993 2.0225
-7.2525 -7.5047 2.0225
-6.6276 -8.0619 2.0225
-5.9601 -8.5672 2.0225
-5.2543 -9.0173 2.0225
-4.5146 -9.4095 2.0225
-3.7459 -9.7411 2.0225
-2.9530 -10.0100 2.0225
-2.1412 -10.2144 2.0225
-0.9672 -7.6118 1.4870
-0.3518 -7.6173 1.4778
0.2599 -7.6228 1.4781
0.8759 -7.6283 1.4880
2.0178 -10.2395 2.0225
2.8320 -10.0449 2.0225
3.6280 -9.7856 2.0225
4.0691 -8.7502 1.8701
3.9450 -6.9622 1.5508
5.4150 -7.9876 1.8701
6.0405 -7.5312 1.8710
6.6584 -7.0585 1.8805
7.2369 -6.5329 1.8894
7.7708 -5.9576 1.8976
8.2555 -5.3364 1.9050
8.6866 -4.6736 1.9116
9.0601 -3.9741 1.9173
9.3726 -3.2431 1.9220
9.6211 -2.4862 1.9258
9.8031 -1.7095 1.9285
9.9171 -0.9190 1.9301
9.9617 -0.1212 1.9307
9.9367 0.6775 1.9302
9.8423 1.4706 1.9286
9.6795 2.2516 1.9259
9.4497 3.0144 1.9222
9.1553 3.7529 1.9175
8.7997 4.4618 1.9120
8.3598 5.1198 1.8998
7.8967 5.7545 1.8936
7.3831 6.3459 1.8867
6.8236 6.8898 1.8792
6.2228 7.3830 1.8712
5.6078 7.8535 1.8701
4.9602 8.2777 1.8701
4.2808 8.6486 1.8701
3.8650 9.6944 2.0225
3.0756 9.9730 2.0225
2.2663 10.1875 2.0225
1.4425 10.3363 2.0225
0.6093 10.4187 2.0225
-0.2277 10.4340 2.0225
-1.0633 10.3822 2.0225
-1.8920 10.2635 2.0225
-2.7086 10.0788 2.0225
-3.5077 9.8293 2.0225
-4.2843 9.5166 2.0225
-5.0333 9.1425 2.0225
-5.7499 8.7097 2.0225
-6.4295 8.2208 2.0225
-7.0678 7.6790 2.0225
-7.6605 7.0878 2.0225
-8.2040 6.4509 2.0225
-8.6946 5.7726 2.0225
-9.1294 5.0572 2.0225
-9.5053 4.3091 2.0225
-9.8201 3.5334 2.0225
-10.0717 2.7349 2.0225
-10.2586 1.9188 2.0225
-10.3793 1.0904 2.0225
-10.4333 0.2549 2.0225
-10.4202 -0.5821 2.0225
-10.3400 -1.4155 2.0225
-10.1933 -2.2397 2.0225
-9.9810 -3.0495 2.0225
-9.7044 -3.8398 2.0225
-9.3655 -4.6052 2.0225
-8.9662 -5.3411 2.0225
-8.5092 -6.0425 2.0225
-7.9975 -6.7052 2.0225
-7.4344 -7.3246 2.0225
-6.8234 -7.8969 2.0225
-6.1684 -8.4184 2.0225
-5.4738 -8.8858 2.0225
-4.7440 -9.2959 2.0225
-3.9836 -9.6463 2.0225
-3.1976 -9.9345 2.0225
-2.3911 -10.1589 2.0225
-1.5691 -10.3178 2.0225
-0.5392 -7.6156 1.4796
0.0728 -7.6211 1.4770
0.6867 -7.6266 1.4840
1.7660 -10.2860 2.0225
2.5848 -10.1113 2.0225
3.3869 -9.8716 2.0225
3.8533 -8.8473 1.8701
4.5500 -8.5101 1.8701
4.2849 -6.6669 1.5359
5.8514 -7.6737 1.8701
6.4735 -7.2088 1.8777
7.0646 -6.6990 1.8868
7.6126 -6.1385 1.8952
8.1128 -5.5309 1.9028
8.5608 -4.8803 1.9097
8.9523 -4.1915 1.9157
9.2838 -3.4695 1.9207
9.5521 -2.7200 1.9247
9.7547 -1.9487 1.9278
9.8895 -1.1617 1.9297
9.9555 -0.3655 1.9306
9.9518 0.4337 1.9304
9.8785 1.2291 1.9292
9.7364 2.0145 1.9268
9.5269 2.7836 1.9235
9.2520 3.5301 1.9191
8.9166 4.2496 1.9142
8.5020 4.9243 1.9041
8.0438 5.5649 1.8955
7.5452 6.1700 1.8889
6.9992 6.7288 1.8816
6.4106 7.2379 1.8737
5.7987 7.7136 1.8701
5.1617 8.1536 1.8701
4.4916 8.5411 1.8701
3.9875 9.3297 1.9663
3.3192 9.8946 2.0225
2.5155 10.1288 2.0225
1.6955 10.2978 2.0225
0.8646 10.4006 2.0225
0.0282 10.4364 2.0225
-0.8084 10.4051 2.0225
-1.6398 10.3068 2.0225
-2.4606 10.1422 2.0225
-3.2656 9.9124 2.0225
-4.0496 9.6187 2.0225
-4.8076 9.2632 2.0225
-5.5346 8.8481 2.0225
-6.2260 8.3760 2.0225
-6.8773 7.8500 2.0225
-7.4844 7.2735 2.0225
-8.0433 6.6502 2.0225
-8.5505 5.9841 2.0225
-9.0026 5.2795 2.0225
-9.3968 4.5409 2.0225
-9.7305 3.7731 2.0225
-10.0016 2.9811 2.0225
-10.2084 2.1698 2.0225
-10.3495 1.3446 2.0225
-10.4240 0.5107 2.0225
-10.4314 -0.3264 2.0225
-10.3716 -1.1615 2.0225
-10.2452 -1.9891 2.0225
-10.0528 -2.8038 2.0225
-9.7957 -3.6006 2.0225
-9.4756 -4.3742 2.0225
-9.0945 -5.1196 2.0225
-8.6549 -5.8321 2.0225
-8.1596 -6.5070 2.0225
-7.6118 -7.1401 2.0225
-7.0150 -7.7272 2.0225
-6.3730 -8.2646 2.0225
-5.6901 -8.7489 2.0225
-4.9705 -9.1768 2.0225
-4.2190 -9.5457 2.0225
-3.4403 -9.8531 2.0225
-2.6395 -10.0972 2.0225
-1.8217 -10.2762 2.0225
-0.7271 -7.6139 1.4823
-0.1141 -7.6194 1.4768
0.4984 -7.6249 1.4808
1.1182 -7.6304 1.4945
2.3361 -10.1717 2.0225
3.1438 -9.9517 2.0225
3.7974 -9.3382 1.9536
4.3400 -8.6191 1.8701
4.0544 -6.6621 1.5114
5.6614 -7.8149 1.8701
6.2851 -7.3540 1.8748
6.8882 -6.8604 1.8840
7.4499 -6.3150 1.8927
7.9653 -5.7214 1.9006
8.4297 -5.0834 1.9077
8.8388 -4.4058 1.9139
9.1890 -3.6934 1.9193
9.4769 -2.9517 1.9236
9.6998 -2.1864 1.9270
9.8556 -1.4035 1.9292
9.9427 -0.6095 1.9305
9.9603 0.1895 1.9306
9.9083 0.9867 1.9297
9.7871 1.7759 1.9277
9.5980 2.5506 1.9246
9.3428 3.3047 1.9205
9.0240 4.0322 1.9155
8.6385 4.7244 1.9081
8.1860 5.3714 1.8974
-8.3435 3.5384 2.0225
-8.6002 2.8582 2.0225
-8.8016 2.1597 2.0225
-8.9464 1.4473 2.0225
-9.0336 0.7255 2.0225
-9.0627 -0.0009 2.0225
-9.0335 -0.7273 2.0225
-8.9461 -1.4490 2.0225
-8.8012 -2.1614 2.0225
-8.5997 -2.8599 2.0225
-8.3428 -3.5400 2.0225
-8.0322 -4.1973 2.0225
-7.6699 -4.8276 2.0225
-7.2583 -5.4268 2.0225
-6.8000 -5.9911 2.0225
-6.2979 -6.5169 2.0225
-5.7553 -7.0007 2.0225
-5.1756 -7.4395 2.0225
-4.5627 -7.8304 2.0225
-3.9203 -8.1709 2.0225
-3.2528 -8.4589 2.0225
-2.5643 -8.6924 2.0225
-1.8594 -8.8699 2.0225
-0.9672 -7.6118 1.7124
-0.3518 -7.6173 1.7018
0.2599 -7.6227 1.7022
0.8759 -7.6282 1.7136
1.7522 -8.8917 2.0225
2.4592 -8.7227 2.0225
3.1505 -8.4975 2.0225
3.7989 -8.1692 2.0106
3.9174 -6.9136 1.7734
4.7023 -6.9362 1.8701
5.2431 -6.5370 1.8701
5.7502 -6.0957 1.8701
6.2319 -5.6257 1.8736
6.6877 -5.1272 1.8806
7.1009 -4.5901 1.8870
7.4681 -4.0180 1.8926
7.7860 -3.4152 1.8974
8.0518 -2.7861 1.9015
8.2629 -2.1353 1.9046
8.4176 -1.4679 1.9069
8.5144 -0.7890 1.9083
8.5524 -0.1040 1.9088
8.5313 0.5817 1.9084
8.4512 1.2627 1.9070
8.3130 1.9337 1.9048
8.1179 2.5896 1.9016
7.8677 3.2251 1.8976
7.5646 3.8356 1.8928
7.2116 4.4166 1.8873
6.8115 4.9638 1.8810
6.3660 5.4717 1.8734
5.8968 5.9540 1.8701
5.4006 6.4075 1.8701
4.8696 6.8197 1.8701
4.3073 7.1881 1.8701
3.9684 8.0175 1.9965
3.3563 8.4183 2.0225
2.6707 8.6603 2.0225
1.9680 8.8465 2.0225
1.2526 8.9758 2.0225
0.5291 9.0473 2.0225
-0.1978 9.0606 2.0225
-0.9233 9.0156 2.0225
-1.6430 8.9126 2.0225
-2.3521 8.7522 2.0225
-3.0460 8.5355 2.0225
-3.7204 8.2639 2.0225
-4.3708 7.9391 2.0225
-4.9931 7.5632 2.0225
-5.5832 7.1387 2.0225
-6.1374 6.6682 2.0225
-6.6522 6.1548 2.0225
-7.1241 5.6018 2.0225
-7.5502 5.0128 2.0225
-7.9277 4.3915 2.0225
-8.2542 3.7419 2.0225
-8.5275 3.0683 2.0225
-8.7460 2.3749 2.0225
-8.9082 1.6662 2.0225
-9.0131 0.9469 2.0225
-9.0600 0.2214 2.0225
-9.0486 -0.5055 2.0225
-8.9790 -1.2292 2.0225
-8.8516 -1.9449 2.0225
-8.6672 -2.6481 2.0225
-8.4271 -3.3343 2.0225
-8.1327 -3.9991 2.0225
-7.7860 -4.6380 2.0225
-7.3892 -5.2472 2.0225
-6.9448 -5.8226 2.0225
-6.4558 -6.3605 2.0225
-5.9252 -6.8575 2.0225
-5.3565 -7.3103 2.0225
-4.7533 -7.7162 2.0225
-4.1195 -8.0723 2.0225
-3.4593 -8.3765 2.0225
-2.7767 -8.6269 2.0225
-2.0763 -8.8217 2.0225
-1.3626 -8.9597 2.0225
-0.5392 -7.6156 1.7038
0.0728 -7.6211 1.7009
0.6867 -7.6266 1.7089
1.5336 -8.9320 2.0225
2.2446 -8.7804 2.0225
2.9411 -8.5722 2.0225
3.6188 -8.3089 2.0225
3.9511 -7.3900 1.8701
4.2655 -6.6367 1.7607
5.0812 -6.6636 1.8701
5.5990 -6.2349 1.8701
6.0847 -5.7699 1.8714
6.5527 -5.2838 1.8786
6.9793 -4.7581 1.8851
7.3610 -4.1963 1.8910
7.6943 -3.6025 1.8960
7.9762 -2.9809 1.9003
8.2043 -2.3362 1.9038
8.3764 -1.6733 1.9063
8.4910 -0.9974 1.9080
8.5471 -0.3137 1.9088
8.5440 0.3723 1.9086
8.4819 1.0553 1.9075
8.3614 1.7300 1.9055
8.1834 2.3910 1.9027
7.9499 3.0333 1.8989
7.6627 3.6520 1.8944
7.3246 4.2424 1.8890
6.9386 4.8003 1.8830
6.5047 5.3192 1.8752
6.0373 5.8040 1.8690
5.5561 6.2731 1.8701
5.0354 6.6983 1.8701
4.4823 7.0803 1.8701
3.9801 7.5683 1.9084
3.5617 8.3335 2.0225
2.8823 8.5922 2.0225
2.1844 8.7956 2.0225
1.4723 8.9423 2.0225
0.7508 9.0316 2.0225
0.0245 9.0627 2.0225
-0.7020 9.0355 2.0225
-1.4239 8.9502 2.0225
-2.1367 8.8072 2.0225
-2.8358 8.6076 2.0225
-3.5166 8.3527 2.0225
-4.1748 8.0439 2.0225
-4.8061 7.6834 2.0225
-5.4065 7.2735 2.0225
-5.9721 6.8167 2.0225
-6.4992 6.3161 2.0225
-6.9846 5.7748 2.0225
-7.4250 5.1964 2.0225
-7.8176 4.5846 2.0225
-8.1599 3.9432 2.0225
-8.4497 3.2765 2.0225
-8.6852 2.5887 2.0225
-8.8647 1.8842 2.0225
-8.9872 1.1676 2.0225
-9.0519 0.4435 2.0225
-9.0583 -0.2835 2.0225
-9.0064 -1.0086 2.0225
-8.8966 -1.7273 2.0225
-8.7295 -2.4348 2.0225
-8.5063 -3.1266 2.0225
-8.2283 -3.7984 2.0225
-7.8974 -4.4457 2.0225
-7.5156 -5.0644 2.0225
-7.0855 -5.6505 2.0225
-6.6098 -6.2003 2.0225
-6.0916 -6.7101 2.0225
-5.5342 -7.1768 2.0225
-4.9411 -7.5973 2.0225
-4.3163 -7.9689 2.0225
-3.6637 -8.2892 2.0225
-2.9875 -8.5562 2.0225
-2.2921 -8.7681 2.0225
-1.5819 -8.9236 2.0225
-0.7271 -7.6139 1.7069
-0.1141 -7.6194 1.7006
0.4984 -7.6249 1.7053
1.1182 -7.6304 1.7211
2.0286 -8.8328 2.0225
2.7300 -8.6418 2.0225
3.4139 -8.3952 2.0225
3.8256 -7.5975 1.8984
4.0364 -6.6324 1.7327
4.9162 -6.7862 1.8701
5.4444 -6.3703 1.8701
5.9340 -5.9100 1.8691
6.4138 -5.4367 1.8764
6.8535 -4.9228 1.8832
7.2493 -4.3716 1.8892
7.5977 -3.7872 1.8946
7.8956 -3.1736 1.8991
8.1404 -2.5354 1.9028
8.3299 -1.8776 1.9056
8.4622 -1.2051 1.9076
8.5362 -0.5232 1.9086
8.5512 0.1627 1.9087
8.5071 0.8472 1.9079
8.4044 1.5250 1.9062
8.2438 2.1907 1.9036
8.0270 2.8393 1.9002
7.7560 3.4656 1.8959
7.4332 4.0652 1.8908
7.0615 4.6335 1.8849
-7.3621 3.1222 2.0225
-7.5887 2.5221 2.0225
-7.7664 1.9057 2.0225
-7.8942 1.2770 2.0225
-7.9712 0.6402 2.0225
-7.9968 -0.0008 2.0225
-7.9710 -0.6417 2.0225
-7.8939 -1.2786 2.0225
-7.7661 -1.9072 2.0225
-7.5882 -2.5235 2.0225
-7.3615 -3.1236 2.0225
-7.0875 -3.7036 2.0225
-6.7678 -4.2598 2.0225
-6.4046 -4.7885 2.0225
-6.0002 -5.2865 2.0225
-5.5571 -5.7504 2.0225
-5.0783 -6.1773 2.0225
-4.5669 -6.5645 2.0225
-4.0260 -6.9094 2.0225
-3.4592 -7.2099 2.0225
-2.8702 -7.4640 2.0225
-2.2627 -7.6700 2.0225
-1.6407 -7.8267 2.0225
-1.0081 -7.9330 2.0225
-0.3690 -7.9883 2.0225
0.2725 -7.9922 2.0225
0.9122 -7.9446 2.0225
1.5461 -7.8459 2.0225
2.1700 -7.6968 2.0225
2.7799 -7.4981 2.0225
3.3720 -7.2511 2.0225
3.8227 -6.7464 1.9612
4.1492 -6.1204 1.8701
4.6264 -5.7681 1.8701
5.0739 -5.3787 1.8701
5.4887 -4.9547 1.8701
5.8681 -4.4989 1.8701
6.2200 -4.0206 1.8732
6.5393 -3.5183 1.8781
6.8154 -2.9895 1.8823
7.0462 -2.4381 1.8858
7.2295 -1.8682 1.8885
7.3637 -1.2841 1.8905
7.4477 -0.6902 1.8917
7.4807 -0.0910 1.8922
7.4624 0.5088 1.8918
7.3931 1.1046 1.8906
7.2732 1.6919 1.8886
7.1040 2.2661 1.8859
6.8868 2.8230 1.8825
6.6237 3.3585 1.8783
6.3168 3.8686 1.8734
5.9759 4.3548 1.8701
5.6076 4.8198 1.8701
5.2032 5.2537 1.8701
4.7654 5.6539 1.8701
4.2969 6.0176 1.8701
3.9625 6.6127 1.9498
3.5474 7.1669 2.0225
2.9615 7.4282 2.0225
2.3566 7.6417 2.0225
1.7365 7.8060 2.0225
1.1053 7.9201 2.0225
0.4669 7.9832 2.0225
-0.1745 7.9949 2.0225
-0.8147 7.9552 2.0225
-1.4498 7.8643 2.0225
-2.0754 7.7228 2.0225
-2.6878 7.5316 2.0225
-3.2828 7.2919 2.0225
-3.8567 7.0053 2.0225
-4.4058 6.6737 2.0225
-4.9265 6.2991 2.0225
-5.4156 5.8839 2.0225
-5.8698 5.4309 2.0225
-6.2862 4.9430 2.0225
-6.6622 4.4232 2.0225
-6.9953 3.8750 2.0225
-7.2833 3.3018 2.0225
-7.5246 2.7074 2.0225
-7.7174 2.0956 2.0225
-7.8605 1.4703 2.0225
-7.9531 0.8355 2.0225
-7.9944 0.1953 2.0225
-7.9844 -0.4460 2.0225
-7.9229 -1.0846 2.0225
-7.8105 -1.7161 2.0225
-7.6478 -2.3367 2.0225
-7.4359 -2.9422 2.0225
-7.1762 -3.5287 2.0225
-6.8702 -4.0925 2.0225
-6.5201 -4.6300 2.0225
-6.1280 -5.1377 2.0225
-5.6965 -5.6124 2.0225
-5.2283 -6.0509 2.0225
-4.7265 -6.4505 2.0225
-4.1942 -6.8086 2.0225
-3.6350 -7.1229 2.0225
-3.0524 -7.3914 2.0225
-2.4501 -7.6122 2.0225
-1.8321 -7.7841 2.0225
-1.2023 -7.9059 2.0225
-0.5648 -7.9768 2.0225
0.0764 -7.9964 2.0225
0.7171 -7.9646 2.0225
1.3532 -7.8815 2.0225
1.9806 -7.7477 2.0225
2.5952 -7.5640 2.0225
3.1931 -7.3316 2.0225
3.7705 -7.0521 2.0225
4.0059 -6.2335 1.8739
4.4836 -5.8798 1.8701
4.9404 -5.5016 1.8701
5.3655 -5.0879 1.8701
5.7560 -4.6414 1.8701
6.1143 -4.1684 1.8716
6.4461 -3.6748 1.8767
6.7357 -3.1537 1.8811
6.9806 -2.6088 1.8848
7.1786 -2.0441 1.8878
7.3280 -1.4639 1.8900
7.4274 -0.8725 1.8915
7.4761 -0.2744 1.8921
7.4735 0.3257 1.8920
7.4197 0.9232 1.8910
7.3152 1.5135 1.8893
7.1609 2.0922 1.8868
6.9582 2.6549 1.8836
6.7088 3.1974 1.8796
6.4151 3.7156 1.8750
6.0794 4.2059 1.8697
5.7241 4.6808 1.8701
5.3305 5.1245 1.8701
4.9026 5.5353 1.8701
4.4432 5.9105 1.8701
3.9763 6.2810 1.8802
3.7221 7.0778 2.0225
3.1428 7.3534 2.0225
2.5433 7.5816 2.0225
1.9274 7.7611 2.0225
1.2992 7.8906 2.0225
0.6625 7.9693 2.0225
0.0216 7.9968 2.0225
-0.6194 7.9728 2.0225
-1.2565 7.8975 2.0225
-1.8854 7.7714 2.0225
-2.5023 7.5953 2.0225
-3.1030 7.3702 2.0225
-3.6838 7.0978 2.0225
-4.2408 6.7797 2.0225
-4.7706 6.4180 2.0225
-5.2697 6.0150 2.0225
-5.7348 5.5732 2.0225
-6.1631 5.0956 2.0225
-6.5517 4.5853 2.0225
-6.8981 4.0454 2.0225
-7.2002 3.4794 2.0225
-7.4559 2.8911 2.0225
-7.6636 2.2842 2.0225
-7.8221 1.6626 2.0225
-7.9302 1.0303 2.0225
-7.9872 0.3914 2.0225
-7.9929 -0.2501 2.0225
-7.9471 -0.8900 2.0225
-7.8502 -1.5241 2.0225
-7.7028 -2.1484 2.0225
-7.5058 -2.7589 2.0225
-7.2605 -3.3516 2.0225
-6.9685 -3.9228 2.0225
-6.6317 -4.4688 2.0225
-6.2522 -4.9859 2.0225
-5.8324 -5.4710 2.0225
-5.3751 -5.9209 2.0225
-4.8833 -6.3327 2.0225
-4.3600 -6.7037 2.0225
-3.8086 -7.0316 2.0225
-3.2328 -7.3143 2.0225
-2.6361 -7.5498 2.0225
-2.0225 -7.7368 2.0225
-1.3958 -7.8741 2.0225
-0.7602 -7.9606 2.0225
-0.1197 -7.9959 2.0225
0.5216 -7.9798 2.0225
1.1595 -7.9123 2.0225
1.7900 -7.7939 2.0225
2.4089 -7.6254 2.0225
3.0124 -7.4077 2.0225
3.5964 -7.1425 2.0225
3.8523 -6.3300 1.8741
4.3380 -5.9880 1.8701
4.8040 -5.6211 1.8701
5.2391 -5.2179 1.8701
5.6405 -4.7812 1.8701
6.0048 -4.3132 1.8699
6.3490 -3.8287 1.8752
6.6519 -3.3157 1.8798
6.9106 -2.7777 1.8837
7.1232 -2.2186 1.8869
7.2876 -1.6426 1.8894
7.4024 -1.0542 1.8911
7.4666 -0.4577 1.8920
7.4797 0.1423 1.8921
7.4415 0.7411 1.8914
7.3524 1.3341 1.8899
7.2132 1.9168 1.8877
7.0252 2.4849 1.8847
6.7899 3.0339 1.8809
6.5095 3.5600 1.8765
6.1863 4.0592 1.8714
-6.5774 2.7894 2.0225
-6.7798 2.2533 2.0225
-6.9386 1.7026 2.0225
-7.0528 1.1409 2.0225
-7.1215 0.5720 2.0225
-7.1445 -0.0007 2.0225
-7.1214 -0.5733 2.0225
-7.0526 -1.1423 2.0225
-6.9383 -1.7039 2.0225
-6.7794 -2.2545 2.0225
-6.5769 -2.7907 2.0225
-6.3320 -3.3089 2.0225
-6.0464 -3.8057 2.0225
-5.7220 -4.2782 2.0225
-5.3606 -4.7230 2.0225
-4.9648 -5.1375 2.0225
-4.5371 -5.5189 2.0225
-4.0801 -5.8648 2.0225
-3.5969 -6.1730 2.0225
-3.0905 -6.4414 2.0225
-2.5643 -6.6684 2.0225
-2.0216 -6.8525 2.0225
-1.4658 -6.9925 2.0225
-0.9006 -7.0875 2.0225
-0.3296 -7.1368 2.0225
0.2435 -7.1403 2.0225
0.8150 -7.0978 2.0225
1.3813 -7.0097 2.0225
1.9387 -6.8764 2.0225
2.4836 -6.6989 2.0225
3.0126 -6.4782 2.0225
3.5221 -6.2159 2.0225
3.8385 -5.6620 1.9365
4.1333 -5.1533 1.8701
4.5331 -4.8055 1.8701
4.9036 -4.4267 1.8701
5.2427 -4.0194 1.8701
5.5480 -3.5862 1.8701
5.8176 -3.1300 1.8701
6.0504 -2.6539 1.8704
6.2539 -2.1640 1.8734
6.4156 -1.6579 1.8759
6.5339 -1.1394 1.8776
6.6080 -0.6123 1.8787
6.6371 -0.0807 1.8791
6.6210 0.4514 1.8787
6.5599 0.9801 1.8777
6.4543 1.5014 1.8760
6.3052 2.0113 1.8736
6.1137 2.5061 1.8705
5.8920 2.9875 1.8701
5.6336 3.4502 1.8701
5.3389 3.8906 1.8701
5.0099 4.3060 1.8701
4.6486 4.6937 1.8701
4.2575 5.0512 1.8701
3.9557 5.5398 1.9270
3.6723 6.1284 2.0225
3.1693 6.4030 2.0225
2.6459 6.6365 2.0225
2.1054 6.8272 2.0225
1.5514 6.9740 2.0225
0.9875 7.0759 2.0225
0.4171 7.1323 2.0225
-0.1559 7.1428 2.0225
-0.7279 7.1073 2.0225
-1.2952 7.0261 2.0225
-1.8542 6.8996 2.0225
-2.4013 6.7288 2.0225
-2.9329 6.5147 2.0225
-3.4456 6.2587 2.0225
-3.9362 5.9624 2.0225
-4.4014 5.6277 2.0225
-4.8383 5.2568 2.0225
-5.2441 4.8521 2.0225
-5.6162 4.4161 2.0225
-5.9521 3.9499 2.0225
-6.2497 3.4620 2.0225
-6.5070 2.9499 2.0225
-6.7225 2.4188 2.0225
-6.8948 1.8722 2.0225
-7.0227 1.3136 2.0225
-7.1054 0.7464 2.0225
-7.1423 0.1745 2.0225
-7.1333 -0.3985 2.0225
-7.0784 -0.9690 2.0225
-6.9780 -1.5332 2.0225
-6.8327 -2.0876 2.0225
-6.6433 -2.6286 2.0225
-6.4113 -3.1526 2.0225
-6.1380 -3.6564 2.0225
-5.8252 -4.1365 2.0225
-5.4748 -4.5901 2.0225
-5.0893 -5.0142 2.0225
-4.6710 -5.4060 2.0225
-4.2227 -5.7630 2.0225
-3.7472 -6.0829 2.0225
-3.2476 -6.3637 2.0225
-2.7271 -6.6035 2.0225
-2.1890 -6.8008 2.0225
-1.6368 -6.9544 2.0225
-1.0742 -7.0632 2.0225
-0.5046 -7.1266 2.0225
0.0683 -7.1441 2.0225
0.6407 -7.1157 2.0225
1.2090 -7.0414 2.0225
1.7695 -6.9219 2.0225
2.3186 -6.7578 2.0225
2.8528 -6.5502 2.0225
3.3686 -6.3004 2.0225
3.8234 -5.9489 2.0019
4.0152 -5.2657 1.8746
4.4138 -4.9152 1.8701
4.7936 -4.5456 1.8701
5.1425 -4.1467 1.8701
5.4584 -3.7212 1.8701
5.7391 -3.2717 1.8701
5.9801 -2.7999 1.8693
6.1961 -2.3156 1.8726
6.3707 -1.8141 1.8752
6.5024 -1.2990 1.8772
6.5901 -0.7741 1.8784
6.6330 -0.2435 1.8790
6.6307 0.2889 1.8789
6.5834 0.8191 1.8781
6.4913 1.3431 1.8766
6.3553 1.8569 1.8744
6.1766 2.3567 1.8715
5.9635 2.8421 1.8701
5.7165 3.3110 1.8701
5.4327 3.7585 1.8701
5.1140 4.1819 1.8701
4.7623 4.5783 1.8701
4.3800 4.9453 1.8701
3.9740 5.2863 1.8722
3.8215 6.0365 2.0225
3.3254 6.3234 2.0225
2.8078 6.5696 2.0225
2.2722 6.7735 2.0225
1.7220 6.9338 2.0225
1.1607 7.0496 2.0225
0.5919 7.1199 2.0225
0.0193 7.1444 2.0225
-0.5534 7.1230 2.0225
-1.1225 7.0557 2.0225
-1.6845 6.9431 2.0225
-2.2356 6.7857 2.0225
-2.7722 6.5847 2.0225
-3.2911 6.3413 2.0225
-3.7888 6.0571 2.0225
-4.2621 5.7339 2.0225
-4.7080 5.3738 2.0225
-5.1236 4.9792 2.0225
-5.5062 4.5525 2.0225
-5.8534 4.0965 2.0225
-6.1629 3.6142 2.0225
-6.4327 3.1086 2.0225
-6.6612 2.5830 2.0225
-6.8468 2.0408 2.0225
-6.9883 1.4854 2.0225
-7.0849 0.9205 2.0225
-7.1359 0.3496 2.0225
-7.1410 -0.2235 2.0225
-7.1001 -0.7951 2.0225
-7.0135 -1.3617 2.0225
-6.8818 -1.9194 2.0225
-6.7058 -2.4648 2.0225
-6.4867 -2.9944 2.0225
-6.2258 -3.5047 2.0225
-5.9248 -3.9924 2.0225
-5.5858 -4.4545 2.0225
-5.2108 -4.8879 2.0225
-4.8022 -5.2898 2.0225
-4.3628 -5.6577 2.0225
-3.8953 -5.9892 2.0225
-3.4027 -6.2821 2.0225
-2.8882 -6.5347 2.0225
-2.3551 -6.7451 2.0225
-1.8069 -6.9122 2.0225
-1.2471 -7.0348 2.0225
-0.6792 -7.1121 2.0225
-0.1069 -7.1437 2.0225
0.4660 -7.1292 2.0225
1.0359 -7.0690 2.0225
1.5992 -6.9632 2.0225
2.1522 -6.8126 2.0225
2.6913 -6.6182 2.0225
3.2131 -6.3812 2.0225
3.7142 -6.1031 2.0225
3.8756 -5.3500 1.8701
4.2920 -5.0219 1.8701
4.6807 -4.6618 1.8701
5.0393 -4.2716 1.8701
5.3654 -3.8539 1.8701
5.6571 -3.4115 1.8701
5.9123 -2.9470 1.8701
6.1344 -2.4656 1.8716
6.3218 -1.9690 1.8745
6.4668 -1.4576 1.8766
6.5680 -0.9353 1.8781
6.6247 -0.4061 1.8789
6.6362 0.1262 1.8790
6.6026 0.6575 1.8784
6.5241 1.1838 1.8771
6.4015 1.7011 1.8751
6.2357 2.2056 1.8725
6.0282 2.6936 1.8692
5.7960 3.1698 1.8701
5.5233 3.6241 1.8701
-5.9347 2.5168 2.0225
-6.1173 2.0331 2.0225
-6.2606 1.5362 2.0225
-6.3636 1.0295 2.0225
-6.4256 0.5161 2.0225
-6.4463 -0.0006 2.0225
-6.4255 -0.5173 2.0225
-6.3634 -1.0307 2.0225
-6.2603 -1.5374 2.0225
-6.1169 -2.0342 2.0225
-5.9342 -2.5182 2.0225
-5.7133 -2.9855 2.0225
-5.4556 -3.4339 2.0225
-5.1628 -3.8601 2.0225
-4.8368 -4.2615 2.0225
-4.4797 -4.6355 2.0225
-4.0937 -4.9796 2.0225
-3.6814 -5.2917 2.0225
-3.2454 -5.5698 2.0225
-2.7885 -5.8120 2.0225
-2.3137 -6.0168 2.0225
-1.8240 -6.1829 2.0225
-1.3226 -6.3092 2.0225
-0.8126 -6.3949 2.0225
-0.2974 -6.4395 2.0225
0.2197 -6.4426 2.0225
0.7354 -6.4042 2.0225
1.2463 -6.3247 2.0225
1.7493 -6.2044 2.0225
2.2409 -6.0443 2.0225
2.7182 -5.8452 2.0225
3.1780 -5.6085 2.0225
3.6173 -5.3358 2.0225
3.8486 -4.7983 1.9299
4.0901 -4.3359 1.8701
4.4245 -3.9941 1.8701
4.7304 -3.6266 1.8701
5.0058 -3.2358 1.8701
5.2491 -2.8241 1.8701
5.4586 -2.3943 1.8701
5.6329 -1.9491 1.8701
5.7710 -1.4913 1.8701
5.8720 -1.0240 1.8701
5.9352 -0.5500 1.8701
5.9602 -0.0725 1.8701
5.9468 0.4054 1.8701
5.8952 0.8808 1.8701
5.8056 1.3505 1.8701
5.6787 1.8115 1.8701
5.5152 2.2608 1.8701
5.3162 2.6956 1.8701
5.0831 3.1130 1.8701
4.8172 3.5104 1.8701
4.5203 3.8853 1.8701
4.1944 4.2351 1.8701
3.9478 4.6839 1.9219
3.7460 5.2462 2.0225
3.3135 5.5296 2.0225
2.8596 5.7774 2.0225
2.3873 5.9880 2.0225
1.8997 6.1601 2.0225
1.3998 6.2925 2.0225
0.8910 6.3845 2.0225
0.3764 6.4353 2.0225
-0.1407 6.4448 2.0225
-0.6568 6.4128 2.0225
-1.1687 6.3395 2.0225
-1.6730 6.2255 2.0225
-2.1666 6.0713 2.0225
-2.6463 5.8781 2.0225
-3.1089 5.6471 2.0225
-3.5516 5.3797 2.0225
-3.9713 5.0778 2.0225
-4.3656 4.7431 2.0225
-4.7317 4.3779 2.0225
-5.0674 3.9846 2.0225
-5.3704 3.5656 2.0225
-5.6390 3.1237 2.0225
-5.8712 2.6616 2.0225
-6.0656 2.1825 2.0225
-6.2211 1.6893 2.0225
-6.3364 1.1852 2.0225
-6.4110 0.6735 2.0225
-6.4444 0.1575 2.0225
-6.4363 -0.3596 2.0225
-6.3868 -0.8743 2.0225
-6.2961 -1.3834 2.0225
-6.1650 -1.8836 2.0225
-5.9942 -2.3717 2.0225
-5.7848 -2.8445 2.0225
-5.5382 -3.2990 2.0225
-5.2559 -3.7323 2.0225
-4.9399 -4.1416 2.0225
-4.5920 -4.5242 2.0225
-4.2146 -4.8777 2.0225
-3.8101 -5.1998 2.0225
-3.3810 -5.4885 2.0225
-2.9302 -5.7418 2.0225
-2.4606 -5.9582 2.0225
-1.9751 -6.1363 2.0225
-1.4769 -6.2749 2.0225
-0.9692 -6.3730 2.0225
-0.4553 -6.4302 2.0225
0.0616 -6.4460 2.0225
0.5781 -6.4203 2.0225
1.0908 -6.3534 2.0225
1.5966 -6.2455 2.0225
2.0920 -6.0974 2.0225
2.5740 -5.9101 2.0225
3.0395 -5.6848 2.0225
3.4853 -5.4229 2.0225
3.8360 -5.0307 1.9849
3.9825 -4.4349 1.8701
4.3252 -4.1014 1.8701
4.6400 -3.7415 1.8701
4.9250 -3.3576 1.8701
5.1783 -2.9520 1.8701
5.3982 -2.5275 1.8701
5.5834 -2.0867 1.8701
5.7327 -1.6324 1.8701
5.8451 -1.1677 1.8701
5.9199 -0.6954 1.8701
5.9566 -0.2187 1.8701
5.9549 0.2595 1.8701
5.9150 0.7360 1.8701
5.8370 1.2077 1.8701
5.7214 1.6717 1.8701
5.5690 2.1249 1.8701
5.3808 2.5644 1.8701
5.1579 2.9874 1.8701
4.9018 3.3912 1.8701
4.6143 3.7732 1.8701
4.2970 4.1309 1.8701
3.9626 4.4740 1.8752
3.8736 5.1527 2.0225
3.4481 5.4467 2.0225
3.0004 5.7055 2.0225
2.5335 5.9276 2.0225
2.0502 6.1116 2.0225
1.5537 6.2563 2.0225
1.0473 6.3607 2.0225
0.5341 6.4242 2.0225
0.0174 6.4463 2.0225
-0.4993 6.4270 2.0225
-1.0128 6.3663 2.0225
-1.5199 6.2646 2.0225
-2.0171 6.1226 2.0225
-2.5014 5.9412 2.0225
-2.9695 5.7216 2.0225
-3.4186 5.4652 2.0225
-3.8456 5.1736 2.0225
-4.2479 4.8487 2.0225
-4.6229 4.4927 2.0225
-4.9681 4.1077 2.0225
-5.2814 3.6962 2.0225
-5.5607 3.2610 2.0225
-5.8041 2.8048 2.0225
-6.0103 2.3302 2.0225
-6.1778 1.8413 2.0225
-6.3055 1.3402 2.0225
-6.3926 0.8305 2.0225
-6.4386 0.3155 2.0225
-6.4432 -0.2016 2.0225
-6.4063 -0.7174 2.0225
-6.3282 -1.2286 2.0225
-6.2093 -1.7318 2.0225
-6.0505 -2.2240 2.0225
-5.8528 -2.7018 2.0225
-5.6174 -3.1622 2.0225
-5.3459 -3.6023 2.0225
-5.0399 -4.0192 2.0225
-4.7016 -4.4102 2.0225
-4.3330 -4.7729 2.0225
-3.9365 -5.1048 2.0225
-3.5146 -5.4040 2.0225
-3.0702 -5.6683 2.0225
-2.6060 -5.8961 2.0225
-2.1250 -6.0860 2.0225
-1.6303 -6.2368 2.0225
-1.1252 -6.3474 2.0225
-0.6128 -6.4171 2.0225
-0.0965 -6.4456 2.0225
0.4205 -6.4326 2.0225
0.9347 -6.3782 2.0225
1.4429 -6.2828 2.0225
1.9419 -6.1469 2.0225
2.4283 -5.9715 2.0225
2.8991 -5.7576 2.0225
3.3513 -5.5067 2.0225
3.7819 -5.2204 2.0225
3.8741 -4.5330 1.8709
4.2233 -4.2062 1.8701
4.5469 -3.8542 1.8701
4.8412 -3.4773 1.8701
5.1043 -3.0781 1.8701
5.3346 -2.6591 1.8701
5.5306 -2.2230 1.8701
5.6909 -1.7725 1.8701
5.8147 -1.3107 1.8701
5.9011 -0.8404 1.8701
5.9494 -0.3647 1.8701
5.9595 0.1134 1.8701
5.9313 0.5907 1.8701
5.8648 1.0642 1.8701
5.7607 1.5308 1.8701
5.6194 1.9876 1.8701
5.4420 2.4317 1.8701
5.2296 2.8601 1.8701
4.9835 3.2700 1.8701
-5.3978 2.2892 2.0225
-5.5639 1.8492 2.0225
-5.6943 1.3972 2.0225
-5.7879 0.9363 2.0225
-5.8444 0.4694 2.0225
-5.8632 -0.0006 2.0225
-5.8443 -0.4705 2.0225
-5.7877 -0.9374 2.0225
-5.6940 -1.3983 2.0225
-5.5636 -1.8502 2.0225
-5.3974 -2.2902 2.0225
-5.1965 -2.7154 2.0225
-4.9621 -3.1232 2.0225
-4.6958 -3.5109 2.0225
-4.3993 -3.8760 2.0225
-4.0744 -4.2161 2.0225
-3.7234 -4.5291 2.0225
-3.3484 -4.8130 2.0225
-2.9518 -5.0659 2.0225
-2.5363 -5.2862 2.0225
-0.7697 -2.0017 0.7398
-1.6590 -5.6236 2.0225
-1.2029 -5.7385 2.0225
-0.7391 -5.8164 2.0225
-0.2705 -5.8569 2.0225
0.1998 -5.8598 2.0225
0.6688 -5.8249 2.0225
1.1336 -5.7525 2.0225
1.5910 -5.6432 2.0225
0.7455 -2.0108 0.7398
2.4723 -5.3164 2.0225
2.8905 -5.1012 2.0225
3.2900 -4.8531 2.0225
3.6685 -4.5738 2.0225
3.8545 -4.0861 1.9377
4.0325 -3.6401 1.8740
4.3025 -3.2985 1.8701
4.5530 -2.9431 1.8701
4.7742 -2.5686 1.8701
4.9648 -2.1777 1.8701
5.1233 -1.7728 1.8701
5.2490 -1.3564 1.8701
5.3408 -0.9313 1.8701
5.3983 -0.5002 1.8701
5.4210 -0.0659 1.8701
5.4088 0.3688 1.8701
5.3619 0.8011 1.8701
5.2804 1.2283 1.8701
5.1650 1.6476 1.8701
5.0163 2.0563 1.8701
4.8353 2.4518 1.8701
4.6233 2.8314 1.8701
4.3814 3.1929 1.8701
4.1114 3.5338 1.8701
3.9389 3.9771 1.9309
3.7786 4.4832 2.0225
3.4072 4.7716 2.0225
3.0137 5.0293 2.0225
2.6009 5.2547 2.0225
2.1714 5.4463 2.0225
1.7278 5.6028 2.0225
1.2732 5.7233 2.0225
0.8104 5.8069 2.0225
0.3423 5.8532 2.0225
-0.1279 5.8618 2.0225
-0.5974 5.8327 2.0225
-1.0629 5.7660 2.0225
-1.5217 5.6623 2.0225
-1.9706 5.5221 2.0225
-2.4069 5.3464 2.0225
-2.8277 5.1362 2.0225
-3.2303 4.8931 2.0225
-3.6121 4.6184 2.0225
-3.9706 4.3140 2.0225
-4.3037 3.9819 2.0225
-4.6090 3.6241 2.0225
-4.8846 3.2430 2.0225
-5.1288 2.8411 2.0225
-5.3401 2.4209 2.0225
-5.5169 1.9850 2.0225
-5.6583 1.5365 2.0225
-5.7632 1.0780 2.0225
-5.8311 0.6126 2.0225
-5.8614 0.1432 2.0225
-5.8540 -0.3270 2.0225
-5.8090 -0.7952 2.0225
-5.7266 -1.2583 2.0225
-5.6073 -1.7132 2.0225
-5.4519 -2.1571 2.0225
-5.2615 -2.5872 2.0225
-5.0372 -3.0006 2.0225
-4.7805 -3.3947 2.0225
-4.4930 -3.7669 2.0225
-4.1766 -4.1150 2.0225
-3.8333 -4.4365 2.0225
-3.4654 -4.7295 2.0225
-3.0752 -4.9920 2.0225
-2.6652 -5.2224 2.0225
-2.2380 -5.4192 2.0225
-1.7964 -5.5812 2.0225
-1.3433 -5.7072 2.0225
-0.8815 -5.7965 2.0225
-0.4141 -5.8485 2.0225
0.0560 -5.8629 2.0225
0.5258 -5.8395 2.0225
0.9922 -5.7786 2.0225
1.4521 -5.6805 2.0225
0.6959 -2.0284 0.7397
2.3412 -5.3755 2.0225
2.7645 -5.1705 2.0225
3.1700 -4.9323 2.0225
3.5552 -4.6624 2.0225
3.8438 -4.2804 1.9845
3.9339 -3.7303 1.8701
4.2203 -3.4031 1.8701
4.4795 -3.0538 1.8701
4.7098 -2.6850 1.8701
4.9099 -2.2988 1.8701
5.0783 -1.8979 1.8701
5.2141 -1.4847 1.8701
5.3163 -1.0620 1.8701
5.3844 -0.6325 1.8701
5.4177 -0.1989 1.8701
5.4162 0.2360 1.8701
5.3799 0.6694 1.8701
5.3089 1.0985 1.8701
5.2038 1.5204 1.8701
5.0652 1.9326 1.8701
4.8940 2.3324 1.8701
4.6913 2.7172 1.8701
4.4584 3.0845 1.8701
4.1968 3.4319 1.8701
3.9450 3.7926 1.8877
3.8875 4.3891 2.0225
3.5231 4.6866 2.0225
3.1362 4.9539 2.0225
2.7290 5.1894 2.0225
2.3043 5.3914 2.0225
1.8647 5.5588 2.0225
1.4132 5.6903 2.0225
0.9525 5.7853 2.0225
0.4858 5.8430 2.0225
0.0159 5.8632 2.0225
-0.4541 5.8456 2.0225
-0.9212 5.7904 2.0225
-1.3824 5.6979 2.0225
-1.8346 5.5687 2.0225
-2.2751 5.4038 2.0225
-2.7009 5.2040 2.0225
-3.1093 4.9708 2.0225
-3.4977 4.7056 2.0225
-3.8637 4.4101 2.0225
-4.2047 4.0862 2.0225
-4.5187 3.7361 2.0225
-4.8036 3.3619 2.0225
-5.0576 2.9660 2.0225
-5.2791 2.5511 2.0225
-5.4666 2.1198 2.0225
-5.6189 1.6748 2.0225
-5.7351 1.2190 2.0225
-5.8143 0.7554 2.0225
-5.8562 0.2869 2.0225
-5.8603 -0.1834 2.0225
-5.8268 -0.6525 2.0225
-5.7557 -1.1174 2.0225
-5.6476 -1.5752 2.0225
-5.5032 -2.0228 2.0225
-5.3234 -2.4574 2.0225
-5.1093 -2.8762 2.0225
-4.8623 -3.2764 2.0225
-4.5840 -3.6556 2.0225
-4.2763 -4.0113 2.0225
-3.9410 -4.3411 2.0225
-3.5803 -4.6431 2.0225
-3.1967 -4.9151 2.0225
-2.7924 -5.1555 2.0225
-2.3702 -5.3627 2.0225
-0.7069 -2.0246 0.7397
-1.4829 -5.6726 2.0225
-1.0234 -5.7732 2.0225
-0.5574 -5.8366 2.0225
-0.0878 -5.8625 2.0225
0.3824 -5.8507 2.0225
0.8501 -5.8012 2.0225
1.3124 -5.7144 2.0225
1.7662 -5.5908 2.0225
2.2086 -5.4313 2.0225
2.6369 -5.2368 2.0225
3.0481 -5.0086 2.0225
3.4398 -4.7482 2.0225
3.8093 -4.4571 2.0225
3.8685 -3.8530 1.8834
4.1355 -3.5055 1.8701
4.4032 -3.1628 1.8701
4.6426 -2.7997 1.8701
4.8520 -2.4185 1.8701
5.0303 -2.0219 1.8701
5.1761 -1.6122 1.8701
5.2887 -1.1921 1.8701
5.3672 -0.7643 1.8701
5.4112 -0.3317 1.8701
5.4204 0.1031 1.8701
5.3947 0.5372 1.8701
5.3343 0.9679 1.8701
5.2395 1.3924 1.8701
5.1111 1.8078 1.8701
4.9497 2.2117 1.8701
4.7565 2.6013 1.8701
4.5327 2.9742 1.8701
-4.9420 2.0958 2.0225
-5.0941 1.6930 2.0225
-5.2134 1.2792 2.0225
-5.2992 0.8573 2.0225
-5.3508 0.4298 2.0225
-5.3680 -0.0005 2.0225
-5.3507 -0.4308 2.0225
-5.2990 -0.8583 2.0225
-5.2131 -1.2802 2.0225
-5.0938 -1.6940 2.0225
-4.9416 -2.0968 2.0225
-4.7576 -2.4861 2.0225
-4.5430 -2.8595 2.0225
-4.2992 -3.2144 2.0225
-4.0278 -3.5487 2.0225
-3.7304 -3.8601 2.0225
-3.4090 -4.1467 2.0225
-3.0656 -4.4066 2.0225
-2.7026 -4.6381 2.0225
-2.3221 -4.8398 2.0225
-0.7050 -1.8334 0.7401
-0.5557 -1.8838 0.7400
-0.4029 -1.9221 0.7399
-0.2475 -1.9481 0.7399
-0.0906 -1.9616 0.7399
0.0669 -1.9625 0.7399
0.2240 -1.9509 0.7399
0.3797 -1.9268 0.7399
0.5330 -1.8903 0.7400
0.6828 -1.8418 0.7401
2.2635 -4.8675 2.0225
2.6464 -4.6704 2.0225
3.0122 -4.4432 2.0225
3.3587 -4.1875 2.0225
3.6835 -3.9048 2.0225
3.8570 -3.4818 1.9578
3.9391 -3.0200 1.8701
4.1685 -2.6945 1.8701
4.3711 -2.3517 1.8701
4.5455 -1.9938 1.8701
4.6907 -1.6231 1.8701
4.8057 -1.2419 1.8701
4.8898 -0.8527 1.8701
4.9424 -0.4580 1.8701
4.9632 -0.0604 1.8701
4.9521 0.3376 1.8701
4.9091 0.7335 1.8701
4.8345 1.1246 1.8701
4.7288 1.5085 1.8701
4.5927 1.8826 1.8701
4.4270 2.2447 1.8701
4.2328 2.5923 1.8701
4.0114 2.9232 1.8701
3.9288 3.3768 1.9519
3.7774 3.8141 2.0225
3.4596 4.1046 2.0225
3.1194 4.3687 2.0225
2.7592 4.6046 2.0225
2.3813 4.8110 2.0225
0.7341 1.8413 0.7469
0.5842 1.8945 0.7470
0.4306 1.9354 0.7470
0.2741 1.9638 0.7471
0.3134 5.3589 2.0225
-0.1171 5.3668 2.0225
-0.2020 1.9726 0.7471
-0.3595 1.9499 0.7471
-0.5146 1.9147 0.7470
-0.6663 1.8671 0.7469
-2.2037 4.8949 2.0225
-2.5889 4.7025 2.0225
-2.9575 4.4799 2.0225
-3.3071 4.2284 2.0225
-3.6353 3.9497 2.0225
-3.9402 3.6456 2.0225
-4.2198 3.3181 2.0225
-4.4721 2.9692 2.0225
-4.6957 2.6012 2.0225
-4.8891 2.2164 2.0225
-5.0510 1.8174 2.0225
-5.1805 1.4067 2.0225
-5.2765 0.9869 2.0225
-5.3387 0.5609 2.0225
-5.3664 0.1311 2.0225
-5.3597 -0.2994 2.0225
-5.3184 -0.7281 2.0225
-5.2430 -1.1520 2.0225
-5.1338 -1.5685 2.0225
-4.9915 -1.9750 2.0225
-4.8172 -2.3687 2.0225
-4.6118 -2.7472 2.0225
-4.3768 -3.1080 2.0225
-4.1136 -3.4488 2.0225
-3.8239 -3.7675 2.0225
-3.5096 -4.0618 2.0225
-3.1728 -4.3301 2.0225
-2.8155 -4.5704 2.0225
-2.4401 -4.7814 2.0225
-0.7498 -1.8156 0.7401
-0.6018 -1.8697 0.7400
-0.4499 -1.9117 0.7400
-0.2952 -1.9414 0.7399
-0.1387 -1.9588 0.7399
0.0188 -1.9636 0.7399
0.1761 -1.9558 0.7399
0.3323 -1.9355 0.7399
0.4864 -1.9028 0.7400
0.6374 -1.8579 0.7401
2.1435 -4.9215 2.0225
2.5310 -4.7339 2.0225
2.9023 -4.5158 2.0225
3.2550 -4.2686 2.0225
3.5866 -3.9940 2.0225
3.8478 -3.6487 1.9979
3.8810 -3.1298 1.8784
4.1012 -2.7960 1.8701
4.3121 -2.4582 1.8701
4.4952 -2.1047 1.8701
4.6495 -1.7376 1.8701
4.7738 -1.3593 1.8701
4.8674 -0.9723 1.8701
4.9297 -0.5791 1.8701
4.9602 -0.1821 1.8701
4.9589 0.2161 1.8701
4.9256 0.6129 1.8701
4.8606 1.0057 1.8701
4.7644 1.3920 1.8701
4.6375 1.7694 1.8701
4.4807 2.1355 1.8701
4.2951 2.4877 1.8701
4.0819 2.8240 1.8701
3.9340 3.2170 1.9147
3.8698 3.7203 2.0225
3.5592 4.0185 2.0225
3.2256 4.2909 2.0225
2.8713 4.5356 2.0225
2.4985 4.7511 2.0225
0.7790 1.8227 0.7468
0.6305 1.8795 0.7469
0.4779 1.9242 0.7470
0.3221 1.9565 0.7471
0.4447 5.3496 2.0225
0.0145 5.3680 2.0225
-0.4158 5.3519 2.0225
-0.3115 1.9582 0.7471
-0.4675 1.9268 0.7470
-0.6203 1.8829 0.7469
-0.7691 1.8269 0.7468
-2.4728 4.7646 2.0225
-2.8467 4.5511 2.0225
-3.2024 4.3082 2.0225
-3.5374 4.0377 2.0225
-3.8496 3.7412 2.0225
-4.1371 3.4206 2.0225
-4.3980 3.0780 2.0225
-4.6305 2.7155 2.0225
-4.8333 2.3357 2.0225
-5.0049 1.9407 2.0225
-5.1444 1.5333 2.0225
-5.2507 1.1161 2.0225
-5.3233 0.6916 2.0225
-5.3616 0.2627 2.0225
-5.3654 -0.1679 2.0225
-5.3347 -0.5974 2.0225
-5.2697 -1.0231 2.0225
-5.1707 -1.4422 2.0225
-5.0385 -1.8520 2.0225
-4.8738 -2.2499 2.0225
-4.6778 -2.6333 2.0225
-4.4517 -2.9998 2.0225
-4.1969 -3.3469 2.0225
-3.9151 -3.6725 2.0225
-3.6082 -3.9745 2.0225
-3.2780 -4.2509 2.0225
-2.9267 -4.5000 2.0225
-2.5566 -4.7201 2.0225
-2.1701 -4.9099 2.0225
-0.6475 -1.8544 0.7401
-0.4967 -1.9001 0.7400
-0.3428 -1.9337 0.7399
-0.1867 -1.9548 0.7399
-0.0294 -1.9635 0.7399
0.1281 -1.9595 0.7399
0.2847 -1.9430 0.7399
0.4396 -1.9141 0.7400
0.5917 -1.8729 0.7400
0.7400 -1.8197 0.7401
2.4142 -4.7945 2.0225
2.7907 -4.5856 2.0225
3.1493 -4.3472 2.0225
3.4876 -4.0808 2.0225
3.8035 -3.7881 2.0225
3.8679 -3.2786 1.9104
4.0400 -2.9023 1.8742
4.2505 -2.5632 1.8701
4.4423 -2.2143 1.8701
4.6055 -1.8511 1.8701
4.7390 -1.4760 1.8701
4.8421 -1.0914 1.8701
4.9140 -0.6998 1.8701
4.9543 -0.3037 1.8701
4.9627 0.0944 1.8701
4.9391 0.4919 1.8701
4.8838 0.8862 1.8701
4.7971 1.2748 1.8701
4.6795 1.6552 1.8701
4.5317 2.0249 1.8701
4.3549 2.3816 1.8701
4.1500 2.7230 1.8701
-4.5496 1.9294 2.0225
-4.6896 1.5586 2.0225
-4.7994 1.1776 2.0225
-4.8784 0.7892 2.0225
-4.9259 0.3956 2.0225
-4.9418 -0.0005 2.0225
-4.9258 -0.3966 2.0225
-4.8782 -0.7901 2.0225
-4.7992 -1.1786 2.0225
-4.6893 -1.5595 2.0225
-4.5492 -1.9303 2.0225
-4.3798 -2.2887 2.0225
-4.1823 -2.6324 2.0225
-3.9578 -2.9592 2.0225
-3.7079 -3.2669 2.0225
-3.4341 -3.5536 2.0225
-3.1383 -3.8174 2.0225
-2.8222 -4.0567 2.0225
-2.4879 -4.2698 2.0225
-0.7826 -1.6312 0.7405
-0.6493 -1.6884 0.7404
-0.5118 -1.7348 0.7403
-0.3711 -1.7701 0.7402
-0.2280 -1.7941 0.7402
-0.0834 -1.8065 0.7402
0.0616 -1.8074 0.7402
0.2063 -1.7967 0.7402
0.3497 -1.7745 0.7402
0.4908 -1.7409 0.7403
0.6288 -1.6961 0.7404
0.7629 -1.6405 0.7405
2.4362 -4.2995 2.0225
2.7730 -4.0904 2.0225
3.0920 -3.8550 2.0225
3.3910 -3.5948 2.0225
3.6682 -3.3114 2.0225
3.8566 -2.9568 1.9889
3.8795 -2.5078 1.8906
4.0240 -2.1650 1.8701
4.1846 -1.8355 1.8701
4.3182 -1.4942 1.8701
4.4241 -1.1432 1.8701
4.5015 -0.7850 1.8701
4.5499 -0.4216 1.8701
4.5691 -0.0556 1.8701
4.5588 0.3108 1.8701
4.5193 0.6752 1.8701
4.4506 1.0353 1.8701
4.3533 1.3887 1.8701
4.2280 1.7331 1.8701
4.0755 2.0664 1.8701
3.9309 2.4073 1.8866
3.9175 2.8548 1.9839
3.7477 3.2212 2.0225
3.4775 3.5112 2.0225
3.1848 3.7786 2.0225
2.8717 4.0218 2.0225
2.5401 4.2390 2.0225
2.1922 4.4290 2.0225
0.6756 1.6945 0.7466
0.5376 1.7434 0.7467
0.3962 1.7811 0.7468
0.2522 1.8072 0.7468
0.1065 1.8217 0.7468
-0.0398 1.8243 0.7468
-0.1859 1.8152 0.7468
-0.3308 1.7944 0.7468
-0.4735 1.7620 0.7467
-0.6132 1.7182 0.7466
-0.7488 1.6633 0.7465
-2.3833 4.3291 2.0225
-2.7227 4.1241 2.0225
-3.0444 3.8926 2.0225
-3.3467 3.6361 2.0225
-3.6273 3.3561 2.0225
-3.8847 3.0546 2.0225
-4.1170 2.7334 2.0225
-4.3229 2.3946 2.0225
-4.5009 2.0404 2.0225
-4.6499 1.6731 2.0225
-4.7691 1.2950 2.0225
-4.8575 0.9086 2.0225
-4.9147 0.5163 2.0225
-4.9403 0.1207 2.0225
-4.9341 -0.2756 2.0225
-4.8961 -0.6703 2.0225
-4.8266 -1.0605 2.0225
-4.7261 -1.4440 2.0225
-4.5952 -1.8182 2.0225
-4.4346 -2.1806 2.0225
-4.2456 -2.5291 2.0225
-4.0292 -2.8612 2.0225
-3.7869 -3.1750 2.0225
-3.5203 -3.4683 2.0225
-3.2309 -3.7393 2.0225
-2.9208 -3.9862 2.0225
-2.5919 -4.2075 2.0225
-2.2463 -4.4017 2.0225
-0.6905 -1.6721 0.7404
-0.5542 -1.7218 0.7403
-0.4144 -1.7605 0.7402
-0.2719 -1.7880 0.7402
-0.1277 -1.8039 0.7402
0.0173 -1.8084 0.7401
0.1622 -1.8012 0.7402
0.3060 -1.7825 0.7402
0.4480 -1.7523 0.7403
0.5870 -1.7110 0.7403
0.7224 -1.6586 0.7404
2.3301 -4.3580 2.0225
2.6719 -4.1572 2.0225
2.9965 -3.9297 2.0225
3.3018 -3.6768 2.0225
3.5859 -3.4003 2.0225
3.8469 -3.1020 2.0225
3.8730 -2.6404 1.9184
3.9697 -2.2631 1.8701
4.1383 -1.9376 1.8701
4.2803 -1.5996 1.8701
4.3947 -1.2514 1.8701
4.4809 -0.8951 1.8701
4.5382 -0.5331 1.8701
4.5663 -0.1676 1.8701
4.5651 0.1989 1.8701
4.5345 0.5642 1.8701
4.4746 0.9258 1.8701
4.3860 1.2815 1.8701
4.2692 1.6289 1.8701
4.1249 1.9659 1.8701
3.9541 2.2901 1.8701
3.9220 2.7133 1.9519
3.8256 3.1283 2.0225
3.5625 3.4249 2.0225
3.2765 3.6994 2.0225
2.9695 3.9501 2.0225
2.6433 4.1754 2.0225
2.3001 4.3739 2.0225
0.7169 1.6774 0.7466
0.5802 1.7296 0.7467
0.4398 1.7708 0.7467
0.2964 1.8004 0.7468
0.1512 1.8185 0.7468
0.0049 1.8248 0.7468
-0.1413 1.8193 0.7468
-0.2867 1.8020 0.7468
-0.4302 1.7731 0.7467
-0.5709 1.7327 0.7467
-0.7078 1.6812 0.7466
-2.2764 4.3862 2.0225
-2.6207 4.1897 2.0225
-2.9481 3.9661 2.0225
-3.2565 3.7171 2.0225
-3.5439 3.4441 2.0225
-3.8086 3.1489 2.0225
-4.0487 2.8335 2.0225
-4.2628 2.4999 2.0225
-4.4495 2.1502 2.0225
-4.6075 1.7866 2.0225
-4.7359 1.4116 2.0225
-4.8338 1.0274 2.0225
-4.9006 0.6367 2.0225
-4.9359 0.2418 2.0225
-4.9394 -0.1546 2.0225
-4.9111 -0.5500 2.0225
-4.8512 -0.9419 2.0225
-4.7601 -1.3276 2.0225
-4.6384 -1.7049 2.0225
-4.4868 -2.0712 2.0225
-4.3063 -2.4242 2.0225
-4.0982 -2.7615 2.0225
-3.8636 -3.0812 2.0225
-3.6042 -3.3809 2.0225
-3.3217 -3.6589 2.0225
-3.0177 -3.9134 2.0225
-2.6943 -4.1427 2.0225
-2.3536 -4.3453 2.0225
-0.7313 -1.6547 0.7404
-0.5963 -1.7078 0.7403
-0.4574 -1.7499 0.7403
-0.3157 -1.7808 0.7402
-0.1719 -1.8003 0.7402
-0.0271 -1.8082 0.7401
0.1180 -1.8046 0.7402
0.2622 -1.7894 0.7402
0.4048 -1.7628 0.7402
0.5449 -1.7248 0.7403
0.6815 -1.6758 0.7404
2.2225 -4.4138 2.0225
2.5691 -4.2215 2.0225
2.8992 -4.0020 2.0225
3.2107 -3.7567 2.0225
3.5014 -3.4873 2.0225
3.7697 -3.1954 2.0225
3.8660 -2.7769 1.9481
3.9130 -2.3597 1.8701
4.0895 -2.0385 1.8701
4.2398 -1.7041 1.8701
4.3627 -1.3588 1.8701
4.4576 -1.0048 1.8701
4.5238 -0.6442 1.8701
4.5609 -0.2796 1.8701
4.5686 0.0869 1.8701
4.5469 0.4528 1.8701
4.4960 0.8158 1.8701
4.4161 1.1735 1.8701
4.3079 1.5237 1.8701
4.1719 1.8641 1.8701
4.0090 2.1925 1.8701
3.9261 2.5761 1.9219
-4.2076 1.7844 2.0225
-4.3371 1.4414 2.0225
-4.4387 1.0892 2.0225
-4.5117 0.7299 2.0225
-4.5557 0.3659 2.0225
-4.5704 -0.0005 2.0225
-4.5556 -0.3668 2.0225
-4.5116 -0.7309 2.0225
-4.4385 -1.0900 2.0225
-4.3368 -1.4424 2.0225
-4.2073 -1.7853 2.0225
-4.0507 -2.1168 2.0225
-3.8680 -2.4346 2.0225
-3.6604 -2.7368 2.0225
-3.4293 -3.0214 2.0225
-3.1761 -3.2865 2.0225
-2.9024 -3.5305 2.0225
-2.6101 -3.7518 2.0225
-2.3010 -3.9489 2.0225
-0.7240 -1.5091 0.7407
-0.6007 -1.5620 0.7406
-0.4735 -1.6050 0.7405
-0.3433 -1.6376 0.7405
-0.2109 -1.6598 0.7404
-0.0772 -1.6713 0.7404
0.0570 -1.6721 0.7404
0.1909 -1.6622 0.7404
0.3235 -1.6417 0.7405
0.4541 -1.6106 0.7405
0.5818 -1.5692 0.7406
0.7058 -1.5177 0.7407
2.2531 -3.9764 2.0225
2.5646 -3.7830 2.0225
2.8596 -3.5653 2.0225
