ply
format ascii 1.0
element vertex 2178
property float32 x
property float32 y
property float32 z
end_header
2.3265 -6.0833 2.0382
2.8078 -5.8759 2.0382
3.2707 -5.6304 2.0382
3.7123 -5.3484 2.0382
4.1297 -5.0318 2.0382
3.2970 -3.4155 1.4867
3.0922 -2.7261 1.2912
2.9341 -2.1941 1.1478
2.8070 -1.7660 1.0392
2.7012 -1.4100 0.9550
2.6108 -1.1056 0.8888
2.5317 -0.8392 0.8363
2.4610 -0.6011 0.7945
2.3966 -0.3845 0.7614
2.3371 -0.1840 0.7356
2.2811 0.0045 0.7159
2.2277 0.1841 0.7017
2.1761 0.3578 0.6925
2.1256 0.5281 0.6879
2.0754 0.6970 0.6877
2.0249 0.8670 0.6921
5.7378 3.0241 2.0382
5.4749 3.4751 2.0382
5.1768 3.9036 2.0382
4.8452 4.3066 2.0382
4.4825 4.6817 2.0382
4.0908 5.0264 2.0382
3.6728 5.3386 2.0382
3.2311 5.6161 2.0382
2.7687 5.8573 2.0382
2.2884 6.0607 2.0382
1.7933 6.2248 2.0382
1.2867 6.3487 2.0382
0.7719 6.4315 2.0382
0.2520 6.4728 2.0382
-0.2695 6.4723 2.0382
-0.7893 6.4299 2.0382
-1.3040 6.3460 2.0382
-1.8104 6.2210 2.0382
-2.3052 6.0558 2.0382
-2.7852 5.8514 2.0382
-3.2472 5.6091 2.0382
-3.6884 5.3305 2.0382
-4.1059 5.0174 2.0382
-4.4969 4.6717 2.0382
-4.8590 4.2956 2.0382
-5.1898 3.8916 2.0382
-5.4871 3.4623 2.0382
-5.7490 3.0104 2.0382
-5.9738 2.5388 2.0382
-6.1600 2.0506 2.0382
-6.3064 1.5489 2.0382
-6.4120 1.0369 2.0382
-6.4761 0.5180 2.0382
-6.4983 -0.0045 2.0382
-6.4784 -0.5271 2.0382
-6.4165 -1.0466 2.0382
-6.3129 -1.5596 2.0382
-6.1684 -2.0626 2.0382
-5.9838 -2.5525 2.0382
-5.7603 -3.0260 2.0382
-5.4994 -3.4800 2.0382
-5.2027 -3.9116 2.0382
-4.8721 -4.3180 2.0382
-4.5098 -4.6965 2.0382
-4.1182 -5.0445 2.0382
-3.6997 -5.3599 2.0382
-3.2571 -5.6406 2.0382
-2.7933 -5.8848 2.0382
-2.3112 -6.0907 2.0382
-1.8141 -6.2571 2.0382
-1.3052 -6.3829 2.0382
2.5219 -0.8061 0.9128
2.4521 -0.5713 0.8682
2.3885 -0.3570 0.8330
2.3295 -0.1584 0.8055
2.2739 0.0287 0.7847
2.2208 0.2075 0.7698
2.1694 0.3806 0.7603
2.1189 0.5505 0.7559
2.0687 0.7195 0.7564
2.0182 0.8897 0.7618
5.1895 2.8064 2.0382
4.9462 3.2142 2.0382
4.6708 3.6010 2.0382
4.3654 3.9645 2.0382
4.0318 4.3022 2.0382
3.6722 4.6120 2.0382
3.2890 4.8919 2.0382
2.8846 5.1402 2.0382
2.4615 5.3551 2.0382
2.0227 5.5354 2.0382
1.5707 5.6800 2.0382
1.1087 5.7878 2.0382
0.6395 5.8582 2.0382
0.1662 5.8907 2.0382
-0.3082 5.8851 2.0382
-0.7807 5.8415 2.0382
-1.2481 5.7601 2.0382
-1.7075 5.6414 2.0382
-2.1560 5.4863 2.0382
-2.5906 5.2956 2.0382
-3.0086 5.0707 2.0382
-3.4072 4.8129 2.0382
-3.7838 4.5239 2.0382
-4.1361 4.2056 2.0382
-4.4618 3.8599 2.0382
-4.7586 3.4892 2.0382
-5.0248 3.0957 2.0382
-5.2585 2.6821 2.0382
-5.4583 2.2509 2.0382
-5.6229 1.8050 2.0382
-5.7510 1.3472 2.0382
-5.8420 0.8805 2.0382
-5.8952 0.4080 2.0382
-5.9101 -0.0675 2.0382
-5.8868 -0.5426 2.0382
-5.8253 -1.0145 2.0382
-5.7261 -1.4799 2.0382
-5.5896 -1.9360 2.0382
-5.4169 -2.3796 2.0382
-5.2089 -2.8080 2.0382
-4.9671 -3.2183 2.0382
-4.6931 -3.6078 2.0382
-4.3884 -3.9741 2.0382
-4.0552 -4.3147 2.0382
-3.6957 -4.6273 2.0382
-3.3120 -4.9100 2.0382
-2.9068 -5.1609 2.0382
-2.4826 -5.3783 2.0382
-0.7395 -2.0136 0.7381
-1.5887 -5.7073 2.0382
-1.1247 -5.8167 2.0382
-0.6534 -5.8883 2.0382
-0.1779 -5.9217 2.0382
0.2988 -5.9167 2.0382
0.7735 -5.8733 2.0382
1.2431 -5.7918 2.0382
1.7046 -5.6727 2.0382
0.7805 -1.9981 0.7382
2.5913 -5.3250 2.0382
3.0107 -5.0988 2.0382
3.4104 -4.8396 2.0382
3.7879 -4.5491 2.0382
3.2764 -3.3463 1.6128
3.0737 -2.6712 1.4026
2.9218 -2.1526 1.2502
2.7969 -1.7320 1.1335
2.6927 -1.3813 1.0429
2.6034 -1.0807 0.9716
2.5251 -0.8171 0.9150
2.4551 -0.5812 0.8700
2.3912 -0.3662 0.8344
2.3320 -0.1669 0.8066
2.2763 0.0206 0.7855
2.2231 0.1997 0.7704
2.1716 0.3730 0.7606
2.1212 0.5430 0.7560
2.0710 0.7120 0.7563
2.0204 0.8821 0.7615
5.1996 2.7879 2.0382
4.9576 3.1965 2.0382
4.6837 3.5843 2.0382
4.3796 3.9489 2.0382
4.0472 4.2878 2.0382
3.6887 4.5989 2.0382
3.3064 4.8802 2.0382
2.9029 5.1298 2.0382
2.4806 5.3463 2.0382
2.0424 5.5282 2.0382
1.5910 5.6743 2.0382
1.1294 5.7838 2.0382
0.6604 5.8558 2.0382
0.1872 5.8900 2.0382
-0.2872 5.8861 2.0382
-0.7598 5.8442 2.0382
-1.2275 5.7645 2.0382
-1.6874 5.6475 2.0382
-2.1364 5.4939 2.0382
-2.5717 5.3048 2.0382
-2.9904 5.0814 2.0382
-3.3899 4.8250 2.0382
-3.7676 4.5374 2.0382
-4.1211 4.2203 2.0382
-4.4479 3.8758 2.0382
-4.7461 3.5061 2.0382
-5.0137 3.1136 2.0382
-5.2489 2.7008 2.0382
-5.4502 2.2704 2.0382
-5.6163 1.8250 2.0382
-5.7461 1.3677 2.0382
-5.8388 0.9014 2.0382
-5.8936 0.4290 2.0382
-5.9103 -0.0464 2.0382
-5.8887 -0.5216 2.0382
-5.8289 -0.9937 2.0382
-5.7312 -1.4595 2.0382
-5.5964 -1.9160 2.0382
-5.4253 -2.3603 2.0382
-5.2189 -2.7894 2.0382
-4.9786 -3.2005 2.0382
-4.7059 -3.5911 2.0382
-4.4025 -3.9584 2.0382
-4.0706 -4.3001 2.0382
-3.7121 -4.6141 2.0382
-3.3295 -4.8981 2.0382
-2.9252 -5.1504 2.0382
-2.5018 -5.3694 2.0382
-0.7467 -2.0110 0.7381
-1.6090 -5.7015 2.0382
-1.1455 -5.8126 2.0382
-0.6744 -5.8860 2.0382
-0.1990 -5.9211 2.0382
0.2777 -5.9178 2.0382
0.7525 -5.8761 2.0382
1.2224 -5.7962 2.0382
1.6844 -5.6787 2.0382
0.7734 -2.0009 0.7382
2.5723 -5.3343 2.0382
2.9925 -5.1096 2.0382
3.3931 -4.8518 2.0382
3.7717 -4.5626 2.0382
3.2867 -3.3808 1.6237
3.0771 -2.6935 1.4085
2.9280 -2.1733 1.2562
2.8019 -1.7490 1.1381
2.6970 -1.3956 1.0465
2.6071 -1.0932 0.9745
2.5284 -0.8282 0.9173
2.4580 -0.5912 0.8718
2.3939 -0.3753 0.8358
2.3345 -0.1754 0.8077
2.2787 0.0125 0.7863
2.2254 0.1919 0.7709
2.1739 0.3654 0.7610
2.1234 0.5355 0.7561
2.0732 0.7045 0.7562
2.0227 0.8745 0.7612
5.2095 2.7693 2.0382
4.9690 3.1788 2.0382
4.6965 3.5676 2.0382
4.3936 3.9332 2.0382
4.0625 4.2733 2.0382
3.7051 4.5857 2.0382
3.3239 4.8684 2.0382
2.9212 5.1195 2.0382
2.4997 5.3375 2.0382
2.0621 5.5209 2.0382
1.6113 5.6686 2.0382
1.1500 5.7797 2.0382
0.6813 5.8534 2.0382
0.2082 5.8893 2.0382
-0.2662 5.8871 2.0382
-0.7390 5.8469 2.0382
-1.2070 5.7688 2.0382
-1.6672 5.6534 2.0382
-2.1168 5.5015 2.0382
-2.5527 5.3139 2.0382
-2.9723 5.0920 2.0382
-3.3727 4.8371 2.0382
-3.7514 4.5508 2.0382
-4.1059 4.2349 2.0382
-4.4340 3.8916 2.0382
-4.7335 3.5230 2.0382
-5.0025 3.1314 2.0382
-5.2392 2.7195 2.0382
-5.4420 2.2898 2.0382
-5.6097 1.8451 2.0382
-5.7412 1.3882 2.0382
-5.8355 0.9222 2.0382
-5.8920 0.4500 2.0382
-5.9103 -0.0253 2.0382
-5.8904 -0.5006 2.0382
-5.8323 -0.9729 2.0382
-5.7364 -1.4390 2.0382
-5.6032 -1.8960 2.0382
-5.4336 -2.3409 2.0382
-5.2288 -2.7707 2.0382
-4.9899 -3.1827 2.0382
-4.7186 -3.5742 2.0382
-4.4166 -3.9426 2.0382
-4.0859 -4.2856 2.0382
-3.7285 -4.6008 2.0382
-3.3469 -4.8862 2.0382
-2.9435 -5.1400 2.0382
-2.5209 -5.3604 2.0382
-0.7539 -2.0083 0.7381
-1.6294 -5.6958 2.0382
-1.1662 -5.8085 2.0382
-0.6954 -5.8835 2.0382
-0.2201 -5.9203 2.0382
0.2565 -5.9187 2.0382
0.7315 -5.8787 2.0382
1.2017 -5.8005 2.0382
1.6641 -5.6847 2.0382
0.7662 -2.0036 0.7382
2.5532 -5.3434 2.0382
2.9742 -5.1203 2.0382
3.3758 -4.8639 2.0382
3.7554 -4.5760 2.0382
3.2970 -3.4158 1.6349
3.0827 -2.7179 1.4155
2.9342 -2.1942 1.2622
2.8070 -1.7661 1.1427
2.7013 -1.4101 1.0501
2.6109 -1.1057 0.9773
2.5317 -0.8393 0.9195
2.4610 -0.6012 0.8736
2.3966 -0.3845 0.8372
2.3371 -0.1840 0.8088
2.2811 0.0044 0.7871
2.2278 0.1841 0.7715
2.1762 0.3578 0.7613
2.1256 0.5280 0.7562
2.0754 0.6970 0.7561
2.0249 0.8669 0.7608
5.2194 2.7507 2.0382
4.9804 3.1611 2.0382
4.7092 3.5509 2.0382
4.4077 3.9176 2.0382
4.0777 4.2588 2.0382
3.7215 4.5725 2.0382
3.3412 4.8565 2.0382
2.9395 5.1090 2.0382
2.5187 5.3285 2.0382
2.0818 5.5135 2.0382
1.6315 5.6628 2.0382
1.1706 5.7756 2.0382
0.7022 5.8510 2.0382
0.2293 5.8885 2.0382
-0.2452 5.8880 2.0382
-0.7181 5.8494 2.0382
-1.1864 5.7731 2.0382
-1.6470 5.6593 2.0382
-2.0971 5.5090 2.0382
-2.5337 5.3230 2.0382
-2.9541 5.1025 2.0382
-3.3554 4.8490 2.0382
-3.7351 4.5641 2.0382
-4.0908 4.2495 2.0382
-4.4201 3.9074 2.0382
-4.7209 3.5398 2.0382
-4.9913 3.1493 2.0382
-5.2294 2.7382 2.0382
-5.4338 2.3092 2.0382
-5.6031 1.8650 2.0382
-5.7361 1.4087 2.0382
-5.8321 0.9430 2.0382
-5.8903 0.4710 2.0382
-5.9104 -0.0042 2.0382
-5.8921 -0.4796 2.0382
-5.8357 -0.9520 2.0382
-5.7414 -1.4185 2.0382
-5.6099 -1.8760 2.0382
-5.4419 -2.3215 2.0382
-5.2386 -2.7520 2.0382
-5.0012 -3.1649 2.0382
-4.7313 -3.5573 2.0382
-4.4306 -3.9268 2.0382
-4.1011 -4.2709 2.0382
-3.7449 -4.5874 2.0382
-3.3643 -4.8742 2.0382
-2.9618 -5.1294 2.0382
-2.5400 -5.3514 2.0382
-0.7610 -2.0056 0.7381
-1.6497 -5.6899 2.0382
-1.1869 -5.8043 2.0382
2.5219 -0.8062 0.9971
2.4521 -0.5713 0.9484
2.3885 -0.3571 0.9098
2.3295 -0.1584 0.8798
2.2739 0.0287 0.8571
2.2208 0.2074 0.8408
2.1694 0.3805 0.8304
2.1189 0.5504 0.8256
2.0688 0.7194 0.8261
2.0182 0.8897 0.8320
4.7518 2.5695 2.0382
4.5290 2.9430 2.0382
4.2770 3.2972 2.0382
3.9973 3.6301 2.0382
3.6919 3.9394 2.0382
3.3627 4.2231 2.0382
3.0118 4.4795 2.0382
2.6414 4.7068 2.0382
2.2541 4.9037 2.0382
0.6802 1.8614 0.7485
0.5283 1.9103 0.7486
0.3729 1.9468 0.7487
0.2151 1.9706 0.7487
0.1522 5.3941 2.0382
-0.2823 5.3890 2.0382
-0.2626 1.9648 0.7487
-0.4198 1.9372 0.7486
-0.5742 1.8970 0.7485
-0.7248 1.8444 0.7483
-2.3723 4.8491 2.0382
-2.7550 4.6431 2.0382
-3.1199 4.4070 2.0382
-3.4648 4.1423 2.0382
-3.7873 3.8508 2.0382
-4.0855 3.5342 2.0382
-4.3572 3.1947 2.0382
-4.6009 2.8344 2.0382
-4.8148 2.4556 2.0382
-4.9977 2.0608 2.0382
-5.1482 1.6525 2.0382
-5.2655 1.2333 2.0382
-5.3487 0.8061 2.0382
-5.3973 0.3734 2.0382
-5.4109 -0.0619 2.0382
-5.3895 -0.4969 2.0382
-5.3331 -0.9289 2.0382
-5.2421 -1.3550 2.0382
-5.1172 -1.7725 2.0382
-4.9590 -2.1786 2.0382
-4.7685 -2.5707 2.0382
-4.5471 -2.9463 2.0382
-4.2962 -3.3028 2.0382
-4.0172 -3.6381 2.0382
-3.7122 -3.9498 2.0382
-3.3830 -4.2360 2.0382
-3.0318 -4.4947 2.0382
-2.6608 -4.7243 2.0382
-2.2726 -4.9233 2.0382
-0.6774 -1.8444 0.7385
-0.5268 -1.8927 0.7384
-0.3729 -1.9287 0.7383
-0.2167 -1.9523 0.7383
-0.0590 -1.9634 0.7383
0.0991 -1.9618 0.7383
0.2565 -1.9475 0.7383
0.4122 -1.9207 0.7384
0.5654 -1.8815 0.7385
0.7149 -1.8302 0.7387
2.3720 -4.8747 2.0382
2.7560 -4.6676 2.0382
3.1219 -4.4304 2.0382
3.4676 -4.1645 2.0382
3.2765 -3.3465 1.7618
2.9910 -2.5995 1.4909
2.9219 -2.1528 1.3657
2.7969 -1.7321 1.2382
2.6927 -1.3814 1.1392
2.6035 -1.0808 1.0613
2.5252 -0.8172 0.9995
2.4551 -0.5813 0.9503
2.3912 -0.3662 0.9114
2.3320 -0.1669 0.8810
2.2763 0.0206 0.8579
2.2231 0.1996 0.8414
2.1717 0.3729 0.8308
2.1212 0.5429 0.8257
2.0710 0.7119 0.8260
2.0205 0.8820 0.8317
4.7610 2.5526 2.0382
4.5395 2.9268 2.0382
4.2888 3.2820 2.0382
4.0103 3.6158 2.0382
3.7060 3.9262 2.0382
3.3778 4.2111 2.0382
3.0277 4.4687 2.0382
2.6582 4.6974 2.0382
2.2716 4.8956 2.0382
0.6868 1.8590 0.7485
0.5351 1.9084 0.7486
0.3799 1.9454 0.7487
0.2222 1.9698 0.7487
0.1714 5.3936 2.0382
-0.2630 5.3900 2.0382
-0.2556 1.9657 0.7487
-0.4129 1.9387 0.7486
-0.5674 1.8990 0.7485
-0.7183 1.8470 0.7483
-2.3549 4.8575 2.0382
-2.7384 4.6529 2.0382
-3.1042 4.4181 2.0382
-3.4500 4.1547 2.0382
-3.7735 3.8643 2.0382
-4.0728 3.5488 2.0382
-4.3458 3.2102 2.0382
-4.5907 2.8508 2.0382
-4.8060 2.4728 2.0382
-4.9903 2.0786 2.0382
-5.1423 1.6709 2.0382
-5.2610 1.2521 2.0382
-5.3458 0.8251 2.0382
-5.3959 0.3926 2.0382
-5.4111 -0.0426 2.0382
-5.3912 -0.4777 2.0382
-5.3363 -0.9099 2.0382
-5.2469 -1.3363 2.0382
-5.1234 -1.7542 2.0382
-4.9667 -2.1609 2.0382
-4.7776 -2.5537 2.0382
-4.5576 -2.9300 2.0382
-4.3079 -3.2875 2.0382
-4.0302 -3.6237 2.0382
-3.7262 -3.9365 2.0382
-3.3981 -4.2239 2.0382
-3.0478 -4.4838 2.0382
-2.6777 -4.7148 2.0382
-2.2901 -4.9152 2.0382
-0.6839 -1.8420 0.7385
-0.5336 -1.8908 0.7384
-0.3798 -1.9274 0.7383
-0.2236 -1.9516 0.7383
-0.0660 -1.9632 0.7383
0.0921 -1.9621 0.7383
0.2495 -1.9484 0.7383
0.4054 -1.9222 0.7384
0.5587 -1.8835 0.7385
0.7084 -1.8327 0.7387
2.3546 -4.8831 2.0382
2.7393 -4.6775 2.0382
3.1061 -4.4415 2.0382
3.4527 -4.1768 2.0382
3.2867 -3.3810 1.7738
2.9906 -2.6179 1.4953
2.9280 -2.1734 1.3722
2.8020 -1.7491 1.2432
2.6970 -1.3957 1.1431
2.6072 -1.0933 1.0644
2.5285 -0.8282 1.0019
2.4581 -0.5912 0.9522
2.3939 -0.3754 0.9129
2.3346 -0.1755 0.8822
2.2787 0.0125 0.8588
2.2255 0.1918 0.8420
2.1739 0.3653 0.8311
2.1234 0.5354 0.8258
2.0732 0.7044 0.8259
2.0227 0.8745 0.8313
4.7701 2.5356 2.0382
4.5500 2.9106 2.0382
4.3005 3.2667 2.0382
4.0232 3.6015 2.0382
3.7200 3.9130 2.0382
3.3928 4.1990 2.0382
3.0437 4.4579 2.0382
2.6750 4.6879 2.0382
2.2890 4.8875 2.0382
0.6934 1.8565 0.7485
0.5419 1.9065 0.7486
0.3868 1.9441 0.7487
0.2292 1.9690 0.7487
0.1907 5.3929 2.0382
-0.2438 5.3909 2.0382
-0.2486 1.9666 0.7487
-0.4059 1.9401 0.7486
-0.5606 1.9010 0.7485
-0.7117 1.8496 0.7483
-2.3376 4.8659 2.0382
-2.7217 4.6626 2.0382
-3.0884 4.4291 2.0382
-3.4351 4.1669 2.0382
-3.7597 3.8777 2.0382
-4.0601 3.5633 2.0382
-4.3342 3.2257 2.0382
-4.5805 2.8671 2.0382
-4.7971 2.4899 2.0382
-4.9828 2.0964 2.0382
-5.1362 1.6892 2.0382
-5.2565 1.2709 2.0382
-5.3427 0.8442 2.0382
-5.3944 0.4119 2.0382
-5.4111 -0.0233 2.0382
-5.3928 -0.4585 2.0382
-5.3395 -0.8908 2.0382
-5.2516 -1.3175 2.0382
-5.1296 -1.7359 2.0382
-4.9743 -2.1431 2.0382
-4.7867 -2.5366 2.0382
-4.5680 -2.9137 2.0382
-4.3196 -3.2721 2.0382
-4.0431 -3.6093 2.0382
-3.7402 -3.9232 2.0382
-3.4131 -4.2117 2.0382
-3.0638 -4.4729 2.0382
-2.6945 -4.7052 2.0382
-2.3076 -4.9069 2.0382
-0.6905 -1.8395 0.7385
-0.5403 -1.8889 0.7384
-0.3867 -1.9260 0.7383
-0.2306 -1.9508 0.7383
-0.0730 -1.9629 0.7383
0.0851 -1.9624 0.7383
0.2426 -1.9493 0.7383
0.3985 -1.9236 0.7384
0.5519 -1.8855 0.7385
0.7018 -1.8352 0.7387
2.3372 -4.8915 2.0382
2.7226 -4.6872 2.0382
3.0903 -4.4526 2.0382
3.4378 -4.1891 2.0382
3.2971 -3.4160 1.7859
2.9911 -2.6372 1.5003
2.9342 -2.1943 1.3787
2.8071 -1.7662 1.2482
2.7013 -1.4102 1.1471
2.6109 -1.1058 1.0675
2.5317 -0.8393 1.0044
2.4610 -0.6013 0.9542
2.3967 -0.3846 0.9144
2.3371 -0.1841 0.8834
2.2811 0.0043 0.8597
2.2278 0.1840 0.8426
2.1762 0.3577 0.8315
2.1256 0.5279 0.8259
2.0754 0.6969 0.8257
2.0250 0.8669 0.8309
4.7792 2.5186 2.0382
4.5604 2.8944 2.0382
4.3121 3.2513 2.0382
4.0361 3.5871 2.0382
3.7339 3.8997 2.0382
3.4077 4.1869 2.0382
3.0596 4.4470 2.0382
2.6917 4.6783 2.0382
2.3065 4.8793 2.0382
0.7000 1.8540 0.7485
0.5487 1.9045 0.7486
0.3937 1.9427 0.7487
0.2362 1.9682 0.7487
0.2099 5.3922 2.0382
-0.2245 5.3917 2.0382
-0.2415 1.9675 0.7487
-0.3990 1.9416 0.7486
-0.5539 1.9030 0.7485
-0.7051 1.8521 0.7483
-2.3202 4.8742 2.0382
-2.7051 4.6723 2.0382
-3.0725 4.4401 2.0382
-3.4202 4.1791 2.0382
-3.7458 3.8910 2.0382
-4.0473 3.5777 2.0382
-4.3227 3.2411 2.0382
-4.5702 2.8834 2.0382
-4.7882 2.5070 2.0382
-4.9752 2.1141 2.0382
-5.1301 1.7075 2.0382
-5.2519 1.2896 2.0382
-5.3396 0.8632 2.0382
-5.3928 0.4311 2.0382
-5.4111 -0.0040 2.0382
-5.3944 -0.4392 2.0382
-5.3426 -0.8717 2.0382
-5.2562 -1.2988 2.0382
-5.1357 -1.7176 2.0382
-4.9819 -2.1253 2.0382
-4.7957 -2.5195 2.0382
-4.5783 -2.8974 2.0382
-4.3312 -3.2566 2.0382
-4.0559 -3.5948 2.0382
-3.7542 -3.9098 2.0382
-3.4281 -4.1995 2.0382
-3.0797 -4.4619 2.0382
-2.7112 -4.6955 2.0382
-2.3251 -4.8987 2.0382
-0.6971 -1.8371 0.7385
-0.5471 -1.8869 0.7384
-0.3936 -1.9246 0.7383
2.5219 -0.8063 1.0831
2.4522 -0.5714 1.0302
2.3885 -0.3572 0.9883
2.3295 -0.1585 0.9557
2.2739 0.0286 0.9310
2.2209 0.2074 0.9133
2.1694 0.3805 0.9020
2.1190 0.5504 0.8968
2.0688 0.7194 0.8973
2.0182 0.8896 0.9037
4.3749 2.3656 2.0382
4.1698 2.7094 2.0382
3.9378 3.0356 2.0382
3.6804 3.3421 2.0382
3.3992 3.6269 2.0382
3.0961 3.8882 2.0382
2.7730 4.1243 2.0382
2.4321 4.3336 2.0382
0.7616 1.6568 0.7480
0.6259 1.7129 0.7481
0.4861 1.7579 0.7482
0.3432 1.7915 0.7483
0.1980 1.8134 0.7483
0.0514 1.8234 0.7483
-0.0954 1.8217 0.7483
-0.2417 1.8080 0.7483
-0.3863 1.7826 0.7482
-0.5284 1.7456 0.7481
-0.6671 1.6973 0.7479
-2.1842 4.4646 2.0382
-2.5366 4.2749 2.0382
-2.8726 4.0575 2.0382
-3.1901 3.8137 2.0382
-3.4870 3.5453 2.0382
-3.7614 3.2538 2.0382
-4.0116 2.9411 2.0382
-4.2359 2.6094 2.0382
-4.4328 2.2606 2.0382
-4.6011 1.8971 2.0382
-4.7396 1.5212 2.0382
-4.8475 1.1353 2.0382
-4.9240 0.7419 2.0382
-4.9687 0.3436 2.0382
-4.9812 -0.0571 2.0382
-4.9614 -0.4576 2.0382
-4.9094 -0.8552 2.0382
-4.8256 -1.2475 2.0382
-4.7105 -1.6317 2.0382
-4.5648 -2.0055 2.0382
-4.3895 -2.3665 2.0382
-4.1856 -2.7122 2.0382
-3.9545 -3.0403 2.0382
-3.6978 -3.3489 2.0382
-3.4170 -3.6358 2.0382
-3.1139 -3.8992 2.0382
-2.7906 -4.1373 2.0382
-2.4492 -4.3486 2.0382
-0.7584 -1.6432 0.7390
-0.6238 -1.6986 0.7389
-0.4852 -1.7431 0.7388
-0.3435 -1.7763 0.7387
-0.1995 -1.7981 0.7387
-0.0543 -1.8082 0.7387
0.0912 -1.8067 0.7387
0.2362 -1.7936 0.7387
0.3796 -1.7689 0.7388
0.5207 -1.7328 0.7389
0.6584 -1.6855 0.7391
2.1833 -4.4870 2.0382
2.5367 -4.2965 2.0382
2.8736 -4.0782 2.0382
3.1918 -3.8334 2.0382
3.4892 -3.5639 2.0382
2.9518 -2.5655 1.5985
2.9219 -2.1529 1.4837
2.7970 -1.7322 1.3451
2.6928 -1.3815 1.2376
2.6035 -1.0809 1.1530
2.5252 -0.8173 1.0858
2.4551 -0.5814 1.0323
2.3912 -0.3663 0.9900
2.3321 -0.1670 0.9570
2.2763 0.0205 0.9319
2.2232 0.1996 0.9140
2.1717 0.3729 0.9024
2.1212 0.5429 0.8969
2.0710 0.7119 0.8972
2.0205 0.8820 0.9033
4.3834 2.3500 2.0382
4.1795 2.6945 2.0382
3.9486 3.0216 2.0382
3.6923 3.3290 2.0382
3.4121 3.6148 2.0382
3.1100 3.8771 2.0382
2.7877 4.1143 2.0382
2.4475 4.3249 2.0382
0.7675 1.6541 0.7480
0.6320 1.7107 0.7481
0.4924 1.7561 0.7482
0.3496 1.7902 0.7483
0.2044 1.8126 0.7483
0.0579 1.8232 0.7483
-0.0889 1.8220 0.7483
-0.2352 1.8089 0.7483
-0.3799 1.7840 0.7482
-0.5222 1.7475 0.7481
-0.6610 1.6997 0.7479
-2.1683 4.4723 2.0382
-2.5213 4.2839 2.0382
-2.8580 4.0677 2.0382
-3.1764 3.8251 2.0382
-3.4743 3.5577 2.0382
-3.7498 3.2672 2.0382
-4.0010 2.9554 2.0382
-4.2265 2.6245 2.0382
-4.4247 2.2764 2.0382
-4.5942 1.9135 2.0382
-4.7341 1.5381 2.0382
-4.8434 1.1526 2.0382
-4.9213 0.7595 2.0382
-4.9674 0.3613 2.0382
-4.9813 -0.0393 2.0382
-4.9629 -0.4399 2.0382
-4.9124 -0.8377 2.0382
-4.8300 -1.2302 2.0382
-4.7162 -1.6149 2.0382
-4.5719 -1.9892 2.0382
-4.3978 -2.3508 2.0382
-4.1952 -2.6972 2.0382
-3.9653 -3.0262 2.0382
-3.7097 -3.3357 2.0382
-3.4299 -3.6236 2.0382
-3.1278 -3.8880 2.0382
-2.8054 -4.1273 2.0382
-2.4647 -4.3398 2.0382
-0.7643 -1.6404 0.7390
-0.6299 -1.6964 0.7389
-0.4914 -1.7413 0.7388
-0.3498 -1.7751 0.7387
-0.2059 -1.7973 0.7387
-0.0608 -1.8080 0.7387
0.0848 -1.8071 0.7387
0.2298 -1.7944 0.7387
0.3733 -1.7703 0.7388
0.5145 -1.7347 0.7389
0.6523 -1.6879 0.7391
2.1673 -4.4948 2.0382
2.5214 -4.3056 2.0382
2.8591 -4.0884 2.0382
3.1781 -3.8448 2.0382
3.4765 -3.5763 2.0382
2.9509 -2.5833 1.6030
2.9281 -2.1736 1.4907
2.8020 -1.7492 1.3505
2.6971 -1.3958 1.2418
2.6072 -1.0933 1.1563
2.5285 -0.8283 1.0884
2.4581 -0.5913 1.0344
2.3940 -0.3755 0.9917
2.3346 -0.1756 0.9583
2.2788 0.0124 0.9329
2.2255 0.1918 0.9146
2.1739 0.3653 0.9028
2.1234 0.5354 0.8970
2.0732 0.7044 0.8970
2.0227 0.8744 0.9029
4.3917 2.3343 2.0382
4.1891 2.6796 2.0382
3.9594 3.0075 2.0382
3.7042 3.3158 2.0382
3.4250 3.6026 2.0382
3.1238 3.8660 2.0382
2.8024 4.1044 2.0382
2.4629 4.3162 2.0382
0.7734 1.6513 0.7479
0.6381 1.7084 0.7481
0.4987 1.7544 0.7482
0.3560 1.7889 0.7483
0.2109 1.8119 0.7483
0.0645 1.8230 0.7483
-0.0824 1.8223 0.7483
-0.2287 1.8097 0.7483
-0.3736 1.7854 0.7482
-0.5159 1.7494 0.7481
-0.6549 1.7020 0.7479
-2.1523 4.4800 2.0382
-2.5060 4.2928 2.0382
-2.8435 4.0778 2.0382
-3.1627 3.8364 2.0382
-3.4615 3.5700 2.0382
-3.7381 3.2805 2.0382
-3.9904 2.9697 2.0382
-4.2171 2.6395 2.0382
-4.4165 2.2922 2.0382
-4.5873 1.9299 2.0382
-4.7286 1.5550 2.0382
-4.8392 1.1699 2.0382
-4.9185 0.7770 2.0382
-4.9660 0.3790 2.0382
-4.9814 -0.0216 2.0382
-4.9644 -0.4222 2.0382
-4.9153 -0.8202 2.0382
-4.8343 -1.2130 2.0382
-4.7219 -1.5981 2.0382
-4.5789 -1.9729 2.0382
-4.4062 -2.3351 2.0382
-4.2048 -2.6822 2.0382
-3.9761 -3.0120 2.0382
-3.7215 -3.3224 2.0382
-3.4428 -3.6113 2.0382
-3.1416 -3.8768 2.0382
-2.8201 -4.1172 2.0382
-2.4801 -4.3310 2.0382
-0.7702 -1.6377 0.7391
-0.6359 -1.6941 0.7389
-0.4976 -1.7396 0.7388
-0.3561 -1.7738 0.7387
-0.2124 -1.7966 0.7387
-0.0672 -1.8078 0.7387
0.0783 -1.8074 0.7387
0.2234 -1.7953 0.7387
0.3670 -1.7716 0.7388
0.5083 -1.7365 0.7389
0.6463 -1.6902 0.7390
0.7802 -1.6329 0.7392
2.5060 -4.3146 2.0382
2.8445 -4.0986 2.0382
3.1644 -3.8562 2.0382
3.4637 -3.5887 2.0382
2.9509 -2.6019 1.6080
2.9343 -2.1945 1.4978
2.8071 -1.7664 1.3560
2.7014 -1.4103 1.2461
2.6109 -1.1059 1.1597
2.5318 -0.8394 1.0911
2.4611 -0.6013 1.0366
2.3967 -0.3847 0.9933
2.3371 -0.1841 0.9596
2.2812 0.0043 0.9339
2.2278 0.1840 0.9153
2.1762 0.3577 0.9032
2.1256 0.5279 0.8971
2.0755 0.6969 0.8969
2.0250 0.8668 0.9025
4.4001 2.3187 2.0382
4.1987 2.6647 2.0382
3.9702 2.9933 2.0382
3.7160 3.3026 2.0382
3.4379 3.5904 2.0382
3.1376 3.8549 2.0382
2.8171 4.0944 2.0382
2.4783 4.3074 2.0382
0.7793 1.6485 0.7479
0.6442 1.7061 0.7481
0.5049 1.7526 0.7482
0.3623 1.7877 0.7483
0.2174 1.8111 0.7483
0.0710 1.8228 0.7483
-0.0759 1.8226 0.7483
-0.2223 1.8105 0.7483
-0.3672 1.7867 0.7482
-0.5097 1.7512 0.7481
-0.6489 1.7044 0.7480
-2.1363 4.4877 2.0382
-2.4906 4.3017 2.0382
-2.8289 4.0879 2.0382
-3.1490 3.8476 2.0382
-3.4488 3.5823 2.0382
-3.7263 3.2938 2.0382
-3.9798 2.9839 2.0382
-4.2076 2.6545 2.0382
-4.4082 2.3079 2.0382
-4.5804 1.9462 2.0382
-4.7229 1.5718 2.0382
-4.8350 1.1871 2.0382
-4.9157 0.7946 2.0382
-4.9646 0.3967 2.0382
-4.9814 -0.0038 2.0382
-4.9659 -0.4045 2.0382
-4.9182 -0.8026 2.0382
-4.8386 -1.1957 2.0382
-4.7276 -1.5812 2.0382
-4.5859 -1.9565 2.0382
-4.4144 -2.3193 2.0382
-4.2143 -2.6672 2.0382
-3.9868 -2.9978 2.0382
-3.7333 -3.3091 2.0382
-3.4556 -3.5990 2.0382
-3.1554 -3.8656 2.0382
-2.8347 -4.1071 2.0382
-2.4955 -4.3221 2.0382
-0.7760 -1.6350 0.7391
-0.6420 -1.6918 0.7389
-0.5038 -1.7378 0.7388
-0.3624 -1.7725 0.7387
2.5220 -0.8064 1.1712
2.4522 -0.5715 1.1140
2.3886 -0.3572 1.0687
2.3295 -0.1585 1.0334
2.2740 0.0286 1.0067
2.2209 0.2073 0.9875
2.1695 0.3804 0.9753
2.1190 0.5503 0.9696
2.0688 0.7193 0.9702
2.0182 0.8896 0.9771
4.0465 2.1879 2.0382
3.8568 2.5059 2.0382
3.6422 2.8077 2.0382
3.4042 3.0912 2.0382
3.1441 3.3546 2.0382
2.8638 3.5963 2.0382
2.5649 3.8147 2.0382
2.2496 4.0084 2.0382
0.7041 1.5318 0.7476
0.5787 1.5836 0.7477
0.4495 1.6252 0.7478
0.3173 1.6562 0.7479
0.1830 1.6765 0.7480
0.0476 1.6858 0.7480
-0.0882 1.6841 0.7480
-0.2234 1.6715 0.7479
-0.3572 1.6481 0.7478
-0.4885 1.6139 0.7477
-0.6167 1.5692 0.7476
-0.7409 1.5143 0.7474
-2.3462 3.9540 2.0382
-2.6570 3.7528 2.0382
-2.9506 3.5274 2.0382
-3.2252 3.2790 2.0382
-3.4790 3.0094 2.0382
-3.7104 2.7202 2.0382
-3.9178 2.4133 2.0382
-4.0999 2.0907 2.0382
-4.2555 1.7545 2.0382
-4.3836 1.4068 2.0382
-4.4833 1.0499 2.0382
-4.5540 0.6860 2.0382
-4.5953 0.3176 2.0382
-4.6067 -0.0529 2.0382
-4.5884 -0.4233 2.0382
-4.5403 -0.7910 2.0382
-4.4627 -1.1538 2.0382
-4.3562 -1.5091 2.0382
-4.2214 -1.8548 2.0382
-4.0592 -2.1886 2.0382
-3.8707 -2.5082 2.0382
-3.6570 -2.8117 2.0382
-3.4195 -3.0970 2.0382
-3.1598 -3.3623 2.0382
-2.8796 -3.6058 2.0382
-2.5806 -3.8260 2.0382
-2.2648 -4.0214 2.0382
-0.7017 -1.5202 0.7394
-0.5771 -1.5715 0.7392
-0.4489 -1.6126 0.7391
-0.3178 -1.6434 0.7391
-0.1846 -1.6635 0.7390
-0.0503 -1.6729 0.7390
0.0844 -1.6716 0.7390
0.2185 -1.6594 0.7391
0.3512 -1.6366 0.7392
0.4817 -1.6032 0.7393
0.6091 -1.5594 0.7394
0.7326 -1.5056 0.7395
2.3458 -3.9733 2.0382
2.6573 -3.7714 2.0382
2.9516 -3.5451 2.0382
3.2266 -3.2959 2.0382
2.9489 -2.5631 1.7268
2.9220 -2.1531 1.6044
2.7970 -1.7324 1.4546
2.6928 -1.3816 1.3383
2.6035 -1.0810 1.2467
2.5252 -0.8174 1.1740
2.4552 -0.5814 1.1162
2.3913 -0.3664 1.0705
2.3321 -0.1671 1.0347
2.2764 0.0205 1.0077
2.2232 0.1995 0.9882
2.1717 0.3728 0.9757
2.1212 0.5428 0.9697
2.0710 0.7118 0.9700
2.0205 0.8820 0.9767
4.0543 2.1734 2.0382
3.8657 2.4922 2.0382
3.6523 2.7947 2.0382
3.4152 3.0790 2.0382
3.1561 3.3434 2.0382
2.8766 3.5861 2.0382
2.5786 3.8055 2.0382
2.2639 4.0003 2.0382
0.7096 1.5292 0.7476
0.5843 1.5815 0.7477
0.4553 1.6236 0.7478
0.3232 1.6551 0.7479
0.1890 1.6758 0.7480
0.0536 1.6856 0.7480
-0.0822 1.6844 0.7480
-0.2175 1.6723 0.7479
-0.3513 1.6493 0.7478
-0.4828 1.6156 0.7477
-0.6111 1.5714 0.7476
-0.7355 1.5169 0.7474
-2.3321 3.9623 2.0382
-2.6436 3.7623 2.0382
-2.9380 3.5378 2.0382
-3.2135 3.2905 2.0382
-3.4683 3.0218 2.0382
-3.7006 2.7334 2.0382
-3.9092 2.4274 2.0382
-4.0924 2.1053 2.0382
-4.2492 1.7696 2.0382
-4.3785 1.4224 2.0382
-4.4795 1.0659 2.0382
-4.5515 0.7023 2.0382
-4.5941 0.3340 2.0382
-4.6069 -0.0365 2.0382
-4.5898 -0.4069 2.0382
-4.5430 -0.7748 2.0382
-4.4668 -1.1378 2.0382
-4.3615 -1.4936 2.0382
-4.2280 -1.8397 2.0382
-4.0670 -2.1741 2.0382
-3.8796 -2.4944 2.0382
-3.6670 -2.7986 2.0382
-3.4305 -3.0848 2.0382
-3.1718 -3.3510 2.0382
-2.8924 -3.5955 2.0382
-2.5942 -3.8167 2.0382
-2.2791 -4.0132 2.0382
-0.7071 -1.5177 0.7394
-0.5827 -1.5694 0.7393
-0.4546 -1.6110 0.7392
-0.3236 -1.6422 0.7391
-0.1905 -1.6629 0.7390
-0.0562 -1.6728 0.7390
0.0784 -1.6719 0.7390
0.2126 -1.6602 0.7391
0.3454 -1.6378 0.7392
0.4760 -1.6049 0.7393
0.6035 -1.5615 0.7394
0.7272 -1.5082 0.7395
2.3316 -3.9816 2.0382
2.6439 -3.7809 2.0382
2.9390 -3.5556 2.0382
3.2149 -3.3074 2.0382
2.9497 -2.5823 1.7327
2.9281 -2.1737 1.6120
2.8021 -1.7494 1.4604
2.6971 -1.3959 1.3429
2.6072 -1.0934 1.2504
2.5285 -0.8284 1.1769
2.4581 -0.5914 1.1185
2.3940 -0.3755 1.0723
2.3346 -0.1756 1.0361
2.2788 0.0124 1.0087
2.2255 0.1917 0.9889
2.1740 0.3652 0.9761
2.1234 0.5353 0.9698
2.0733 0.7043 0.9699
2.0227 0.8744 0.9762
4.0620 2.1590 2.0382
3.8746 2.4784 2.0382
3.6622 2.7816 2.0382
3.4262 3.0668 2.0382
3.1680 3.3321 2.0382
2.8894 3.5758 2.0382
2.5921 3.7963 2.0382
2.2781 3.9922 2.0382
0.7150 1.5267 0.7476
0.5900 1.5794 0.7477
0.4610 1.6219 0.7478
0.3291 1.6539 0.7479
0.1950 1.6751 0.7480
0.0596 1.6854 0.7480
-0.0762 1.6847 0.7480
-0.2115 1.6731 0.7479
-0.3454 1.6506 0.7478
-0.4770 1.6173 0.7477
-0.6055 1.5736 0.7476
-0.7301 1.5196 0.7475
-2.3179 3.9706 2.0382
-2.6301 3.7717 2.0382
-2.9253 3.5483 2.0382
-3.2017 3.3019 2.0382
-3.4574 3.0341 2.0382
-3.6908 2.7466 2.0382
-3.9004 2.4412 2.0382
-4.0848 2.1199 2.0382
-4.2428 1.7848 2.0382
-4.3733 1.4380 2.0382
-4.4756 1.0818 2.0382
-4.5489 0.7185 2.0382
-4.5928 0.3504 2.0382
-4.6069 -0.0201 2.0382
-4.5912 -0.3906 2.0382
-4.5457 -0.7586 2.0382
-4.4708 -1.1219 2.0382
-4.3668 -1.4780 2.0382
-4.2345 -1.8246 2.0382
-4.0747 -2.1595 2.0382
-3.8884 -2.4805 2.0382
-3.6769 -2.7855 2.0382
-3.4415 -3.0725 2.0382
-3.1837 -3.3396 2.0382
-2.9052 -3.5851 2.0382
-2.6078 -3.8074 2.0382
-2.2934 -4.0051 2.0382
-0.7125 -1.5151 0.7394
-0.5883 -1.5673 0.7393
-0.4604 -1.6094 0.7392
-0.3295 -1.6411 0.7391
-0.1965 -1.6622 0.7390
-0.0622 -1.6725 0.7390
0.0725 -1.6721 0.7390
0.2067 -1.6609 0.7391
0.3395 -1.6390 0.7392
0.4702 -1.6065 0.7393
0.5979 -1.5637 0.7394
0.7218 -1.5107 0.7395
2.3174 -3.9899 2.0382
2.6304 -3.7903 2.0382
2.9263 -3.5661 2.0382
3.2031 -3.3188 2.0382
2.9519 -2.6029 1.7394
2.9343 -2.1946 1.6197
2.8072 -1.7665 1.4663
2.7014 -1.4104 1.3475
2.6110 -1.1060 1.2540
2.5318 -0.8395 1.1798
2.4611 -0.6014 1.1208
2.3967 -0.3847 1.0741
2.3372 -0.1842 1.0375
2.2812 0.0042 1.0097
2.2278 0.1839 0.9897
2.1762 0.3576 0.9765
2.1257 0.5278 0.9700
2.0755 0.6968 0.9698
2.0250 0.8668 0.9758
4.0697 2.1445 2.0382
3.8835 2.4645 2.0382
3.6722 2.7686 2.0382
3.4371 3.0546 2.0382
3.1799 3.3208 2.0382
2.9021 3.5655 2.0382
2.6057 3.7870 2.0382
2.2924 3.9841 2.0382
0.7205 1.5241 0.7476
0.5956 1.5773 0.7477
0.4668 1.6203 0.7478
0.3350 1.6527 0.7479
0.2010 1.6744 0.7480
0.0656 1.6852 0.7480
-0.0702 1.6850 0.7480
-0.2055 1.6738 0.7479
-0.3395 1.6518 0.7478
-0.4712 1.6190 0.7477
-0.5999 1.5757 0.7476
-0.7246 1.5222 0.7475
-2.3037 3.9788 2.0382
-2.6166 3.7810 2.0382
-2.9127 3.5587 2.0382
-3.1899 3.3133 2.0382
-3.4466 3.0464 2.0382
-3.6810 2.7597 2.0382
-3.8916 2.4551 2.0382
-4.0772 2.1345 2.0382
-4.2364 1.7999 2.0382
-4.3682 1.4536 2.0382
-4.4717 1.0978 2.0382
-4.5463 0.7347 2.0382
-4.5915 0.3668 2.0382
-4.6069 -0.0036 2.0382
-4.5925 -0.3742 2.0382
-4.5484 -0.7424 2.0382
-4.4747 -1.1059 2.0382
-4.3720 -1.4624 2.0382
-4.2409 -1.8095 2.0382
-4.0823 -2.1450 2.0382
-3.8972 -2.4666 2.0382
-3.6868 -2.7723 2.0382
-3.4524 -3.0602 2.0382
-3.1955 -3.3282 2.0382
-2.9179 -3.5747 2.0382
-2.6213 -3.7981 2.0382
-2.3077 -3.9969 2.0382
-0.7179 -1.5126 0.7394
-0.5939 -1.5652 0.7393
-0.4661 -1.6078 0.7392
-0.3353 -1.6399 0.7391
2.5220 -0.8065 1.2615
2.4522 -0.5716 1.1998
2.3886 -0.3573 1.1510
2.3296 -0.1586 1.1130
2.2740 0.0285 1.0842
2.2209 0.2072 1.0636
2.1695 0.3804 1.0504
2.1190 0.5503 1.0443
2.0688 0.7193 1.0449
2.0183 0.8895 1.0524
3.7573 2.0314 2.0382
3.5812 2.3267 2.0382
3.3820 2.6069 2.0382
3.1609 2.8702 2.0382
2.9195 3.1148 2.0382
2.6592 3.3393 2.0382
2.3817 3.5421 2.0382
0.7657 1.3644 0.7472
0.6536 1.4218 0.7473
0.5371 1.4699 0.7474
0.4172 1.5085 0.7475
0.2945 1.5372 0.7476
0.1699 1.5560 0.7476
0.0441 1.5647 0.7476
-0.0819 1.5632 0.7476
-0.2074 1.5515 0.7476
-0.3315 1.5297 0.7475
-0.4535 1.4979 0.7474
-0.5725 1.4565 0.7473
-0.6877 1.4055 0.7472
-2.1786 3.6714 2.0382
-2.4672 3.4846 2.0382
-2.7398 3.2752 2.0382
-2.9948 3.0446 2.0382
-3.2304 2.7942 2.0382
-3.4452 2.5257 2.0382
-3.6378 2.2407 2.0382
-3.8068 1.9411 2.0382
-3.9512 1.6289 2.0382
-4.0701 1.3061 2.0382
-4.1627 0.9747 2.0382
-4.2283 0.6368 2.0382
-4.2665 0.2948 2.0382
-4.2771 -0.0493 2.0382
-4.2600 -0.3931 2.0382
-4.2153 -0.7346 2.0382
-4.1433 -1.0713 2.0382
-4.0444 -1.4012 2.0382
-3.9192 -1.7221 2.0382
-3.7686 -2.0320 2.0382
-3.5935 -2.3287 2.0382
-3.3951 -2.6104 2.0382
-3.1746 -2.8753 2.0382
-2.9335 -3.1215 2.0382
-2.6733 -3.3476 2.0382
-2.3957 -3.5520 2.0382
-0.7631 -1.3551 0.7398
-0.6517 -1.4118 0.7397
-0.5360 -1.4595 0.7395
-0.4169 -1.4977 0.7395
-0.2951 -1.5263 0.7394
-0.1715 -1.5450 0.7394
-0.0467 -1.5538 0.7393
0.0784 -1.5525 0.7394
0.2029 -1.5412 0.7394
0.3262 -1.5200 0.7395
0.4473 -1.4889 0.7396
0.5656 -1.4483 0.7397
0.6803 -1.3983 0.7398
2.1777 -3.6888 2.0382
2.4670 -3.5014 2.0382
2.7402 -3.2913 2.0382
2.9955 -3.0599 2.0382
3.0572 -2.6573 1.9283
2.9220 -2.1532 1.7282
2.7971 -1.7325 1.5668
2.6929 -1.3817 1.4415
2.6036 -1.0811 1.3429
2.5253 -0.8175 1.2646
2.4552 -0.5815 1.2023
2.3913 -0.3664 1.1530
2.3321 -0.1671 1.1145
2.2764 0.0204 1.0853
2.2232 0.1994 1.0643
2.1717 0.3728 1.0509
2.1212 0.5428 1.0444
2.0710 0.7118 1.0447
2.0205 0.8819 1.0519
3.7645 2.0180 2.0382
3.5895 2.3139 2.0382
3.3913 2.5949 2.0382
3.1712 2.8589 2.0382
2.9306 3.1044 2.0382
2.6711 3.3298 2.0382
2.3944 3.5336 2.0382
0.7706 1.3616 0.7472
0.6587 1.4194 0.7473
0.5424 1.4680 0.7474
0.4226 1.5070 0.7475
0.3000 1.5362 0.7476
0.1754 1.5554 0.7476
0.0497 1.5645 0.7476
-0.0763 1.5634 0.7476
-0.2018 1.5522 0.7476
-0.3260 1.5309 0.7475
-0.4481 1.4996 0.7474
-0.5673 1.4585 0.7473
-0.6827 1.4080 0.7472
-2.1655 3.6791 2.0382
-2.4547 3.4933 2.0382
-2.7281 3.2849 2.0382
-2.9839 3.0552 2.0382
-3.2204 2.8057 2.0382
-3.4362 2.5379 2.0382
-3.6297 2.2536 2.0382
-3.7998 1.9547 2.0382
-3.9453 1.6430 2.0382
-4.0654 1.3206 2.0382
-4.1591 0.9895 2.0382
-4.2259 0.6519 2.0382
-4.2654 0.3100 2.0382
-4.2773 -0.0340 2.0382
-4.2614 -0.3779 2.0382
-4.2179 -0.7195 2.0382
-4.1470 -1.0565 2.0382
-4.0493 -1.3868 2.0382
-3.9253 -1.7081 2.0382
-3.7758 -2.0185 2.0382
-3.6018 -2.3159 2.0382
-3.4043 -2.5983 2.0382
-3.1848 -2.8639 2.0382
-2.9446 -3.1110 2.0382
-2.6852 -3.3380 2.0382
-2.4083 -3.5434 2.0382
-0.7680 -1.3523 0.7398
-0.6567 -1.4095 0.7397
-0.5412 -1.4576 0.7396
-0.4222 -1.4962 0.7395
-0.3006 -1.5252 0.7394
-0.1770 -1.5444 0.7394
-0.0522 -1.5536 0.7393
0.0728 -1.5528 0.7394
0.1974 -1.5419 0.7394
0.3208 -1.5211 0.7395
0.4420 -1.4905 0.7396
0.5605 -1.4503 0.7397
0.6753 -1.4007 0.7398
2.1646 -3.6965 2.0382
2.4545 -3.5102 2.0382
2.7284 -3.3011 2.0382
2.9846 -3.0706 2.0382
3.2214 -2.8203 2.0382
2.9282 -2.1739 1.7364
2.8021 -1.7495 1.5731
2.6971 -1.3960 1.4464
2.6073 -1.0935 1.3468
2.5285 -0.8285 1.2677
2.4581 -0.5915 1.2047
2.3940 -0.3756 1.1549
2.3346 -0.1757 1.1160
2.2788 0.0123 1.0864
2.2255 0.1917 1.0651
2.1740 0.3652 1.0513
2.1235 0.5353 1.0445
2.0733 0.7043 1.0446
2.0228 0.8743 1.0514
3.7717 2.0045 2.0382
3.5977 2.3011 2.0382
3.4005 2.5827 2.0382
3.1814 2.8476 2.0382
2.9417 3.0940 2.0382
2.6830 3.3202 2.0382
2.4070 3.5250 2.0382
0.7755 1.3589 0.7472
0.6637 1.4170 0.7473
0.5476 1.4660 0.7474
0.4279 1.5054 0.7475
0.3055 1.5351 0.7476
0.1810 1.5548 0.7476
0.0553 1.5643 0.7476
-0.0707 1.5637 0.7476
-0.1963 1.5529 0.7476
-0.3206 1.5320 0.7475
-0.4428 1.5012 0.7474
-0.5620 1.4605 0.7473
-0.6777 1.4104 0.7472
-2.1524 3.6868 2.0382
-2.4422 3.5021 2.0382
-2.7163 3.2946 2.0382
-2.9729 3.0658 2.0382
-3.2104 2.8171 2.0382
-3.4270 2.5501 2.0382
-3.6216 2.2666 2.0382
-3.7928 1.9682 2.0382
-3.9394 1.6571 2.0382
-4.0606 1.3351 2.0382
-4.1555 1.0043 2.0382
-4.2236 0.6670 2.0382
-4.2642 0.3252 2.0382
-4.2773 -0.0188 2.0382
-4.2627 -0.3627 2.0382
-4.2204 -0.7044 2.0382
-4.1508 -1.0417 2.0382
-4.0542 -1.3723 2.0382
-3.9313 -1.6941 2.0382
-3.7829 -2.0050 2.0382
-3.6100 -2.3030 2.0382
-3.4136 -2.5861 2.0382
-3.1950 -2.8525 2.0382
-2.9556 -3.1005 2.0382
-2.6971 -3.3284 2.0382
-2.4210 -3.5348 2.0382
-0.7728 -1.3496 0.7398
-0.6617 -1.4072 0.7397
-0.5464 -1.4557 0.7396
-0.4276 -1.4947 0.7395
-0.3060 -1.5242 0.7394
-0.1825 -1.5438 0.7394
-0.0578 -1.5534 0.7393
0.0673 -1.5530 0.7394
0.1919 -1.5426 0.7394
0.3153 -1.5223 0.7395
0.4367 -1.4921 0.7396
0.5553 -1.4523 0.7397
0.6703 -1.4031 0.7398
0.7811 -1.3448 0.7400
2.4420 -3.5189 2.0382
2.7167 -3.3108 2.0382
2.9737 -3.0813 2.0382
3.2114 -2.8318 2.0382
2.9344 -2.1948 1.7447
2.8072 -1.7666 1.5794
2.7014 -1.4105 1.4514
2.6110 -1.1061 1.3507
2.5318 -0.8396 1.2708
2.4611 -0.6015 1.2072
2.3968 -0.3848 1.1569
2.3372 -0.1843 1.1175
2.2812 0.0042 1.0875
2.2278 0.1838 1.0659
2.1762 0.3576 1.0518
2.1257 0.5278 1.0447
2.0755 0.6968 1.0444
2.0250 0.8667 1.0510
3.7788 1.9911 2.0382
3.6059 2.2883 2.0382
3.4098 2.5706 2.0382
3.1915 2.8362 2.0382
2.9527 3.0834 2.0382
2.6948 3.3107 2.0382
2.4195 3.5164 2.0382
0.7803 1.3561 0.7472
0.6688 1.4147 0.7473
0.5528 1.4640 0.7474
0.4333 1.5039 0.7475
0.3109 1.5340 0.7476
0.1865 1.5541 0.7476
0.0609 1.5641 0.7476
-0.0652 1.5639 0.7476
-0.1908 1.5536 0.7476
-0.3151 1.5332 0.7475
-0.4374 1.5027 0.7474
-0.5568 1.4625 0.7473
-0.6726 1.4129 0.7472
-2.1392 3.6944 2.0382
-2.4297 3.5107 2.0382
-2.7046 3.3043 2.0382
-2.9620 3.0764 2.0382
-3.2003 2.8286 2.0382
-3.4179 2.5623 2.0382
-3.6135 2.2795 2.0382
-3.7857 1.9817 2.0382
-3.9335 1.6711 2.0382
-4.0558 1.3495 2.0382
-4.1519 1.0191 2.0382
-4.2211 0.6821 2.0382
-4.2630 0.3404 2.0382
-4.2773 -0.0035 2.0382
-4.2639 -0.3475 2.0382
-4.2229 -0.6894 2.0382
-4.1544 -1.0269 2.0382
-4.0590 -1.3578 2.0382
-3.9373 -1.6801 2.0382
-3.7900 -1.9915 2.0382
-3.6181 -2.2901 2.0382
-3.4227 -2.5739 2.0382
-3.2051 -2.8411 2.0382
-2.9666 -3.0899 2.0382
-2.7089 -3.3188 2.0382
-2.4335 -3.5261 2.0382
-0.7776 -1.3468 0.7398
-0.6667 -1.4048 0.7397
-0.5516 -1.4537 0.7396
-0.4329 -1.4932 0.7395
-0.3114 -1.5231 0.7394
2.5220 -0.8066 1.3542
2.4523 -0.5717 1.2880
2.3886 -0.3574 1.2356
2.3296 -0.1587 1.1948
2.2740 0.0284 1.1639
2.2209 0.2072 1.1417
2.1695 0.3803 1.1276
2.1190 0.5502 1.1210
2.0688 0.7192 1.1216
2.0183 0.8895 1.1296
3.5003 1.8923 2.0382
3.3363 2.1675 2.0382
3.1507 2.4286 2.0382
2.9448 2.6738 2.0382
2.7199 2.9018 2.0382
2.4774 3.1109 2.0382
2.2189 3.2999 2.0382
0.7132 1.2707 0.7469
0.6087 1.3241 0.7471
0.5002 1.3689 0.7472
0.3885 1.4048 0.7473
0.2743 1.4316 0.7473
0.1582 1.4491 0.7473
0.0411 1.4571 0.7474
-0.0763 1.4557 0.7473
-0.1931 1.4448 0.7473
-0.3087 1.4246 0.7472
-0.4223 1.3950 0.7471
-0.5331 1.3564 0.7470
-0.6405 1.3090 0.7469
-0.7436 1.2531 0.7467
-2.2985 3.2462 2.0382
-2.5525 3.0511 2.0382
-2.7900 2.8363 2.0382
-3.0095 2.6030 2.0382
-3.2096 2.3528 2.0382
-3.3889 2.0873 2.0382
-3.5464 1.8082 2.0382
-3.6809 1.5174 2.0382
-3.7916 1.2166 2.0382
-3.8778 0.9079 2.0382
-3.9389 0.5931 2.0382
-3.9745 0.2745 2.0382
-3.9843 -0.0460 2.0382
-3.9683 -0.3663 2.0382
-3.9267 -0.6844 2.0382
-3.8595 -0.9980 2.0382
-3.7673 -1.3053 2.0382
-3.6507 -1.6043 2.0382
-3.5104 -1.8929 2.0382
-3.3473 -2.1693 2.0382
-3.1624 -2.4316 2.0382
-2.9570 -2.6783 2.0382
-2.7324 -2.9077 2.0382
-2.4900 -3.1182 2.0382
-2.2315 -3.3086 2.0382
-0.7111 -1.2626 0.7401
-0.6072 -1.3156 0.7399
-0.4994 -1.3600 0.7398
-0.3885 -1.3956 0.7397
-0.2750 -1.4222 0.7397
-0.1598 -1.4397 0.7396
-0.0435 -1.4478 0.7396
0.0730 -1.4466 0.7396
0.1891 -1.4361 0.7397
0.3039 -1.4163 0.7397
0.4168 -1.3874 0.7398
0.5271 -1.3495 0.7399
0.6339 -1.3029 0.7401
0.7367 -1.2479 0.7402
2.2979 -3.2615 2.0382
2.5524 -3.0659 2.0382
2.7903 -2.8504 2.0382
3.0100 -2.6165 2.0382
3.2102 -2.3657 2.0382
2.7971 -1.7326 1.6820
2.6929 -1.3818 1.5475
2.6036 -1.0812 1.4416
2.5253 -0.8175 1.3575
2.4552 -0.5816 1.2907
2.3913 -0.3665 1.2377
2.3321 -0.1672 1.1964
2.2764 0.0203 1.1651
2.2232 0.1994 1.1425
2.1718 0.3727 1.1281
2.1213 0.5427 1.1211
2.0711 0.7117 1.1215
2.0205 0.8819 1.1291
3.5070 1.8799 2.0382
3.3440 2.1556 2.0382
3.1594 2.4173 2.0382
2.9543 2.6633 2.0382
2.7302 2.8921 2.0382
2.4885 3.1020 2.0382
2.2307 3.2919 2.0382
0.7177 1.2681 0.7469
0.6134 1.3219 0.7471
0.5051 1.3671 0.7472
0.3935 1.4034 0.7472
0.2794 1.4306 0.7473
0.1634 1.4485 0.7473
0.0463 1.4570 0.7474
-0.0711 1.4560 0.7473
-0.1880 1.4455 0.7473
-0.3037 1.4256 0.7472
-0.4173 1.3965 0.7472
-0.5283 1.3583 0.7470
-0.6358 1.3113 0.7469
-0.7391 1.2557 0.7467
-2.2869 3.2544 2.0382
-2.5416 3.0602 2.0382
-2.7798 2.8462 2.0382
-3.0002 2.6137 2.0382
-3.2011 2.3642 2.0382
-3.3814 2.0994 2.0382
-3.5399 1.8209 2.0382
-3.6754 1.5305 2.0382
-3.7872 1.2301 2.0382
-3.8745 0.9217 2.0382
-3.9367 0.6072 2.0382
-3.9734 0.2887 2.0382
-3.9844 -0.0318 2.0382
-3.9696 -0.3522 2.0382
-3.9290 -0.6703 2.0382
-3.8630 -0.9843 2.0382
-3.7719 -1.2919 2.0382
-3.6564 -1.5912 2.0382
-3.5171 -1.8803 2.0382
-3.3550 -2.1573 2.0382
-3.1711 -2.4203 2.0382
-2.9665 -2.6677 2.0382
-2.7427 -2.8979 2.0382
-2.5011 -3.1093 2.0382
-2.2433 -3.3006 2.0382
-0.7156 -1.2601 0.7401
-0.6119 -1.3134 0.7399
-0.5043 -1.3582 0.7398
-0.3934 -1.3942 0.7397
-0.2801 -1.4212 0.7397
-0.1649 -1.4391 0.7396
-0.0487 -1.4477 0.7396
0.0679 -1.4469 0.7396
0.1840 -1.4368 0.7397
0.2989 -1.4174 0.7397
0.4119 -1.3889 0.7398
0.5222 -1.3514 0.7399
0.6292 -1.3051 0.7401
0.7322 -1.2505 0.7402
2.2863 -3.2697 2.0382
2.5414 -3.0750 2.0382
2.7801 -2.8603 2.0382
3.0007 -2.6272 2.0382
3.2018 -2.3771 2.0382
2.8022 -1.7496 1.6888
2.6972 -1.3962 1.5528
2.6073 -1.0936 1.4458
2.5286 -0.8286 1.3609
2.4582 -0.5916 1.2933
2.3941 -0.3757 1.2398
2.3347 -0.1758 1.1980
2.2788 0.0122 1.1663
2.2256 0.1916 1.1434
2.1740 0.3651 1.1285
2.1235 0.5352 1.1213
2.0733 0.7042 1.1213
2.0228 0.8743 1.1286
3.5137 1.8673 2.0382
3.3517 2.1436 2.0382
3.1680 2.4060 2.0382
2.9638 2.6528 2.0382
2.7405 2.8823 2.0382
2.4995 3.0932 2.0382
2.2424 3.2839 2.0382
0.7222 1.2655 0.7469
0.6181 1.3197 0.7470
0.5100 1.3653 0.7472
0.3985 1.4020 0.7472
0.2845 1.4296 0.7473
0.1685 1.4479 0.7473
0.0515 1.4568 0.7474
-0.0659 1.4562 0.7473
-0.1828 1.4462 0.7473
-0.2986 1.4267 0.7472
-0.4124 1.3980 0.7472
-0.5234 1.3602 0.7470
-0.6311 1.3135 0.7469
-0.7347 1.2584 0.7468
-2.2753 3.2625 2.0382
-2.5306 3.0692 2.0382
-2.7697 2.8561 2.0382
-2.9908 2.6244 2.0382
-3.1927 2.3756 2.0382
-3.3739 2.1114 2.0382
-3.5333 1.8335 2.0382
-3.6699 1.5436 2.0382
-3.7828 1.2436 2.0382
-3.8711 0.9355 2.0382
-3.9345 0.6212 2.0382
-3.9723 0.3028 2.0382
-3.9845 -0.0176 2.0382
-3.9708 -0.3380 2.0382
-3.9314 -0.6563 2.0382
-3.8665 -0.9705 2.0382
-3.7765 -1.2784 2.0382
-3.6620 -1.5782 2.0382
-3.5238 -1.8677 2.0382
-3.3626 -2.1453 2.0382
-3.1797 -2.4090 2.0382
-2.9760 -2.6571 2.0382
-2.7531 -2.8881 2.0382
-2.5122 -3.1004 2.0382
-2.2550 -3.2926 2.0382
-0.7201 -1.2575 0.7401
-0.6166 -1.3112 0.7399
-0.5091 -1.3564 0.7398
-0.3984 -1.3928 0.7397
-0.2851 -1.4202 0.7397
-0.1700 -1.4385 0.7396
-0.0538 -1.4475 0.7396
0.0627 -1.4471 0.7396
0.1788 -1.4374 0.7397
0.2938 -1.4185 0.7397
0.4069 -1.3903 0.7398
0.5174 -1.3532 0.7399
0.6246 -1.3074 0.7401
0.7278 -1.2531 0.7402
2.2746 -3.2778 2.0382
2.5305 -3.0840 2.0382
2.7699 -2.8702 2.0382
2.9913 -2.6379 2.0382
3.1933 -2.3885 2.0382
2.8073 -1.7667 1.6956
2.7015 -1.4106 1.5582
2.6110 -1.1062 1.4500
2.5319 -0.8397 1.3642
2.4612 -0.6016 1.2960
2.3968 -0.3849 1.2419
2.3372 -0.1844 1.1996
2.2812 0.0041 1.1675
2.2279 0.1838 1.1442
2.1763 0.3575 1.1290
2.1257 0.5277 1.1214
2.0755 0.6967 1.1211
2.0250 0.8667 1.1281
3.5204 1.8548 2.0382
3.3593 2.1317 2.0382
3.1766 2.3947 2.0382
2.9733 2.6422 2.0382
2.7508 2.8725 2.0382
2.5106 3.0842 2.0382
2.2541 3.2759 2.0382
0.7267 1.2629 0.7469
0.6228 1.3175 0.7470
0.5149 1.3634 0.7472
0.4035 1.4006 0.7472
0.2896 1.4286 0.7473
0.1737 1.4473 0.7473
0.0567 1.4566 0.7474
-0.0607 1.4565 0.7473
-0.1777 1.4468 0.7473
-0.2935 1.4278 0.7472
-0.4074 1.3995 0.7472
-0.5186 1.3621 0.7471
-0.6264 1.3158 0.7469
-0.7302 1.2610 0.7468
-2.2636 3.2706 2.0382
-2.5196 3.0783 2.0382
-2.7594 2.8659 2.0382
-2.9814 2.6350 2.0382
-3.1841 2.3870 2.0382
-3.3663 2.1234 2.0382
-3.5267 1.8461 2.0382
-3.6643 1.5566 2.0382
-3.7783 1.2571 2.0382
-3.8677 0.9493 2.0382
-3.9322 0.6353 2.0382
-3.9712 0.3170 2.0382
-3.9845 -0.0034 2.0382
-3.9720 -0.3238 2.0382
-3.9337 -0.6423 2.0382
-3.8699 -0.9567 2.0382
-3.7810 -1.2649 2.0382
-3.6676 -1.5651 2.0382
-3.5304 -1.8552 2.0382
-3.3702 -2.1333 2.0382
-3.1882 -2.3976 2.0382
-2.9855 -2.6465 2.0382
-2.7633 -2.8782 2.0382
-2.5232 -3.0914 2.0382
-2.2667 -3.2845 2.0382
-0.7246 -1.2550 0.7401
-0.6212 -1.3090 0.7399
-0.5140 -1.3546 0.7398
-0.4034 -1.3914 0.7397
-0.2902 -1.4192 0.7397
2.5221 -0.8067 1.4497
2.4523 -0.5717 1.3788
2.3886 -0.3575 1.3227
2.3296 -0.1588 1.2790
2.2740 0.0284 1.2459
2.2210 0.2071 1.2222
2.1695 0.3802 1.2070
2.1191 0.5502 1.1999
2.0689 0.7192 1.2006
2.0183 0.8894 1.2092
3.2701 1.7678 2.0382
3.1169 2.0249 2.0382
2.9435 2.2688 2.0382
2.7512 2.4979 2.0382
2.5411 2.7109 2.0382
2.3145 2.9063 2.0382
0.7593 1.1292 0.7466
0.6661 1.1867 0.7467
0.5685 1.2366 0.7468
0.4672 1.2785 0.7469
0.3629 1.3120 0.7470
0.2561 1.3370 0.7471
0.1477 1.3533 0.7471
0.0384 1.3609 0.7471
-0.0712 1.3595 0.7471
-0.1804 1.3494 0.7471
-0.2884 1.3304 0.7470
-0.3944 1.3029 0.7469
-0.4979 1.2668 0.7468
-0.5982 1.2225 0.7467
-0.6945 1.1703 0.7465
-2.1474 3.0327 2.0382
-2.3847 2.8504 2.0382
-2.6066 2.6497 2.0382
-2.8116 2.4317 2.0382
-2.9985 2.1979 2.0382
-3.1660 1.9499 2.0382
-3.3131 1.6892 2.0382
-3.4387 1.4174 2.0382
-3.5421 1.1364 2.0382
-3.6226 0.8480 2.0382
-3.6796 0.5540 2.0382
-3.7129 0.2563 2.0382
-3.7220 -0.0431 2.0382
-3.7071 -0.3423 2.0382
-3.6681 -0.6394 2.0382
-3.6054 -0.9324 2.0382
-3.5192 -1.2195 2.0382
-3.4102 -1.4987 2.0382
-3.2791 -1.7683 2.0382
-3.1268 -2.0264 2.0382
-2.9541 -2.2715 2.0382
-2.7622 -2.5019 2.0382
-2.5524 -2.7162 2.0382
-2.3260 -2.9128 2.0382
-0.7572 -1.1227 0.7404
-0.6644 -1.1798 0.7403
-0.5674 -1.2293 0.7402
-0.4667 -1.2708 0.7401
-0.3630 -1.3041 0.7400
-0.2570 -1.3290 0.7399
-0.1493 -1.3453 0.7399
-0.0407 -1.3529 0.7399
0.0682 -1.3518 0.7399
0.1767 -1.3420 0.7399
0.2840 -1.3235 0.7400
0.3895 -1.2964 0.7401
0.4925 -1.2610 0.7402
0.5923 -1.2174 0.7403
0.6883 -1.1660 0.7404
0.7799 -1.1070 0.7406
2.3842 -2.8640 2.0382
2.6064 -2.6627 2.0382
2.8117 -2.4442 2.0382
2.9987 -2.2099 2.0382
2.7972 -1.7328 1.8006
2.6930 -1.3819 1.6566
2.6037 -1.0813 1.5433
2.5253 -0.8176 1.4532
2.4552 -0.5817 1.3816
2.3914 -0.3666 1.3249
2.3322 -0.1673 1.2807
2.2765 0.0203 1.2472
2.2233 0.1993 1.2230
2.1718 0.3726 1.2075
2.1213 0.5427 1.2001
2.0711 0.7117 1.2004
2.0206 0.8818 1.2086
3.2764 1.7561 2.0382
3.1241 2.0137 2.0382
2.9516 2.2583 2.0382
2.7601 2.4881 2.0382
2.5507 2.7018 2.0382
2.3249 2.8980 2.0382
0.7633 1.1264 0.7465
0.6703 1.1843 0.7467
0.5729 1.2346 0.7468
0.4718 1.2768 0.7469
0.3675 1.3107 0.7470
0.2609 1.3361 0.7471
0.1526 1.3528 0.7471
0.0432 1.3607 0.7471
-0.0664 1.3598 0.7471
-0.1756 1.3500 0.7471
-0.2836 1.3315 0.7470
-0.3898 1.3043 0.7469
-0.4934 1.2686 0.7468
-0.5938 1.2247 0.7467
-0.6904 1.1728 0.7465
-2.1366 3.0403 2.0382
-2.3745 2.8589 2.0382
-2.5971 2.6589 2.0382
-2.8029 2.4417 2.0382
-2.9906 2.2086 2.0382
-3.1590 1.9612 2.0382
-3.3070 1.7010 2.0382
-3.4336 1.4297 2.0382
-3.5380 1.1490 2.0382
-3.6195 0.8609 2.0382
-3.6776 0.5671 2.0382
-3.7119 0.2696 2.0382
-3.7221 -0.0298 2.0382
-3.7083 -0.3291 2.0382
-3.6703 -0.6263 2.0382
-3.6086 -0.9196 2.0382
-3.5235 -1.2069 2.0382
-3.4156 -1.4865 2.0382
-3.2854 -1.7565 2.0382
-3.1339 -2.0153 2.0382
-2.9621 -2.2610 2.0382
-2.7711 -2.4921 2.0382
-2.5620 -2.7071 2.0382
-2.3363 -2.9045 2.0382
-0.7612 -1.1200 0.7404
-0.6686 -1.1774 0.7403
-0.5717 -1.2272 0.7402
-0.4712 -1.2691 0.7401
-0.3676 -1.3028 0.7400
-0.2617 -1.3280 0.7399
-0.1541 -1.3447 0.7399
-0.0455 -1.3527 0.7399
0.0634 -1.3520 0.7399
0.1719 -1.3426 0.7399
0.2793 -1.3245 0.7400
0.3848 -1.2978 0.7401
0.4880 -1.2627 0.7402
0.5879 -1.2195 0.7403
0.6842 -1.1685 0.7404
0.7760 -1.1098 0.7406
2.3740 -2.8725 2.0382
2.5969 -2.6720 2.0382
2.8030 -2.4542 2.0382
2.9909 -2.2206 2.0382
2.8022 -1.7498 1.8079
2.6972 -1.3963 1.6623
2.6074 -1.0937 1.5477
2.5286 -0.8287 1.4568
2.4582 -0.5916 1.3845
2.3941 -0.3758 1.3272
2.3347 -0.1758 1.2824
2.2789 0.0122 1.2484
2.2256 0.1915 1.2239
2.1740 0.3651 1.2080
2.1235 0.5352 1.2002
2.0733 0.7042 1.2003
2.0228 0.8742 1.2081
3.2827 1.7444 2.0382
3.1313 2.0026 2.0382
2.9597 2.2477 2.0382
2.7690 2.4783 2.0382
2.5604 2.6927 2.0382
2.3352 2.8897 2.0382
0.7673 1.1237 0.7465
0.6745 1.1819 0.7467
0.5773 1.2325 0.7468
0.4763 1.2751 0.7469
0.3722 1.3094 0.7470
0.2657 1.3352 0.7471
0.1574 1.3523 0.7471
0.0481 1.3606 0.7471
-0.0615 1.3600 0.7471
-0.1708 1.3506 0.7471
-0.2789 1.3325 0.7470
-0.3851 1.3056 0.7469
-0.4889 1.2703 0.7468
-0.5895 1.2268 0.7467
-0.6862 1.1753 0.7465
-2.1257 3.0479 2.0382
-2.3642 2.8674 2.0382
-2.5875 2.6682 2.0382
-2.7941 2.4517 2.0382
-2.9827 2.2193 2.0382
-3.1520 1.9724 2.0382
-3.3009 1.7128 2.0382
-3.4285 1.4419 2.0382
-3.5339 1.1617 2.0382
-3.6164 0.8738 2.0382
-3.6755 0.5802 2.0382
-3.7109 0.2828 2.0382
-3.7222 -0.0165 2.0382
-3.7094 -0.3159 2.0382
-3.6725 -0.6132 2.0382
-3.6119 -0.9067 2.0382
-3.5278 -1.1943 2.0382
-3.4208 -1.4743 2.0382
-3.2916 -1.7448 2.0382
-3.1411 -2.0041 2.0382
-2.9702 -2.2504 2.0382
-2.7799 -2.4822 2.0382
-2.5716 -2.6979 2.0382
-2.3466 -2.8962 2.0382
-0.7652 -1.1173 0.7404
-0.6728 -1.1751 0.7403
-0.5761 -1.2252 0.7402
-0.4757 -1.2674 0.7401
-0.3723 -1.3015 0.7400
-0.2664 -1.3271 0.7399
-0.1589 -1.3442 0.7399
-0.0503 -1.3526 0.7399
0.0586 -1.3522 0.7399
0.1671 -1.3432 0.7399
0.2745 -1.3254 0.7400
0.3802 -1.2992 0.7401
0.4835 -1.2645 0.7402
0.5836 -1.2216 0.7403
0.6800 -1.1709 0.7404
0.7720 -1.1126 0.7406
2.3637 -2.8809 2.0382
2.5874 -2.6813 2.0382
2.7942 -2.4642 2.0382
2.9829 -2.2313 2.0382
2.8073 -1.7669 1.8152
2.7015 -1.4107 1.6680
2.6111 -1.1063 1.5523
2.5319 -0.8398 1.4604
2.4612 -0.6017 1.3873
2.3968 -0.3850 1.3294
2.3372 -0.1844 1.2842
2.2813 0.0040 1.2497
2.2279 0.1837 1.2248
2.1763 0.3575 1.2086
2.1257 0.5277 1.2004
2.0755 0.6967 1.2001
2.0251 0.8666 1.2076
3.2889 1.7327 2.0382
3.1384 1.9914 2.0382
2.9677 2.2372 2.0382
2.7778 2.4684 2.0382
2.5700 2.6836 2.0382
2.3455 2.8814 2.0382
0.7713 1.1209 0.7465
0.6787 1.1795 0.7467
0.5817 1.2304 0.7468
0.4809 1.2734 0.7469
0.3769 1.3080 0.7470
0.2704 1.3342 0.7471
0.1622 1.3517 0.7471
0.0529 1.3604 0.7471
-0.0567 1.3602 0.7471
-0.1659 1.3512 0.7471
-0.2741 1.3335 0.7470
-0.3805 1.3070 0.7469
-0.4844 1.2721 0.7468
-0.5851 1.2289 0.7467
-0.6820 1.1777 0.7465
-0.7744 1.1189 0.7464
-2.3540 2.8757 2.0382
-2.5780 2.6774 2.0382
-2.7854 2.4616 2.0382
-2.9747 2.2299 2.0382
-3.1449 1.9836 2.0382
-3.2947 1.7245 2.0382
-3.4233 1.4541 2.0382
-3.5297 1.1743 2.0382
-3.6132 0.8867 2.0382
-3.6734 0.5933 2.0382
-3.7098 0.2960 2.0382
-3.7222 -0.0033 2.0382
-3.7105 -0.3026 2.0382
-3.6747 -0.6001 2.0382
-3.6151 -0.8938 2.0382
-3.5320 -1.1817 2.0382
-3.4260 -1.4621 2.0382
-3.2978 -1.7331 2.0382
-3.1482 -1.9928 2.0382
-2.9782 -2.2398 2.0382
-2.7888 -2.4722 2.0382
-2.5812 -2.6887 2.0382
-2.3570 -2.8878 2.0382
-0.7692 -1.1146 0.7404
-0.6770 -1.1727 0.7403
-0.5805 -1.2231 0.7402
-0.4802 -1.2657 0.7401
-0.3769 -1.3001 0.7400
-0.2712 -1.3262 0.7399
2.5221 -0.8068 1.5482
2.4523 -0.5718 1.4725
2.3887 -0.3575 1.4125
2.3297 -0.1588 1.3658
2.2741 0.0283 1.3305
2.2210 0.2070 1.3051
2.1696 0.3802 1.2889
2.1191 0.5501 1.2813
2.0689 0.7191 1.2821
2.0183 0.8893 1.2912
3.0624 1.6554 2.0382
2.9189 1.8962 2.0382
2.7566 2.1246 2.0382
2.5765 2.3392 2.0382
2.3797 2.5387 2.0382
2.1676 2.7217 2.0382
0.7109 1.0572 0.7464
0.6236 1.1111 0.7465
0.5323 1.1577 0.7466
0.4374 1.1969 0.7467
0.3397 1.2283 0.7468
0.2398 1.2517 0.7468
0.1383 1.2670 0.7469
0.0359 1.2741 0.7469
-0.0667 1.2728 0.7469
-0.1689 1.2633 0.7468
-0.2700 1.2456 0.7468
-0.3693 1.2198 0.7467
-0.4662 1.1860 0.7466
-0.5601 1.1446 0.7465
-0.6503 1.0957 0.7463
-0.7362 1.0397 0.7462
-2.2333 2.6693 2.0382
-2.4410 2.4813 2.0382
-2.6330 2.2771 2.0382
-2.8080 2.0582 2.0382
-2.9649 1.8259 2.0382
-3.1026 1.5817 2.0382
-3.2202 1.3273 2.0382
-3.3170 1.0641 2.0382
-3.3924 0.7940 2.0382
