ply
format ascii 1.0
element vertex 2156
property float32 x
property float32 y
property float32 z
end_header
2.5892 -4.3640 0.5447
2.9289 -4.1382 0.5450
3.2496 -3.8866 0.5454
3.5494 -3.6109 0.5458
13.4522 -11.6455 1.9207
12.5240 7.1521 1.9880
11.8756 8.1131 1.9825
11.1467 9.0104 1.9754
10.3441 9.8369 1.9670
9.4755 10.5869 1.9573
8.5489 11.2550 1.9464
7.5728 11.8373 1.9343
6.5558 12.3304 1.9213
5.5067 12.7322 1.9074
3.2547 9.5723 1.3892
3.3618 13.3163 1.8857
2.2825 13.5543 1.8857
1.2610 14.5633 2.0037
0.0881 14.8822 2.0381
-1.1093 14.8555 2.0381
-2.3020 14.7332 2.0381
-3.4822 14.5157 2.0381
-4.6424 14.2041 2.0381
-5.7752 13.8002 2.0381
-6.8731 13.3062 2.0381
-7.9290 12.7251 2.0381
-8.9359 12.0603 2.0381
-9.8870 11.3158 2.0381
-10.7761 10.4962 2.0381
-11.5972 9.6067 2.0381
-12.3445 8.6529 2.0381
-13.0130 7.6408 2.0381
-13.5981 6.5769 2.0381
-14.0955 5.4682 2.0381
-14.5019 4.3217 2.0381
-14.8142 3.1451 2.0381
-15.0302 1.9462 2.0381
-15.1482 0.7329 2.0381
-15.1672 -0.4868 2.0381
-15.0869 -1.7046 2.0381
-14.9077 -2.9125 2.0381
-14.6307 -4.1022 2.0381
-14.2577 -5.2657 2.0381
-13.7910 -6.3953 2.0381
-13.2338 -7.4832 2.0381
-12.5897 -8.5221 2.0381
-11.8633 -9.5051 2.0381
-11.0592 -10.4255 2.0381
-10.1831 -11.2771 2.0381
-9.2409 -12.0543 2.0381
-8.2389 -12.7522 2.0381
-7.1839 -13.3658 2.0381
-6.0832 -13.8913 2.0381
-4.9441 -14.3253 2.0381
-3.7743 -14.6652 2.0381
-2.5818 -14.9089 2.0381
-1.3744 -15.0549 2.0381
-0.1602 -15.1026 2.0381
1.0528 -15.0520 2.0381
2.2565 -14.9036 2.0381
3.4431 -14.6586 2.0381
4.6048 -14.3191 2.0381
1.7003 -4.1180 0.6044
1.8323 -3.5892 0.5473
2.1131 -3.4276 0.5474
2.3801 -3.2445 0.5477
2.6317 -3.0410 0.5480
2.8663 -2.8185 0.5483
3.0826 -2.5782 0.5488
3.2793 -2.3218 0.5492
12.0624 -7.1592 1.9193
10.4594 -5.1194 1.5949
13.2022 -5.1925 1.9448
13.6429 -4.1347 1.9560
13.9905 -3.0377 1.9659
14.2411 -1.9104 1.9745
14.3913 -0.7618 1.9817
8.5355 0.2354 1.1748
8.6443 0.9375 1.1969
14.2236 2.7133 1.9942
13.9615 3.8484 1.9952
13.5991 4.9553 1.9945
13.1397 6.0245 1.9923
12.5877 7.0469 1.9885
11.9482 8.0142 1.9831
11.2275 8.9186 1.9763
10.4324 9.7529 1.9680
9.5704 10.5112 1.9584
8.6496 11.1883 1.9476
7.6783 11.7798 1.9357
6.6652 12.2825 1.9227
5.6191 12.6940 1.9089
4.5487 13.0131 1.8943
3.4748 13.2861 1.8857
2.3977 13.5332 1.8857
1.3571 14.2580 1.9634
0.2149 14.8795 2.0381
-0.9826 14.8629 2.0381
-2.1761 14.7506 2.0381
-3.3580 14.5432 2.0381
-4.5207 14.2415 2.0381
-5.6567 13.8473 2.0381
-6.7587 13.3627 2.0381
-7.8193 12.7907 2.0381
-8.8317 12.1345 2.0381
-9.7891 11.3983 2.0381
-10.6851 10.5864 2.0381
-11.5135 9.7039 2.0381
-12.2690 8.7568 2.0381
-12.9461 7.7506 2.0381
-13.5402 6.6919 2.0381
-14.0471 5.5875 2.0381
-14.4633 4.4447 2.0381
-14.7857 3.2710 2.0381
-15.0120 2.0740 2.0381
-15.1404 0.8619 2.0381
-15.1699 -0.3575 2.0381
-15.1001 -1.5760 2.0381
-14.9314 -2.7852 2.0381
-14.6647 -3.9773 2.0381
-14.3017 -5.1440 2.0381
-13.8448 -6.2775 2.0381
-13.2970 -7.3702 2.0381
-12.6619 -8.4146 2.0381
-11.9440 -9.4038 2.0381
-11.1479 -10.3311 2.0381
-10.2792 -11.1904 2.0381
-9.3436 -11.9758 2.0381
-8.3476 -12.6822 2.0381
-7.2980 -13.3049 2.0381
-6.2017 -13.8399 2.0381
-5.0663 -14.2838 2.0381
-3.8995 -14.6338 2.0381
-2.7089 -14.8877 2.0381
-1.5027 -15.0441 2.0381
-0.2889 -15.1023 2.0381
0.9246 -15.0620 2.0381
2.1297 -14.9239 2.0381
3.3185 -14.6891 2.0381
4.4832 -14.3595 2.0381
1.8070 -4.4841 0.6557
1.8018 -3.6050 0.5472
2.0840 -3.4457 0.5474
2.3525 -3.2649 0.5476
2.6058 -3.0635 0.5479
2.8423 -2.8429 0.5483
3.0606 -2.6045 0.5487
3.2594 -2.3497 0.5492
11.9931 -7.2569 1.9179
10.3896 -5.1955 1.5908
13.1503 -5.3019 1.9436
13.6005 -4.2487 1.9548
13.9582 -3.1555 1.9649
14.2192 -2.0309 1.9736
14.3802 -0.8842 1.9810
8.5791 0.1635 1.1805
8.5944 0.8581 1.1889
14.2453 2.5919 1.9940
13.9940 3.7293 1.9951
13.6422 4.8396 1.9947
13.1929 5.9133 1.9926
12.6504 6.9411 1.9890
12.0199 7.9146 1.9837
11.3075 8.8260 1.9771
10.5199 9.6680 1.9689
9.6646 10.4347 1.9595
8.7496 11.1205 1.9488
7.7833 11.7213 1.9370
6.7743 12.2335 1.9241
5.7312 12.6548 1.9104
4.6629 12.9837 1.8959
3.5876 13.2549 1.8857
2.5127 13.5111 1.8857
1.4493 13.9648 1.9249
0.3416 14.8756 2.0381
-0.8558 14.8692 2.0381
-2.0501 14.7671 2.0381
-3.2336 14.5696 2.0381
-4.3987 14.2779 2.0381
-5.5379 13.8933 2.0381
-6.6438 13.4182 2.0381
-7.7092 12.8553 2.0381
-8.7270 12.2079 2.0381
-9.6905 11.4799 2.0381
-10.5933 10.6759 2.0381
-11.4293 9.8008 2.0381
-12.1926 8.8600 2.0381
-12.8782 7.8598 2.0381
-13.4813 6.8063 2.0381
-13.9976 5.7064 2.0381
-14.4236 4.5674 2.0381
-14.7561 3.3965 2.0381
-14.9926 2.2017 2.0381
-15.1315 0.9907 2.0381
-15.1719 -0.2274 2.0381
-15.1122 -1.4472 2.0381
-14.9539 -2.6578 2.0381
-14.6975 -3.8521 2.0381
-14.3446 -5.0218 2.0381
-13.8975 -6.1592 2.0381
-13.3592 -7.2566 2.0381
-12.7332 -8.3065 2.0381
-12.0238 -9.3018 2.0381
-11.2358 -10.2360 2.0381
-10.3745 -11.1028 2.0381
-9.4457 -11.8963 2.0381
-8.4558 -12.6112 2.0381
-7.4115 -13.2430 2.0381
-6.3198 -13.7875 2.0381
-5.1882 -14.2412 2.0381
-4.0243 -14.6012 2.0381
-2.8359 -14.8654 2.0381
-1.6310 -15.0322 2.0381
-0.4176 -15.1008 2.0381
0.7963 -15.0709 2.0381
2.0027 -14.9431 2.0381
3.1935 -14.7185 2.0381
4.3612 -14.3988 2.0381
1.9334 -4.9184 0.7167
1.7712 -3.6205 0.5472
2.0547 -3.4636 0.5474
2.3248 -3.2850 0.5476
2.5797 -3.0858 0.5479
2.8181 -2.8672 0.5483
3.0384 -2.6305 0.5487
10.1436 5.7927 1.9466
9.6235 6.5746 1.9422
9.0386 7.3065 1.9366
8.3943 7.9829 1.9300
7.6962 8.5991 1.9222
6.9504 9.1508 1.9135
6.1634 9.6346 1.9038
5.3418 10.0477 1.8933
4.5010 10.4079 1.8857
3.2398 9.5296 1.6729
2.7785 11.0076 1.8857
2.0131 11.9575 2.0128
1.0594 12.2416 2.0381
0.0722 12.2966 2.0381
-0.9170 12.2725 2.0381
-1.9020 12.1693 2.0381
-2.8763 11.9875 2.0381
-3.8338 11.7280 2.0381
-4.7683 11.3924 2.0381
-5.6736 10.9825 2.0381
-6.5438 10.5008 2.0381
-7.3733 9.9503 2.0381
-8.1566 9.3343 2.0381
-8.8883 8.6566 2.0381
-9.5637 7.9215 2.0381
-10.1781 7.1336 2.0381
-10.7274 6.2981 2.0381
-11.2078 5.4202 2.0381
-11.6160 4.5057 2.0381
-11.9491 3.5604 2.0381
-12.2047 2.5907 2.0381
-12.3810 1.6028 2.0381
-12.4767 0.6033 2.0381
-12.4911 -0.4012 2.0381
-12.4238 -1.4040 2.0381
-12.2754 -2.3984 2.0381
-12.0466 -3.3778 2.0381
-11.7388 -4.3356 2.0381
-11.3543 -5.2654 2.0381
-10.8954 -6.1609 2.0381
-10.3652 -7.0163 2.0381
-9.7673 -7.8256 2.0381
-9.1056 -8.5836 2.0381
-8.3847 -9.2853 2.0381
-7.6094 -9.9259 2.0381
-6.7849 -10.5012 2.0381
-5.9167 -11.0074 2.0381
-5.0108 -11.4414 2.0381
-4.0731 -11.8003 2.0381
-3.1100 -12.0819 2.0381
-2.1278 -12.2843 2.0381
-1.1331 -12.4066 2.0381
-0.1326 -12.4479 2.0381
0.8673 -12.4082 2.0381
1.8599 -12.2880 2.0381
2.8387 -12.0883 2.0381
3.7974 -11.8105 2.0381
1.7010 -4.1202 0.7330
1.5166 -2.9711 0.5490
1.7493 -2.8377 0.5492
1.9705 -2.6865 0.5494
2.1790 -2.5182 0.5496
2.3735 -2.3341 0.5499
2.5527 -2.1353 0.5503
2.7157 -1.9229 0.5507
2.8613 -1.6984 0.5511
2.9888 -1.4630 0.5516
3.0972 -1.2183 0.5521
11.0744 -3.3567 1.9210
11.3474 -2.4643 1.9289
11.5427 -1.5488 1.9358
11.6578 -0.6175 1.9415
8.6995 0.2397 1.4481
11.6426 1.2625 1.9494
11.5115 2.1958 1.9515
11.2991 3.1143 1.9523
11.0070 4.0106 1.9518
10.6378 4.8772 1.9500
10.1947 5.7073 1.9470
9.6817 6.4940 1.9427
9.1035 7.2315 1.9373
8.4652 7.9140 1.9307
7.7725 8.5368 1.9231
7.0314 9.0955 1.9144
6.2485 9.5867 1.9049
5.4302 10.0073 1.8945
4.5893 10.3686 1.8857
3.7432 10.7098 1.8857
2.8720 10.9827 1.8857
2.0806 11.7459 1.9802
1.1636 12.2312 2.0381
0.1770 12.2945 2.0381
-0.8124 12.2788 2.0381
-1.7981 12.1840 2.0381
-2.7738 12.0104 2.0381
-3.7334 11.7592 2.0381
-4.6706 11.4315 2.0381
-5.5792 11.0294 2.0381
-6.4535 10.5552 2.0381
-7.2876 10.0118 2.0381
-8.0760 9.4025 2.0381
-8.8134 8.7311 2.0381
-9.4950 8.0019 2.0381
-10.1161 7.2194 2.0381
-10.6725 6.3887 2.0381
-11.1603 5.5150 2.0381
-11.5762 4.6041 2.0381
-11.9174 3.6618 2.0381
-12.1813 2.6944 2.0381
-12.3661 1.7081 2.0381
-12.4704 0.7095 2.0381
-12.4934 -0.2949 2.0381
-12.4348 -1.2981 2.0381
-12.2949 -2.2937 2.0381
-12.0745 -3.2750 2.0381
-11.7751 -4.2354 2.0381
-11.3986 -5.1684 2.0381
-10.9474 -6.0679 2.0381
-10.4246 -6.9277 2.0381
-9.8337 -7.7422 2.0381
-9.1786 -8.5059 2.0381
-8.4637 -9.2138 2.0381
-7.6939 -9.8610 2.0381
-6.8744 -10.4434 2.0381
-6.0106 -10.9572 2.0381
-5.1084 -11.3990 2.0381
-4.1737 -11.7659 2.0381
-3.2130 -12.0558 2.0381
-2.2325 -12.2667 2.0381
-1.2389 -12.3975 2.0381
-0.2386 -12.4473 2.0381
0.7616 -12.4162 2.0381
1.7553 -12.3045 2.0381
2.7359 -12.1131 2.0381
3.6970 -11.8436 2.0381
1.8077 -4.4867 0.7953
1.4913 -2.9841 0.5490
1.7251 -2.8527 0.5492
1.9477 -2.7033 0.5494
2.1576 -2.5368 0.5496
2.3536 -2.3543 0.5499
2.5345 -2.1570 0.5502
2.6992 -1.9460 0.5506
2.8467 -1.7227 0.5511
2.9761 -1.4884 0.5515
3.0867 -1.2446 0.5520
11.0410 -3.4496 1.9201
11.3222 -2.5600 1.9281
11.5258 -1.6466 1.9351
11.6495 -0.7167 1.9410
8.7469 0.1664 1.4556
8.7960 0.8780 1.4714
11.5293 2.0975 1.9513
11.3254 3.0180 1.9523
11.0416 3.9169 1.9519
10.6804 4.7871 1.9503
10.2450 5.6213 1.9474
9.7393 6.4129 1.9432
9.1677 7.1559 1.9379
8.5355 7.8445 1.9315
7.8482 8.4738 1.9239
7.1120 9.0395 1.9154
6.3332 9.5379 1.9059
5.5184 9.9662 1.8956
4.6743 10.3220 1.8846
3.8341 10.6769 1.8857
2.9653 10.9571 1.8857
2.1459 11.5411 1.9489
1.2677 12.2199 2.0381
0.2817 12.2915 2.0381
-0.7076 12.2842 2.0381
-1.6940 12.1978 2.0381
-2.6711 12.0325 2.0381
-3.6327 11.7894 2.0381
-4.5725 11.4698 2.0381
-5.4845 11.0754 2.0381
-6.3627 10.6087 2.0381
-7.2013 10.0725 2.0381
-7.9948 9.4700 2.0381
-8.7379 8.8051 2.0381
-9.4256 8.0817 2.0381
-10.0533 7.3047 2.0381
-10.6167 6.4788 2.0381
-11.1120 5.6095 2.0381
-11.5357 4.7022 2.0381
-11.8849 3.7629 2.0381
-12.1571 2.7978 2.0381
-12.3503 1.8132 2.0381
-12.4632 0.8156 2.0381
-12.4949 -0.1884 2.0381
-12.4449 -1.1921 2.0381
-12.3136 -2.1888 2.0381
-12.1017 -3.1719 2.0381
-11.8105 -4.1348 2.0381
-11.4421 -5.0711 2.0381
-10.9986 -5.9744 2.0381
-10.4833 -6.8387 2.0381
-9.8994 -7.6583 2.0381
-9.2509 -8.4276 2.0381
-8.5422 -9.1416 2.0381
-7.7780 -9.7954 2.0381
-6.9634 -10.3849 2.0381
-6.1040 -10.9061 2.0381
-5.2056 -11.3557 2.0381
-4.2741 -11.7307 2.0381
-3.3158 -12.0288 2.0381
-2.3371 -12.2481 2.0381
-1.3446 -12.3874 2.0381
-0.3447 -12.4459 2.0381
0.6558 -12.4233 2.0381
1.6505 -12.3202 2.0381
2.6328 -12.1372 2.0381
3.5963 -11.8758 2.0381
1.9343 -4.9214 0.8694
1.4660 -2.9970 0.5490
1.7009 -2.8675 0.5491
1.9247 -2.7200 0.5493
2.1360 -2.5552 0.5496
2.3335 -2.3744 0.5499
2.5161 -2.1786 0.5502
8.5107 4.8602 1.9182
8.0773 5.5183 1.9146
7.5898 6.1353 1.9100
7.0524 6.7069 1.9044
6.4697 7.2290 1.8980
5.8467 7.6981 1.8907
5.1969 8.1243 1.8857
4.5288 8.5190 1.8857
3.8310 8.8593 1.8857
3.1080 9.1429 1.8857
2.5479 10.0958 2.0322
1.7342 10.3038 2.0381
0.9010 10.4163 2.0381
0.0609 10.4619 2.0381
-0.7806 10.4402 2.0381
-1.6183 10.3511 2.0381
-2.4468 10.1952 2.0381
-3.2608 9.9732 2.0381
-4.0549 9.6865 2.0381
-4.8240 9.3367 2.0381
-5.5631 8.9260 2.0381
-6.2674 8.4568 2.0381
-6.9321 7.9322 2.0381
-7.5530 7.3553 2.0381
-8.1258 6.7298 2.0381
-8.6467 6.0597 2.0381
-9.1122 5.3492 2.0381
-9.5191 4.6030 2.0381
-9.8647 3.8259 2.0381
-10.1464 3.0229 2.0381
-10.3625 2.1992 2.0381
-10.5112 1.3604 2.0381
-10.5916 0.5118 2.0381
-10.6030 -0.3409 2.0381
-10.5453 -1.1920 2.0381
-10.4187 -2.0359 2.0381
-10.2240 -2.8670 2.0381
-9.9626 -3.6797 2.0381
-9.6360 -4.4687 2.0381
-9.2465 -5.2285 2.0381
-8.7966 -5.9544 2.0381
-8.2893 -6.6413 2.0381
-7.7279 -7.2849 2.0381
-7.1164 -7.8805 2.0381
-6.4587 -8.4245 2.0381
-5.7592 -8.9133 2.0381
-5.0227 -9.3436 2.0381
-4.2540 -9.7127 2.0381
-3.4583 -10.0182 2.0381
-2.6409 -10.2581 2.0381
-1.8072 -10.4311 2.0381
-0.9627 -10.5359 2.0381
-0.1131 -10.5722 2.0381
0.7362 -10.5398 2.0381
1.5795 -10.4390 2.0381
2.4113 -10.2706 2.0381
3.2263 -10.0359 2.0381
1.7016 -4.1224 0.8629
1.2919 -2.5312 0.5503
1.4902 -2.4178 0.5504
1.6789 -2.2891 0.5506
1.8566 -2.1459 0.5508
2.0224 -1.9891 0.5511
2.1753 -1.8197 0.5514
2.3142 -1.6388 0.5517
2.4383 -1.4475 0.5521
2.5469 -1.2469 0.5525
2.8448 -1.1192 0.5960
9.3059 -2.8211 1.8969
9.5301 -2.0700 1.9035
9.6895 -1.3004 1.9092
9.7823 -0.5184 1.9140
9.1076 0.2507 1.7809
9.7645 1.0586 1.9205
9.6535 1.8412 1.9222
9.4751 2.6115 1.9229
9.2309 3.3633 1.9225
8.9228 4.0909 1.9210
8.5533 4.7884 1.9185
8.1258 5.4504 1.9150
7.6438 6.0720 1.9105
7.1115 6.6487 1.9051
6.5334 7.1762 1.8987
5.9145 7.6510 1.8915
5.2658 8.0794 1.8857
4.6010 8.4797 1.8857
3.9062 8.8258 1.8857
3.1856 9.1156 1.8857
2.5986 9.9387 2.0051
1.8219 10.2880 2.0381
0.9897 10.4075 2.0381
0.1501 10.4602 2.0381
-0.6916 10.4456 2.0381
-1.5300 10.3637 2.0381
-2.3597 10.2148 2.0381
-3.1754 9.9998 2.0381
-3.9718 9.7199 2.0381
-4.7438 9.3767 2.0381
-5.4864 8.9723 2.0381
-6.1946 8.5092 2.0381
-6.8637 7.9903 2.0381
-7.4894 7.4187 2.0381
-8.0675 6.7982 2.0381
-8.5941 6.1326 2.0381
-9.0656 5.4263 2.0381
-9.4789 4.6836 2.0381
-9.8310 3.9095 2.0381
-10.1197 3.1090 2.0381
-10.3427 2.2873 2.0381
-10.4987 1.4498 2.0381
-10.5863 0.6019 2.0381
-10.6051 -0.2505 2.0381
-10.5547 -1.1021 2.0381
-10.4353 -1.9470 2.0381
-10.2479 -2.7797 2.0381
-9.9934 -3.5946 2.0381
-9.6736 -4.3863 2.0381
-9.2906 -5.1496 2.0381
-8.8470 -5.8793 2.0381
-8.3456 -6.5705 2.0381
-7.7899 -7.2188 2.0381
-7.1834 -7.8198 2.0381
-6.5304 -8.3694 2.0381
-5.8352 -8.8642 2.0381
-5.1023 -9.3009 2.0381
-4.3368 -9.6766 2.0381
-3.5437 -9.9889 2.0381
-2.7284 -10.2359 2.0381
-1.8961 -10.4159 2.0381
-1.0525 -10.5281 2.0381
-0.2032 -10.5716 2.0381
0.6464 -10.5465 2.0381
1.4906 -10.4529 2.0381
2.3239 -10.2916 2.0381
3.1409 -10.0639 2.0381
1.8085 -4.4893 0.9364
1.2703 -2.5423 0.5503
1.4697 -2.4306 0.5504
1.6594 -2.3034 0.5506
1.8384 -2.1617 0.5508
2.0055 -2.0064 0.5510
2.1597 -1.8383 0.5513
2.3001 -1.6585 0.5517
2.4259 -1.4682 0.5520
2.5361 -1.2685 0.5524
2.8043 -1.1309 0.5895
9.2784 -2.8994 1.8962
9.5094 -2.1505 1.9029
9.6757 -1.3827 1.9087
9.7757 -0.6017 1.9135
9.0970 0.1728 1.7784
9.7723 0.9752 1.9203
9.6685 1.7587 1.9221
9.4972 2.5306 1.9229
9.2598 3.2848 1.9226
8.9584 4.0151 1.9212
8.5953 4.7161 1.9189
8.1737 5.3821 1.9154
7.6973 6.0083 1.9110
7.1702 6.5898 1.9057
6.5967 7.1228 1.8994
5.9818 7.6033 1.8923
5.3306 8.0284 1.8844
4.6729 8.4398 1.8857
3.9810 8.7918 1.8857
3.2630 9.0876 1.8857
2.6479 9.7858 1.9788
1.9094 10.2715 2.0381
1.0783 10.3980 2.0381
0.2392 10.4578 2.0381
-0.6025 10.4504 2.0381
-1.4415 10.3756 2.0381
-2.2724 10.2338 2.0381
-3.0898 10.0257 2.0381
-3.8885 9.7525 2.0381
-4.6634 9.4159 2.0381
-5.4093 9.0180 2.0381
-6.1213 8.5610 2.0381
-6.7948 8.0478 2.0381
-7.4254 7.4817 2.0381
-8.0087 6.8661 2.0381
-8.5409 6.2052 2.0381
-9.0184 5.5029 2.0381
-9.4380 4.7638 2.0381
-9.7967 3.9929 2.0381
-10.0922 3.1949 2.0381
-10.3223 2.3751 2.0381
-10.4854 1.5391 2.0381
-10.5803 0.6921 2.0381
-10.6064 -0.1602 2.0381
-10.5633 -1.0121 2.0381
-10.4512 -1.8580 2.0381
-10.2709 -2.6922 2.0381
-10.0235 -3.5093 2.0381
-9.7105 -4.3037 2.0381
-9.3341 -5.0702 2.0381
-8.8968 -5.8037 2.0381
-8.4014 -6.4993 2.0381
-7.8512 -7.1523 2.0381
-7.2499 -7.7585 2.0381
-6.6017 -8.3137 2.0381
-5.9107 -8.8145 2.0381
-5.1816 -9.2574 2.0381
-4.4193 -9.6397 2.0381
-3.6289 -9.9588 2.0381
-2.8156 -10.2128 2.0381
-1.9849 -10.4001 2.0381
-1.1423 -10.5194 2.0381
-0.2932 -10.5703 2.0381
0.5566 -10.5524 2.0381
1.4016 -10.4660 2.0381
2.2363 -10.3119 2.0381
3.0553 -10.0911 2.0381
1.9352 -4.9245 1.0236
1.2487 -2.5532 0.5503
1.4490 -2.4431 0.5504
1.6398 -2.3176 0.5506
1.8199 -2.1774 0.5508
1.9884 -2.0234 0.5510
2.1440 -1.8566 0.5513
7.3195 4.1799 1.8975
6.9485 4.7471 1.8944
6.5312 5.2797 1.8905
6.0710 5.7738 1.8857
5.5882 6.2442 1.8857
5.0693 6.6748 1.8857
4.5176 7.0626 1.8857
3.9365 7.4054 1.8857
3.3297 7.7007 1.8857
2.9194 8.5891 2.0381
2.2206 8.8001 2.0381
1.5068 8.9546 2.0381
0.7826 9.0517 2.0381
0.0525 9.0906 2.0381
-0.6787 9.0709 2.0381
-1.4064 8.9927 2.0381
-2.1260 8.8564 2.0381
-2.8328 8.6627 2.0381
-3.5222 8.4128 2.0381
-4.1898 8.1082 2.0381
-4.8312 7.7508 2.0381
-5.4422 7.3426 2.0381
-6.0188 6.8864 2.0381
-6.5572 6.3849 2.0381
-7.0538 5.8413 2.0381
-7.5052 5.2592 2.0381
-7.9085 4.6421 2.0381
-8.2609 3.9941 2.0381
-8.5601 3.3195 2.0381
-8.8038 2.6225 2.0381
-8.9906 1.9077 2.0381
-9.1191 1.1799 2.0381
-9.1882 0.4437 2.0381
-9.1976 -0.2959 2.0381
-9.1471 -1.0341 2.0381
-9.0370 -1.7661 2.0381
-8.8678 -2.4868 2.0381
-8.6409 -3.1916 2.0381
-8.3575 -3.8758 2.0381
-8.0196 -4.5348 2.0381
-7.6294 -5.1643 2.0381
-7.1895 -5.7601 2.0381
-6.7028 -6.3183 2.0381
-6.1726 -6.8351 2.0381
-5.6023 -7.3072 2.0381
-4.9959 -7.7314 2.0381
-4.3572 -8.1051 2.0381
-3.6906 -8.4257 2.0381
-3.0006 -8.6912 2.0381
-2.2916 -8.9000 2.0381
-1.5684 -9.0507 2.0381
-0.8358 -9.1425 2.0381
-0.0986 -9.1747 2.0381
0.6385 -9.1474 2.0381
1.3705 -9.0607 2.0381
2.0927 -8.9154 2.0381
2.8003 -8.7126 2.0381
1.7023 -4.1246 0.9944
1.1674 -2.2876 0.5728
1.2962 -2.1032 0.5514
1.4603 -1.9914 0.5515
1.6151 -1.8669 0.5517
1.7594 -1.7306 0.5519
1.8924 -1.5832 0.5522
2.0132 -1.4259 0.5525
2.2008 -1.3066 0.5735
2.4943 -1.2213 0.6227
2.8450 -1.1194 0.6859
8.0396 -2.4376 1.8857
8.2019 -1.7818 1.8849
8.3362 -1.1191 1.8898
8.4137 -0.4462 1.8939
8.4336 0.2319 1.8971
8.3953 0.9100 1.8994
8.2991 1.5827 1.9009
8.1457 2.2449 1.9015
7.9362 2.8915 1.9011
7.6722 3.5175 1.8999
7.3559 4.1180 1.8978
6.9900 4.6886 1.8948
6.5775 5.2250 1.8909
6.1218 5.7234 1.8863
5.6411 6.1962 1.8857
5.1259 6.6311 1.8857
4.5775 7.0237 1.8857
3.9993 7.3713 1.8857
3.3951 7.6718 1.8857
2.9912 8.5602 2.0373
2.2954 8.7804 2.0381
1.5830 8.9410 2.0381
0.8596 9.0442 2.0381
0.1300 9.0892 2.0381
-0.6013 9.0758 2.0381
-1.3297 9.0037 2.0381
-2.0503 8.8736 2.0381
-2.7587 8.6859 2.0381
-3.4502 8.4419 2.0381
-4.1203 8.1430 2.0381
-4.7647 7.7911 2.0381
-5.3791 7.3882 2.0381
-5.9595 6.9369 2.0381
-6.5021 6.4401 2.0381
-7.0033 5.9008 2.0381
-7.4596 5.3225 2.0381
-7.8682 4.7090 2.0381
-8.2261 4.0641 2.0381
-8.5310 3.3921 2.0381
-8.7807 2.6972 2.0381
-8.9736 1.9841 2.0381
-9.1082 1.2574 2.0381
-9.1837 0.5219 2.0381
-9.1995 -0.2176 2.0381
-9.1553 -0.9562 2.0381
-9.0514 -1.6890 2.0381
-8.8885 -2.4111 2.0381
-8.6676 -3.1178 2.0381
-8.3901 -3.8044 2.0381
-8.0579 -4.4664 2.0381
-7.6731 -5.0992 2.0381
-7.2384 -5.6987 2.0381
-6.7565 -6.2610 2.0381
-6.2307 -6.7824 2.0381
-5.6645 -7.2594 2.0381
-5.0617 -7.6888 2.0381
-4.4263 -8.0680 2.0381
-3.7624 -8.3943 2.0381
-3.0747 -8.6658 2.0381
-2.3675 -8.8806 2.0381
-1.6456 -9.0375 2.0381
-0.9137 -9.1355 2.0381
-0.1767 -9.1741 2.0381
0.5606 -9.1531 2.0381
1.2933 -9.0727 2.0381
2.0168 -8.9336 2.0381
2.7262 -8.7368 2.0381
1.8093 -4.4919 1.0792
1.2016 -2.4050 0.5995
1.2783 -2.1143 0.5513
1.4434 -2.0038 0.5515
1.5991 -1.8806 0.5517
1.7446 -1.7455 0.5519
1.8788 -1.5993 0.5521
2.0010 -1.4430 0.5524
2.1724 -1.3149 0.5690
2.4609 -1.2310 0.6169
2.8045 -1.1311 0.6784
8.0190 -2.5062 1.8857
8.1844 -1.8512 1.8844
8.3247 -1.1899 1.8893
8.4082 -0.5178 1.8935
8.4342 0.1600 1.8968
8.4021 0.8383 1.8992
8.3121 1.5118 1.9008
8.1646 2.1754 1.9015
7.9610 2.8239 1.9012
7.7026 3.4523 1.9001
7.3918 4.0557 1.8981
7.0310 4.6297 1.8951
6.6233 5.1699 1.8914
6.1720 5.6725 1.8868
5.6936 6.1479 1.8857
5.1821 6.5870 1.8857
4.6370 6.9842 1.8857
4.0619 7.3366 1.8857
3.4602 7.6422 1.8857
3.0302 8.4402 2.0150
2.3700 8.7601 2.0381
1.6590 8.9267 2.0381
0.9366 9.0360 2.0381
0.2075 9.0872 2.0381
-0.5239 9.0800 2.0381
-1.2528 9.0141 2.0381
-1.9745 8.8901 2.0381
-2.6844 8.7085 2.0381
-3.3779 8.4704 2.0381
-4.0504 8.1772 2.0381
-4.6978 7.8308 2.0381
-5.3155 7.4332 2.0381
-5.8998 6.9869 2.0381
-6.4465 6.4947 2.0381
-6.9522 5.9598 2.0381
-7.4135 5.3855 2.0381
-7.8272 4.7755 2.0381
-8.1906 4.1338 2.0381
-8.5012 3.4644 2.0381
-8.7569 2.7718 2.0381
-8.9559 2.0604 2.0381
-9.0968 1.3349 2.0381
-9.1786 0.6001 2.0381
-9.2006 -0.1392 2.0381
-9.1628 -0.8781 2.0381
-9.0652 -1.6118 2.0381
-8.9085 -2.3353 2.0381
-8.6937 -3.0439 2.0381
-8.4222 -3.7328 2.0381
-8.0956 -4.3975 2.0381
-7.7163 -5.0337 2.0381
-7.2867 -5.6369 2.0381
-6.8097 -6.2034 2.0381
-6.2884 -6.7292 2.0381
-5.7263 -7.2111 2.0381
-5.1272 -7.6457 2.0381
-4.4950 -8.0303 2.0381
-3.8340 -8.3623 2.0381
-3.1485 -8.6397 2.0381
-2.4432 -8.8606 2.0381
-1.7226 -9.0237 2.0381
-0.9916 -9.1280 2.0381
-0.2549 -9.1728 2.0381
0.4826 -9.1581 2.0381
1.2161 -9.0840 2.0381
1.9407 -8.9511 2.0381
2.6519 -8.7603 2.0381
1.9361 -4.9276 1.1797
1.2391 -2.5338 0.6289
1.2603 -2.1252 0.5513
1.4263 -2.0161 0.5515
1.5831 -1.8943 0.5516
1.7297 -1.7604 0.5519
1.8652 -1.6153 0.5521
6.4244 3.6687 1.8857
6.1087 4.1734 1.8857
5.7537 4.6513 1.8857
5.3617 5.0993 1.8857
4.9352 5.5147 1.8857
4.4768 5.8948 1.8857
3.9894 6.2372 1.8857
3.5542 6.6866 1.9281
3.1777 7.3498 2.0381
2.5776 7.5843 2.0381
1.9604 7.7702 2.0381
1.3300 7.9063 2.0381
0.6906 7.9915 2.0381
0.0460 8.0253 2.0381
-0.5995 8.0074 2.0381
-1.2419 7.9378 2.0381
-1.8769 7.8169 2.0381
-2.5006 7.6454 2.0381
-3.1088 7.4242 2.0381
-3.6977 7.1549 2.0381
-4.2634 6.8389 2.0381
-4.8021 6.4782 2.0381
-5.3104 6.0752 2.0381
-5.7850 5.6323 2.0381
-6.2226 5.1526 2.0381
-6.6203 4.6386 2.0381
-6.9755 4.0940 2.0381
-7.2858 3.5223 2.0381
-7.5491 2.9271 2.0381
-7.7637 2.3123 2.0381
-7.9279 1.6819 2.0381
-8.0407 1.0401 2.0381
-8.1013 0.3910 2.0381
-8.1093 -0.2611 2.0381
-8.0644 -0.9119 2.0381
-7.9671 -1.5571 2.0381
-7.8178 -2.1925 2.0381
-7.6176 -2.8137 2.0381
-7.3677 -3.4168 2.0381
-7.0698 -3.9978 2.0381
-6.7258 -4.5527 2.0381
-6.3381 -5.0779 2.0381
-5.9091 -5.5700 2.0381
-5.4418 -6.0257 2.0381
-4.9392 -6.4420 2.0381
-4.4047 -6.8163 2.0381
-3.8419 -7.1459 2.0381
-3.2543 -7.4289 2.0381
-2.6461 -7.6634 2.0381
-2.0211 -7.8479 2.0381
-1.3835 -7.9812 2.0381
-0.7375 -8.0626 2.0381
-0.0873 -8.0916 2.0381
0.5627 -8.0681 2.0381
1.2084 -7.9922 2.0381
1.8456 -7.8647 2.0381
2.4700 -7.6863 2.0381
1.7030 -4.1269 1.1277
1.1676 -2.2883 0.6494
1.1451 -1.8583 0.5521
1.2902 -1.7596 0.5522
1.4270 -1.6497 0.5524
1.5546 -1.5293 0.5526
1.7266 -1.4447 0.5708
1.9485 -1.3802 0.6058
2.2009 -1.3068 0.6497
2.4944 -1.2215 0.7054
2.8451 -1.1196 0.7769
7.0983 -2.1525 1.8857
7.2451 -1.5742 1.8857
7.3451 -0.9863 1.8857
7.3979 -0.3925 1.8857
7.4030 0.2034 1.8857
7.3606 0.7976 1.8857
7.2667 1.3856 1.8847
7.1322 1.9655 1.8852
6.9490 2.5318 1.8849
6.7254 3.0834 1.8857
6.4555 3.6139 1.8857
6.1440 4.1212 1.8857
5.7931 4.6020 1.8857
5.4049 5.0534 1.8857
4.9819 5.4724 1.8857
4.5267 5.8563 1.8857
4.0423 6.2028 1.8857
3.5817 6.6019 1.9125
3.2401 7.3222 2.0381
2.6420 7.5618 2.0381
2.0264 7.7529 2.0381
1.3973 7.8942 2.0381
0.7586 7.9849 2.0381
0.1144 8.0241 2.0381
-0.5312 8.0117 2.0381
-1.1741 7.9476 2.0381
-1.8101 7.8321 2.0381
-2.4352 7.6659 2.0381
-3.0452 7.4500 2.0381
-3.6363 7.1856 2.0381
-4.2046 6.8745 2.0381
-4.7464 6.5185 2.0381
-5.2581 6.1198 2.0381
-5.7364 5.6810 2.0381
-6.1780 5.2049 2.0381
-6.5801 4.6945 2.0381
-6.9400 4.1530 2.0381
-7.2552 3.5840 2.0381
-7.5235 2.9911 2.0381
-7.7433 2.3782 2.0381
-7.9129 1.7493 2.0381
-8.0312 1.1085 2.0381
-8.0974 0.4599 2.0381
-8.1109 -0.1920 2.0381
-8.0717 -0.8432 2.0381
-7.9799 -1.4892 2.0381
-7.8361 -2.1258 2.0381
-7.6412 -2.7487 2.0381
-7.3965 -3.3539 2.0381
-7.1036 -3.9374 2.0381
-6.7644 -4.4952 2.0381
-6.3812 -5.0238 2.0381
-5.9564 -5.5196 2.0381
-5.4930 -5.9793 2.0381
-4.9940 -6.3999 2.0381
-4.4628 -6.7787 2.0381
-3.9027 -7.1132 2.0381
-3.3176 -7.4012 2.0381
-2.7113 -7.6409 2.0381
-2.0879 -7.8308 2.0381
-1.4515 -7.9696 2.0381
-0.8061 -8.0565 2.0381
-0.1562 -8.0910 2.0381
0.4940 -8.0730 2.0381
1.1404 -8.0027 2.0381
1.7786 -7.8806 2.0381
2.4046 -7.7076 2.0381
1.8100 -4.4945 1.2239
1.2018 -2.4058 0.6797
1.1293 -1.8681 0.5521
1.2752 -1.7706 0.5522
1.4129 -1.6618 0.5524
1.5415 -1.5425 0.5525
1.7045 -1.4511 0.5675
1.9237 -1.3874 0.6017
2.1724 -1.3151 0.6446
2.4610 -1.2312 0.6988
2.8046 -1.1313 0.7684
7.0800 -2.2130 1.8857
7.2317 -1.6360 1.8857
7.3368 -1.0489 1.8857
7.3945 -0.4556 1.8857
7.4047 0.1403 1.8857
7.3673 0.7349 1.8857
7.2780 1.3236 1.8846
7.1488 1.9046 1.8851
6.9707 2.4725 1.8849
6.7516 3.0259 1.8857
6.4861 3.5588 1.8857
6.1789 4.0686 1.8857
5.8321 4.5524 1.8857
5.4477 5.0070 1.8857
5.0283 5.4296 1.8857
4.5764 5.8174 1.8857
4.0949 6.1679 1.8857
3.6102 6.5217 1.8981
3.3023 7.2940 2.0381
2.7063 7.5387 2.0381
2.0923 7.7350 2.0381
1.4645 7.8817 2.0381
0.8266 7.9777 2.0381
0.1828 8.0224 2.0381
-0.4629 8.0155 2.0381
-1.1063 7.9568 2.0381
-1.7432 7.8467 2.0381
-2.3696 7.6859 2.0381
-2.9814 7.4752 2.0381
-3.5747 7.2159 2.0381
-4.1456 6.9096 2.0381
-4.6904 6.5582 2.0381
-5.2055 6.1640 2.0381
-5.6874 5.7293 2.0381
-6.1331 5.2570 2.0381
-6.5395 4.7501 2.0381
-6.9039 4.2118 2.0381
-7.2239 3.6455 2.0381
-7.4974 3.0549 2.0381
-7.7224 2.4440 2.0381
-7.8974 1.8165 2.0381
-8.0212 1.1768 2.0381
-8.0929 0.5289 2.0381
-8.1120 -0.1230 2.0381
-8.0783 -0.7744 2.0381
-7.9921 -1.4211 2.0381
-7.8537 -2.0589 2.0381
-7.6642 -2.6835 2.0381
-7.4247 -3.2908 2.0381
-7.1368 -3.8767 2.0381
-6.8024 -4.4375 2.0381
-6.4238 -4.9693 2.0381
-6.0033 -5.4687 2.0381
-5.5439 -5.9324 2.0381
-5.0485 -6.3573 2.0381
-4.5205 -6.7406 2.0381
-3.9633 -7.0799 2.0381
-3.3807 -7.3730 2.0381
-2.7764 -7.6178 2.0381
-2.1547 -7.8130 2.0381
-1.5194 -7.9573 2.0381
-0.8748 -8.0498 2.0381
-0.2252 -8.0899 2.0381
0.4253 -8.0774 2.0381
1.0722 -8.0126 2.0381
1.7115 -7.8960 2.0381
2.3390 -7.7283 2.0381
1.9371 -4.9308 1.3380
1.2394 -2.5347 0.7131
1.1134 -1.8777 0.5521
1.2602 -1.7815 0.5522
1.3988 -1.6739 0.5523
1.5283 -1.5556 0.5525
1.6827 -1.4575 0.5644
5.7438 3.2801 1.8857
5.4615 3.7313 1.8857
5.1441 4.1585 1.8857
4.7936 4.5591 1.8857
4.4121 4.9304 1.8857
4.0020 5.2709 1.8857
3.7705 5.8953 1.9937
3.3585 6.3188 2.0381
2.8405 6.5704 2.0381
2.3039 6.7798 2.0381
1.7521 6.9457 2.0381
1.1885 7.0670 2.0381
0.6169 7.1428 2.0381
0.0408 7.1726 2.0381
-0.5361 7.1562 2.0381
-1.1102 7.0936 2.0381
-1.6776 6.9852 2.0381
-2.2348 6.8315 2.0381
-2.7781 6.6335 2.0381
-3.3041 6.3924 2.0381
-3.8093 6.1097 2.0381
-4.2903 5.7871 2.0381
-4.7441 5.4267 2.0381
-5.1677 5.0308 2.0381
-5.5583 4.6019 2.0381
-5.9132 4.1428 2.0381
-6.2301 3.6561 2.0381
-6.5068 3.1453 2.0381
-6.7416 2.6136 2.0381
-6.9329 2.0645 2.0381
-7.0792 1.5016 2.0381
-7.1797 0.9284 2.0381
-7.2335 0.3489 2.0381
-7.2403 -0.2334 2.0381
-7.2001 -0.8144 2.0381
-7.1130 -1.3903 2.0381
-6.9796 -1.9575 2.0381
-6.8007 -2.5121 2.0381
-6.5776 -3.0505 2.0381
-6.3116 -3.5691 2.0381
-6.0046 -4.0644 2.0381
-5.6585 -4.5333 2.0381
-5.2756 -4.9727 2.0381
-4.8585 -5.3796 2.0381
-4.4099 -5.7514 2.0381
-3.9328 -6.0856 2.0381
-3.4304 -6.3801 2.0381
-2.9059 -6.6330 2.0381
-2.3629 -6.8426 2.0381
-1.8050 -7.0077 2.0381
-1.2357 -7.1271 2.0381
-0.6589 -7.2001 2.0381
-0.0783 -7.2263 2.0381
0.5022 -7.2057 2.0381
1.0790 -7.1384 2.0381
1.6481 -7.0249 2.0381
2.2060 -6.8660 2.0381
1.7036 -4.1292 1.2631
1.1678 -2.2891 0.7271
1.0240 -1.6621 0.5527
1.1766 -1.6048 0.5637
1.3455 -1.5557 0.5829
1.5275 -1.5028 0.6076
1.7266 -1.4449 0.6388
1.9486 -1.3804 0.6779
2.2009 -1.3070 0.7270
2.4945 -1.2217 0.7893
2.8453 -1.1198 0.8693
6.3447 -1.9243 1.8857
6.4762 -1.4074 1.8857
6.5659 -0.8819 1.8857
6.6133 -0.3511 1.8857
6.6181 0.1816 1.8857
6.5803 0.7129 1.8857
6.5003 1.2394 1.8857
6.3785 1.7577 1.8857
6.2157 2.2645 1.8857
6.0129 2.7566 1.8857
5.7716 3.2310 1.8857
5.4931 3.6846 1.8857
5.1793 4.1145 1.8857
4.8322 4.5180 1.8857
4.4539 4.8925 1.8857
4.0469 5.2357 1.8857
3.7942 5.8225 1.9800
3.4121 6.2898 2.0381
2.8963 6.5457 2.0381
2.3615 6.7596 2.0381
1.8111 6.9302 2.0381
1.2487 7.0562 2.0381
0.6777 7.1369 2.0381
0.1019 7.1716 2.0381
-0.4751 7.1602 2.0381
-1.0496 7.1024 2.0381
-1.6179 6.9988 2.0381
-2.1764 6.8499 2.0381
-2.7213 6.6565 2.0381
-3.2493 6.4199 2.0381
-3.7568 6.1416 2.0381
-4.2406 5.8231 2.0381
-4.6975 5.4666 2.0381
-5.1244 5.0744 2.0381
-5.5185 4.6488 2.0381
-5.8773 4.1926 2.0381
-6.1984 3.7088 2.0381
-6.4795 3.2004 2.0381
-6.7188 2.6708 2.0381
-6.9147 2.1234 2.0381
-7.0659 1.5618 2.0381
-7.1712 0.9895 2.0381
-7.2300 0.4104 2.0381
-7.2418 -0.1717 2.0381
-7.2066 -0.7530 2.0381
-7.1244 -1.3297 2.0381
-6.9959 -1.8980 2.0381
-6.8218 -2.4541 2.0381
-6.6033 -2.9943 2.0381
-6.3418 -3.5152 2.0381
-6.0390 -4.0132 2.0381
-5.6969 -4.4850 2.0381
-5.3178 -4.9276 2.0381
-4.9042 -5.3381 2.0381
-4.4588 -5.7137 2.0381
-3.9846 -6.0521 2.0381
-3.4847 -6.3509 2.0381
-2.9624 -6.6082 2.0381
-2.4212 -6.8225 2.0381
-1.8647 -6.9923 2.0381
-1.2964 -7.1166 2.0381
-0.7202 -7.1946 2.0381
-0.1399 -7.2258 2.0381
0.4409 -7.2101 2.0381
1.0182 -7.1477 2.0381
1.5883 -7.0391 2.0381
2.1475 -6.8849 2.0381
1.8108 -4.4972 1.3708
1.2021 -2.4066 0.7611
1.0099 -1.6708 0.5527
1.1593 -1.6098 0.5619
1.3271 -1.5611 0.5807
1.5075 -1.5086 0.6047
1.7045 -1.4513 0.6351
1.9238 -1.3876 0.6733
2.1725 -1.3153 0.7213
2.4611 -1.2314 0.7820
2.8048 -1.1315 0.8598
6.3283 -1.9784 1.8857
6.4642 -1.4626 1.8857
6.5584 -0.9379 1.8857
6.6103 -0.4075 1.8857
6.6196 0.1252 1.8857
6.5864 0.6568 1.8857
6.5108 1.1839 1.8857
6.3933 1.7032 1.8857
6.2348 2.2114 1.8857
6.0363 2.7053 1.8857
5.7989 3.1817 1.8857
5.5243 3.6376 1.8857
5.2142 4.0701 1.8857
4.8705 4.4766 1.8857
4.4954 4.8543 1.8857
4.0913 5.2009 1.8857
3.8176 5.7506 1.9666
3.4655 6.2603 2.0381
2.9519 6.5206 2.0381
2.4189 6.7390 2.0381
1.8701 6.9142 2.0381
1.3087 7.0450 2.0381
0.7385 7.1305 2.0381
0.1630 7.1702 2.0381
-0.4140 7.1636 2.0381
-0.9890 7.1107 2.0381
-1.5581 7.0120 2.0381
-2.1178 6.8678 2.0381
-2.6644 6.6791 2.0381
-3.1943 6.4470 2.0381
-3.7041 6.1730 2.0381
-4.1906 5.8587 2.0381
-4.6504 5.5061 2.0381
-5.0807 5.1175 2.0381
-5.4784 4.6954 2.0381
-5.8411 4.2423 2.0381
-6.1662 3.7613 2.0381
-6.4517 3.2554 2.0381
-6.6955 2.7278 2.0381
-6.8961 2.1821 2.0381
-7.0520 1.6218 2.0381
-7.1622 1.0505 2.0381
-7.2260 0.4720 2.0381
-7.2428 -0.1100 2.0381
-7.2125 -0.6916 2.0381
-7.1353 -1.2689 2.0381
-7.0117 -1.8383 2.0381
-6.8424 -2.3958 2.0381
-6.6285 -2.9379 2.0381
-6.3715 -3.4610 2.0381
-6.0729 -3.9616 2.0381
-5.7349 -4.4364 2.0381
-5.3596 -4.8822 2.0381
-4.9496 -5.2962 2.0381
-4.5074 -5.6757 2.0381
-4.0361 -6.0181 2.0381
-3.5388 -6.3211 2.0381
-3.0187 -6.5830 2.0381
-2.4793 -6.8019 2.0381
-1.9242 -6.9765 2.0381
-1.3570 -7.1056 2.0381
-0.7815 -7.1885 2.0381
-0.2014 -7.2247 2.0381
0.3794 -7.2140 2.0381
0.9573 -7.1565 2.0381
1.5284 -7.0527 2.0381
2.0889 -6.9034 2.0381
1.9380 -4.9340 1.4988
1.2396 -2.5357 0.7985
0.9957 -1.6794 0.5526
1.1421 -1.6148 0.5602
1.3088 -1.5664 0.5784
1.4876 -1.5144 0.6019
1.6827 -1.4576 0.6316
5.1855 2.9613 1.8857
4.9307 3.3686 1.8857
4.6441 3.7543 1.8857
4.3276 4.1160 1.8857
4.1429 4.6297 1.9614
3.9049 5.1423 2.0381
3.4796 5.4408 2.0381
3.0316 5.7043 2.0381
2.5639 5.9312 2.0381
2.0795 6.1201 2.0381
1.5813 6.2696 2.0381
1.0725 6.3789 2.0381
0.5565 6.4471 2.0381
0.0365 6.4737 2.0381
-0.4842 6.4586 2.0381
-1.0022 6.4019 2.0381
-1.5143 6.3037 2.0381
-2.0170 6.1647 2.0381
-2.5072 5.9857 2.0381
-2.9817 5.7678 2.0381
-3.4373 5.5125 2.0381
-3.8712 5.2211 2.0381
-4.2804 4.8957 2.0381
-4.6623 4.5383 2.0381
-5.0144 4.1511 2.0381
-5.3343 3.7367 2.0381
-5.6199 3.2976 2.0381
-5.8693 2.8368 2.0381
-6.0808 2.3571 2.0381
-6.2530 1.8618 2.0381
-6.3848 1.3540 2.0381
-6.4752 0.8371 2.0381
-6.5235 0.3144 2.0381
-6.5295 -0.2106 2.0381
-6.4931 -0.7345 2.0381
-6.4144 -1.2539 2.0381
-6.2940 -1.7653 2.0381
-6.1326 -2.2654 2.0381
-5.9314 -2.7508 2.0381
-5.6915 -3.2184 2.0381
-5.4146 -3.6651 2.0381
-5.1026 -4.0879 2.0381
-4.7574 -4.4841 2.0381
-4.3813 -4.8511 2.0381
-3.9769 -5.1864 2.0381
-3.5468 -5.4880 2.0381
-3.0938 -5.7537 2.0381
-2.6209 -5.9819 2.0381
-2.1313 -6.1711 2.0381
-1.6281 -6.3202 2.0381
-1.1148 -6.4281 2.0381
-0.5946 -6.4942 2.0381
-0.0709 -6.5182 2.0381
0.4527 -6.4999 2.0381
0.9730 -6.4394 2.0381
1.4864 -6.3373 2.0381
1.9898 -6.1943 2.0381
1.7043 -4.1315 1.4008
1.1681 -2.2899 0.8061
1.0173 -1.6513 0.6085
1.1766 -1.6050 0.6247
1.3455 -1.5559 0.6461
1.5275 -1.5030 0.6734
1.7266 -1.4451 0.7079
1.9486 -1.3805 0.7512
2.2010 -1.3072 0.8056
2.4946 -1.2219 0.8746
2.8454 -1.1200 0.9632
6.0061 -1.8219 1.9777
5.8705 -1.2760 1.8937
5.9269 -0.7963 1.8857
5.9699 -0.3172 1.8857
5.9744 0.1638 1.8857
5.9405 0.6435 1.8857
5.8683 1.1188 1.8857
5.7584 1.5867 1.8857
5.6115 2.0443 1.8857
5.4285 2.4887 1.8857
5.2106 2.9170 1.8857
4.9592 3.3265 1.8857
4.6759 3.7146 1.8857
4.3626 4.0784 1.8857
4.1616 4.5715 1.9517
3.9486 5.1087 2.0381
3.5257 5.4108 2.0381
3.0801 5.6781 2.0381
2.6143 5.9089 2.0381
2.1315 6.1019 2.0381
1.6346 6.2557 2.0381
1.1268 6.3692 2.0381
0.6114 6.4418 2.0381
0.0917 6.4729 2.0381
-0.4291 6.4622 2.0381
-0.9476 6.4098 2.0381
-1.4604 6.3160 2.0381
-1.9643 6.1813 2.0381
-2.4560 6.0065 2.0381
-2.9323 5.7927 2.0381
-3.3900 5.5412 2.0381
-3.8263 5.2537 2.0381
-4.2383 4.9318 2.0381
-4.6232 4.5776 2.0381
-4.9786 4.1935 2.0381
-5.3020 3.7818 2.0381
-5.5913 3.3452 2.0381
-5.8446 2.8865 2.0381
-6.0603 2.4087 2.0381
-6.2367 1.9149 2.0381
-6.3728 1.4083 2.0381
-6.4676 0.8922 2.0381
-6.5204 0.3699 2.0381
-6.5309 -0.1550 2.0381
-6.4989 -0.6792 2.0381
-6.4247 -1.1992 2.0381
-6.3087 -1.7116 2.0381
-6.1516 -2.2130 2.0381
-5.9545 -2.7002 2.0381
-5.7187 -3.1698 2.0381
-5.4457 -3.6189 2.0381
-5.1372 -4.0444 2.0381
-4.7954 -4.4435 2.0381
-4.4225 -4.8137 2.0381
-4.0210 -5.1525 2.0381
-3.5934 -5.4577 2.0381
-3.1427 -5.7273 2.0381
-2.6718 -5.9595 2.0381
-2.1838 -6.1530 2.0381
-1.6820 -6.3063 2.0381
-1.1695 -6.4186 2.0381
-0.6499 -6.4892 2.0381
-0.1265 -6.5176 2.0381
0.3973 -6.5038 2.0381
0.9181 -6.4478 2.0381
1.4325 -6.3501 2.0381
1.9371 -6.2114 2.0381
1.8116 -4.5000 1.5203
1.2023 -2.4075 0.8438
1.0009 -1.6561 0.6071
1.1593 -1.6100 0.6228
1.3271 -1.5612 0.6435
1.5075 -1.5088 0.6702
1.7046 -1.4515 0.7039
1.9238 -1.3877 0.7461
2.1726 -1.3155 0.7992
2.4612 -1.2316 0.8665
2.8049 -1.1318 0.9527
6.0217 -1.8828 1.9880
5.8796 -1.3306 1.9002
5.9201 -0.8468 1.8857
5.9672 -0.3680 1.8857
5.9758 0.1129 1.8857
5.9459 0.5928 1.8857
5.8777 1.0687 1.8857
5.7718 1.5376 1.8857
5.6288 1.9964 1.8857
5.4496 2.4423 1.8857
5.2353 2.8724 1.8857
4.9874 3.2841 1.8857
4.7073 3.6746 1.8857
4.3970 4.0415 1.8857
4.1800 4.5139 1.9423
3.9919 5.0748 2.0381
3.5716 5.3805 2.0381
3.1283 5.6514 2.0381
2.6645 5.8863 2.0381
2.1833 6.0833 2.0381
1.6878 6.2413 2.0381
1.1810 6.3591 2.0381
0.6663 6.4361 2.0381
0.1468 6.4716 2.0381
-0.3740 6.4653 2.0381
-0.8929 6.4174 2.0381
-1.4065 6.3279 2.0381
-1.9115 6.1975 2.0381
-2.4046 6.0269 2.0381
-2.8826 5.8172 2.0381
-3.3425 5.5696 2.0381
-3.7812 5.2858 2.0381
-4.1959 4.9674 2.0381
-4.5838 4.6166 2.0381
-4.9424 4.2355 2.0381
-5.2693 3.8266 2.0381
-5.5624 3.3925 2.0381
-5.8196 2.9361 2.0381
-6.0393 2.4602 2.0381
-6.2199 1.9679 2.0381
-6.3603 1.4625 2.0381
-6.4595 0.9472 2.0381
-6.5168 0.4254 2.0381
-6.5318 -0.0994 2.0381
-6.5043 -0.6238 2.0381
-6.4346 -1.1444 2.0381
-6.3229 -1.6578 2.0381
-6.1702 -2.1606 2.0381
-5.9773 -2.6494 2.0381
-5.7455 -3.1210 2.0381
-5.4763 -3.5724 2.0381
-5.1715 -4.0005 2.0381
-4.8332 -4.4026 2.0381
-4.4634 -4.7759 2.0381
-4.0648 -5.1182 2.0381
-3.6399 -5.4270 2.0381
-3.1915 -5.7004 2.0381
-2.7226 -5.9367 2.0381
-2.2362 -6.1343 2.0381
-1.7357 -6.2920 2.0381
-1.2242 -6.4087 2.0381
-0.7052 -6.4837 2.0381
-0.1820 -6.5166 2.0381
0.3419 -6.5073 2.0381
0.8632 -6.4557 2.0381
1.3784 -6.3624 2.0381
1.8842 -6.2280 2.0381
1.9390 -4.9373 1.6624
1.2399 -2.5366 0.8853
0.9853 -1.6621 0.6062
1.1421 -1.6150 0.6209
1.3088 -1.5665 0.6411
1.4876 -1.5145 0.6670
1.6827 -1.4578 0.6999
4.7259 2.6988 1.8886
4.5831 3.1312 1.9263
4.4400 3.5894 1.9813
4.2561 4.0481 2.0381
3.9173 4.3777 2.0381
3.5532 4.6793 2.0381
3.1660 4.9508 2.0381
2.7584 5.1905 2.0381
2.3327 5.3969 2.0381
1.8918 5.5686 2.0381
1.4385 5.7045 2.0381
0.9756 5.8037 2.0381
0.5060 5.8655 2.0381
0.0329 5.8896 2.0381
-0.4408 5.8756 2.0381
-0.9121 5.8237 2.0381
-1.3778 5.7342 2.0381
-1.8351 5.6075 2.0381
-2.2809 5.4445 2.0381
-2.7124 5.2461 2.0381
-3.1267 5.0136 2.0381
-3.5211 4.7484 2.0381
-3.8931 4.4523 2.0381
-4.2403 4.1270 2.0381
-4.5603 3.7748 2.0381
-4.8510 3.3978 2.0381
-5.1105 2.9984 2.0381
-5.3371 2.5792 2.0381
-5.5292 2.1431 2.0381
-5.6856 1.6926 2.0381
-5.8052 1.2309 2.0381
-5.8872 0.7609 2.0381
-5.9310 0.2857 2.0381
-5.9363 -0.1917 2.0381
-5.9031 -0.6680 2.0381
-5.8315 -1.1401 2.0381
-5.7220 -1.6050 2.0381
-5.5752 -2.0595 2.0381
-5.3922 -2.5008 2.0381
-5.1742 -2.9259 2.0381
-4.9225 -3.3319 2.0381
-4.6388 -3.7163 2.0381
-4.3250 -4.0765 2.0381
-3.9832 -4.4102 2.0381
-3.6156 -4.7151 2.0381
-3.2246 -4.9893 2.0381
-2.8129 -5.2309 2.0381
-2.3830 -5.4385 2.0381
-0.7005 -2.0279 0.7367
-1.4806 -5.7464 2.0381
-1.0139 -5.8447 2.0381
-0.5409 -5.9050 2.0381
-0.0648 -5.9270 2.0381
0.4114 -5.9106 2.0381
0.8845 -5.8559 2.0381
1.3515 -5.7633 2.0381
1.8093 -5.6334 2.0381
1.7050 -4.1338 1.5411
1.1683 -2.2907 0.8866
1.0173 -1.6515 0.6691
1.1766 -1.6052 0.6869
1.3455 -1.5560 0.7103
1.5275 -1.5031 0.7403
1.7267 -1.4452 0.7782
1.9487 -1.3807 0.8258
2.2011 -1.3074 0.8856
2.4947 -1.2221 0.9614
2.8456 -1.1202 1.0587
5.6314 -1.7085 2.0381
5.7485 -1.2498 2.0381
5.6977 -0.7657 1.9924
5.5730 -0.2963 1.9347
5.4584 0.1495 1.8935
5.4054 0.5854 1.8857
5.3398 1.0179 1.8857
5.2473 1.4458 1.8884
5.1063 1.8602 1.8857
4.9398 2.2646 1.8857
4.7417 2.6544 1.8858
4.5976 3.0844 1.9213
4.4556 3.5397 1.9747
4.2904 4.0116 2.0381
3.9544 4.3441 2.0381
3.5929 4.6487 2.0381
3.2081 4.9235 2.0381
2.8024 5.1666 2.0381
2.3786 5.3766 2.0381
1.9392 5.5521 2.0381
1.4870 5.6918 2.0381
1.0250 5.7949 2.0381
0.5560 5.8608 2.0381
0.0831 5.8888 2.0381
-0.3907 5.8789 2.0381
-0.8624 5.8310 2.0381
-1.3288 5.7454 2.0381
-1.7871 5.6227 2.0381
-2.2343 5.4635 2.0381
-2.6674 5.2687 2.0381
-3.0837 5.0398 2.0381
-3.4804 4.7780 2.0381
-3.8549 4.4851 2.0381
-4.2048 4.1628 2.0381
-4.5277 3.8133 2.0381
-4.8217 3.4388 2.0381
-5.0846 3.0417 2.0381
-5.3147 2.6245 2.0381
-5.5106 2.1900 2.0381
-5.6708 1.7409 2.0381
-5.7943 1.2802 2.0381
-5.8803 0.8110 2.0381
-5.9282 0.3361 2.0381
-5.9376 -0.1411 2.0381
-5.9084 -0.6176 2.0381
-5.8409 -1.0904 2.0381
-5.7353 -1.5562 2.0381
-5.5925 -2.0120 2.0381
-5.4133 -2.4548 2.0381
-5.1989 -2.8817 2.0381
-4.9507 -3.2899 2.0381
-4.6703 -3.6767 2.0381
-4.3596 -4.0396 2.0381
-4.0207 -4.3762 2.0381
-3.6557 -4.6842 2.0381
-3.2671 -4.9617 2.0381
-2.8574 -5.2069 2.0381
-2.4293 -5.4182 2.0381
-0.7177 -2.0219 0.7367
-1.5295 -5.7338 2.0381
-1.0637 -5.8361 2.0381
-0.5912 -5.9004 2.0381
-0.1153 -5.9265 2.0381
0.3610 -5.9141 2.0381
0.8346 -5.8635 2.0381
1.3024 -5.7748 2.0381
1.7613 -5.6489 2.0381
1.8125 -4.5028 1.6727
1.2026 -2.4083 0.9281
1.0008 -1.6563 0.6675
1.1593 -1.6102 0.6847
1.3271 -1.5614 0.7075
1.5075 -1.5089 0.7368
1.7046 -1.4517 0.7738
1.9239 -1.3879 0.8202
2.1726 -1.3157 0.8786
2.4613 -1.2318 0.9525
2.8051 -1.1320 1.0472
5.6169 -1.7565 2.0381
5.7379 -1.2988 2.0381
5.7113 -0.8172 1.9994
5.5860 -0.3447 1.9401
5.4686 0.1033 1.8966
5.4104 0.5392 1.8857
5.3484 0.9723 1.8857
5.2600 1.4011 1.8886
5.1220 1.8166 1.8857
4.9589 2.2224 1.8857
4.7640 2.6138 1.8857
4.6123 3.0371 1.9165
4.4712 3.4902 1.9684
4.3193 3.9702 2.0357
3.9913 4.3102 2.0381
3.6323 4.6178 2.0381
3.2499 4.8958 2.0381
2.8463 5.1424 2.0381
2.4243 5.3560 2.0381
1.9864 5.5351 2.0381
1.5354 5.6787 2.0381
1.0743 5.7858 2.0381
0.6059 5.8556 2.0381
0.1333 5.8877 2.0381
-0.3406 5.8818 2.0381
-0.8126 5.8379 2.0381
-1.2798 5.7563 2.0381
-1.7391 5.6374 2.0381
-2.1875 5.4820 2.0381
-2.6223 5.2910 2.0381
-3.0405 5.0656 2.0381
-3.4394 4.8073 2.0381
-3.8163 4.5175 2.0381
-4.1690 4.1983 2.0381
-4.4949 3.8516 2.0381
-4.7920 3.4796 2.0381
-5.0582 3.0847 2.0381
-5.2919 2.6695 2.0381
-5.4915 2.2367 2.0381
-5.6555 1.7891 2.0381
-5.7830 1.3295 2.0381
-5.8730 0.8610 2.0381
-5.9250 0.3866 2.0381
-5.9384 -0.0905 2.0381
-5.9134 -0.5673 2.0381
-5.8498 -1.0406 2.0381
-5.7483 -1.5073 2.0381
-5.6094 -1.9643 2.0381
-5.4340 -2.4086 2.0381
-5.2232 -2.8373 2.0381
-4.9785 -3.2476 2.0381
-4.7015 -3.6368 2.0381
-4.3939 -4.0024 2.0381
-4.0579 -4.3418 2.0381
-3.6955 -4.6530 2.0381
-3.3093 -4.9338 2.0381
-2.9017 -5.1825 2.0381
-2.4755 -5.3975 2.0381
-0.7349 -2.0158 0.7366
-1.5784 -5.7207 2.0381
-1.1134 -5.8270 2.0381
-0.6415 -5.8954 2.0381
-0.1658 -5.9256 2.0381
0.3106 -5.9173 2.0381
0.7847 -5.8706 2.0381
1.2532 -5.7860 2.0381
1.7132 -5.6640 2.0381
1.9400 -4.9406 1.8290
1.2402 -2.5375 0.9737
0.9854 -1.6625 0.6666
1.1421 -1.6152 0.6827
1.3088 -1.5667 0.7048
1.4877 -1.5147 0.7334
1.6828 -1.4580 0.7695
4.6712 2.6675 2.0381
4.4416 3.0345 2.0381
4.1833 3.3821 2.0381
3.8981 3.7077 2.0381
3.5878 4.0096 2.0381
3.2542 4.2857 2.0381
2.8996 4.5344 2.0381
2.5261 4.7538 2.0381
0.7859 1.8185 0.7498
0.6373 1.8761 0.7498
0.4845 1.9215 0.7497
0.3285 1.9545 0.7495
0.4632 5.3715 2.0381
0.0299 5.3934 2.0381
-0.4039 5.3804 2.0381
-0.3068 1.9584 0.7485
-0.4632 1.9274 0.7482
-0.6166 1.8838 0.7478
-0.7659 1.8280 0.7474
-2.4837 4.8031 2.0381
-2.8629 4.5900 2.0381
-3.2239 4.3471 2.0381
-3.5644 4.0758 2.0381
-3.8821 3.7779 2.0381
-4.1748 3.4553 2.0381
-4.4408 3.1101 2.0381
-4.6782 2.7444 2.0381
-4.8855 2.3607 2.0381
-5.0612 1.9613 2.0381
-5.2042 1.5490 2.0381
-5.3135 1.1264 2.0381
-5.3884 0.6962 2.0381
-5.4284 0.2613 2.0381
-5.4332 -0.1756 2.0381
-5.4026 -0.6115 2.0381
-5.3370 -1.0435 2.0381
-5.2367 -1.4690 2.0381
-5.1024 -1.8849 2.0381
-4.9349 -2.2888 2.0381
-4.7353 -2.6777 2.0381
-4.5050 -3.0493 2.0381
-4.2454 -3.4011 2.0381
-3.9583 -3.7308 2.0381
-3.6455 -4.0362 2.0381
-3.3091 -4.3152 2.0381
-2.9514 -4.5662 2.0381
-2.5746 -4.7875 2.0381
-2.1813 -4.9776 2.0381
-0.6417 -1.8575 0.7372
-0.4903 -1.9028 0.7374
-0.3359 -1.9358 0.7375
-0.1793 -1.9563 0.7377
-0.0216 -1.9643 0.7379
0.1363 -1.9596 0.7382
0.2933 -1.9423 0.7385
0.4484 -1.9125 0.7388
0.6006 -1.8704 0.7392
0.7490 -1.8162 0.7396
1.1685 -2.2915 0.9687
1.0172 -1.6517 0.7309
1.1766 -1.6053 0.7503
1.3455 -1.5562 0.7758
1.5275 -1.5033 0.8086
1.7267 -1.4454 0.8499
1.9487 -1.3809 0.9019
2.2012 -1.3076 0.9672
2.4949 -1.2223 1.0499
2.8457 -1.1204 1.1562
5.1571 -1.5648 2.0381
5.2645 -1.1448 2.0381
5.3379 -0.7174 2.0381
5.3769 -0.2860 2.0381
5.3812 0.1472 2.0381
5.3046 0.5743 2.0206
5.1885 0.9889 2.0006
5.0719 1.3973 1.9929
4.9533 1.8044 1.9972
4.8314 2.2148 2.0137
4.6938 2.6276 2.0381
4.4673 2.9965 2.0381
4.2120 3.3462 2.0381
3.9296 3.6743 2.0381
3.6218 3.9788 2.0381
3.2906 4.2578 2.0381
2.9381 4.5094 2.0381
2.5665 4.7320 2.0381
2.1783 4.9242 2.0381
0.6533 1.8706 0.7498
0.5008 1.9173 0.7497
0.3451 1.9516 0.7495
0.1871 1.9732 0.7493
0.0758 5.3927 2.0381
-0.3580 5.3834 2.0381
-0.2901 1.9610 0.7485
-0.4468 1.9313 0.7482
-0.6005 1.8890 0.7478
-0.7503 1.8345 0.7474
-2.4425 4.8238 2.0381
-2.8235 4.6140 2.0381
-3.1866 4.3742 2.0381
-3.5294 4.1059 2.0381
-3.8496 3.8107 2.0381
-4.1451 3.4906 2.0381
-4.4140 3.1477 2.0381
-4.6545 2.7841 2.0381
-4.8650 2.4021 2.0381
-5.0441 2.0043 2.0381
-5.1907 1.5934 2.0381
-5.3036 1.1716 2.0381
-5.3821 0.7420 2.0381
-5.4258 0.3075 2.0381
-5.4343 -0.1293 2.0381
-5.4075 -0.5654 2.0381
-5.3456 -0.9980 2.0381
-5.2490 -1.4243 2.0381
-5.1182 -1.8414 2.0381
-4.9542 -2.2466 2.0381
-4.7580 -2.6373 2.0381
-4.5308 -3.0109 2.0381
-4.2743 -3.3649 2.0381
-3.9900 -3.6970 2.0381
-3.6798 -4.0050 2.0381
-3.3458 -4.2870 2.0381
-2.9902 -4.5410 2.0381
-2.6153 -4.7655 2.0381
-2.2236 -4.9589 2.0381
-0.6575 -1.8520 0.7372
-0.5065 -1.8986 0.7373
-0.3524 -1.9329 0.7375
-0.1960 -1.9547 0.7377
-0.0383 -1.9640 0.7379
0.1196 -1.9607 0.7382
0.2767 -1.9447 0.7385
0.4321 -1.9163 0.7388
0.5846 -1.8754 0.7391
0.7335 -1.8225 0.7395
1.2028 -2.4092 1.0141
1.0008 -1.6564 0.7292
1.1593 -1.6104 0.7479
1.3271 -1.5616 0.7728
1.5075 -1.5091 0.8047
1.7046 -1.4518 0.8451
1.9239 -1.3881 0.8958
2.1727 -1.3159 0.9595
2.4614 -1.2320 1.0402
2.8052 -1.1322 1.1436
5.1438 -1.6088 2.0381
5.2548 -1.1897 2.0381
5.3318 -0.7631 2.0381
5.3744 -0.3318 2.0381
5.3824 0.1013 2.0381
5.3170 0.5298 2.0234
5.2008 0.9454 2.0021
5.0843 1.3542 1.9931
4.9660 1.7612 1.9962
4.8445 2.1711 2.0114
4.7160 2.5875 2.0381
4.4927 2.9583 2.0381
4.2404 3.3101 2.0381
3.9607 3.6406 2.0381
3.6555 3.9478 2.0381
3.3267 4.2295 2.0381
2.9764 4.4841 2.0381
2.6067 4.7099 2.0381
2.2201 4.9054 2.0381
0.6692 1.8649 0.7498
0.5171 1.9129 0.7497
0.3617 1.9486 0.7495
0.2039 1.9715 0.7493
0.1218 5.3916 2.0381
-0.3121 5.3861 2.0381
-0.2734 1.9634 0.7486
-0.4303 1.9350 0.7482
-0.5844 1.8941 0.7479
-0.7347 1.8408 0.7475
-2.4012 4.8442 2.0381
-2.7840 4.6377 2.0381
-3.1491 4.4010 2.0381
-3.4941 4.1356 2.0381
-3.8168 3.8432 2.0381
-4.1150 3.5256 2.0381
-4.3868 3.1850 2.0381
-4.6304 2.8235 2.0381
-4.8442 2.4434 2.0381
-5.0267 2.0471 2.0381
-5.1766 1.6372 2.0381
-5.2932 1.2166 2.0381
-5.3755 0.7878 2.0381
-5.4229 0.3537 2.0381
-5.4351 -0.0830 2.0381
-5.4120 -0.5194 2.0381
-5.3538 -0.9525 2.0381
-5.2608 -1.3795 2.0381
-5.1337 -1.7977 2.0381
-4.9731 -2.2044 2.0381
-4.7802 -2.5967 2.0381
-4.5563 -2.9722 2.0381
-4.3028 -3.3284 2.0381
-4.0213 -3.6629 2.0381
-3.7138 -3.9736 2.0381
-3.3823 -4.2584 2.0381
-3.0288 -4.5155 2.0381
-2.6559 -4.7432 2.0381
-2.2658 -4.9400 2.0381
-0.6732 -1.8464 0.7372
-0.5227 -1.8942 0.7373
-0.3688 -1.9298 0.7375
-0.2126 -1.9530 0.7377
-0.0550 -1.9637 0.7379
0.1029 -1.9616 0.7381
0.2601 -1.9470 0.7384
0.4157 -1.9199 0.7387
0.5686 -1.8803 0.7391
0.7179 -1.8287 0.7395
1.2405 -2.5385 1.0640
0.9855 -1.6630 0.7283
1.1421 -1.6154 0.7457
1.3088 -1.5669 0.7698
1.4877 -1.5149 0.8010
1.6828 -1.4582 0.8404
4.3017 2.4565 2.0381
4.0902 2.7945 2.0381
3.8524 3.1145 2.0381
3.5897 3.4144 2.0381
3.3039 3.6924 2.0381
2.9966 3.9467 2.0381
2.6700 4.1756 2.0381
2.3261 4.3777 2.0381
0.7232 1.6734 0.7493
0.5864 1.7264 0.7493
0.4457 1.7682 0.7492
0.3022 1.7986 0.7490
0.1566 1.8172 0.7488
0.0100 1.8240 0.7486
-0.1367 1.8190 0.7484
-0.2824 1.8021 0.7481
-0.4264 1.7736 0.7478
-0.5675 1.7335 0.7475
-0.7050 1.6822 0.7471
-2.2868 4.4216 2.0381
-2.6358 4.2254 2.0381
-2.9681 4.0016 2.0381
-3.2814 3.7518 2.0381
-3.5737 3.4774 2.0381
-3.8431 3.1804 2.0381
-4.0878 2.8625 2.0381
-4.3062 2.5259 2.0381
-4.4968 2.1726 2.0381
-4.6584 1.8050 2.0381
-4.7899 1.4255 2.0381
-4.8904 1.0365 2.0381
-4.9593 0.6406 2.0381
-4.9960 0.2403 2.0381
-5.0003 -0.1617 2.0381
-4.9721 -0.5629 2.0381
-4.9117 -0.9605 2.0381
-4.8193 -1.3520 2.0381
-4.6957 -1.7348 2.0381
-4.5415 -2.1063 2.0381
-4.3579 -2.4643 2.0381
-4.1459 -2.8063 2.0381
-3.9070 -3.1300 2.0381
-3.6428 -3.4334 2.0381
-3.3550 -3.7144 2.0381
-3.0455 -3.9713 2.0381
-2.7163 -4.2023 2.0381
-2.3696 -4.4060 2.0381
-0.7266 -1.6580 0.7377
-0.5910 -1.7107 0.7377
-0.4517 -1.7524 0.7378
-0.3094 -1.7828 0.7380
-0.1652 -1.8017 0.7382
-0.0200 -1.8091 0.7384
0.1254 -1.8047 0.7386
0.2700 -1.7888 0.7389
0.4128 -1.7614 0.7392
0.5530 -1.7226 0.7395
0.6897 -1.6727 0.7399
1.1688 -2.2923 1.0527
1.0172 -1.6519 0.7940
1.1765 -1.6055 0.8150
1.3455 -1.5564 0.8428
1.5275 -1.5035 0.8783
1.7267 -1.4456 0.9232
1.9487 -1.3811 0.9796
2.2012 -1.3078 1.0505
2.4950 -1.2225 1.1403
2.8459 -1.1206 1.2558
4.7486 -1.4411 2.0381
4.8476 -1.0543 2.0381
4.9153 -0.6610 2.0381
4.9513 -0.2635 2.0381
4.9553 0.1354 2.0381
4.9274 0.5333 2.0381
4.8677 0.9277 2.0381
4.7767 1.3161 2.0381
4.6549 1.6957 2.0381
4.5032 2.0645 2.0381
4.3225 2.4197 2.0381
4.1139 2.7595 2.0381
3.8788 3.0815 2.0381
3.6187 3.3837 2.0381
3.3352 3.6641 2.0381
3.0301 3.9210 2.0381
2.7055 4.1526 2.0381
2.3633 4.3576 2.0381
0.7374 1.6671 0.7493
0.6011 1.7213 0.7493
0.4608 1.7643 0.7492
0.3175 1.7959 0.7490
0.1721 1.8158 0.7489
0.0256 1.8239 0.7486
-0.1211 1.8201 0.7484
-0.2671 1.8045 0.7481
-0.4112 1.7772 0.7478
-0.5527 1.7383 0.7475
-0.6906 1.6881 0.7471
-2.2489 4.4408 2.0381
-2.5996 4.2475 2.0381
-2.9337 4.0266 2.0381
-3.2492 3.7794 2.0381
-3.5438 3.5076 2.0381
-3.8157 3.2129 2.0381
-4.0631 2.8971 2.0381
-4.2843 2.5624 2.0381
-4.4780 2.2107 2.0381
-4.6427 1.8445 2.0381
-4.7775 1.4662 2.0381
-4.8813 1.0781 2.0381
-4.9535 0.6828 2.0381
-4.9936 0.2829 2.0381
-5.0014 -0.1191 2.0381
-4.9766 -0.5205 2.0381
-4.9196 -0.9186 2.0381
-4.8306 -1.3109 2.0381
-4.7102 -1.6947 2.0381
-4.5593 -2.0676 2.0381
-4.3787 -2.4271 2.0381
-4.1696 -2.7709 2.0381
-3.9336 -3.0966 2.0381
-3.6720 -3.4023 2.0381
-3.3866 -3.6857 2.0381
-3.0793 -3.9453 2.0381
-2.7520 -4.1791 2.0381
-2.4071 -4.3857 2.0381
-0.7407 -1.6518 0.7377
-0.6056 -1.7056 0.7377
-0.4666 -1.7485 0.7378
-0.3246 -1.7801 0.7380
-0.1806 -1.8003 0.7381
-0.0354 -1.8088 0.7383
0.1100 -1.8057 0.7386
0.2547 -1.7910 0.7388
0.3978 -1.7648 0.7391
0.5383 -1.7272 0.7395
0.6754 -1.6785 0.7398
1.2031 -2.4101 1.1020
1.0008 -1.6566 0.7921
1.1593 -1.6105 0.8125
1.3271 -1.5618 0.8395
1.5075 -1.5093 0.8741
1.7046 -1.4520 0.9180
1.9239 -1.3883 0.9730
2.1728 -1.3161 1.0422
2.4615 -1.2322 1.1298
2.8054 -1.1324 1.2421
4.7363 -1.4816 2.0381
4.8386 -1.0957 2.0381
4.9096 -0.7029 2.0381
4.9490 -0.3057 2.0381
4.9564 0.0932 2.0381
4.9319 0.4913 2.0381
4.8755 0.8865 2.0381
4.7878 1.2754 2.0381
4.6693 1.6559 2.0381
4.5206 2.0262 2.0381
4.3430 2.3828 2.0381
4.1373 2.7243 2.0381
3.9049 3.0483 2.0381
3.6473 3.3527 2.0381
3.3663 3.6355 2.0381
3.0634 3.8949 2.0381
2.7407 4.1293 2.0381
2.4003 4.3372 2.0381
0.7516 1.6608 0.7493
0.6157 1.7161 0.7493
0.4758 1.7603 0.7492
0.3328 1.7931 0.7491
0.1876 1.8142 0.7489
0.0411 1.8236 0.7487
-0.1056 1.8211 0.7484
