ply
format ascii 1.0
element vertex 2172
property float32 x
property float32 y
property float32 z
end_header
-7.6764 9.6978 2.0382
-8.4380 9.0555 2.0382
-9.1461 8.3535 2.0382
-9.7957 7.5962 2.0382
-10.3826 6.7884 2.0382
-10.9028 5.9354 2.0382
-11.3528 5.0425 2.0382
-11.7294 4.1156 2.0382
-12.0301 3.1607 2.0382
-12.2527 2.1840 2.0382
-12.3956 1.1919 2.0382
-12.4577 0.1911 2.0382
-12.4386 -0.8120 2.0382
-12.3382 -1.8107 2.0382
-12.1571 -2.7984 2.0382
-11.8964 -3.7684 2.0382
-11.5577 -4.7143 2.0382
-11.1433 -5.6299 2.0382
-10.6559 -6.5089 2.0382
-10.0987 -7.3456 2.0382
-9.4754 -8.1343 2.0382
-8.7901 -8.8698 2.0382
-8.0474 -9.5471 2.0382
-7.2522 -10.1619 2.0382
-6.4099 -10.7100 2.0382
-5.5261 -11.1879 2.0382
-4.6068 -11.5923 2.0382
-3.6580 -11.9208 2.0382
-2.6861 -12.1711 2.0382
-1.6975 -12.3418 2.0382
2.2464 -1.7364 0.5511
2.3789 -1.5500 0.5515
2.4961 -1.3537 0.5519
2.5974 -1.1487 0.5523
2.8035 -0.9786 0.5778
9.4362 -2.4626 1.8986
9.6303 -1.6999 1.9048
9.7583 -0.9216 1.9101
9.8187 -0.1335 1.9145
9.1020 0.6104 1.7793
9.7341 1.4465 1.9201
9.5892 2.2259 1.9213
9.3773 2.9899 1.9215
9.0999 3.7323 1.9206
8.7596 4.4472 1.9186
8.3592 5.1290 1.9156
7.9021 5.7726 1.9116
7.3924 6.3730 1.9066
6.8345 6.9260 1.9007
6.2331 7.4276 1.8939
5.5934 7.8745 1.8863
4.9410 8.2981 1.8858
4.2581 8.6709 1.8858
3.5475 8.9879 1.8858
2.8598 9.3994 1.9167
2.2276 10.2106 2.0382
1.3993 10.3610 2.0382
0.5612 10.4447 2.0382
-0.2812 10.4610 2.0382
-1.1227 10.4098 2.0382
-1.9578 10.2913 2.0382
-2.7811 10.1062 2.0382
-3.5874 9.8555 2.0382
-4.3715 9.5407 2.0382
-5.1281 9.1637 2.0382
-5.8525 8.7269 2.0382
-6.5399 8.2330 2.0382
-7.1857 7.6851 2.0382
-7.7857 7.0866 2.0382
-8.3359 6.4413 2.0382
-8.8325 5.7534 2.0382
-9.2724 5.0273 2.0382
-9.6525 4.2676 2.0382
-9.9702 3.4792 2.0382
-10.2233 2.6674 2.0382
-10.4100 1.8373 2.0382
-10.5291 0.9944 2.0382
-10.5797 0.1443 2.0382
-10.5613 -0.7075 2.0382
-10.4739 -1.5552 2.0382
-10.3182 -2.3934 2.0382
-10.0950 -3.2165 2.0382
-9.8057 -4.0190 2.0382
-9.4524 -4.7955 2.0382
-9.0371 -5.5409 2.0382
-8.5628 -6.2503 2.0382
-8.0325 -6.9189 2.0382
-7.4497 -7.5423 2.0382
-6.8184 -8.1164 2.0382
-6.1426 -8.6374 2.0382
-5.4270 -9.1018 2.0382
-4.6762 -9.5066 2.0382
-3.8953 -9.8491 2.0382
-3.0894 -10.1272 2.0382
-2.2639 -10.3390 2.0382
-1.4244 -10.4833 2.0382
-0.5762 -10.5592 2.0382
0.2749 -10.5661 2.0382
1.1234 -10.5043 2.0382
1.9637 -10.3742 2.0382
2.7903 -10.1768 2.0382
3.5978 -9.9135 2.0382
1.7150 -3.7526 0.7979
1.3856 -2.4818 0.5500
1.5802 -2.3614 0.5501
1.7645 -2.2259 0.5503
1.9375 -2.0762 0.5506
2.0979 -1.9134 0.5508
2.2449 -1.7382 0.5511
2.3776 -1.5520 0.5515
2.4950 -1.3558 0.5519
2.5964 -1.1508 0.5523
2.7994 -0.9798 0.5771
9.4338 -2.4703 1.8986
9.6286 -1.7079 1.9048
9.7573 -0.9297 1.9101
9.8184 -0.1417 1.9144
9.1010 0.6027 1.7789
9.7352 1.4384 1.9201
9.5911 2.2179 1.9213
9.3798 2.9820 1.9215
9.1031 3.7247 1.9206
8.7634 4.4399 1.9186
8.3636 5.1222 1.9156
7.9071 5.7662 1.9116
7.3980 6.3671 1.9067
6.8405 6.9205 1.9008
6.2396 7.4227 1.8940
5.6002 7.8701 1.8864
4.9479 8.2940 1.8858
4.2653 8.6673 1.8858
3.5550 8.9849 1.8858
2.8642 9.3856 1.9145
2.2361 10.2088 2.0382
1.4079 10.3598 2.0382
0.5699 10.4442 2.0382
-0.2725 10.4612 2.0382
-1.1140 10.4107 2.0382
-1.9492 10.2929 2.0382
-2.7727 10.1084 2.0382
-3.5792 9.8584 2.0382
-4.3635 9.5442 2.0382
-5.1205 9.1679 2.0382
-5.8452 8.7318 2.0382
-6.5330 8.2384 2.0382
-7.1792 7.6910 2.0382
-7.7797 7.0931 2.0382
-8.3304 6.4483 2.0382
-8.8277 5.7608 2.0382
-9.2682 5.0350 2.0382
-9.6489 4.2756 2.0382
-9.9672 3.4875 2.0382
-10.2210 2.6759 2.0382
-10.4084 1.8459 2.0382
-10.5282 1.0032 2.0382
-10.5795 0.1531 2.0382
-10.5618 -0.6986 2.0382
-10.4752 -1.5465 2.0382
-10.3201 -2.3848 2.0382
-10.0976 -3.2081 2.0382
-9.8091 -4.0107 2.0382
-9.4563 -4.7876 2.0382
-9.0417 -5.5334 2.0382
-8.5680 -6.2432 2.0382
-8.0383 -6.9122 2.0382
-7.4560 -7.5361 2.0382
-6.8251 -8.1107 2.0382
-6.1498 -8.6323 2.0382
-5.4346 -9.0973 2.0382
-4.6841 -9.5027 2.0382
-3.9035 -9.8459 2.0382
-3.0979 -10.1247 2.0382
-2.2726 -10.3372 2.0382
-1.4331 -10.4822 2.0382
-0.5850 -10.5587 2.0382
0.2661 -10.5664 2.0382
1.1146 -10.5053 2.0382
1.9550 -10.3759 2.0382
2.7818 -10.1792 2.0382
3.5895 -9.9165 2.0382
1.7218 -3.7759 0.8025
1.3836 -2.4829 0.5500
1.5782 -2.3627 0.5501
1.7627 -2.2274 0.5503
1.9357 -2.0779 0.5506
2.0963 -1.9151 0.5508
2.2435 -1.7401 0.5511
2.3763 -1.5540 0.5515
2.4938 -1.3579 0.5519
2.5955 -1.1530 0.5523
2.7953 -0.9809 0.5764
9.4315 -2.4781 1.8985
9.6269 -1.7159 1.9047
9.7563 -0.9378 1.9100
9.8181 -0.1499 1.9144
9.1000 0.5950 1.7786
9.7363 1.4303 1.9200
9.5929 2.2099 1.9213
9.3823 2.9742 1.9215
9.1063 3.7171 1.9206
8.7673 4.4327 1.9187
8.3680 5.1153 1.9157
7.9121 5.7597 1.9117
7.4035 6.3611 1.9067
6.8465 6.9150 1.9008
6.2460 7.4177 1.8941
5.6070 7.8658 1.8865
4.9548 8.2899 1.8858
4.2726 8.6637 1.8858
3.5624 8.9819 1.8858
2.8686 9.3720 1.9122
2.2446 10.2069 2.0382
1.4165 10.3586 2.0382
0.5786 10.4436 2.0382
-0.2638 10.4614 2.0382
-1.1053 10.4116 2.0382
-1.9406 10.2945 2.0382
-2.7642 10.1107 2.0382
-3.5709 9.8613 2.0382
-4.3555 9.5478 2.0382
-5.1128 9.1721 2.0382
-5.8379 8.7366 2.0382
-6.5261 8.2438 2.0382
-7.1728 7.6970 2.0382
-7.7737 7.0995 2.0382
-8.3250 6.4552 2.0382
-8.8228 5.7681 2.0382
-9.2639 5.0427 2.0382
-9.6452 4.2836 2.0382
-9.9642 3.4958 2.0382
-10.2187 2.6844 2.0382
-10.4068 1.8546 2.0382
-10.5274 1.0120 2.0382
-10.5793 0.1619 2.0382
-10.5623 -0.6898 2.0382
-10.4764 -1.5378 2.0382
-10.3221 -2.3762 2.0382
-10.1003 -3.1996 2.0382
-9.8124 -4.0026 2.0382
-9.4603 -4.7797 2.0382
-9.0463 -5.5258 2.0382
-8.5732 -6.2360 2.0382
-8.0440 -6.9055 2.0382
-7.4623 -7.5299 2.0382
-6.8319 -8.1050 2.0382
-6.1570 -8.6272 2.0382
-5.4421 -9.0927 2.0382
-4.6920 -9.4988 2.0382
-3.9117 -9.8427 2.0382
-3.1063 -10.1221 2.0382
-2.2812 -10.3353 2.0382
-1.4419 -10.4810 2.0382
1.9538 -1.5104 0.5519
2.0690 -1.3483 0.5522
2.1710 -1.1775 0.5526
2.4484 -1.0829 0.5993
2.8036 -0.9787 0.6651
8.1430 -2.1254 1.8858
8.2839 -1.4626 1.8858
8.3915 -0.7927 1.8903
8.4413 -0.1150 1.8940
8.4328 0.5653 1.8968
8.3660 1.2430 1.8988
8.2411 1.9128 1.8998
8.0591 2.5694 1.9000
7.8215 3.2078 1.8992
7.5302 3.8229 1.8976
7.1877 4.4102 1.8950
6.7967 4.9651 1.8916
6.3607 5.4836 1.8873
5.8939 5.9728 1.8858
5.3944 6.4283 1.8858
4.8601 6.8424 1.8858
4.2944 7.2125 1.8858
3.7008 7.5362 1.8858
3.2155 8.1474 1.9668
2.6426 8.6861 2.0382
1.9356 8.8735 2.0382
1.2157 9.0037 2.0382
0.4874 9.0759 2.0382
-0.2447 9.0895 2.0382
-0.9758 9.0445 2.0382
-1.7012 8.9409 2.0382
-2.4164 8.7794 2.0382
-3.1166 8.5609 2.0382
-3.7974 8.2869 2.0382
-4.4543 7.9588 2.0382
-5.0831 7.5788 2.0382
-5.6795 7.1493 2.0382
-6.2399 6.6729 2.0382
-6.7603 6.1527 2.0382
-7.2374 5.5920 2.0382
-7.6680 4.9944 2.0382
-8.0492 4.3637 2.0382
-8.3785 3.7039 2.0382
-8.6536 3.0194 2.0382
-8.8727 2.3146 2.0382
-9.0342 1.5941 2.0382
-9.1370 0.8626 2.0382
-9.1804 0.1250 2.0382
-9.1639 -0.6141 2.0382
-9.0877 -1.3496 2.0382
-8.9522 -2.0768 2.0382
-8.7583 -2.7908 2.0382
-8.5071 -3.4868 2.0382
-8.2003 -4.1604 2.0382
-7.8400 -4.8070 2.0382
-7.4284 -5.4223 2.0382
-6.9684 -6.0023 2.0382
-6.4629 -6.5432 2.0382
-5.9152 -7.0413 2.0382
-5.3291 -7.4933 2.0382
-4.7084 -7.8964 2.0382
-4.0572 -8.2478 2.0382
-3.3798 -8.5453 2.0382
-2.6808 -8.7869 2.0382
-1.9647 -8.9711 2.0382
-1.2363 -9.0968 2.0382
-0.5003 -9.1631 2.0382
0.2383 -9.1698 2.0382
0.9747 -9.1167 2.0382
1.7040 -9.0045 2.0382
2.4217 -8.8337 2.0382
3.1228 -8.6058 2.0382
1.7154 -3.7538 0.9193
1.2931 -2.3162 0.5912
1.3743 -2.0538 0.5511
1.5346 -1.9361 0.5512
1.6851 -1.8060 0.5514
1.8247 -1.6643 0.5517
1.9526 -1.5120 0.5519
2.0679 -1.3500 0.5522
2.1700 -1.1793 0.5526
2.4451 -1.0839 0.5987
2.7996 -0.9799 0.6643
8.1413 -2.1322 1.8858
8.2827 -1.4695 1.8858
8.3907 -0.7997 1.8903
8.4411 -0.1221 1.8940
8.4332 0.5583 1.8968
8.3669 1.2360 1.8988
8.2427 1.9059 1.8998
8.0613 2.5627 1.9000
7.8243 3.2013 1.8992
7.5335 3.8167 1.8976
7.1915 4.4043 1.8950
6.8010 4.9595 1.8916
6.3654 5.4784 1.8874
5.8989 5.9678 1.8858
5.3998 6.4237 1.8858
4.8659 6.8383 1.8858
4.3004 7.2089 1.8858
3.7070 7.5331 1.8858
3.2191 8.1365 1.9648
2.6499 8.6839 2.0382
1.9430 8.8718 2.0382
1.2232 9.0027 2.0382
0.4949 9.0754 2.0382
-0.2371 9.0897 2.0382
-0.9682 9.0452 2.0382
-1.6938 8.9423 2.0382
-2.4090 8.7814 2.0382
-3.1095 8.5635 2.0382
-3.7905 8.2900 2.0382
-4.4476 7.9624 2.0382
-5.0767 7.5830 2.0382
-5.6735 7.1540 2.0382
-6.2342 6.6781 2.0382
-6.7551 6.1583 2.0382
-7.2327 5.5980 2.0382
-7.6638 5.0008 2.0382
-8.0455 4.3704 2.0382
-8.3754 3.7109 2.0382
-8.6511 3.0266 2.0382
-8.8707 2.3220 2.0382
-9.0328 1.6017 2.0382
-9.1362 0.8703 2.0382
-9.1802 0.1326 2.0382
-9.1644 -0.6064 2.0382
-9.0888 -1.3420 2.0382
-8.9539 -2.0693 2.0382
-8.7606 -2.7834 2.0382
-8.5100 -3.4797 2.0382
-8.2038 -4.1536 2.0382
-7.8440 -4.8005 2.0382
-7.4330 -5.4161 2.0382
-6.9734 -5.9965 2.0382
-6.4683 -6.5378 2.0382
-5.9211 -7.0363 2.0382
-5.3354 -7.4889 2.0382
-4.7150 -7.8925 2.0382
-4.0641 -8.2444 2.0382
-3.3869 -8.5425 2.0382
-2.6881 -8.7847 2.0382
-1.9722 -8.9695 2.0382
-1.2438 -9.0958 2.0382
-0.5080 -9.1627 2.0382
0.2306 -9.1700 2.0382
0.9671 -9.1176 2.0382
1.6965 -9.0059 2.0382
2.4143 -8.8358 2.0382
3.1156 -8.6084 2.0382
1.7222 -3.7772 0.9247
1.2959 -2.3258 0.5934
1.3726 -2.0550 0.5511
1.5330 -1.9374 0.5512
1.6836 -1.8074 0.5514
1.8233 -1.6658 0.5517
1.9513 -1.5136 0.5519
2.0668 -1.3517 0.5522
2.1690 -1.1811 0.5526
2.4418 -1.0848 0.5981
2.7955 -0.9811 0.6635
8.1395 -2.1390 1.8858
8.2813 -1.4763 1.8857
8.3899 -0.8067 1.8902
8.4409 -0.1291 1.8939
8.4336 0.5512 1.8968
8.3679 1.2290 1.8988
8.2443 1.8990 1.8998
8.0635 2.5560 1.9000
7.8270 3.1948 1.8992
7.5368 3.8105 1.8976
7.1953 4.3983 1.8951
6.8053 4.9539 1.8917
6.3701 5.4732 1.8874
5.9038 5.9629 1.8858
5.4051 6.4192 1.8858
4.8715 6.8342 1.8858
4.3064 7.2053 1.8858
3.7133 7.5300 1.8858
3.2226 8.1256 1.9629
2.6571 8.6816 2.0382
1.9504 8.8702 2.0382
1.2307 9.0016 2.0382
0.5025 9.0750 2.0382
-0.2295 9.0899 2.0382
-0.9607 9.0460 2.0382
-1.6863 8.9436 2.0382
-2.4017 8.7833 2.0382
-3.1023 8.5660 2.0382
-3.7835 8.2931 2.0382
-4.4410 7.9661 2.0382
-5.0703 7.5872 2.0382
-5.6675 7.1587 2.0382
-6.2286 6.6833 2.0382
-6.7499 6.1639 2.0382
-7.2280 5.6040 2.0382
-7.6596 5.0071 2.0382
-8.0419 4.3771 2.0382
-8.3723 3.7179 2.0382
-8.6485 3.0338 2.0382
-8.8687 2.3294 2.0382
-9.0315 1.6092 2.0382
-9.1355 0.8779 2.0382
-9.1801 0.1403 2.0382
-9.1649 -0.5988 2.0382
-9.0899 -1.3344 2.0382
-8.9556 -2.0618 2.0382
-8.7629 -2.7761 2.0382
-8.5129 -3.4726 2.0382
-8.2072 -4.1467 2.0382
-7.8480 -4.7939 2.0382
-7.4375 -5.4099 2.0382
-6.9784 -5.9907 2.0382
-6.4738 -6.5324 2.0382
-5.9270 -7.0314 2.0382
-5.3416 -7.4844 2.0382
-4.7216 -7.8885 2.0382
-4.0709 -8.2411 2.0382
-3.3941 -8.5397 2.0382
-2.6955 -8.7825 2.0382
-1.9796 -8.9679 2.0382
-1.2514 -9.0948 2.0382
1.7262 -1.3345 0.5526
1.9060 -1.2422 0.5764
2.1552 -1.1691 0.6215
2.4485 -1.0831 0.6790
2.8038 -0.9789 0.7535
7.1882 -1.8765 1.8858
7.3130 -1.2914 1.8858
7.3905 -0.6984 1.8858
7.4201 -0.1013 1.8858
7.4019 0.4960 1.8858
7.3359 1.0898 1.8858
7.2226 1.6762 1.8858
7.0628 2.2516 1.8858
6.8575 2.8123 1.8858
6.6080 3.3547 1.8858
6.3159 3.8753 1.8858
5.9832 4.3708 1.8858
5.6119 4.8381 1.8858
5.2044 5.2742 1.8858
4.7634 5.6764 1.8858
4.2915 6.0419 1.8858
3.7919 6.3684 1.8858
3.5017 7.1311 2.0209
2.9420 7.4548 2.0382
2.3331 7.6693 2.0382
1.7088 7.8344 2.0382
1.0730 7.9491 2.0382
0.4300 8.0125 2.0382
-0.2163 8.0241 2.0382
-0.8617 7.9840 2.0382
-1.5020 7.8921 2.0382
-2.1332 7.7491 2.0382
-2.7511 7.5558 2.0382
-3.3517 7.3135 2.0382
-3.9313 7.0235 2.0382
-4.4859 6.6878 2.0382
-5.0119 6.3083 2.0382
-5.5060 5.8876 2.0382
-5.9648 5.4283 2.0382
-6.3854 4.9333 2.0382
-6.7649 4.4058 2.0382
-7.1008 3.8491 2.0382
-7.3908 3.2669 2.0382
-7.6331 2.6630 2.0382
-7.8259 2.0413 2.0382
-7.9679 1.4057 2.0382
-8.0582 0.7605 2.0382
-8.0961 0.1100 2.0382
-8.0812 -0.5418 2.0382
-8.0137 -1.1903 2.0382
-7.8940 -1.8315 2.0382
-7.7228 -2.4609 2.0382
-7.5012 -3.0746 2.0382
-7.2306 -3.6685 2.0382
-6.9128 -4.2385 2.0382
-6.5499 -4.7810 2.0382
-6.1442 -5.2924 2.0382
-5.6985 -5.7693 2.0382
-5.2157 -6.2085 2.0382
-4.6990 -6.6072 2.0382
-4.1518 -6.9627 2.0382
-3.5776 -7.2727 2.0382
-2.9805 -7.5352 2.0382
-2.3642 -7.7485 2.0382
-1.7328 -7.9113 2.0382
-1.0905 -8.0224 2.0382
-0.4415 -8.0813 2.0382
0.2099 -8.0875 2.0382
0.8594 -8.0411 2.0382
1.5028 -7.9425 2.0382
2.1359 -7.7924 2.0382
2.7545 -7.5918 2.0382
1.7157 -3.7551 1.0424
1.2932 -2.3167 0.6703
1.2140 -1.8145 0.5518
1.3557 -1.7105 0.5519
1.4887 -1.5956 0.5521
1.6121 -1.4705 0.5523
1.7250 -1.3359 0.5526
1.9036 -1.2429 0.5760
2.1525 -1.1699 0.6210
2.4452 -1.0841 0.6783
2.7997 -0.9801 0.7526
7.1867 -1.8825 1.8858
7.3120 -1.2975 1.8858
7.3899 -0.7046 1.8858
7.4201 -0.1075 1.8858
7.4024 0.4898 1.8858
7.3369 1.0836 1.8858
7.2240 1.6703 1.8858
7.0647 2.2457 1.8858
6.8598 2.8066 1.8858
6.6108 3.3491 1.8858
6.3192 3.8699 1.8858
5.9869 4.3658 1.8858
5.6160 4.8334 1.8858
5.2088 5.2699 1.8858
4.7681 5.6724 1.8858
4.2965 6.0384 1.8858
3.7971 6.3656 1.8858
3.5046 7.1222 2.0191
2.9482 7.4523 2.0382
2.3395 7.6673 2.0382
1.7153 7.8330 2.0382
1.0797 7.9482 2.0382
0.4367 8.0121 2.0382
-0.2096 8.0243 2.0382
-0.8550 7.9846 2.0382
-1.4954 7.8933 2.0382
-2.1267 7.7509 2.0382
-2.7448 7.5581 2.0382
-3.3456 7.3163 2.0382
-3.9254 7.0268 2.0382
-4.4803 6.6915 2.0382
-5.0066 6.3125 2.0382
-5.5011 5.8922 2.0382
-5.9603 5.4333 2.0382
-6.3812 4.9386 2.0382
-6.7612 4.4114 2.0382
-7.0975 3.8550 2.0382
-7.3881 3.2731 2.0382
-7.6308 2.6694 2.0382
-7.8241 2.0478 2.0382
-7.9667 1.4123 2.0382
-8.0575 0.7673 2.0382
-8.0959 0.1167 2.0382
-8.0816 -0.5350 2.0382
-8.0147 -1.1836 2.0382
-7.8955 -1.8249 2.0382
-7.7248 -2.4545 2.0382
-7.5037 -3.0684 2.0382
-7.2336 -3.6624 2.0382
-6.9163 -4.2328 2.0382
-6.5538 -4.7756 2.0382
-6.1486 -5.2873 2.0382
-5.7033 -5.7645 2.0382
-5.2209 -6.2041 2.0382
-4.7045 -6.6032 2.0382
-4.1576 -6.9592 2.0382
-3.5837 -7.2697 2.0382
-2.9868 -7.5327 2.0382
-2.3706 -7.7466 2.0382
-1.7394 -7.9098 2.0382
-1.0972 -8.0215 2.0382
-0.4483 -8.0809 2.0382
0.2031 -8.0877 2.0382
0.8527 -8.0419 2.0382
1.4962 -7.9438 2.0382
2.1294 -7.7942 2.0382
2.7482 -7.5941 2.0382
1.7226 -3.7784 1.0485
1.2961 -2.3264 0.6727
1.2125 -1.8155 0.5518
1.3543 -1.7117 0.5519
1.4874 -1.5969 0.5521
1.6108 -1.4718 0.5523
1.7239 -1.3374 0.5526
1.9012 -1.2436 0.5756
2.1497 -1.1707 0.6205
2.4419 -1.0850 0.6777
2.7957 -0.9813 0.7518
7.1852 -1.8885 1.8858
7.3109 -1.3036 1.8858
7.3894 -0.7107 1.8858
7.4200 -0.1137 1.8858
7.4028 0.4837 1.8858
7.3378 1.0775 1.8858
7.2255 1.6641 1.8858
7.0666 2.2398 1.8858
6.8622 2.8009 1.8858
6.6136 3.3436 1.8858
6.3224 3.8647 1.8858
5.9905 4.3608 1.8858
5.6200 4.8287 1.8858
5.2132 5.2655 1.8858
4.7728 5.6684 1.8858
4.3016 6.0348 1.8858
3.8023 6.3630 1.8858
3.5076 7.1132 2.0174
2.9543 7.4500 2.0382
2.3458 7.6653 2.0382
1.7218 7.8315 2.0382
1.0863 7.9472 2.0382
0.4434 8.0117 2.0382
-0.2029 8.0244 2.0382
-0.8483 7.9853 2.0382
-1.4888 7.8945 2.0382
-2.1202 7.7526 2.0382
-2.7384 7.5604 2.0382
-3.3395 7.3190 2.0382
-3.9195 7.0300 2.0382
-4.4747 6.6952 2.0382
-5.0013 6.3166 2.0382
-5.4961 5.8968 2.0382
-5.9557 5.4382 2.0382
-6.3771 4.9439 2.0382
-6.7574 4.4170 2.0382
-7.0943 3.8609 2.0382
-7.3853 3.2792 2.0382
-7.6285 2.6757 2.0382
-7.8224 2.0543 2.0382
-7.9655 1.4190 2.0382
-8.0568 0.7740 2.0382
-8.0958 0.1235 2.0382
-8.0821 -0.5283 2.0382
-8.0157 -1.1769 2.0382
-7.8970 -1.8183 2.0382
-7.7269 -2.4481 2.0382
-7.5062 -3.0621 2.0382
-7.2366 -3.6564 2.0382
-6.9198 -4.2270 2.0382
-6.5578 -4.7701 2.0382
-6.1530 -5.2822 2.0382
-5.7081 -5.7598 2.0382
-5.2261 -6.1998 2.0382
-4.7100 -6.5993 2.0382
-4.1634 -6.9558 2.0382
-3.5898 -7.2668 2.0382
-2.9931 -7.5303 2.0382
-2.3771 -7.7446 2.0382
-1.7460 -7.9084 2.0382
-1.1039 -8.0206 2.0382
1.6891 -1.3060 0.6051
1.9061 -1.2423 0.6451
2.1553 -1.1693 0.6956
2.4487 -1.0833 0.7599
2.8040 -0.9791 0.8432
6.4242 -1.6772 1.8858
6.5359 -1.1544 1.8858
6.6054 -0.6244 1.8858
6.6322 -0.0908 1.8858
6.6161 0.4432 1.8858
6.5573 0.9740 1.8858
6.4562 1.4982 1.8858
6.3134 2.0126 1.8858
6.1300 2.5139 1.8858
5.9070 2.9987 1.8858
5.6460 3.4641 1.8858
5.3486 3.9071 1.8858
5.0167 4.3249 1.8858
4.6524 4.7148 1.8858
4.2581 5.0743 1.8858
3.9667 5.5847 1.9499
3.6634 6.1531 2.0382
3.1568 6.4291 2.0382
2.6296 6.6636 2.0382
2.0852 6.8552 2.0382
1.5271 7.0027 2.0382
0.9589 7.1049 2.0382
0.3841 7.1613 2.0382
-0.1936 7.1715 2.0382
-0.7703 7.1353 2.0382
-1.3426 7.0529 2.0382
-1.9065 6.9248 2.0382
-2.4586 6.7518 2.0382
-2.9952 6.5349 2.0382
-3.5129 6.2755 2.0382
-4.0083 5.9752 2.0382
-4.4781 5.6359 2.0382
-4.9192 5.2597 2.0382
-5.3289 4.8491 2.0382
-5.7043 4.4067 2.0382
-6.0430 3.9352 2.0382
-6.3427 3.4379 2.0382
-6.6015 2.9177 2.0382
-6.8175 2.3782 2.0382
-6.9894 1.8228 2.0382
-7.1160 1.2552 2.0382
-7.1964 0.6790 2.0382
-7.2299 0.0980 2.0382
-7.2165 -0.4840 2.0382
-7.1560 -1.0631 2.0382
-7.0489 -1.6355 2.0382
-6.8959 -2.1976 2.0382
-6.6979 -2.7455 2.0382
-6.4562 -3.2757 2.0382
-6.1723 -3.7846 2.0382
-5.8483 -4.2690 2.0382
-5.4861 -4.7255 2.0382
-5.0882 -5.1513 2.0382
-4.6571 -5.5435 2.0382
-4.1958 -5.8995 2.0382
-3.7073 -6.2170 2.0382
-3.1947 -6.4940 2.0382
-2.6616 -6.7285 2.0382
-2.1113 -6.9192 2.0382
-1.5476 -7.0647 2.0382
-0.9740 -7.1642 2.0382
-0.3945 -7.2170 2.0382
0.1872 -7.2228 2.0382
0.7673 -7.1817 2.0382
1.3419 -7.0940 2.0382
1.9074 -6.9602 2.0382
2.4601 -6.7813 2.0382
1.7161 -3.7563 1.1673
1.2934 -2.3173 0.7505
1.0923 -1.6327 0.5558
1.2124 -1.5298 0.5525
1.3313 -1.4270 0.5526
1.4942 -1.3631 0.5730
1.6870 -1.3066 0.6048
1.9037 -1.2430 0.6447
2.1526 -1.1701 0.6950
2.4454 -1.0842 0.7591
2.7999 -0.9803 0.8422
6.4228 -1.6826 1.8858
6.5350 -1.1598 1.8858
6.6049 -0.6299 1.8858
6.6321 -0.0963 1.8858
6.6165 0.4376 1.8858
6.5581 0.9685 1.8858
6.4574 1.4929 1.8858
6.3151 2.0074 1.8858
6.1321 2.5087 1.8858
5.9095 2.9938 1.8858
5.6489 3.4594 1.8858
5.3518 3.9027 1.8858
5.0203 4.3207 1.8858
4.6563 4.7109 1.8858
4.2623 5.0707 1.8858
3.9689 5.5780 1.9487
3.6685 6.1501 2.0382
3.1621 6.4264 2.0382
2.6352 6.6614 2.0382
2.0910 6.8535 2.0382
1.5330 7.0014 2.0382
0.9648 7.1041 2.0382
0.3901 7.1610 2.0382
-0.1876 7.1716 2.0382
-0.7644 7.1359 2.0382
-1.3367 7.0540 2.0382
-1.9008 6.9263 2.0382
-2.4530 6.7538 2.0382
-2.9898 6.5373 2.0382
-3.5077 6.2784 2.0382
-4.0033 5.9785 2.0382
-4.4733 5.6396 2.0382
-4.9148 5.2638 2.0382
-5.3248 4.8535 2.0382
-5.7006 4.4114 2.0382
-6.0397 3.9403 2.0382
-6.3398 3.4431 2.0382
-6.5990 2.9232 2.0382
-6.8155 2.3839 2.0382
-6.9879 1.8286 2.0382
-7.1149 1.2611 2.0382
-7.1958 0.6850 2.0382
-7.2298 0.1040 2.0382
-7.2168 -0.4780 2.0382
-7.1569 -1.0571 2.0382
-7.0503 -1.6297 2.0382
-6.8977 -2.1918 2.0382
-6.7001 -2.7399 2.0382
-6.4589 -3.2703 2.0382
-6.1755 -3.7795 2.0382
-5.8518 -4.2641 2.0382
-5.4900 -4.7210 2.0382
-5.0925 -5.1471 2.0382
-4.6618 -5.5396 2.0382
-4.2007 -5.8960 2.0382
-3.7125 -6.2139 2.0382
-3.2002 -6.4913 2.0382
-2.6672 -6.7263 2.0382
-2.1171 -6.9174 2.0382
-1.5535 -7.0634 2.0382
-0.9800 -7.1634 2.0382
-0.4006 -7.2167 2.0382
0.1811 -7.2230 2.0382
0.7613 -7.1824 2.0382
1.3360 -7.0951 2.0382
1.9016 -6.9618 2.0382
2.4545 -6.7834 2.0382
1.7230 -3.7797 1.1741
1.2962 -2.3269 0.7532
1.0939 -1.6380 0.5572
1.2111 -1.5308 0.5525
1.3301 -1.4282 0.5526
1.4923 -1.3637 0.5727
1.6849 -1.3072 0.6044
1.9013 -1.2437 0.6442
2.1498 -1.1709 0.6944
2.4420 -1.0852 0.7584
2.7959 -0.9815 0.8413
6.4214 -1.6880 1.8858
6.5340 -1.1653 1.8858
6.6044 -0.6355 1.8858
6.6320 -0.1018 1.8858
6.6168 0.4321 1.8858
6.5589 0.9630 1.8858
6.4587 1.4875 1.8858
6.3168 2.0021 1.8858
6.1342 2.5036 1.8858
5.9120 2.9889 1.8858
5.6518 3.4547 1.8858
5.3551 3.8982 1.8858
5.0239 4.3165 1.8858
4.6602 4.7070 1.8858
4.2665 5.0671 1.8858
3.9711 5.5712 1.9475
3.6736 6.1470 2.0382
3.1675 6.4238 2.0382
2.6407 6.6592 2.0382
2.0967 6.8517 2.0382
1.5388 7.0001 2.0382
0.9707 7.1033 2.0382
0.3960 7.1607 2.0382
-0.1816 7.1717 2.0382
-0.7584 7.1365 2.0382
-1.3308 7.0550 2.0382
-1.8950 6.9279 2.0382
-2.4473 6.7558 2.0382
-2.9843 6.5398 2.0382
-3.5024 6.2813 2.0382
-3.9982 5.9818 2.0382
-4.4686 5.6433 2.0382
-4.9104 5.2679 2.0382
-5.3207 4.8579 2.0382
-5.6969 4.4162 2.0382
-6.0364 3.9453 2.0382
-6.3369 3.4484 2.0382
-6.5966 2.9287 2.0382
-6.8135 2.3895 2.0382
-6.9863 1.8345 2.0382
-7.1139 1.2670 2.0382
-7.1952 0.6910 2.0382
-7.2297 0.1100 2.0382
-7.2172 -0.4719 2.0382
-7.1577 -1.0511 2.0382
-7.0516 -1.6238 2.0382
-6.8995 -2.1861 2.0382
-6.7024 -2.7343 2.0382
-6.4616 -3.2649 2.0382
-6.1786 -3.7743 2.0382
-5.8554 -4.2592 2.0382
-5.4940 -4.7164 2.0382
-5.0968 -5.1428 2.0382
-4.6664 -5.5357 2.0382
-4.2057 -5.8925 2.0382
-3.7177 -6.2109 2.0382
-3.2056 -6.4887 2.0382
-2.6728 -6.7241 2.0382
-2.1229 -6.9157 2.0382
-1.5593 -7.0621 2.0382
-0.9860 -7.1626 2.0382
1.6891 -1.3061 0.6707
1.9062 -1.2425 0.7150
2.1554 -1.1694 0.7709
2.4488 -1.0834 0.8421
2.8042 -0.9793 0.9344
6.0542 -1.5809 1.9691
5.9201 -1.0458 1.8925
5.9619 -0.5638 1.8858
5.9862 -0.0821 1.8858
5.9718 0.3999 1.8858
5.9189 0.8790 1.8858
5.8277 1.3523 1.8858
5.6990 1.8166 1.8858
5.5334 2.2691 1.8858
5.3322 2.7069 1.8858
5.0967 3.1270 1.8858
4.8282 3.5270 1.8858
4.5285 3.9045 1.8858
4.3206 4.3786 1.9400
4.1407 4.9345 2.0315
3.7427 5.2695 2.0382
3.3068 5.5544 2.0382
2.8494 5.8034 2.0382
2.3735 6.0150 2.0382
1.8821 6.1878 2.0382
1.3782 6.3208 2.0382
0.8653 6.4129 2.0382
0.3465 6.4636 2.0382
-0.1749 6.4726 2.0382
-0.6955 6.4397 2.0382
-1.2119 6.3651 2.0382
-1.7208 6.2493 2.0382
-2.2190 6.0929 2.0382
-2.7032 5.8969 2.0382
-3.1702 5.6626 2.0382
-3.6170 5.3914 2.0382
-4.0408 5.0850 2.0382
-4.4386 4.7454 2.0382
-4.8081 4.3748 2.0382
-5.1466 3.9755 2.0382
-5.4519 3.5500 2.0382
-5.7221 3.1011 2.0382
-5.9553 2.6318 2.0382
-6.1500 2.1451 2.0382
-6.3048 1.6440 2.0382
-6.4188 1.1319 2.0382
-6.4910 0.6122 2.0382
-6.5211 0.0882 2.0382
-6.5088 -0.4367 2.0382
-6.4541 -0.9590 2.0382
-6.3574 -1.4752 2.0382
-6.2193 -1.9821 2.0382
-6.0406 -2.4762 2.0382
-5.8226 -2.9543 2.0382
-5.5666 -3.4132 2.0382
-5.2743 -3.8500 2.0382
-4.9477 -4.2618 2.0382
-4.5888 -4.6458 2.0382
-4.2001 -4.9994 2.0382
-3.7842 -5.3206 2.0382
-3.3436 -5.6070 2.0382
-2.8814 -5.8568 2.0382
-2.4006 -6.0685 2.0382
-1.9044 -6.2405 2.0382
-1.3960 -6.3719 2.0382
-0.8788 -6.4618 2.0382
-0.3561 -6.5097 2.0382
0.1686 -6.5151 2.0382
0.6918 -6.4783 2.0382
1.2103 -6.3993 2.0382
1.7205 -6.2789 2.0382
2.2191 -6.1178 2.0382
1.7165 -3.7576 1.2943
1.2936 -2.3178 0.8320
1.0924 -1.6330 0.6161
1.1584 -1.4618 0.5851
1.3195 -1.4145 0.6071
1.4942 -1.3633 0.6351
1.6870 -1.3067 0.6703
1.9038 -1.2432 0.7145
2.1527 -1.1702 0.7702
2.4455 -1.0844 0.8412
2.8001 -0.9805 0.9333
6.0557 -1.5867 1.9700
5.9210 -1.0511 1.8931
5.9614 -0.5688 1.8858
5.9861 -0.0871 1.8858
5.9722 0.3949 1.8858
5.9196 0.8741 1.8858
5.8289 1.3474 1.8858
5.7005 1.8119 1.8858
5.5353 2.2645 1.8858
5.3345 2.7024 1.8858
5.0993 3.1228 1.8858
4.8311 3.5229 1.8858
4.5316 3.9010 1.8858
4.3224 4.3730 1.9392
4.1427 4.9285 2.0304
3.7471 5.2664 2.0382
3.3114 5.5516 2.0382
2.8543 5.8010 2.0382
2.3785 6.0130 2.0382
1.8872 6.1862 2.0382
1.3835 6.3196 2.0382
0.8706 6.4122 2.0382
0.3518 6.4633 2.0382
-0.1695 6.4727 2.0382
-0.6901 6.4402 2.0382
-1.2066 6.3661 2.0382
-1.7156 6.2507 2.0382
-2.2139 6.0947 2.0382
-2.6982 5.8991 2.0382
-3.1654 5.6652 2.0382
-3.6125 5.3944 2.0382
-4.0365 5.0884 2.0382
-4.4347 4.7491 2.0382
-4.8044 4.3788 2.0382
-5.1432 3.9797 2.0382
-5.4489 3.5545 2.0382
-5.7195 3.1060 2.0382
-5.9531 2.6368 2.0382
-6.1482 2.1502 2.0382
-6.3034 1.6493 2.0382
-6.4178 1.1373 2.0382
-6.4905 0.6176 2.0382
-6.5210 0.0936 2.0382
-6.5092 -0.4313 2.0382
-6.4549 -0.9536 2.0382
-6.3586 -1.4699 2.0382
-6.2209 -1.9769 2.0382
-6.0427 -2.4711 2.0382
-5.8250 -2.9494 2.0382
-5.5694 -3.4086 2.0382
-5.2775 -3.8456 2.0382
-4.9512 -4.2576 2.0382
-4.5927 -4.6419 2.0382
-4.2043 -4.9959 2.0382
-3.7886 -5.3174 2.0382
-3.3483 -5.6042 2.0382
-2.8863 -5.8543 2.0382
-2.4057 -6.0665 2.0382
-1.9096 -6.2389 2.0382
-1.4013 -6.3708 2.0382
-0.8841 -6.4611 2.0382
-0.3615 -6.5094 2.0382
0.1632 -6.5153 2.0382
0.6865 -6.4789 2.0382
1.2049 -6.4004 2.0382
1.7152 -6.2804 2.0382
2.2140 -6.1197 2.0382
1.7234 -3.7810 1.3019
1.2964 -2.3274 0.8350
1.0939 -1.6383 0.6177
1.1568 -1.4623 0.5849
1.3178 -1.4150 0.6068
1.4924 -1.3638 0.6347
1.6849 -1.3074 0.6698
1.9014 -1.2439 0.7139
2.1499 -1.1711 0.7696
2.4422 -1.0854 0.8404
2.7961 -0.9817 0.9322
6.0572 -1.5925 1.9709
5.9219 -1.0564 1.8936
5.9610 -0.5737 1.8858
5.9861 -0.0921 1.8858
5.9725 0.3899 1.8858
5.9204 0.8691 1.8858
5.8300 1.3425 1.8858
5.7020 1.8071 1.8858
5.5372 2.2599 1.8858
5.3368 2.6980 1.8858
5.1019 3.1185 1.8858
4.8341 3.5189 1.8858
4.5348 3.8975 1.8858
4.3241 4.3675 1.9383
4.1446 4.9224 2.0294
3.7515 5.2632 2.0382
3.3160 5.5488 2.0382
2.8591 5.7986 2.0382
2.3835 6.0110 2.0382
1.8924 6.1847 2.0382
1.3888 6.3184 2.0382
0.8760 6.4114 2.0382
0.3572 6.4630 2.0382
-0.1641 6.4728 2.0382
-0.6847 6.4408 2.0382
-1.2013 6.3671 2.0382
-1.7104 6.2521 2.0382
-2.2088 6.0965 2.0382
-2.6933 5.9014 2.0382
-3.1607 5.6678 2.0382
-3.6080 5.3974 2.0382
-4.0322 5.0917 2.0382
-4.4307 4.7528 2.0382
-4.8007 4.3828 2.0382
-5.1399 3.9840 2.0382
-5.4459 3.5590 2.0382
-5.7169 3.1107 2.0382
-5.9508 2.6417 2.0382
-6.1463 2.1553 2.0382
-6.3020 1.6545 2.0382
-6.4168 1.1426 2.0382
-6.4900 0.6230 2.0382
-6.5209 0.0991 2.0382
-6.5095 -0.4258 2.0382
-6.4557 -0.9482 2.0382
-6.3598 -1.4646 2.0382
-6.2226 -1.9717 2.0382
-6.0447 -2.4661 2.0382
-5.8275 -2.9446 2.0382
-5.5723 -3.4040 2.0382
-5.2807 -3.8412 2.0382
-4.9548 -4.2535 2.0382
-4.5966 -4.6381 2.0382
-4.2085 -4.9924 2.0382
-3.7930 -5.3143 2.0382
-3.3530 -5.6014 2.0382
-2.8912 -5.8520 2.0382
-2.4108 -6.0645 2.0382
-1.9148 -6.2374 2.0382
-1.4066 -6.3696 2.0382
-0.8895 -6.4604 2.0382
1.6892 -1.3063 0.7374
1.9062 -1.2427 0.7860
2.1555 -1.1696 0.8475
2.4490 -1.0836 0.9257
2.8044 -0.9795 1.0272
5.7008 -1.4889 2.0382
5.8003 -1.0249 2.0382
5.7460 -0.5436 1.9977
5.6199 -0.0773 1.9459
5.4972 0.3680 1.9080
5.3875 0.8000 1.8866
5.3023 1.2304 1.8858
5.1851 1.6533 1.8858
5.0347 2.0645 1.8858
4.8848 2.4797 1.8986
4.7497 2.9140 1.9314
4.6086 3.3665 1.9782
4.4535 3.8394 2.0382
4.1300 4.1855 2.0382
3.7799 4.5046 2.0382
3.4053 4.7946 2.0382
3.0087 5.0538 2.0382
2.5925 5.2803 2.0382
2.1594 5.4728 2.0382
1.7122 5.6299 2.0382
1.2538 5.7508 2.0382
0.7870 5.8345 2.0382
0.3150 5.8805 2.0382
-0.1593 5.8885 2.0382
-0.6329 5.8584 2.0382
-1.1027 5.7903 2.0382
-1.5657 5.6848 2.0382
-2.0188 5.5424 2.0382
-2.4591 5.3639 2.0382
-2.8838 5.1506 2.0382
-3.2902 4.9037 2.0382
-3.6755 4.6249 2.0382
-4.0372 4.3159 2.0382
-4.3731 3.9786 2.0382
-4.6808 3.6153 2.0382
-4.9583 3.2283 2.0382
-5.2038 2.8200 2.0382
-5.4158 2.3932 2.0382
-5.5926 1.9504 2.0382
-5.7333 1.4947 2.0382
-5.8367 1.0291 2.0382
-5.9023 0.5565 2.0382
-5.9295 0.0800 2.0382
-5.9182 -0.3972 2.0382
-5.8683 -0.8721 2.0382
-5.7803 -1.3414 2.0382
-5.6546 -1.8022 2.0382
-5.4921 -2.2514 2.0382
-5.2938 -2.6861 2.0382
-5.0611 -3.1033 2.0382
-4.7953 -3.5004 2.0382
-4.4984 -3.8747 2.0382
-4.1721 -4.2238 2.0382
-3.8188 -4.5454 2.0382
-3.4406 -4.8374 2.0382
-3.0401 -5.0978 2.0382
-2.6199 -5.3251 2.0382
-2.1828 -5.5176 2.0382
-1.7317 -5.6741 2.0382
-1.2695 -5.7937 2.0382
-0.7992 -5.8756 2.0382
-0.3240 -5.9192 2.0382
0.1531 -5.9243 2.0382
0.6289 -5.8910 2.0382
1.1003 -5.8194 2.0382
1.5643 -5.7100 2.0382
0.7313 -2.0164 0.7387
1.7169 -3.7589 1.4237
1.2937 -2.3184 0.9150
1.0925 -1.6333 0.6775
1.1584 -1.4619 0.6433
1.3195 -1.4147 0.6675
1.4943 -1.3634 0.6982
1.6871 -1.3069 0.7369
1.9038 -1.2434 0.7855
2.1528 -1.1704 0.8467
2.4456 -1.0846 0.9248
2.8003 -0.9807 1.0260
5.6995 -1.4935 2.0382
5.7995 -1.0297 2.0382
5.7473 -0.5485 1.9983
5.6212 -0.0820 1.9463
5.4986 0.3631 1.9083
5.3887 0.7955 1.8867
5.3034 1.2258 1.8858
5.1867 1.6483 1.8858
5.0365 2.0603 1.8858
4.8860 2.4764 1.8984
4.7510 2.9097 1.9310
4.6101 3.3617 1.9777
4.4567 3.8357 2.0382
4.1335 4.1820 2.0382
3.7837 4.5015 2.0382
3.4093 4.7918 2.0382
3.0129 5.0513 2.0382
2.5969 5.2781 2.0382
2.1640 5.4709 2.0382
1.7169 5.6285 2.0382
1.2586 5.7497 2.0382
0.7919 5.8338 2.0382
0.3199 5.8802 2.0382
-0.1544 5.8886 2.0382
-0.6280 5.8589 2.0382
-1.0979 5.7912 2.0382
-1.5609 5.6861 2.0382
-2.0141 5.5440 2.0382
-2.4546 5.3659 2.0382
-2.8795 5.1530 2.0382
-3.2861 4.9065 2.0382
-3.6716 4.6280 2.0382
-4.0336 4.3192 2.0382
-4.3697 3.9823 2.0382
-4.6777 3.6192 2.0382
-4.9556 3.2324 2.0382
-5.2015 2.8243 2.0382
-5.4137 2.3975 2.0382
-5.5910 1.9551 2.0382
-5.7320 1.4995 2.0382
-5.8358 1.0340 2.0382
-5.9018 0.5614 2.0382
-5.9294 0.0850 2.0382
-5.9185 -0.3923 2.0382
-5.8690 -0.8672 2.0382
-5.7814 -1.3366 2.0382
-5.6561 -1.7975 2.0382
-5.4940 -2.2469 2.0382
-5.2961 -2.6817 2.0382
-5.0637 -3.0991 2.0382
-4.7983 -3.4964 2.0382
-4.5016 -3.8710 2.0382
-4.1757 -4.2204 2.0382
-3.8226 -4.5423 2.0382
-3.4446 -4.8345 2.0382
-3.0444 -5.0953 2.0382
-2.6244 -5.3229 2.0382
-2.1874 -5.5158 2.0382
-1.7364 -5.6727 2.0382
-1.2743 -5.7927 2.0382
-0.8041 -5.8749 2.0382
-0.3289 -5.9190 2.0382
0.1482 -5.9245 2.0382
0.6240 -5.8915 2.0382
1.0955 -5.8203 2.0382
1.5596 -5.7114 2.0382
0.7296 -2.0170 0.7387
1.7238 -3.7823 1.4320
1.2966 -2.3280 0.9184
1.0940 -1.6386 0.6793
1.1568 -1.4624 0.6431
1.3178 -1.4152 0.6672
1.4924 -1.3640 0.6979
1.6850 -1.3075 0.7365
1.9015 -1.2441 0.7849
2.1500 -1.1712 0.8460
2.4423 -1.0856 0.9239
2.7962 -0.9819 1.0248
5.6984 -1.4984 2.0382
5.7987 -1.0346 2.0382
5.7486 -0.5535 1.9989
5.6224 -0.0867 1.9468
5.4998 0.3589 1.9086
5.3898 0.7911 1.8869
5.3041 1.2224 1.8858
5.1879 1.6448 1.8858
5.0382 2.0561 1.8858
4.8875 2.4720 1.8982
4.7525 2.9049 1.9306
4.6116 3.3569 1.9771
4.4599 3.8319 2.0382
4.1370 4.1786 2.0382
3.7874 4.4983 2.0382
3.4133 4.7890 2.0382
3.0171 5.0487 2.0382
2.6013 5.2759 2.0382
2.1685 5.4691 2.0382
1.7216 5.6270 2.0382
1.2634 5.7486 2.0382
0.7968 5.8331 2.0382
0.3248 5.8799 2.0382
-0.1495 5.8887 2.0382
-0.6232 5.8594 2.0382
-1.0930 5.7921 2.0382
-1.5562 5.6873 2.0382
-2.0095 5.5457 2.0382
-2.4501 5.3680 2.0382
-2.8752 5.1554 2.0382
-3.2820 4.9092 2.0382
-3.6677 4.6310 2.0382
-4.0300 4.3226 2.0382
-4.3664 3.9859 2.0382
-4.6747 3.6231 2.0382
-4.9529 3.2365 2.0382
-5.1991 2.8286 2.0382
-5.4117 2.4021 2.0382
-5.5893 1.9597 2.0382
-5.7307 1.5043 2.0382
-5.8349 1.0388 2.0382
-5.9013 0.5663 2.0382
-5.9293 0.0899 2.0382
-5.9188 -0.3873 2.0382
-5.8698 -0.8623 2.0382
-5.7825 -1.3318 2.0382
-5.6576 -1.7928 2.0382
-5.4959 -2.2423 2.0382
-5.2983 -2.6772 2.0382
-5.0662 -3.0949 2.0382
-4.8012 -3.4924 2.0382
-4.5048 -3.8672 2.0382
-4.1792 -4.2169 2.0382
-3.8264 -4.5391 2.0382
-3.4487 -4.8317 2.0382
-3.0486 -5.0928 2.0382
-2.6288 -5.3207 2.0382
-2.1921 -5.5139 2.0382
-1.7412 -5.6712 2.0382
-1.2792 -5.7916 2.0382
-0.8090 -5.8743 2.0382
1.6893 -1.3064 0.8054
1.9063 -1.2428 0.8585
2.1556 -1.1698 0.9256
2.4491 -1.0838 1.0111
2.8046 -0.9797 1.1219
5.2203 -1.3635 2.0382
5.3116 -0.9387 2.0382
5.3684 -0.5080 2.0382
5.3906 -0.0743 2.0382
5.3778 0.3598 2.0382
5.3304 0.7913 2.0382
5.2272 1.2127 2.0299
5.1065 1.6276 2.0278
4.9832 2.0433 2.0380
4.8025 2.4378 2.0382
4.5903 2.8163 2.0382
4.3486 3.1765 2.0382
4.0787 3.5163 2.0382
3.7824 3.8333 2.0382
3.4617 4.1256 2.0382
3.1186 4.3911 2.0382
2.7553 4.6284 2.0382
2.3741 4.8358 2.0382
0.7272 1.8430 0.7495
0.5765 1.8959 0.7495
0.4221 1.9364 0.7494
0.2649 1.9643 0.7493
0.2883 5.3851 2.0382
-0.1461 5.3923 2.0382
-0.2130 1.9708 0.7488
-0.3709 1.9472 0.7485
-0.5264 1.9110 0.7482
-0.6784 1.8623 0.7479
-2.2519 4.9113 2.0382
-2.6407 4.7158 2.0382
-3.0127 4.4897 2.0382
-3.3653 4.2342 2.0382
-3.6964 3.9512 2.0382
-4.0038 3.6423 2.0382
-4.2854 3.3096 2.0382
-4.5393 2.9552 2.0382
-4.7640 2.5813 2.0382
-4.9578 2.1905 2.0382
-5.1196 1.7851 2.0382
-5.2482 1.3681 2.0382
-5.3428 0.9418 2.0382
-5.4027 0.5092 2.0382
-5.4275 0.0731 2.0382
-5.4170 -0.3637 2.0382
-5.3713 -0.7983 2.0382
-5.2906 -1.2279 2.0382
-5.1756 -1.6496 2.0382
-5.0268 -2.0608 2.0382
-4.8453 -2.4585 2.0382
-4.6322 -2.8404 2.0382
-4.3890 -3.2038 2.0382
-4.1172 -3.5464 2.0382
-3.8186 -3.8659 2.0382
-3.4952 -4.1603 2.0382
-3.1491 -4.4275 2.0382
-2.7826 -4.6659 2.0382
-2.3981 -4.8739 2.0382
-0.7230 -1.8275 0.7375
-0.5736 -1.8794 0.7376
-0.4206 -1.9192 0.7376
-0.2648 -1.9466 0.7377
-0.1074 -1.9615 0.7379
0.0507 -1.9637 0.7380
0.2084 -1.9533 0.7382
0.3649 -1.9302 0.7385
0.5190 -1.8947 0.7388
0.6698 -1.8470 0.7391
1.7173 -3.7603 1.5556
1.2939 -2.3189 0.9997
1.0926 -1.6337 0.7401
1.1584 -1.4621 0.7027
1.3195 -1.4148 0.7291
1.4943 -1.3636 0.7626
1.6871 -1.3071 0.8049
1.9039 -1.2435 0.8579
2.1529 -1.1706 0.9248
2.4458 -1.0848 1.0101
2.8005 -0.9809 1.1206
5.2192 -1.3679 2.0382
5.3108 -0.9432 2.0382
5.3680 -0.5125 2.0382
5.3905 -0.0788 2.0382
5.3782 0.3553 2.0382
5.3310 0.7869 2.0382
5.2284 1.2084 2.0300
5.1078 1.6233 2.0278
4.9845 2.0390 2.0378
4.8045 2.4338 2.0382
4.5927 2.8125 2.0382
4.3512 3.1728 2.0382
4.0816 3.5128 2.0382
3.7856 3.8301 2.0382
3.4652 4.1226 2.0382
3.1223 4.3885 2.0382
2.7592 4.6261 2.0382
2.3782 4.8338 2.0382
0.7287 1.8424 0.7495
0.5781 1.8954 0.7495
0.4237 1.9360 0.7494
0.2665 1.9640 0.7493
0.2928 5.3848 2.0382
-0.1416 5.3924 2.0382
-0.2114 1.9710 0.7488
-0.3693 1.9475 0.7485
-0.5248 1.9114 0.7482
-0.6769 1.8628 0.7479
-2.2478 4.9131 2.0382
-2.6367 4.7180 2.0382
-3.0089 4.4921 2.0382
-3.3618 4.2370 2.0382
-3.6931 3.9542 2.0382
-4.0007 3.6456 2.0382
-4.2826 3.3132 2.0382
-4.5368 2.9589 2.0382
-4.7618 2.5853 2.0382
-4.9560 2.1946 2.0382
-5.1181 1.7896 2.0382
-5.2470 1.3724 2.0382
-5.3420 0.9463 2.0382
-5.4022 0.5137 2.0382
-5.4274 0.0776 2.0382
-5.4173 -0.3592 2.0382
-5.3719 -0.7939 2.0382
-5.2917 -1.2235 2.0382
-5.1769 -1.6453 2.0382
-5.0285 -2.0566 2.0382
-4.8473 -2.4545 2.0382
-4.6346 -2.8365 2.0382
-4.3917 -3.2001 2.0382
-4.1201 -3.5430 2.0382
-3.8218 -3.8627 2.0382
-3.4987 -4.1573 2.0382
-3.1528 -4.4249 2.0382
-2.7865 -4.6636 2.0382
-2.4022 -4.8719 2.0382
-0.7245 -1.8269 0.7375
-0.5752 -1.8789 0.7376
-0.4222 -1.9189 0.7376
-0.2665 -1.9464 0.7377
-0.1091 -1.9614 0.7379
0.0490 -1.9638 0.7380
0.2068 -1.9534 0.7382
0.3633 -1.9305 0.7385
0.5174 -1.8951 0.7388
0.6682 -1.8475 0.7391
1.7242 -3.7837 1.5647
1.2967 -2.3286 1.0033
1.0941 -1.6389 0.7421
1.1568 -1.4626 0.7025
1.3178 -1.4153 0.7288
1.4924 -1.3641 0.7623
1.6850 -1.3077 0.8044
1.9015 -1.2442 0.8573
2.1501 -1.1714 0.9240
2.4425 -1.0858 1.0091
2.7964 -0.9821 1.1193
5.2180 -1.3723 2.0382
5.3100 -0.9476 2.0382
5.3676 -0.5170 2.0382
5.3905 -0.0833 2.0382
5.3785 0.3508 2.0382
5.3317 0.7824 2.0382
5.2297 1.2041 2.0301
5.1090 1.6190 2.0277
4.9858 2.0347 2.0376
4.8066 2.4298 2.0382
4.5950 2.8086 2.0382
4.3538 3.1694 2.0382
4.0845 3.5095 2.0382
3.7888 3.8269 2.0382
3.4686 4.1197 2.0382
3.1260 4.3859 2.0382
2.7630 4.6238 2.0382
2.3822 4.8318 2.0382
0.7302 1.8418 0.7495
0.5797 1.8949 0.7495
0.4253 1.9357 0.7494
0.2682 1.9638 0.7493
0.2973 5.3845 2.0382
-0.1371 5.3925 2.0382
-0.2097 1.9711 0.7488
-0.3677 1.9478 0.7485
-0.5232 1.9118 0.7482
-0.6753 1.8634 0.7479
-2.2437 4.9150 2.0382
-2.6328 4.7202 2.0382
-3.0051 4.4946 2.0382
-3.3582 4.2398 2.0382
-3.6898 3.9573 2.0382
-3.9977 3.6490 2.0382
-4.2798 3.3167 2.0382
-4.5343 2.9627 2.0382
-4.7596 2.5893 2.0382
-4.9541 2.1988 2.0382
-5.1166 1.7937 2.0382
-5.2459 1.3768 2.0382
-5.3411 0.9507 2.0382
-5.4018 0.5182 2.0382
-5.4273 0.0821 2.0382
-5.4176 -0.3547 2.0382
-5.3726 -0.7894 2.0382
-5.2927 -1.2191 2.0382
-5.1783 -1.6410 2.0382
-5.0302 -2.0524 2.0382
-4.8494 -2.4504 2.0382
-4.6369 -2.8327 2.0382
-4.3943 -3.1965 2.0382
-4.1231 -3.5395 2.0382
-3.8251 -3.8595 2.0382
-3.5021 -4.1545 2.0382
-3.1565 -4.4223 2.0382
-2.7904 -4.6613 2.0382
-2.4062 -4.8699 2.0382
-0.7261 -1.8263 0.7375
-0.5768 -1.8785 0.7376
-0.4238 -1.9185 0.7376
-0.2681 -1.9462 0.7377
1.6893 -1.3066 0.8748
1.9064 -1.2430 0.9326
2.1557 -1.1700 1.0054
2.4492 -1.0840 1.0982
2.8048 -0.9799 1.2186
4.8064 -1.2557 2.0382
4.8906 -0.8645 2.0382
4.9431 -0.4680 2.0382
4.9635 -0.0686 2.0382
4.9519 0.3312 2.0382
4.9082 0.7285 2.0382
4.8328 1.1211 2.0382
4.7262 1.5063 2.0382
4.5891 1.8816 2.0382
4.4223 2.2448 2.0382
4.2269 2.5933 2.0382
4.0043 2.9251 2.0382
3.7558 3.2379 2.0382
3.4830 3.5298 2.0382
3.1877 3.7989 2.0382
2.8717 4.0435 2.0382
2.5371 4.2620 2.0382
2.1860 4.4529 2.0382
0.6691 1.6960 0.7490
0.5305 1.7446 0.7490
0.3884 1.7819 0.7489
0.2437 1.8075 0.7488
0.0974 1.8214 0.7487
-0.0495 1.8234 0.7485
-0.1961 1.8135 0.7483
-0.3414 1.7919 0.7481
-0.4845 1.7585 0.7479
-0.6244 1.7137 0.7476
-0.7602 1.6577 0.7473
-2.4313 4.3414 2.0382
-2.7737 4.1331 2.0382
-3.0983 3.8979 2.0382
-3.4030 3.6372 2.0382
-3.6859 3.3528 2.0382
-3.9450 3.0464 2.0382
-4.1787 2.7201 2.0382
-4.3853 2.3759 2.0382
-4.5637 2.0161 2.0382
-4.7125 1.6430 2.0382
-4.8307 1.2590 2.0382
-4.9177 0.8667 2.0382
-4.9727 0.4685 2.0382
-4.9955 0.0671 2.0382
-4.9858 -0.3349 2.0382
-4.9436 -0.7349 2.0382
-4.8693 -1.1303 2.0382
-4.7634 -1.5184 2.0382
-4.6264 -1.8967 2.0382
-4.4593 -2.2628 2.0382
-4.2632 -2.6142 2.0382
-4.0394 -2.9486 2.0382
-3.7892 -3.2639 2.0382
-3.5145 -3.5580 2.0382
-3.2169 -3.8289 2.0382
-2.8984 -4.0748 2.0382
-2.5611 -4.2943 2.0382
-2.2072 -4.4857 2.0382
-0.6659 -1.6830 0.7380
-0.5283 -1.7309 0.7380
-0.3874 -1.7675 0.7381
-0.2440 -1.7928 0.7382
-0.0990 -1.8065 0.7383
0.0466 -1.8085 0.7385
0.1919 -1.7989 0.7387
0.3360 -1.7777 0.7389
0.4779 -1.7449 0.7391
0.6167 -1.7010 0.7394
0.7516 -1.6460 0.7397
1.2941 -2.3195 1.0862
1.0927 -1.6340 0.8041
1.1584 -1.4623 0.7634
1.3196 -1.4150 0.7920
1.4944 -1.3638 0.8285
1.6872 -1.3072 0.8743
1.9040 -1.2437 0.9319
2.1530 -1.1708 1.0046
2.4459 -1.0850 1.0972
2.8007 -0.9811 1.2172
4.8054 -1.2597 2.0382
4.8899 -0.8686 2.0382
4.9427 -0.4721 2.0382
4.9635 -0.0727 2.0382
4.9521 0.3270 2.0382
4.9088 0.7244 2.0382
4.8338 1.1170 2.0382
4.7275 1.5023 2.0382
4.5906 1.8778 2.0382
4.4242 2.2411 2.0382
4.2291 2.5898 2.0382
4.0067 2.9217 2.0382
3.7585 3.2348 2.0382
3.4859 3.5269 2.0382
3.1908 3.7963 2.0382
2.8751 4.0411 2.0382
2.5407 4.2599 2.0382
2.1898 4.4511 2.0382
0.6705 1.6955 0.7490
0.5319 1.7442 0.7490
0.3899 1.7816 0.7489
0.2452 1.8073 0.7488
0.0990 1.8213 0.7487
-0.0480 1.8235 0.7485
-0.1946 1.8137 0.7483
-0.3399 1.7921 0.7481
-0.4830 1.7589 0.7479
-0.6229 1.7142 0.7476
-0.7588 1.6584 0.7473
-2.4277 4.3435 2.0382
-2.7702 4.1354 2.0382
-3.0951 3.9005 2.0382
-3.4000 3.6400 2.0382
-3.6831 3.3559 2.0382
-3.9424 3.0497 2.0382
-4.1764 2.7236 2.0382
-4.3833 2.3796 2.0382
-4.5620 2.0199 2.0382
-4.7111 1.6469 2.0382
-4.8297 1.2631 2.0382
-4.9170 0.8708 2.0382
-4.9723 0.4726 2.0382
-4.9954 0.0712 2.0382
-4.9860 -0.3308 2.0382
-4.9442 -0.7308 2.0382
-4.8703 -1.1262 2.0382
-4.7646 -1.5144 2.0382
-4.6280 -1.8928 2.0382
-4.4612 -2.2590 2.0382
-4.2654 -2.6106 2.0382
-4.0418 -2.9453 2.0382
-3.7920 -3.2607 2.0382
-3.5174 -3.5550 2.0382
-3.2201 -3.8262 2.0382
-2.9018 -4.0724 2.0382
-2.5647 -4.2921 2.0382
-2.2109 -4.4839 2.0382
-0.6673 -1.6825 0.7380
-0.5298 -1.7304 0.7380
-0.3889 -1.7672 0.7381
-0.2455 -1.7926 0.7382
-0.1005 -1.8064 0.7383
0.0451 -1.8086 0.7385
0.1904 -1.7991 0.7387
0.3345 -1.7779 0.7389
0.4764 -1.7453 0.7391
0.6153 -1.7015 0.7394
0.7503 -1.6466 0.7397
1.2969 -2.3291 1.0902
1.0942 -1.6393 0.8063
1.1568 -1.4627 0.7631
1.3178 -1.4155 0.7917
1.4925 -1.3643 0.8280
1.6851 -1.3079 0.8738
1.9016 -1.2444 0.9312
2.1502 -1.1716 1.0037
2.4426 -1.0859 1.0961
2.7966 -0.9823 1.2158
4.8044 -1.2637 2.0382
4.8891 -0.8727 2.0382
4.9423 -0.4762 2.0382
4.9634 -0.0768 2.0382
4.9524 0.3229 2.0382
4.9094 0.7203 2.0382
4.8347 1.1130 2.0382
4.7287 1.4984 2.0382
4.5922 1.8740 2.0382
4.4260 2.2374 2.0382
4.2313 2.5863 2.0382
4.0092 2.9184 2.0382
3.7612 3.2316 2.0382
3.4889 3.5240 2.0382
3.1940 3.7936 2.0382
2.8784 4.0387 2.0382
2.5442 4.2577 2.0382
2.1935 4.4493 2.0382
0.6719 1.6949 0.7490
0.5334 1.7437 0.7490
0.3914 1.7812 0.7489
0.2467 1.8071 0.7488
0.1005 1.8212 0.7487
-0.0464 1.8235 0.7485
-0.1931 1.8139 0.7483
-0.3384 1.7924 0.7481
-0.4815 1.7593 0.7479
-0.6215 1.7147 0.7476
-0.7574 1.6590 0.7473
-2.4241 4.3455 2.0382
-2.7668 4.1377 2.0382
-3.0918 3.9030 2.0382
-3.3969 3.6429 2.0382
-3.6803 3.3589 2.0382
-3.9399 3.0530 2.0382
-4.1741 2.7271 2.0382
-4.3813 2.3832 2.0382
-4.5603 2.0237 2.0382
-4.7097 1.6509 2.0382
-4.8286 1.2671 2.0382
-4.9162 0.8749 2.0382
-4.9719 0.4767 2.0382
-4.9953 0.0754 2.0382
-4.9863 -0.3266 2.0382
-4.9448 -0.7267 2.0382
-4.8712 -1.1221 2.0382
-4.7659 -1.5104 2.0382
-4.6296 -1.8890 2.0382
-4.4631 -2.2553 2.0382
-4.2676 -2.6071 2.0382
-4.0443 -2.9419 2.0382
-3.7947 -3.2576 2.0382
-3.5204 -3.5521 2.0382
-3.2233 -3.8235 2.0382
-2.9052 -4.0700 2.0382
-2.5682 -4.2900 2.0382
-2.2147 -4.4821 2.0382
-0.6687 -1.6819 0.7380
-0.5312 -1.7300 0.7380
-0.3903 -1.7669 0.7381
-0.2470 -1.7924 0.7382
1.6894 -1.3068 0.9460
1.9065 -1.2432 1.0084
2.1559 -1.1702 1.0871
2.4494 -1.0842 1.1875
2.8050 -0.9801 1.3176
4.4457 -1.1616 2.0382
4.5236 -0.7998 2.0382
4.5722 -0.4330 2.0382
4.5913 -0.0636 2.0382
4.5805 0.3062 2.0382
4.5402 0.6738 2.0382
4.4705 1.0369 2.0382
4.3719 1.3933 2.0382
4.2451 1.7405 2.0382
4.0908 2.0764 2.0382
3.9102 2.3989 2.0382
3.7042 2.7058 2.0382
3.4743 2.9952 2.0382
3.2219 3.2653 2.0382
2.9487 3.5142 2.0382
2.6564 3.7405 2.0382
2.3469 3.9425 2.0382
0.7427 1.5129 0.7486
0.6186 1.5680 0.7486
0.4904 1.6129 0.7486
0.3590 1.6474 0.7485
0.2253 1.6711 0.7484
0.0900 1.6839 0.7483
-0.0458 1.6858 0.7482
-0.1813 1.6766 0.7480
-0.3157 1.6566 0.7478
-0.4480 1.6258 0.7475
-0.5773 1.5843 0.7473
-0.7029 1.5326 0.7470
-2.2489 4.0152 2.0382
-2.5655 3.8225 2.0382
-2.8657 3.6048 2.0382
-3.1474 3.3637 2.0382
-3.4089 3.1006 2.0382
-3.6485 2.8172 2.0382
-3.8645 2.5153 2.0382
-4.0555 2.1970 2.0382
-4.2204 1.8642 2.0382
-4.3579 1.5192 2.0382
-4.4672 1.1641 2.0382
-4.5475 0.8013 2.0382
-4.5983 0.4331 2.0382
-4.6192 0.0618 2.0382
-4.6102 -0.3098 2.0382
-4.5712 -0.6797 2.0382
-4.5025 -1.0452 2.0382
-4.4045 -1.4040 2.0382
-4.2777 -1.7539 2.0382
-4.1233 -2.0923 2.0382
-3.9419 -2.4172 2.0382
-3.7350 -2.7264 2.0382
-3.5037 -3.0179 2.0382
-3.2496 -3.2898 2.0382
-2.9745 -3.5403 2.0382
-2.6800 -3.7677 2.0382
-2.3682 -3.9707 2.0382
-0.7394 -1.5027 0.7384
-0.6161 -1.5571 0.7384
-0.4889 -1.6014 0.7384
-0.3585 -1.6353 0.7385
-0.2258 -1.6587 0.7386
-0.0917 -1.6713 0.7387
0.0430 -1.6732 0.7388
0.1775 -1.6643 0.7390
0.3108 -1.6447 0.7392
0.4420 -1.6144 0.7395
0.5705 -1.5737 0.7397
0.6953 -1.5228 0.7400
1.2943 -2.3201 1.1748
1.0928 -1.6343 0.8696
1.1584 -1.4624 0.8255
1.3196 -1.4152 0.8564
1.4944 -1.3639 0.8958
1.6873 -1.3074 0.9454
1.9041 -1.2439 1.0076
2.1531 -1.1710 1.0862
2.4461 -1.0852 1.1863
2.8009 -0.9813 1.3161
4.4448 -1.1653 2.0382
4.5230 -0.8036 2.0382
4.5719 -0.4368 2.0382
4.5912 -0.0674 2.0382
4.5808 0.3024 2.0382
4.5408 0.6700 2.0382
4.4714 1.0332 2.0382
4.3731 1.3897 2.0382
4.2466 1.7370 2.0382
4.0926 2.0731 2.0382
3.9122 2.3957 2.0382
3.7065 2.7027 2.0382
3.4768 2.9923 2.0382
3.2246 3.2626 2.0382
2.9516 3.5118 2.0382
2.6595 3.7382 2.0382
2.3502 3.9406 2.0382
0.7439 1.5123 0.7486
0.6199 1.5675 0.7486
0.4917 1.6125 0.7486
0.3604 1.6471 0.7485
0.2267 1.6709 0.7484
0.0914 1.6838 0.7483
-0.0444 1.6858 0.7482
-0.1799 1.6768 0.7480
-0.3143 1.6568 0.7478
-0.4466 1.6261 0.7475
-0.5760 1.5848 0.7473
-0.7016 1.5332 0.7470
-2.2455 4.0171 2.0382
-2.5623 3.8246 2.0382
-2.8626 3.6072 2.0382
-3.1446 3.3663 2.0382
-3.4063 3.1034 2.0382
-3.6461 2.8202 2.0382
-3.8624 2.5186 2.0382
-4.0537 2.2004 2.0382
-4.2188 1.8678 2.0382
-4.3566 1.5228 2.0382
-4.4662 1.1678 2.0382
-4.5468 0.8051 2.0382
-4.5979 0.4369 2.0382
-4.6192 0.0658 2.0382
-4.6105 -0.3060 2.0382
-4.5718 -0.6759 2.0382
-4.5033 -1.0415 2.0382
-4.4056 -1.4004 2.0382
-4.2792 -1.7502 2.0382
-4.1250 -2.0889 2.0382
-3.9439 -2.4139 2.0382
-3.7372 -2.7233 2.0382
-3.5062 -3.0150 2.0382
-3.2524 -3.2871 2.0382
-2.9774 -3.5378 2.0382
-2.6832 -3.7655 2.0382
-2.3715 -3.9687 2.0382
-0.7407 -1.5021 0.7384
-0.6174 -1.5566 0.7384
-0.4902 -1.6009 0.7384
-0.3598 -1.6350 0.7385
-0.2272 -1.6585 0.7386
-0.0931 -1.6713 0.7387
0.0417 -1.6733 0.7388
0.1761 -1.6645 0.7390
0.3094 -1.6449 0.7392
0.4407 -1.6147 0.7395
0.5692 -1.5742 0.7397
0.6940 -1.5234 0.7400
1.2971 -2.3297 1.1791
1.0943 -1.6396 0.8719
1.1568 -1.4629 0.8252
1.3179 -1.4157 0.8561
1.4925 -1.3645 0.8954
1.6851 -1.3080 0.9448
1.9017 -1.2446 1.0069
2.1503 -1.1718 1.0853
2.4428 -1.0861 1.1851
2.7968 -0.9825 1.3145
4.4438 -1.1690 2.0382
4.5223 -0.8074 2.0382
4.5715 -0.4406 2.0382
4.5912 -0.0712 2.0382
4.5811 0.2985 2.0382
4.5413 0.6662 2.0382
4.4723 1.0295 2.0382
4.3743 1.3860 2.0382
4.2480 1.7334 2.0382
4.0943 2.0696 2.0382
3.9142 2.3924 2.0382
3.7087 2.6997 2.0382
3.4793 2.9894 2.0382
3.2274 3.2599 2.0382
2.9546 3.5093 2.0382
2.6626 3.7360 2.0382
2.3534 3.9386 2.0382
0.7452 1.5116 0.7486
0.6212 1.5670 0.7486
0.4931 1.6121 0.7486
0.3618 1.6468 0.7485
0.2280 1.6707 0.7484
0.0928 1.6837 0.7483
-0.0430 1.6858 0.7482
-0.1785 1.6769 0.7480
-0.3129 1.6571 0.7478
-0.4453 1.6265 0.7475
-0.5747 1.5853 0.7473
-0.7003 1.5338 0.7470
-2.2422 4.0190 2.0382
-2.5591 3.8267 2.0382
-2.8596 3.6096 2.0382
-3.1418 3.3689 2.0382
-3.4037 3.1062 2.0382
-3.6437 2.8232 2.0382
-3.8603 2.5218 2.0382
-4.0518 2.2038 2.0382
-4.2172 1.8713 2.0382
-4.3553 1.5264 2.0382
-4.4652 1.1715 2.0382
-4.5461 0.8088 2.0382
-4.5976 0.4407 2.0382
-4.6191 0.0696 2.0382
-4.6107 -0.3021 2.0382
-4.5723 -0.6721 2.0382
-4.5042 -1.0375 2.0382
-4.4068 -1.3966 2.0382
-4.2807 -1.7467 2.0382
-4.1268 -2.0854 2.0382
-3.9459 -2.4106 2.0382
-3.7395 -2.7202 2.0382
-3.5087 -3.0121 2.0382
-3.2551 -3.2844 2.0382
-2.9804 -3.5353 2.0382
-2.6863 -3.7633 2.0382
-2.3748 -3.9667 2.0382
-0.7420 -1.5015 0.7384
-0.6187 -1.5560 0.7384
-0.4915 -1.6005 0.7384
-0.3612 -1.6347 0.7385
-0.2285 -1.6583 0.7386
1.6894 -1.3070 1.0189
1.9066 -1.2434 1.0861
2.1560 -1.1703 1.1709
2.4495 -1.0844 1.2790
2.8052 -0.9803 1.4191
4.1281 -1.0788 2.0382
4.2005 -0.7429 2.0382
4.2457 -0.4022 2.0382
4.2634 -0.0592 2.0382
4.2535 0.2842 2.0382
4.2161 0.6256 2.0382
4.1514 0.9628 2.0382
4.0599 1.2938 2.0382
3.9422 1.6162 2.0382
3.7989 1.9282 2.0382
3.6311 2.2277 2.0382
3.4399 2.5127 2.0382
3.2264 2.7815 2.0382
2.9920 3.0323 2.0382
2.7382 3.2635 2.0382
2.4668 3.4735 2.0382
2.1793 3.6612 2.0382
0.6893 1.4042 0.7482
0.5741 1.4554 0.7482
0.4551 1.4971 0.7482
0.3332 1.5290 0.7481
0.2090 1.5510 0.7481
0.0835 1.5629 0.7480
-0.0426 1.5646 0.7478
-0.1684 1.5562 0.7477
-0.2931 1.5376 0.7475
-0.4159 1.5090 0.7472
-0.5359 1.4705 0.7470
-0.6525 1.4225 0.7467
-0.7648 1.3653 0.7464
-2.3822 3.5490 2.0382
-2.6608 3.3468 2.0382
-2.9224 3.1229 2.0382
-3.1651 2.8785 2.0382
-3.3875 2.6154 2.0382
-3.5880 2.3351 2.0382
-3.7653 2.0395 2.0382
-3.9182 1.7306 2.0382
-4.0458 1.4102 2.0382
-4.1472 1.0805 2.0382
-4.2217 0.7437 2.0382
-4.2688 0.4019 2.0382
-4.2882 0.0573 2.0382
-4.2797 -0.2877 2.0382
-4.2435 -0.6311 2.0382
-4.1796 -0.9704 2.0382
-4.0886 -1.3035 2.0382
-3.9710 -1.6281 2.0382
-3.8276 -1.9423 2.0382
-3.6592 -2.2439 2.0382
-3.4671 -2.5309 2.0382
-3.2524 -2.8015 2.0382
-3.0166 -3.0539 2.0382
-2.7612 -3.2864 2.0382
-2.4879 -3.4975 2.0382
-2.1984 -3.6859 2.0382
-0.6868 -1.3956 0.7388
-0.5723 -1.4461 0.7388
-0.4541 -1.4873 0.7388
-0.3330 -1.5188 0.7388
-0.2098 -1.5405 0.7389
-0.0852 -1.5523 0.7390
0.0399 -1.5540 0.7392
0.1648 -1.5458 0.7393
0.2886 -1.5275 0.7395
0.4105 -1.4994 0.7397
0.5298 -1.4616 0.7400
0.6457 -1.4143 0.7403
0.7574 -1.3579 0.7405
1.0929 -1.6346 0.9368
1.1584 -1.4626 0.8892
1.3196 -1.4153 0.9225
1.4944 -1.3641 0.9649
1.6873 -1.3076 1.0183
1.9042 -1.2441 1.0853
2.1532 -1.1712 1.1699
2.4462 -1.0854 1.2777
2.8011 -0.9815 1.4174
4.1272 -1.0823 2.0382
4.1999 -0.7464 2.0382
4.2454 -0.4058 2.0382
4.2634 -0.0627 2.0382
4.2538 0.2806 2.0382
4.2166 0.6221 2.0382
4.1522 0.9594 2.0382
4.0610 1.2904 2.0382
3.9435 1.6130 2.0382
3.8005 1.9251 2.0382
3.6330 2.2247 2.0382
3.4420 2.5099 2.0382
3.2287 2.7788 2.0382
2.9945 3.0298 2.0382
2.7410 3.2612 2.0382
2.4697 3.4715 2.0382
2.1824 3.6594 2.0382
0.6905 1.4036 0.7482
0.5753 1.4549 0.7482
0.4564 1.4967 0.7482
0.3344 1.5287 0.7481
0.2103 1.5508 0.7481
0.0848 1.5628 0.7480
-0.0413 1.5647 0.7478
-0.1671 1.5563 0.7477
-0.2918 1.5378 0.7475
-0.4146 1.5093 0.7472
-0.5347 1.4710 0.7470
-0.6513 1.4231 0.7467
-0.7637 1.3659 0.7464
-2.3792 3.5510 2.0382
-2.6580 3.3490 2.0382
-2.9198 3.1253 2.0382
-3.1627 2.8811 2.0382
-3.3853 2.6182 2.0382
-3.5860 2.3381 2.0382
-3.7635 2.0427 2.0382
-3.9168 1.7338 2.0382
-4.0446 1.4136 2.0382
-4.1463 1.0840 2.0382
-4.2211 0.7472 2.0382
-4.2685 0.4054 2.0382
-4.2881 0.0609 2.0382
-4.2800 -0.2842 2.0382
-4.2440 -0.6275 2.0382
-4.1804 -0.9669 2.0382
-4.0897 -1.3000 2.0382
-3.9724 -1.6248 2.0382
-3.8292 -1.9391 2.0382
-3.6611 -2.2408 2.0382
-3.4692 -2.5280 2.0382
-3.2547 -2.7988 2.0382
-3.0191 -3.0514 2.0382
-2.7639 -3.2841 2.0382
-2.4908 -3.4954 2.0382
-2.2015 -3.6841 2.0382
-0.6880 -1.3951 0.7388
-0.5735 -1.4457 0.7388
-0.4553 -1.4869 0.7388
-0.3342 -1.5185 0.7388
-0.2110 -1.5403 0.7389
