ply
format ascii 1.0
element vertex 2171
property float32 x
property float32 y
property float32 z
end_header
10.0309 6.1796 1.9472
9.4532 6.9308 1.9381
8.8161 7.6258 1.9281
8.1254 8.2603 1.9173
7.3876 8.8304 1.9057
6.6091 9.3330 1.8936
5.8117 9.7912 1.8858
5.0044 10.2243 1.8858
4.1651 10.5915 1.8858
3.5661 11.7704 2.0382
2.6077 12.0175 2.0382
1.6327 12.1872 2.0382
0.6474 12.2784 2.0382
-0.3420 12.2906 2.0382
-1.3293 12.2237 2.0382
-2.3081 12.0781 2.0382
-3.2722 11.8547 2.0382
-4.2155 11.5549 2.0382
-5.1319 11.1806 2.0382
-6.0157 10.7341 2.0382
-6.8612 10.2183 2.0382
-7.6629 9.6363 2.0382
-8.4157 8.9919 2.0382
-9.1147 8.2890 2.0382
-9.7554 7.5322 2.0382
-10.3336 6.7261 2.0382
-10.8457 5.8759 2.0382
-11.2881 4.9871 2.0382
-11.6580 4.0652 2.0382
-11.9528 3.1162 2.0382
-12.1706 2.1462 2.0382
-12.3099 1.1612 2.0382
-12.3696 0.1679 2.0382
-12.3493 -0.8276 2.0382
-12.2489 -1.8187 2.0382
-12.0690 -2.7990 2.0382
-11.8107 -3.7621 2.0382
-11.4754 -4.7017 2.0382
-11.0654 -5.6116 2.0382
-10.5831 -6.4859 2.0382
-10.0317 -7.3188 2.0382
-9.4146 -8.1048 2.0382
-8.7358 -8.8387 2.0382
-7.9997 -9.5156 2.0382
-7.2111 -10.1311 2.0382
-6.3752 -10.6809 2.0382
-5.4972 -11.1616 2.0382
-4.5831 -11.5698 2.0382
-3.6389 -11.9028 2.0382
-2.6706 -12.1583 2.0382
-0.7955 -5.8240 0.9623
-0.3225 -5.8282 0.9556
0.1470 -5.8324 0.9551
0.6191 -5.8367 0.9609
1.1000 -5.8411 0.9731
3.2796 -12.0076 2.0382
3.9171 -10.8283 1.8858
4.7739 -10.4764 1.8858
5.5994 -10.0564 1.8858
6.4146 -9.6111 1.8937
7.2109 -9.1205 1.9059
7.9665 -8.5605 1.9176
8.6748 -7.9343 1.9285
9.3294 -7.2461 1.9385
9.9241 -6.5004 1.9476
10.4533 -5.7026 1.9557
4.0593 -1.8076 0.7301
11.2952 -3.9758 1.9685
11.5996 -3.0605 1.9731
11.8221 -2.1205 1.9764
11.9604 -1.1637 1.9784
12.0132 -0.1983 1.9790
11.9801 0.7675 1.9784
11.8617 1.7256 1.9764
11.6593 2.6680 1.9731
11.3751 3.5867 1.9685
11.0122 4.4744 1.9627
10.5744 5.3240 1.9558
10.0662 6.1291 1.9478
9.4926 6.8837 1.9387
8.8591 7.5825 1.9288
8.1718 8.2211 1.9180
7.4368 8.7954 1.9065
6.6607 9.3024 1.8944
5.8629 9.7608 1.8858
5.0578 10.1982 1.8858
4.2205 10.5697 1.8858
3.6275 11.7517 2.0382
2.6705 12.0038 2.0382
1.6964 12.1785 2.0382
0.7116 12.2749 2.0382
-0.2778 12.2922 2.0382
-1.2654 12.2304 2.0382
-2.2449 12.0899 2.0382
-3.2102 11.8715 2.0382
-4.1550 11.5766 2.0382
-5.0734 11.2071 2.0382
-5.9595 10.7652 2.0382
-6.8076 10.2538 2.0382
-7.6123 9.6760 2.0382
-8.3684 9.0355 2.0382
-9.0710 8.3363 2.0382
-9.7156 7.5827 2.0382
-10.2981 6.7798 2.0382
-10.8145 5.9323 2.0382
-11.2615 5.0458 2.0382
-11.6362 4.1260 2.0382
-11.9360 3.1785 2.0382
-12.1589 2.2096 2.0382
-12.3033 1.2255 2.0382
-12.3682 0.2325 2.0382
-12.3531 -0.7631 2.0382
-12.2579 -1.7547 2.0382
-12.0831 -2.7358 2.0382
-11.8298 -3.7002 2.0382
-11.4995 -4.6415 2.0382
-11.0942 -5.5535 2.0382
-10.6166 -6.4303 2.0382
-10.0695 -7.2661 2.0382
-9.4565 -8.0553 2.0382
-8.7817 -8.7927 2.0382
-8.0492 -9.4735 2.0382
-7.2638 -10.0931 2.0382
-6.4307 -10.6473 2.0382
-5.5554 -11.1326 2.0382
-4.6435 -11.5455 2.0382
-3.7010 -11.8835 2.0382
-2.7341 -12.1442 2.0382
-0.8264 -5.8237 0.9630
-0.3530 -5.8279 0.9558
0.1165 -5.8322 0.9550
0.5883 -5.8364 0.9603
1.0684 -5.8408 0.9721
3.2169 -12.0247 2.0382
3.8605 -10.8487 1.8858
4.7192 -10.5013 1.8858
5.5469 -10.0857 1.8858
6.3617 -9.6405 1.8928
7.1603 -9.1545 1.9052
7.9188 -8.5988 1.9168
8.6304 -7.9769 1.9278
9.2887 -7.2925 1.9379
9.8875 -6.5504 1.9471
10.4211 -5.7559 1.9552
4.0708 -1.8382 0.7339
11.2727 -4.0342 1.9682
11.5823 -3.1207 1.9728
11.8102 -2.1821 1.9762
11.9540 -1.2262 1.9783
12.0124 -0.2611 1.9790
11.9849 0.7050 1.9785
11.8720 1.6639 1.9765
4.0475 -1.7771 0.8548
9.4775 -3.2807 1.9402
9.7252 -2.5119 1.9439
9.9051 -1.7236 1.9466
10.0154 -0.9220 1.9481
10.0553 -0.1138 1.9486
10.0244 0.6945 1.9480
9.9231 1.4963 1.9463
9.7526 2.2851 1.9435
9.5146 3.0545 1.9397
9.2114 3.7986 1.9349
8.8462 4.5117 1.9291
8.4222 5.1883 1.9224
7.9436 5.8237 1.9149
7.4148 6.4135 1.9066
6.8404 6.9537 1.8975
6.2256 7.4411 1.8879
5.5993 7.9067 1.8858
4.9442 8.3293 1.8858
4.2575 8.6981 1.8858
3.8300 9.7390 2.0382
3.0340 10.0140 2.0382
2.2187 10.2244 2.0382
1.3892 10.3689 2.0382
0.5509 10.4466 2.0382
-0.2910 10.4570 2.0382
-1.1310 10.4000 2.0382
-1.9638 10.2760 2.0382
-2.7840 10.0858 2.0382
-3.5865 9.8305 2.0382
-4.3661 9.5118 2.0382
-5.1178 9.1317 2.0382
-5.8369 8.6925 2.0382
-6.5186 8.1970 2.0382
-7.1586 7.6485 2.0382
-7.7528 7.0502 2.0382
-8.2974 6.4061 2.0382
-8.7887 5.7202 2.0382
-9.2236 4.9968 2.0382
-9.5992 4.2405 2.0382
-9.9130 3.4565 2.0382
-10.1630 2.6493 2.0382
-10.3475 1.8244 2.0382
-10.4652 0.9869 2.0382
-10.5152 0.1424 2.0382
-10.4971 -0.7038 2.0382
-10.4110 -1.5461 2.0382
-10.2574 -2.3792 2.0382
-10.0371 -3.1975 2.0382
-9.7515 -3.9957 2.0382
-9.4025 -4.7686 2.0382
-8.9921 -5.5111 2.0382
-8.5230 -6.2184 2.0382
-7.9982 -6.8858 2.0382
-7.4212 -7.5089 2.0382
-6.7955 -8.0835 2.0382
-6.1254 -8.6059 2.0382
-5.4150 -9.0727 2.0382
-4.6692 -9.4806 2.0382
-3.8927 -9.8270 2.0382
-3.0906 -10.1096 2.0382
-2.2682 -10.3264 2.0382
-0.7955 -5.8245 1.1332
-0.3225 -5.8287 1.1252
0.1470 -5.8329 1.1247
0.6191 -5.8372 1.1315
1.1001 -5.8416 1.1459
2.7854 -10.1985 2.0382
3.5957 -9.9403 2.0382
4.0548 -8.8984 1.8858
4.7560 -8.5420 1.8858
5.4261 -8.1303 1.8858
6.0675 -7.6745 1.8879
6.6971 -7.1967 1.8976
7.2864 -6.6647 1.9067
7.8301 -6.0819 1.9151
8.3235 -5.4523 1.9226
8.7621 -4.7803 1.9293
4.0588 -1.8074 0.8591
9.4592 -3.3298 1.9399
9.7112 -2.5625 1.9437
9.8955 -1.7752 1.9464
10.0104 -0.9743 1.9481
10.0548 -0.1663 1.9486
10.0285 0.6422 1.9481
9.9318 1.4446 1.9465
9.7658 2.2344 1.9437
9.5320 3.0053 1.9400
9.2330 3.7512 1.9352
8.8717 4.4664 1.9295
8.4514 5.1456 1.9229
7.9763 5.7838 1.9154
7.4506 6.3767 1.9071
6.8790 6.9202 1.8981
6.2666 7.4111 1.8886
5.6406 7.8774 1.8858
4.9877 8.3035 1.8858
4.3029 8.6759 1.8858
3.8809 9.7189 2.0382
3.0863 9.9981 2.0382
2.2721 10.2127 2.0382
1.4434 10.3616 2.0382
0.6054 10.4436 2.0382
-0.2364 10.4584 2.0382
-1.0766 10.4057 2.0382
-1.9100 10.2861 2.0382
-2.7313 10.1001 2.0382
-3.5351 9.8490 2.0382
-4.3163 9.5344 2.0382
-5.0700 9.1581 2.0382
-5.7913 8.7227 2.0382
-6.4756 8.2308 2.0382
-7.1184 7.6856 2.0382
-7.7157 7.0905 2.0382
-8.2636 6.4492 2.0382
-8.7585 5.7659 2.0382
-9.1971 5.0448 2.0382
-9.5767 4.2903 2.0382
-9.8946 3.5081 2.0382
-10.1488 2.7023 2.0382
-10.3376 1.8783 2.0382
-10.4596 1.0415 2.0382
-10.5140 0.1973 2.0382
-10.5004 -0.6489 2.0382
-10.4187 -1.4917 2.0382
-10.2694 -2.3255 2.0382
-10.0534 -3.1449 2.0382
-9.7720 -3.9446 2.0382
-9.4270 -4.7193 2.0382
-9.0205 -5.4639 2.0382
-8.5552 -6.1737 2.0382
-8.0339 -6.8438 2.0382
-7.4602 -7.4698 2.0382
-6.8375 -8.0478 2.0382
-6.1701 -8.5738 2.0382
-5.4623 -9.0441 2.0382
-4.7186 -9.4559 2.0382
-3.9439 -9.8064 2.0382
-3.1433 -10.0932 2.0382
-2.3220 -10.3144 2.0382
-0.8265 -5.8242 1.1340
-0.3530 -5.8284 1.1255
0.1165 -5.8327 1.1245
0.5883 -5.8369 1.1308
1.0685 -5.8413 1.1447
2.7321 -10.2130 2.0382
3.5438 -9.9591 2.0382
4.0083 -8.9196 1.8858
4.7114 -8.5669 1.8858
5.3836 -8.1586 1.8858
6.0253 -7.7036 1.8873
6.6574 -7.2294 1.8970
7.2495 -6.7008 1.9061
7.7963 -6.1212 1.9145
8.2931 -5.4945 1.9221
8.7354 -4.8251 1.9289
4.0702 -1.8381 0.8636
9.4405 -3.3788 1.9396
9.6969 -2.6130 1.9435
9.8856 -1.8268 1.9463
10.0050 -1.0266 1.9480
10.0541 -0.2188 1.9486
10.0324 0.5898 1.9482
9.9402 1.3928 1.9466
4.0469 -1.7770 0.9845
8.1397 -2.8179 1.9193
8.3507 -2.1572 1.9225
8.5039 -1.4800 1.9248
8.5982 -0.7918 1.9261
8.6326 -0.0979 1.9265
8.6070 0.5961 1.9260
8.5216 1.2847 1.9246
8.3773 1.9626 1.9222
8.1756 2.6244 1.9190
7.9183 3.2651 1.9149
7.6079 3.8799 1.9100
7.2472 4.4642 1.9043
6.8395 5.0140 1.8978
6.3883 5.5253 1.8908
5.9061 6.0037 1.8858
5.4028 6.4575 1.8858
4.8649 6.8695 1.8858
4.2959 7.2369 1.8858
3.9191 8.0066 1.9978
3.3280 8.4621 2.0382
2.6364 8.7012 2.0382
1.9279 8.8842 2.0382
1.2071 9.0099 2.0382
0.4787 9.0774 2.0382
-0.2529 9.0864 2.0382
-0.9828 9.0369 2.0382
-1.7064 8.9291 2.0382
-2.4191 8.7637 2.0382
-3.1164 8.5417 2.0382
-3.7937 8.2646 2.0382
-4.4468 7.9341 2.0382
-5.0714 7.5523 2.0382
-5.6636 7.1216 2.0382
-6.2194 6.6448 2.0382
-6.7354 6.1248 2.0382
-7.2082 5.5649 2.0382
-7.6347 4.9688 2.0382
-8.0121 4.3402 2.0382
-8.3380 3.6832 2.0382
-8.6102 3.0019 2.0382
-8.8269 2.3007 2.0382
-8.9866 1.5841 2.0382
-9.0883 0.8568 2.0382
-9.1312 0.1234 2.0382
-9.1150 -0.6114 2.0382
-9.0398 -1.3428 2.0382
-8.9059 -2.0660 2.0382
-8.7142 -2.7763 2.0382
-8.4658 -3.4691 2.0382
-8.1623 -4.1399 2.0382
-7.8057 -4.7843 2.0382
-7.3982 -5.3980 2.0382
-6.9424 -5.9770 2.0382
-6.4412 -6.5176 2.0382
-5.8980 -7.0161 2.0382
-5.3162 -7.4693 2.0382
-4.6995 -7.8741 2.0382
-4.0521 -8.2279 2.0382
-3.3781 -8.5283 2.0382
-2.6820 -8.7734 2.0382
-1.9683 -8.9615 2.0382
-0.7956 -5.8250 1.3059
-0.3225 -5.8292 1.2968
0.1470 -5.8334 1.2961
0.6192 -5.8377 1.3040
1.1002 -5.8421 1.3206
2.4172 -8.8505 2.0382
3.1204 -8.6266 2.0382
3.7458 -8.2206 2.0074
4.1275 -7.4135 1.8858
4.7092 -7.0563 1.8858
5.2600 -6.6534 1.8858
5.7764 -6.2075 1.8858
6.2716 -5.7367 1.8908
6.7358 -5.2321 1.8979
7.1566 -4.6881 1.9044
7.5304 -4.1086 1.9101
4.0582 -1.8073 0.9895
8.1241 -2.8601 1.9191
8.3387 -2.2006 1.9223
8.4958 -1.5243 1.9246
8.5939 -0.8367 1.9261
8.6322 -0.1430 1.9265
8.6105 0.5511 1.9261
8.5290 1.2403 1.9247
8.3885 1.9190 1.9224
8.1904 2.5820 1.9192
7.9367 3.2243 1.9152
7.6296 3.8409 1.9103
7.2721 4.4273 1.9047
6.8673 4.9794 1.8983
6.4188 5.4934 1.8912
5.9375 5.9728 1.8858
5.4366 6.4293 1.8858
4.9008 6.8441 1.8858
4.3337 7.2145 1.8858
3.9218 7.9071 1.9781
3.3722 8.4447 2.0382
2.6818 8.6874 2.0382
1.9743 8.8740 2.0382
1.2542 9.0035 2.0382
0.5261 9.0748 2.0382
-0.2054 9.0876 2.0382
-0.9356 9.0419 2.0382
-1.6597 8.9378 2.0382
-2.3733 8.7761 2.0382
-3.0717 8.5578 2.0382
-3.7505 8.2842 2.0382
-4.4053 7.9571 2.0382
-5.0318 7.5786 2.0382
-5.6262 7.1510 2.0382
-6.1845 6.6771 2.0382
-6.7032 6.1598 2.0382
-7.1789 5.6024 2.0382
-7.6085 5.0085 2.0382
-7.9892 4.3819 2.0382
-8.3184 3.7266 2.0382
-8.5942 3.0468 2.0382
-8.8145 2.3467 2.0382
-8.9780 1.6310 2.0382
-9.0835 0.9042 2.0382
-9.1302 0.1711 2.0382
-9.1179 -0.5638 2.0382
-9.0464 -1.2955 2.0382
-8.9163 -2.0194 2.0382
-8.7283 -2.7307 2.0382
-8.4836 -3.4248 2.0382
-8.1837 -4.0971 2.0382
-7.8304 -4.7433 2.0382
-7.4261 -5.3592 2.0382
-6.9734 -5.9406 2.0382
-6.4751 -6.4837 2.0382
-5.9344 -6.9851 2.0382
-5.3550 -7.4413 2.0382
-4.7405 -7.8493 2.0382
-4.0950 -8.2065 2.0382
-3.4226 -8.5105 2.0382
-2.7278 -8.7592 2.0382
-2.0151 -8.9510 2.0382
-0.8265 -5.8247 1.3068
-0.3530 -5.8289 1.2971
0.1165 -5.8332 1.2959
0.5883 -5.8374 1.3032
1.0686 -5.8418 1.3192
2.3709 -8.8631 2.0382
3.0754 -8.6429 2.0382
3.7408 -8.3248 2.0280
4.0888 -7.4350 1.8858
4.6723 -7.0809 1.8858
5.2252 -6.6809 1.8858
5.7440 -6.2378 1.8858
6.2401 -5.7680 1.8903
6.7070 -5.2661 1.8975
7.1307 -4.7246 1.9040
7.5077 -4.1472 1.9097
4.0696 -1.8379 0.9946
8.1082 -2.9022 1.9188
8.3265 -2.2440 1.9221
8.4873 -1.5687 1.9245
8.5893 -0.8816 1.9260
8.6315 -0.1881 1.9265
8.6137 0.5062 1.9261
8.5360 1.1958 1.9248
4.0463 -1.7769 1.1158
7.1218 -2.4657 1.9035
7.3051 -1.8873 1.9062
7.4384 -1.2948 1.9082
7.5205 -0.6928 1.9094
7.5508 -0.0859 1.9097
7.5290 0.5212 1.9093
7.4553 1.1237 1.9080
7.3305 1.7171 1.9060
7.1558 2.2968 1.9032
6.9328 2.8585 1.8996
6.6634 3.3980 1.8954
6.3501 3.9114 1.8904
5.9956 4.3951 1.8848
5.6241 4.8641 1.8858
5.2134 5.2993 1.8858
4.7693 5.7001 1.8858
4.2946 6.0639 1.8858
3.9138 6.5930 1.9462
3.5297 7.2108 2.0382
2.9380 7.4702 2.0382
2.3275 7.6814 2.0382
1.7020 7.8431 2.0382
1.0657 7.9541 2.0382
0.4226 8.0137 2.0382
-0.2232 8.0217 2.0382
-0.8676 7.9780 2.0382
-1.5065 7.8827 2.0382
-2.1357 7.7366 2.0382
-2.7512 7.5406 2.0382
-3.3491 7.2958 2.0382
-3.9256 7.0039 2.0382
-4.4769 6.6667 2.0382
-4.9995 6.2864 2.0382
-5.4901 5.8653 2.0382
-5.9454 5.4061 2.0382
-6.3625 4.9118 2.0382
-6.7387 4.3854 2.0382
-7.0715 3.8305 2.0382
-7.3589 3.2505 2.0382
-7.5988 2.6491 2.0382
-7.7897 2.0302 2.0382
-7.9304 1.3977 2.0382
-8.0198 0.7558 2.0382
-8.0573 0.1086 2.0382
-8.0427 -0.5397 2.0382
-7.9760 -1.1850 2.0382
-7.8575 -1.8230 2.0382
-7.6880 -2.4496 2.0382
-7.4686 -3.0607 2.0382
-7.2006 -3.6523 2.0382
-6.8857 -4.2206 2.0382
-6.5260 -4.7619 2.0382
-6.1237 -5.2725 2.0382
-5.6815 -5.7491 2.0382
-5.2022 -6.1886 2.0382
-4.6889 -6.5882 2.0382
-4.1449 -6.9451 2.0382
-3.5738 -7.2570 2.0382
-2.9793 -7.5218 2.0382
-2.3654 -7.7378 2.0382
-1.7359 -7.9036 2.0382
-0.7956 -5.8255 1.4808
-0.3225 -5.8297 1.4705
0.1470 -5.8340 1.4698
0.6192 -5.8382 1.4787
1.1002 -5.8426 1.4974
2.1318 -7.8058 2.0382
2.7520 -7.6084 2.0382
3.3543 -7.3617 2.0382
3.7711 -6.7734 1.9535
4.1535 -6.2238 1.8858
4.6394 -5.8687 1.8858
5.0950 -5.4755 1.8858
5.5173 -5.0470 1.8858
5.9037 -4.5860 1.8858
6.2669 -4.1056 1.8905
6.5920 -3.5968 1.8954
4.0576 -1.8072 1.1215
7.1082 -2.5027 1.9033
7.2947 -1.9253 1.9061
7.4313 -1.3336 1.9081
7.5168 -0.7320 1.9093
7.5504 -0.1253 1.9097
7.5320 0.4819 1.9093
7.4616 1.0849 1.9082
7.3402 1.6790 1.9062
7.1687 2.2597 1.9034
6.9487 2.8227 1.8999
6.6823 3.3638 1.8957
6.3717 3.8789 1.8908
6.0198 4.3647 1.8852
5.6495 4.8348 1.8858
5.2411 5.2721 1.8858
4.7991 5.6752 1.8858
4.3263 6.0414 1.8858
3.9159 6.5188 1.9303
3.5674 7.1923 2.0382
2.9770 7.4549 2.0382
2.3676 7.6692 2.0382
1.7430 7.8341 2.0382
1.1073 7.9484 2.0382
0.4645 8.0114 2.0382
-0.1813 8.0228 2.0382
-0.8259 7.9824 2.0382
-1.4653 7.8904 2.0382
-2.0952 7.7476 2.0382
-2.7118 7.5548 2.0382
-3.3110 7.3132 2.0382
-3.8889 7.0243 2.0382
-4.4420 6.6899 2.0382
-4.9665 6.3123 2.0382
-5.4593 5.8938 2.0382
-5.9169 5.4370 2.0382
-6.3366 4.9449 2.0382
-6.7156 4.4205 2.0382
-7.0513 3.8673 2.0382
-7.3417 3.2888 2.0382
-7.5847 2.6887 2.0382
-7.7789 2.0708 2.0382
-7.9228 1.4391 2.0382
-8.0155 0.7977 2.0382
-8.0565 0.1507 2.0382
-8.0452 -0.4977 2.0382
-7.9819 -1.1433 2.0382
-7.8667 -1.7819 2.0382
-7.7006 -2.4094 2.0382
-7.4843 -3.0216 2.0382
-7.2194 -3.6146 2.0382
-6.9076 -4.1845 2.0382
-6.5507 -4.7276 2.0382
-6.1511 -5.2403 2.0382
-5.7114 -5.7193 2.0382
-5.2344 -6.1613 2.0382
-4.7231 -6.5635 2.0382
-4.1811 -6.9232 2.0382
-3.6116 -7.2381 2.0382
-3.0186 -7.5061 2.0382
-2.4057 -7.7253 2.0382
-1.7771 -7.8944 2.0382
-0.8266 -5.8252 1.4819
-0.3530 -5.8295 1.4709
0.1166 -5.8337 1.4695
0.5884 -5.8380 1.4778
1.0686 -5.8423 1.4959
2.0910 -7.8169 2.0382
2.7123 -7.6227 2.0382
3.3158 -7.3791 2.0382
3.7672 -6.8504 1.9700
4.1209 -6.2455 1.8858
4.6087 -5.8929 1.8858
5.0664 -5.5021 1.8858
5.4910 -5.0759 1.8858
5.8797 -4.6168 1.8858
6.2444 -4.1375 1.8901
6.5723 -3.6307 1.8951
4.0690 -1.8378 1.1272
7.0944 -2.5395 1.9030
7.2841 -1.9633 1.9059
7.4240 -1.3723 1.9080
7.5128 -0.7713 1.9093
7.5498 -0.1648 1.9097
7.5347 0.4426 1.9094
7.4678 1.0459 1.9083
4.0188 -1.7649 1.2406
6.3200 -2.1883 1.8910
6.4819 -1.6748 1.8934
6.5996 -1.1490 1.8951
6.6723 -0.6148 1.8962
6.6992 -0.0764 1.8965
6.6803 0.4622 1.8961
6.6156 0.9970 1.8950
6.5059 1.5238 1.8932
6.3522 2.0387 1.8908
6.1557 2.5379 1.8876
5.9242 3.0208 1.8858
5.6606 3.4865 1.8858
5.3605 3.9294 1.8858
5.0260 4.3467 1.8858
4.6591 4.7357 1.8858
4.2623 5.0940 1.8858
3.9073 5.5168 1.9198
3.6633 6.1708 2.0382
3.1547 6.4444 2.0382
2.6259 6.6764 2.0382
2.0802 6.8653 2.0382
1.5212 7.0098 2.0382
0.9525 7.1090 2.0382
0.3777 7.1624 2.0382
-0.1995 7.1695 2.0382
-0.7755 7.1304 2.0382
-1.3465 7.0452 2.0382
-1.9088 6.9146 2.0382
-2.4590 6.7393 2.0382
-2.9933 6.5205 2.0382
-3.5085 6.2595 2.0382
-4.0011 5.9580 2.0382
-4.4681 5.6180 2.0382
-4.9064 5.2415 2.0382
-5.3132 4.8310 2.0382
-5.6858 4.3891 2.0382
-6.0218 3.9189 2.0382
-6.3191 3.4227 2.0382
-6.5757 2.9043 2.0382
-6.7898 2.3668 2.0382
-6.9602 1.8138 2.0382
-7.0856 1.2486 2.0382
-7.1653 0.6751 2.0382
-7.1986 0.0968 2.0382
-7.1853 -0.4824 2.0382
-7.1254 -1.0588 2.0382
-7.0193 -1.6288 2.0382
-6.8677 -2.1884 2.0382
-6.6715 -2.7343 2.0382
-6.4319 -3.2627 2.0382
-6.1505 -3.7702 2.0382
-5.8290 -4.2535 2.0382
-5.4695 -4.7094 2.0382
-5.0744 -5.1350 2.0382
-4.6462 -5.5275 2.0382
-4.1877 -5.8842 2.0382
-3.7018 -6.2028 2.0382
-3.1917 -6.4812 2.0382
-2.6607 -6.7176 2.0382
-2.1124 -6.9105 2.0382
-1.5502 -7.0585 2.0382
-0.7957 -5.8260 1.6583
-0.3225 -5.8303 1.6467
0.1471 -5.8345 1.6459
0.6193 -5.8388 1.6559
1.1003 -5.8432 1.6769
1.9038 -6.9712 2.0382
2.4577 -6.7950 2.0382
2.9956 -6.5747 2.0382
3.5139 -6.3117 2.0382
3.7878 -5.6761 1.9256
4.1435 -5.2416 1.8858
4.5505 -4.8906 1.8858
4.9279 -4.5080 1.8858
5.2730 -4.0963 1.8858
5.5839 -3.6583 1.8858
5.8583 -3.1967 1.8858
4.0217 -1.7913 1.2444
6.3080 -2.2211 1.8908
6.4727 -1.7086 1.8933
6.5934 -1.1834 1.8950
6.6689 -0.6497 1.8961
6.6989 -0.1114 1.8965
6.6829 0.4274 1.8962
6.6212 0.9625 1.8951
6.5144 1.4899 1.8934
6.3634 2.0057 1.8909
6.1697 2.5060 1.8879
5.9400 2.9899 1.8858
5.6788 3.4569 1.8858
5.3811 3.9014 1.8858
5.0487 4.3204 1.8858
4.6839 4.7113 1.8858
4.2889 5.0717 1.8858
3.9091 5.4588 1.9066
3.6955 6.1516 2.0382
3.1883 6.4279 2.0382
2.6607 6.6626 2.0382
2.1161 6.8543 2.0382
1.5579 7.0017 2.0382
0.9897 7.1040 2.0382
0.4151 7.1603 2.0382
-0.1621 7.1704 2.0382
-0.7382 7.1343 2.0382
-1.3096 7.0521 2.0382
-1.8727 6.9244 2.0382
-2.4237 6.7520 2.0382
-2.9592 6.5360 2.0382
-3.4757 6.2777 2.0382
-3.9699 5.9788 2.0382
-4.4387 5.6412 2.0382
-4.8789 5.2670 2.0382
-5.2878 4.8586 2.0382
-5.6627 4.4187 2.0382
-6.0012 3.9500 2.0382
-6.3010 3.4556 2.0382
-6.5603 2.9386 2.0382
-6.7773 2.4022 2.0382
-6.9505 1.8501 2.0382
-7.0789 1.2856 2.0382
-7.1615 0.7125 2.0382
-7.1978 0.1344 2.0382
-7.1875 -0.4449 2.0382
-7.1307 -1.0216 2.0382
-7.0276 -1.5920 2.0382
-6.8789 -2.1525 2.0382
-6.6856 -2.6993 2.0382
-6.4487 -3.2290 2.0382
-6.1700 -3.7379 2.0382
-5.8510 -4.2229 2.0382
-5.4940 -4.6807 2.0382
-5.1011 -5.1084 2.0382
-4.6749 -5.5030 2.0382
-4.2183 -5.8621 2.0382
-3.7341 -6.1833 2.0382
-3.2254 -6.4644 2.0382
-2.6958 -6.7036 2.0382
-2.1484 -6.8993 2.0382
-1.5871 -7.0503 2.0382
-0.8266 -5.8258 1.6594
-0.3531 -5.8300 1.6471
0.1166 -5.8342 1.6456
0.5884 -5.8385 1.6549
1.0687 -5.8429 1.6752
1.8674 -6.9811 2.0382
2.4222 -6.8077 2.0382
2.9612 -6.5903 2.0382
3.4809 -6.3301 2.0382
3.7847 -5.7361 1.9392
4.1161 -5.2632 1.8858
4.5250 -4.9144 1.8858
4.9043 -4.5337 1.8858
5.2517 -4.1239 1.8858
5.5648 -3.6874 1.8858
5.8417 -3.2273 1.8858
4.0289 -1.8198 1.2495
4.3302 -1.5502 1.3003
6.4633 -1.7422 1.8931
6.5869 -1.2178 1.8949
6.6654 -0.6845 1.8961
6.6983 -0.1464 1.8965
6.6853 0.3925 1.8962
6.6266 0.9279 1.8952
3.9730 -1.7450 1.3595
5.6862 -1.9691 1.8858
5.8245 -1.5051 1.8858
5.9212 -1.0311 1.8846
5.9862 -0.5518 1.8855
6.0104 -0.0687 1.8858
5.9938 0.4146 1.8855
5.9363 0.8944 1.8845
5.8476 1.3694 1.8858
5.7170 1.8346 1.8858
5.5495 2.2878 1.8858
5.3462 2.7259 1.8858
5.1084 3.1462 1.8858
4.8377 3.5459 1.8858
4.5359 3.9226 1.8858
4.2049 4.2738 1.8858
3.8997 4.6604 1.9117
3.7440 5.2861 2.0382
3.3063 5.5692 2.0382
2.8473 5.8163 2.0382
2.3700 6.0257 2.0382
1.8776 6.1963 2.0382
1.3731 6.3267 2.0382
0.8597 6.4163 2.0382
0.3409 6.4645 2.0382
-0.1801 6.4710 2.0382
-0.6999 6.4356 2.0382
-1.2153 6.3587 2.0382
-1.7229 6.2408 2.0382
-2.2194 6.0825 2.0382
-2.7017 5.8850 2.0382
-3.1666 5.6493 2.0382
-3.6112 5.3772 2.0382
-4.0326 5.0702 2.0382
-4.4281 4.7303 2.0382
-4.7951 4.3598 2.0382
-5.1313 3.9609 2.0382
-5.4344 3.5362 2.0382
-5.7026 3.0886 2.0382
-5.9339 2.6205 2.0382
-6.1271 2.1356 2.0382
-6.2806 1.6365 2.0382
-6.3936 1.1265 2.0382
-6.4653 0.6089 2.0382
-6.4952 0.0872 2.0382
-6.4830 -0.4355 2.0382
-6.4288 -0.9555 2.0382
-6.3329 -1.4697 2.0382
-6.1960 -1.9746 2.0382
-6.0188 -2.4670 2.0382
-5.8025 -2.9436 2.0382
-5.5485 -3.4013 2.0382
-5.2583 -3.8373 2.0382
-4.9339 -4.2485 2.0382
-4.5774 -4.6323 2.0382
-4.1911 -4.9862 2.0382
-3.7774 -5.3079 2.0382
-3.3390 -5.5952 2.0382
-2.8789 -5.8463 2.0382
-2.4000 -6.0595 2.0382
-1.9053 -6.2334 2.0382
-1.3983 -6.3668 2.0382
-0.7957 -5.8266 1.8387
-0.3226 -5.8308 1.8258
0.1471 -5.8350 1.8249
0.6193 -5.8393 1.8359
1.2063 -6.4061 2.0382
1.7172 -6.2880 2.0382
2.2168 -6.1292 2.0382
2.7020 -5.9306 2.0382
3.1696 -5.6934 2.0382
3.6164 -5.4195 2.0382
3.7987 -4.8056 1.9166
4.1048 -4.4117 1.8858
4.4453 -4.0667 1.8858
4.7568 -3.6954 1.8858
5.0373 -3.3003 1.8858
5.2850 -2.8840 1.8858
3.9718 -1.7692 1.3622
4.3233 -1.5225 1.4364
5.8167 -1.5356 1.8858
5.9156 -1.0620 1.8845
5.9832 -0.5831 1.8855
6.0101 -0.1001 1.8858
5.9961 0.3833 1.8855
5.9413 0.8634 1.8846
5.8547 1.3388 1.8858
5.7266 1.8048 1.8858
5.5614 2.2588 1.8858
5.3604 2.6980 1.8858
5.1248 3.1195 1.8858
4.8562 3.5207 1.8858
4.5564 3.8989 1.8858
4.2272 4.2518 1.8858
3.9015 4.6138 1.9007
3.7716 5.2665 2.0382
3.3354 5.5519 2.0382
2.8777 5.8014 2.0382
2.4015 6.0133 2.0382
1.9099 6.1864 2.0382
1.4061 6.3195 2.0382
0.8933 6.4118 2.0382
0.3747 6.4627 2.0382
-0.1463 6.4718 2.0382
-0.6663 6.4392 2.0382
-1.1821 6.3650 2.0382
-1.6902 6.2497 2.0382
-2.1876 6.0940 2.0382
-2.6709 5.8990 2.0382
-3.1370 5.6658 2.0382
-3.5830 5.3959 2.0382
-4.0060 5.0911 2.0382
-4.4033 4.7533 2.0382
-4.7722 4.3847 2.0382
-5.1104 3.9876 2.0382
-5.4158 3.5646 2.0382
-5.6863 3.1183 2.0382
-5.9201 2.6515 2.0382
-6.1157 2.1675 2.0382
-6.2719 1.6692 2.0382
-6.3876 1.1599 2.0382
-6.4619 0.6427 2.0382
-6.4945 0.1211 2.0382
-6.4851 -0.4016 2.0382
-6.4336 -0.9219 2.0382
-6.3404 -1.4366 2.0382
-6.2061 -1.9422 2.0382
-6.0315 -2.4354 2.0382
-5.8177 -2.9132 2.0382
-5.5661 -3.3723 2.0382
-5.2782 -3.8097 2.0382
-4.9560 -4.2226 2.0382
-4.6015 -4.6083 2.0382
-4.2170 -4.9642 2.0382
-3.8050 -5.2880 2.0382
-3.3682 -5.5776 2.0382
-2.9094 -5.8311 2.0382
-2.4315 -6.0468 2.0382
-1.9379 -6.2233 2.0382
-1.4315 -6.3594 2.0382
-0.8267 -5.8263 1.8399
-0.3531 -5.8305 1.8263
0.1166 -5.8347 1.8246
0.5884 -5.8390 1.8348
1.1728 -6.4123 2.0382
1.6843 -6.2970 2.0382
2.1848 -6.1407 2.0382
2.6710 -5.9446 2.0382
3.1398 -5.7100 2.0382
3.5881 -5.4383 2.0382
3.7961 -4.8541 1.9280
4.0818 -4.4332 1.8858
4.4240 -4.0899 1.8858
4.7375 -3.7203 1.8858
5.0200 -3.3267 1.8858
5.2699 -2.9116 1.8858
3.9706 -1.7936 1.3650
4.2530 -1.5227 1.4156
5.8087 -1.5660 1.8858
5.9098 -1.0928 1.8844
5.9801 -0.6143 1.8854
6.0096 -0.1315 1.8858
5.9982 0.3519 1.8855
5.9460 0.8324 1.8847
3.9563 -1.7378 1.4886
4.3422 -1.5038 1.5834
5.2972 -1.3691 1.8858
5.3888 -0.9385 1.8858
5.4454 -0.5021 1.8858
5.4667 -0.0627 1.8858
5.4526 0.3770 1.8858
5.4032 0.8139 1.8858
5.3189 1.2454 1.8858
5.2003 1.6686 1.8858
5.0480 2.0809 1.8858
4.8632 2.4795 1.8858
4.6470 2.8618 1.8858
4.4008 3.2256 1.8858
4.1263 3.5683 1.8858
3.8910 3.9546 1.9182
3.7824 4.5201 2.0382
3.4061 4.8089 2.0382
3.0079 5.0665 2.0382
2.5904 5.2913 2.0382
2.1562 5.4819 2.0382
1.7082 5.6371 2.0382
1.2492 5.7558 2.0382
0.7822 5.8374 2.0382
0.3102 5.8812 2.0382
-0.1638 5.8871 2.0382
-0.6368 5.8550 2.0382
-1.1057 5.7850 2.0382
-1.5675 5.6776 2.0382
-2.0192 5.5336 2.0382
-2.4579 5.3538 2.0382
-2.8809 5.1394 2.0382
-3.2853 4.8917 2.0382
-3.6686 4.6124 2.0382
-4.0284 4.3031 2.0382
-4.3622 3.9660 2.0382
-4.6679 3.6031 2.0382
-4.9436 3.2167 2.0382
-5.1874 2.8094 2.0382
-5.3978 2.3837 2.0382
-5.5733 1.9424 2.0382
-5.7129 1.4883 2.0382
-5.8156 1.0245 2.0382
-5.8806 0.5537 2.0382
-5.9076 0.0791 2.0382
-5.8964 -0.3962 2.0382
-5.8470 -0.8692 2.0382
-5.7597 -1.3368 2.0382
-5.6350 -1.7960 2.0382
-5.4737 -2.2437 2.0382
-5.2769 -2.6771 2.0382
-5.0458 -3.0934 2.0382
-4.7818 -3.4897 2.0382
-4.4868 -3.8636 2.0382
-4.1625 -4.2126 2.0382
-3.8111 -4.5343 2.0382
-3.4349 -4.8268 2.0382
-3.0362 -5.0880 2.0382
-2.6178 -5.3162 2.0382
-2.1823 -5.5100 2.0382
-1.7325 -5.6681 2.0382
-1.2714 -5.7894 2.0382
-0.8020 -5.8731 2.0382
-0.3274 -5.9187 2.0382
0.1494 -5.9259 2.0382
0.6251 -5.8947 2.0382
1.0969 -5.8251 2.0382
1.5614 -5.7178 2.0382
0.7296 -2.0173 0.7377
2.4569 -5.3928 2.0382
2.8821 -5.1773 2.0382
3.2885 -4.9282 2.0382
3.6734 -4.6472 2.0382
3.8052 -4.0898 1.9224
4.0423 -3.6983 1.8858
4.3257 -3.3607 1.8858
4.5808 -3.0015 1.8858
4.8062 -2.6229 1.8858
3.9551 -1.7619 1.4916
4.2714 -1.5043 1.5605
5.2901 -1.3967 1.8858
5.3839 -0.9667 1.8858
5.4428 -0.5306 1.8858
5.4664 -0.0912 1.8858
5.4546 0.3485 1.8858
5.4075 0.7857 1.8858
5.3254 1.2176 1.8858
5.2090 1.6415 1.8858
5.0589 2.0545 1.8858
4.8761 2.4541 1.8858
4.6619 2.8376 1.8858
4.4177 3.2026 1.8858
4.1450 3.5467 1.8858
3.8924 3.9149 1.9087
3.8061 4.5003 2.0382
3.4313 4.7910 2.0382
3.0344 5.0507 2.0382
2.6180 5.2778 2.0382
2.1848 5.4706 2.0382
1.7376 5.6281 2.0382
1.2793 5.7492 2.0382
0.8127 5.8332 2.0382
0.3409 5.8795 2.0382
-0.1331 5.8879 2.0382
-0.6062 5.8582 2.0382
-1.0754 5.7907 2.0382
-1.5378 5.6857 2.0382
-1.9902 5.5441 2.0382
-2.4299 5.3666 2.0382
-2.8540 5.1543 2.0382
-3.2597 4.9088 2.0382
-3.6444 4.6314 2.0382
-4.0058 4.3241 2.0382
-4.3413 3.9887 2.0382
-4.6490 3.6273 2.0382
-4.9267 3.2424 2.0382
-5.1726 2.8364 2.0382
-5.3852 2.4118 2.0382
-5.5630 1.9715 2.0382
-5.7050 1.5182 2.0382
-5.8100 1.0548 2.0382
-5.8776 0.5844 2.0382
-5.9071 0.1100 2.0382
-5.8983 -0.3654 2.0382
-5.8514 -0.8387 2.0382
-5.7665 -1.3067 2.0382
-5.6442 -1.7665 2.0382
-5.4853 -2.2151 2.0382
-5.2907 -2.6495 2.0382
-5.0618 -3.0669 2.0382
-4.7999 -3.4647 2.0382
-4.5068 -3.8401 2.0382
-4.1844 -4.1907 2.0382
-3.8347 -4.5143 2.0382
-3.4600 -4.8087 2.0382
-3.0627 -5.0720 2.0382
-2.6455 -5.3024 2.0382
-2.2110 -5.4985 2.0382
-1.7621 -5.6589 2.0382
-1.3016 -5.7826 2.0382
-0.8327 -5.8688 2.0382
-0.3583 -5.9169 2.0382
0.1184 -5.9266 2.0382
0.5944 -5.8979 2.0382
1.0664 -5.8308 2.0382
1.5315 -5.7259 2.0382
0.7191 -2.0211 0.7377
2.4288 -5.4056 2.0382
2.8551 -5.1923 2.0382
3.2627 -4.9453 2.0382
3.6491 -4.6664 2.0382
3.8030 -4.1306 1.9321
4.0230 -3.7194 1.8858
4.3081 -3.3833 1.8858
4.5652 -3.0254 1.8858
4.7925 -2.6481 1.8858
3.9538 -1.7862 1.4946
4.2027 -1.5048 1.5382
5.2828 -1.4244 1.8858
5.3789 -0.9948 1.8858
5.4400 -0.5590 1.8858
5.4659 -0.1198 1.8858
5.4564 0.3200 1.8858
5.4116 0.7575 1.8858
3.9394 -1.7305 1.6192
4.2890 -1.4855 1.7084
4.8496 -1.2535 1.8858
4.9335 -0.8594 1.8858
4.9854 -0.4599 1.8858
5.0050 -0.0575 1.8858
4.9922 0.3450 1.8858
4.9471 0.7451 1.8858
4.8700 1.1402 1.8858
4.7615 1.5277 1.8858
4.6221 1.9052 1.8858
4.4530 2.2702 1.8858
4.2551 2.6203 1.8858
4.0298 2.9534 1.8858
3.8812 3.3562 1.9371
3.7859 3.8476 2.0382
3.4637 4.1390 2.0382
3.1191 4.4035 2.0382
2.7545 4.6394 2.0382
2.3722 4.8454 2.0382
0.7254 1.8441 0.7487
0.5748 1.8967 0.7489
0.4204 1.9369 0.7490
0.2633 1.9646 0.7491
0.2840 5.3857 2.0382
-0.1500 5.3911 2.0382
-0.2143 1.9705 0.7491
-0.3721 1.9468 0.7490
-0.5274 1.9104 0.7489
-0.6793 1.8616 0.7488
-2.2509 4.9026 2.0382
-2.6382 4.7062 2.0382
-3.0085 4.4794 2.0382
-3.3595 4.2235 2.0382
-3.6888 3.9403 2.0382
-3.9945 3.6315 2.0382
-4.2744 3.2990 2.0382
-4.5267 2.9453 2.0382
-4.7499 2.5723 2.0382
-4.9425 2.1824 2.0382
-5.1031 1.7784 2.0382
-5.2308 1.3626 2.0382
-5.3247 0.9378 2.0382
-5.3842 0.5068 2.0382
-5.4088 0.0722 2.0382
-5.3984 -0.3629 2.0382
-5.3531 -0.7960 2.0382
-5.2730 -1.2240 2.0382
-5.1588 -1.6444 2.0382
-5.0110 -2.0542 2.0382
-4.8307 -2.4510 2.0382
-4.6191 -2.8320 2.0382
-4.3774 -3.1947 2.0382
-4.1072 -3.5369 2.0382
-3.8103 -3.8563 2.0382
-3.4886 -4.1508 2.0382
-3.1442 -4.4184 2.0382
-2.7792 -4.6575 2.0382
-2.3962 -4.8664 2.0382
-0.7235 -1.8270 0.7383
-0.5743 -1.8790 0.7381
-0.4214 -1.9189 0.7380
-0.2658 -1.9464 0.7379
-0.1085 -1.9614 0.7379
0.0495 -1.9638 0.7379
0.2072 -1.9535 0.7379
0.3635 -1.9306 0.7380
0.5176 -1.8953 0.7381
0.6683 -1.8478 0.7382
2.2490 -4.9365 2.0382
2.6381 -4.7392 2.0382
3.0101 -4.5113 2.0382
3.3625 -4.2540 2.0382
3.6930 -3.9695 2.0382
3.8082 -3.4842 1.9408
3.9598 -3.0766 1.8858
4.1934 -2.7478 1.8858
4.3998 -2.4013 1.8858
3.9381 -1.7545 1.6224
4.2198 -1.4863 1.6839
4.8431 -1.2789 1.8858
4.9290 -0.8852 1.8858
4.9830 -0.4859 1.8858
5.0047 -0.0837 1.8858
4.9940 0.3189 1.8858
4.9510 0.7192 1.8858
4.8760 1.1147 1.8858
4.7694 1.5028 1.8858
4.6321 1.8810 1.8858
4.4648 2.2469 1.8858
4.2688 2.5981 1.8858
4.0492 2.9353 1.8877
3.8824 3.3218 1.9289
3.8060 3.8279 2.0382
3.4853 4.1209 2.0382
3.1421 4.3871 2.0382
2.7787 4.6250 2.0382
2.3975 4.8329 2.0382
0.7350 1.8402 0.7487
0.5847 1.8936 0.7489
0.4305 1.9347 0.7490
0.2735 1.9632 0.7491
0.3122 5.3842 2.0382
-0.1219 5.3918 2.0382
-0.2040 1.9716 0.7491
-0.3619 1.9487 0.7490
-0.5174 1.9131 0.7489
-0.6696 1.8651 0.7488
-2.2252 4.9143 2.0382
-2.6135 4.7199 2.0382
-2.9850 4.4950 2.0382
-3.3373 4.2410 2.0382
-3.6682 3.9595 2.0382
-3.9754 3.6523 2.0382
-4.2570 3.3213 2.0382
-4.5112 2.9689 2.0382
-4.7363 2.5970 2.0382
-4.9309 2.2082 2.0382
-5.0937 1.8050 2.0382
-5.2235 1.3899 2.0382
-5.3196 0.9656 2.0382
-5.3813 0.5349 2.0382
-5.4082 0.1005 2.0382
-5.4001 -0.3347 2.0382
-5.3571 -0.7680 2.0382
-5.2792 -1.1965 2.0382
-5.1672 -1.6174 2.0382
-5.0216 -2.0280 2.0382
-4.8434 -2.4257 2.0382
-4.6337 -2.8078 2.0382
-4.3940 -3.1718 2.0382
-4.1256 -3.5154 2.0382
-3.8304 -3.8363 2.0382
-3.5102 -4.1325 2.0382
-3.1672 -4.4019 2.0382
-2.8035 -4.6429 2.0382
-2.4216 -4.8538 2.0382
-0.7331 -1.8232 0.7383
-0.5841 -1.8760 0.7381
-0.4314 -1.9167 0.7380
-0.2760 -1.9450 0.7379
-0.1187 -1.9608 0.7379
0.0392 -1.9640 0.7379
0.1970 -1.9546 0.7379
0.3534 -1.9325 0.7380
0.5076 -1.8980 0.7381
0.6586 -1.8513 0.7382
2.2232 -4.9482 2.0382
2.6134 -4.7529 2.0382
2.9866 -4.5270 2.0382
3.3403 -4.2716 2.0382
3.6722 -3.9887 2.0382
3.8063 -3.5192 1.9491
3.9437 -3.0973 1.8858
4.1791 -2.7697 1.8858
4.3873 -2.4243 1.8858
3.9369 -1.7786 1.6256
4.1526 -1.4870 1.6602
4.8364 -1.3042 1.8858
4.9244 -0.9109 1.8858
4.9805 -0.5119 1.8858
5.0043 -0.1098 1.8858
4.9957 0.2928 1.8858
4.9548 0.6934 1.8858
3.9223 -1.7231 1.7513
4.2359 -1.4673 1.8330
4.4643 -1.1541 1.8858
4.5416 -0.7913 1.8858
4.5894 -0.4235 1.8858
4.6076 -0.0531 1.8858
4.5959 0.3174 1.8858
4.5544 0.6858 1.8858
4.4835 1.0495 1.8858
4.3836 1.4063 1.8858
4.2554 1.7539 1.8858
4.0998 2.0899 1.8858
3.9176 2.4124 1.8858
3.8702 2.8363 1.9671
3.7601 3.2512 2.0382
3.4858 3.5425 2.0382
3.1891 3.8108 2.0382
2.8719 4.0543 2.0382
2.5362 4.2716 2.0382
2.1842 4.4613 2.0382
0.6675 1.6970 0.7483
0.5289 1.7453 0.7484
0.3869 1.7824 0.7486
0.2423 1.8078 0.7486
0.0961 1.8215 0.7487
-0.0507 1.8233 0.7487
-0.1972 1.8133 0.7486
-0.3424 1.7915 0.7486
-0.4854 1.7580 0.7485
-0.6251 1.7131 0.7484
-0.7608 1.6570 0.7482
-2.4291 4.3332 2.0382
-2.7701 4.1242 2.0382
-3.0932 3.8886 2.0382
-3.3964 3.6278 2.0382
-3.6778 3.3434 2.0382
-3.9355 3.0374 2.0382
-4.1678 2.7115 2.0382
-4.3732 2.3681 2.0382
-4.5504 2.0092 2.0382
-4.6982 1.6371 2.0382
-4.8157 1.2543 2.0382
-4.9020 0.8632 2.0382
-4.9567 0.4664 2.0382
-4.9793 0.0664 2.0382
-4.9697 -0.3343 2.0382
-4.9278 -0.7329 2.0382
-4.8541 -1.1269 2.0382
-4.7488 -1.5139 2.0382
-4.6127 -1.8911 2.0382
-4.4467 -2.2563 2.0382
-4.2518 -2.6070 2.0382
-4.0293 -2.9408 2.0382
-3.7805 -3.2558 2.0382
-3.5072 -3.5497 2.0382
-3.2111 -3.8207 2.0382
-2.8940 -4.0670 2.0382
-2.5581 -4.2870 2.0382
-2.2055 -4.4793 2.0382
-0.6663 -1.6825 0.7387
-0.5289 -1.7305 0.7386
-0.3881 -1.7672 0.7385
-0.2448 -1.7926 0.7384
-0.0999 -1.8064 0.7383
0.0456 -1.8086 0.7383
0.1908 -1.7991 0.7384
0.3348 -1.7781 0.7384
0.4766 -1.7455 0.7385
0.6154 -1.7018 0.7386
0.7503 -1.6470 0.7388
2.4282 -4.3622 2.0382
2.7706 -4.1525 2.0382
3.0950 -3.9158 2.0382
3.3992 -3.6539 2.0382
3.6813 -3.3683 2.0382
3.8083 -2.9591 1.9703
3.8600 -2.5295 1.8858
4.0500 -2.2105 1.8858
3.9210 -1.7470 1.7548
4.1683 -1.4683 1.8070
4.4582 -1.1774 1.8858
4.5374 -0.8150 1.8858
4.5872 -0.4475 1.8858
4.6073 -0.0772 1.8858
4.5975 0.2934 1.8858
4.5580 0.6620 1.8858
4.4890 1.0261 1.8858
4.3910 1.3834 1.8858
4.2646 1.7316 1.8858
4.1107 2.0685 1.8858
3.9302 2.3919 1.8858
3.8711 2.8060 1.9601
3.7771 3.2316 2.0382
3.5043 3.5242 2.0382
3.2090 3.7941 2.0382
2.8931 4.0393 2.0382
2.5585 4.2584 2.0382
2.2075 4.4498 2.0382
0.6764 1.6934 0.7483
0.5380 1.7425 0.7484
0.3962 1.7803 0.7485
0.2517 1.8065 0.7486
0.1056 1.8210 0.7487
-0.0412 1.8236 0.7487
-0.1878 1.8143 0.7486
-0.3331 1.7932 0.7486
-0.4762 1.7605 0.7485
-0.6162 1.7163 0.7484
-0.7521 1.6610 0.7482
-2.4064 4.3458 2.0382
-2.7485 4.1386 2.0382
-3.0728 3.9047 2.0382
-3.3774 3.6455 2.0382
-3.6602 3.3626 2.0382
-3.9195 3.0579 2.0382
-4.1535 2.7332 2.0382
-4.3607 2.3909 2.0382
-4.5398 2.0329 2.0382
-4.6895 1.6616 2.0382
-4.8090 1.2794 2.0382
-4.8974 0.8888 2.0382
-4.9541 0.4922 2.0382
-4.9788 0.0924 2.0382
-4.9713 -0.3083 2.0382
-4.9315 -0.7071 2.0382
-4.8598 -1.1016 2.0382
-4.7566 -1.4890 2.0382
-4.6225 -1.8670 2.0382
-4.4584 -2.2330 2.0382
-4.2653 -2.5847 2.0382
-4.0445 -2.9197 2.0382
-3.7975 -3.2360 2.0382
-3.5257 -3.5313 2.0382
-3.2309 -3.8039 2.0382
-2.9152 -4.0518 2.0382
-2.5804 -4.2736 2.0382
-2.2288 -4.4677 2.0382
-0.6751 -1.6791 0.7387
-0.5379 -1.7277 0.7386
-0.3973 -1.7652 0.7385
-0.2541 -1.7913 0.7384
-0.1093 -1.8059 0.7383
0.0361 -1.8088 0.7383
0.1814 -1.8001 0.7384
0.3255 -1.7798 0.7384
0.4675 -1.7480 0.7385
0.6065 -1.7049 0.7386
0.7417 -1.6509 0.7388
2.4054 -4.3749 2.0382
2.7489 -4.1669 2.0382
3.0745 -3.9320 2.0382
3.3801 -3.6716 2.0382
3.6637 -3.3875 2.0382
3.8066 -2.9898 1.9775
3.8468 -2.5497 1.8858
4.0385 -2.2317 1.8858
3.9197 -1.7710 1.7583
4.1027 -1.4693 1.7818
4.4521 -1.2007 1.8858
4.5332 -0.8387 1.8858
4.5849 -0.4714 1.8858
4.6069 -0.1013 1.8858
4.5991 0.2694 1.8858
4.5615 0.6382 1.8858
3.9049 -1.7156 1.8854
4.0302 -1.3962 1.8858
4.1286 -1.0674 1.8858
4.2001 -0.7319 1.8858
4.2444 -0.3918 1.8858
4.2613 -0.0493 1.8858
4.2505 0.2934 1.8858
4.2122 0.6341 1.8858
4.1467 0.9705 1.8858
4.0544 1.3006 1.8858
3.9359 1.6220 1.8858
3.8690 1.9722 1.9241
3.8578 2.3753 2.0077
3.7091 2.7181 2.0382
3.4779 3.0071 2.0382
3.2243 3.2765 2.0382
2.9499 3.5247 2.0382
2.6565 3.7500 2.0382
2.3460 3.9511 2.0382
0.7413 1.5140 0.7478
0.6172 1.5689 0.7479
0.4890 1.6136 0.7481
0.3577 1.6478 0.7482
0.2240 1.6713 0.7482
0.0888 1.6840 0.7483
-0.0469 1.6857 0.7483
-0.1824 1.6764 0.7482
-0.3166 1.6562 0.7482
-0.4487 1.6253 0.7481
-0.5780 1.5838 0.7480
-0.7034 1.5320 0.7478
-2.2469 4.0080 2.0382
-2.5623 3.8147 2.0382
-2.8612 3.5967 2.0382
-3.1416 3.3555 2.0382
-3.4018 3.0924 2.0382
-3.6401 2.8093 2.0382
-3.8549 2.5079 2.0382
-4.0449 2.1901 2.0382
-4.2087 1.8581 2.0382
-4.3454 1.5140 2.0382
-4.4540 1.1599 2.0382
-4.5338 0.7982 2.0382
-4.5843 0.4312 2.0382
-4.6051 0.0612 2.0382
-4.5961 -0.3093 2.0382
-4.5574 -0.6780 2.0382
-4.4891 -1.0424 2.0382
-4.3917 -1.4002 2.0382
-4.2658 -1.7490 2.0382
-4.1122 -2.0867 2.0382
-3.9319 -2.4109 2.0382
-3.7261 -2.7197 2.0382
-3.4960 -3.0109 2.0382
-3.2432 -3.2827 2.0382
-2.9693 -3.5333 2.0382
-2.6761 -3.7610 2.0382
-2.3655 -3.9644 2.0382
-0.7396 -1.5022 0.7392
-0.6164 -1.5566 0.7391
-0.4893 -1.6010 0.7389
-0.3590 -1.6350 0.7388
-0.2265 -1.6585 0.7388
-0.0924 -1.6713 0.7387
0.0422 -1.6733 0.7387
0.1765 -1.6645 0.7387
0.3097 -1.6450 0.7388
0.4410 -1.6149 0.7389
0.5694 -1.5744 0.7390
0.6941 -1.5237 0.7391
2.2454 -4.0339 2.0382
2.5620 -3.8400 2.0382
2.8620 -3.6212 2.0382
3.1433 -3.3789 2.0382
3.4042 -3.1149 2.0382
3.6430 -2.8307 2.0382
3.8057 -2.4940 2.0106
3.8257 -2.0882 1.9262
3.8968 -1.7364 1.8858
4.0229 -1.4172 1.8858
4.1230 -1.0890 1.8858
4.1963 -0.7539 1.8858
4.2424 -0.4140 1.8858
4.2610 -0.0715 1.8858
4.2520 0.2712 1.8858
4.2156 0.6121 1.8858
4.1518 0.9489 1.8858
4.0612 1.2794 1.8858
3.9444 1.6014 1.8858
3.8696 1.9471 1.9193
3.8586 2.3481 2.0017
3.7233 2.6987 2.0382
3.4936 2.9889 2.0382
3.2414 3.2596 2.0382
2.9683 3.5093 2.0382
2.6761 3.7361 2.0382
2.3666 3.9388 2.0382
0.7492 1.5101 0.7478
0.6253 1.5656 0.7479
0.4974 1.6110 0.7481
0.3663 1.6459 0.7482
0.2327 1.6701 0.7482
0.0976 1.6835 0.7483
-0.0381 1.6859 0.7483
-0.1736 1.6773 0.7483
-0.3079 1.6579 0.7482
-0.4402 1.6276 0.7481
-0.5697 1.5868 0.7480
-0.6954 1.5356 0.7478
-2.2259 4.0197 2.0382
-2.5423 3.8280 2.0382
-2.8423 3.6116 2.0382
-3.1240 3.3718 2.0382
-3.3856 3.1101 2.0382
-3.6253 2.8282 2.0382
-3.8417 2.5279 2.0382
-4.0333 2.2112 2.0382
-4.1989 1.8801 2.0382
-4.3374 1.5367 2.0382
-4.4478 1.1832 2.0382
-4.5295 0.8219 2.0382
-4.5819 0.4551 2.0382
-4.6047 0.0853 2.0382
-4.5976 -0.2853 2.0382
-4.5608 -0.6541 2.0382
-4.4944 -1.0189 2.0382
-4.3989 -1.3772 2.0382
-4.2748 -1.7267 2.0382
-4.1230 -2.0652 2.0382
-3.9444 -2.3904 2.0382
-3.7402 -2.7002 2.0382
-3.5116 -2.9926 2.0382
-3.2603 -3.2657 2.0382
-2.9877 -3.5177 2.0382
-2.6957 -3.7469 2.0382
-2.3861 -3.9519 2.0382
-0.7475 -1.4984 0.7392
-0.6246 -1.5534 0.7391
-0.4977 -1.5984 0.7389
-0.3676 -1.6331 0.7388
-0.2351 -1.6573 0.7388
-0.1012 -1.6708 0.7387
0.0334 -1.6735 0.7387
0.1678 -1.6654 0.7387
0.3011 -1.6466 0.7388
0.4325 -1.6172 0.7389
0.5611 -1.5774 0.7390
0.6862 -1.5273 0.7391
2.2243 -4.0456 2.0382
2.5419 -3.8533 2.0382
2.8431 -3.6361 2.0382
3.1257 -3.3953 2.0382
3.3879 -3.1327 2.0382
3.6282 -2.8498 2.0382
3.8043 -2.5217 2.0167
3.8245 -2.1136 1.9312
3.8877 -1.7568 1.8858
4.0155 -1.4382 1.8858
4.1173 -1.1105 1.8858
4.1924 -0.7758 1.8858
4.2402 -0.4361 1.8858
4.2607 -0.0938 1.8858
4.2535 0.2490 1.8858
4.2188 0.5901 1.8858
3.8189 -1.6780 1.9861
3.8327 -1.3278 1.9316
3.8492 -0.9951 1.8937
3.8995 -0.6798 1.8858
3.9407 -0.3639 1.8858
3.9564 -0.0460 1.8858
3.9465 0.2723 1.8858
3.9110 0.5886 1.8858
3.8683 0.9053 1.8947
3.8595 1.2379 1.9334
3.8530 1.5877 1.9882
3.8055 1.9397 2.0382
3.6365 2.2390 2.0382
3.4441 2.5238 2.0382
3.2294 2.7921 2.0382
2.9940 3.0423 2.0382
2.7392 3.2728 2.0382
2.4668 3.4821 2.0382
2.1785 3.6688 2.0382
0.6880 1.4052 0.7475
0.5728 1.4562 0.7476
0.4539 1.4977 0.7477
0.3320 1.5294 0.7478
0.2079 1.5513 0.7479
0.0824 1.5630 0.7479
-0.0435 1.5646 0.7479
-0.1693 1.5560 0.7479
-0.2939 1.5372 0.7479
-0.4165 1.5085 0.7478
-0.5365 1.4700 0.7477
-0.6529 1.4219 0.7475
-0.7651 1.3646 0.7474
-2.3793 3.5422 2.0382
-2.6568 3.3397 2.0382
-2.9172 3.1156 2.0382
-3.1588 2.8713 2.0382
-3.3800 2.6084 2.0382
-3.5795 2.3285 2.0382
-3.7558 2.0335 2.0382
-3.9079 1.7252 2.0382
-4.0347 1.4056 2.0382
-4.1355 1.0768 2.0382
-4.2096 0.7410 2.0382
-4.2564 0.4002 2.0382
-4.2757 0.0567 2.0382
-4.2673 -0.2873 2.0382
-4.2312 -0.6296 2.0382
-4.1678 -0.9679 2.0382
-4.0773 -1.3001 2.0382
-3.9604 -1.6240 2.0382
-3.8177 -1.9374 2.0382
-3.6503 -2.2384 2.0382
-3.4592 -2.5250 2.0382
-3.2456 -2.7954 2.0382
-3.0109 -3.0476 2.0382
-2.7566 -3.2803 2.0382
-2.4843 -3.4916 2.0382
-2.1959 -3.6804 2.0382
-0.6869 -1.3952 0.7395
-0.5725 -1.4457 0.7394
-0.4544 -1.4869 0.7392
-0.3334 -1.5185 0.7392
-0.2103 -1.5404 0.7391
-0.0859 -1.5522 0.7391
0.0392 -1.5541 0.7391
0.1639 -1.5460 0.7391
0.2877 -1.5279 0.7391
0.4095 -1.4999 0.7392
0.5288 -1.4623 0.7393
0.6447 -1.4152 0.7395
0.7564 -1.3590 0.7396
2.3784 -3.5649 2.0382
2.6569 -3.3618 2.0382
2.9181 -3.1370 2.0382
3.1603 -2.8919 2.0382
3.3820 -2.6281 2.0382
3.5817 -2.3474 2.0382
3.7581 -2.0515 2.0382
3.8179 -1.7014 1.9901
3.8319 -1.3500 1.9347
3.8473 -1.0161 1.8954
3.8960 -0.7000 1.8858
3.9388 -0.3845 1.8858
3.9562 -0.0665 1.8858
3.9479 0.2517 1.8858
3.9141 0.5682 1.8858
3.8697 0.8844 1.8930
3.8598 1.2158 1.9303
3.8535 1.5644 1.9842
3.8156 1.9198 2.0382
3.6482 2.2200 2.0382
3.4573 2.5058 2.0382
3.2440 2.7752 2.0382
3.0099 3.0267 2.0382
2.7563 3.2585 2.0382
2.4850 3.4692 2.0382
2.1976 3.6574 2.0382
0.6954 1.4016 0.7475
0.5804 1.4532 0.7476
0.4617 1.4953 0.7477
0.3400 1.5277 0.7478
0.2160 1.5501 0.7479
0.0906 1.5625 0.7479
-0.0354 1.5648 0.7479
-0.1611 1.5568 0.7479
-0.2858 1.5388 0.7479
-0.4086 1.5107 0.7478
-0.5288 1.4728 0.7477
-0.6455 1.4253 0.7475
-0.7579 1.3686 0.7474
-2.3607 3.5545 2.0382
-2.6393 3.3535 2.0382
-2.9009 3.1308 2.0382
-3.1437 2.8878 2.0382
-3.3663 2.6260 2.0382
-3.5672 2.3472 2.0382
-3.7451 2.0531 2.0382
-3.8988 1.7456 2.0382
-4.0273 1.4267 2.0382
-4.1298 1.0984 2.0382
-4.2056 0.7630 2.0382
-4.2542 0.4224 2.0382
-4.2753 0.0790 2.0382
-4.2687 -0.2650 2.0382
-4.2344 -0.6075 2.0382
-4.1727 -0.9461 2.0382
-4.0840 -1.2788 2.0382
-3.9687 -1.6032 2.0382
-3.8278 -1.9174 2.0382
-3.6619 -2.2193 2.0382
-3.4723 -2.5069 2.0382
-3.2601 -2.7783 2.0382
-3.0267 -3.0318 2.0382
-2.7736 -3.2658 2.0382
-2.5025 -3.4786 2.0382
-2.2151 -3.6689 2.0382
-0.6942 -1.3916 0.7395
-0.5801 -1.4427 0.7394
-0.4622 -1.4845 0.7393
-0.3414 -1.5168 0.7392
-0.2184 -1.5392 0.7391
-0.0940 -1.5518 0.7391
0.0310 -1.5543 0.7391
0.1559 -1.5468 0.7391
0.2797 -1.5293 0.7391
0.4017 -1.5020 0.7392
0.5211 -1.4650 0.7393
0.6373 -1.4185 0.7394
0.7493 -1.3629 0.7396
2.3598 -3.5773 2.0382
2.6393 -3.3757 2.0382
2.9017 -3.1522 2.0382
3.1452 -2.9084 2.0382
3.3683 -2.6458 2.0382
3.5694 -2.3661 2.0382
3.7474 -2.0711 2.0382
3.8169 -1.7249 1.9942
3.8311 -1.3723 1.9379
3.8454 -1.0373 1.8971
3.8923 -0.7205 1.8858
3.9368 -0.4051 1.8858
3.9558 -0.0873 1.8858
3.9492 0.2310 1.8858
3.9170 0.5478 1.8858
3.6506 -1.6042 2.0382
3.7671 -1.3053 2.0382
3.8203 -0.9880 2.0177
3.8292 -0.6676 1.9879
3.8358 -0.3544 1.9705
3.8401 -0.0447 1.9649
3.8423 0.2650 1.9709
3.8423 0.5782 1.9888
3.8401 0.8984 2.0190
3.7904 1.2156 2.0382
3.6797 1.5162 2.0382
3.5452 1.8068 2.0382
3.3879 2.0857 2.0382
3.2086 2.3511 2.0382
3.0087 2.6011 2.0382
2.7893 2.8342 2.0382
2.5520 3.0490 2.0382
2.2982 3.2440 2.0382
0.7439 1.2527 0.7470
0.6408 1.3087 0.7472
0.5335 1.3561 0.7473
0.4227 1.3947 0.7474
0.3092 1.4243 0.7475
0.1936 1.4446 0.7476
0.0768 1.4556 0.7476
-0.0406 1.4570 0.7476
-0.1576 1.4490 0.7476
-0.2737 1.4316 0.7476
-0.3879 1.4048 0.7475
-0.4996 1.3690 0.7474
-0.6081 1.3242 0.7472
-0.7125 1.2709 0.7471
-2.2167 3.2999 2.0382
-2.4752 3.1113 2.0382
-2.7178 2.9025 2.0382
-2.9429 2.6749 2.0382
-3.1489 2.4299 2.0382
-3.3347 2.1692 2.0382
-3.4989 1.8943 2.0382
-3.6406 1.6071 2.0382
-3.7587 1.3093 2.0382
-3.8526 1.0030 2.0382
-3.9215 0.6901 2.0382
-3.9651 0.3727 2.0382
-3.9830 0.0527 2.0382
-3.9751 -0.2678 2.0382
-3.9415 -0.5866 2.0382
-3.8824 -0.9018 2.0382
-3.7980 -1.2112 2.0382
-3.6891 -1.5129 2.0382
-3.5562 -1.8048 2.0382
-3.4002 -2.0852 2.0382
-3.2221 -2.3521 2.0382
-3.0231 -2.6040 2.0382
-2.8045 -2.8389 2.0382
-2.5676 -3.0555 2.0382
-2.3140 -3.2524 2.0382
-0.7425 -1.2446 0.7399
-0.6400 -1.3001 0.7398
-0.5334 -1.3471 0.7396
-0.4234 -1.3855 0.7395
-0.3107 -1.4150 0.7395
-0.1960 -1.4353 0.7394
-0.0800 -1.4464 0.7394
0.0365 -1.4482 0.7394
0.1528 -1.4406 0.7394
0.2680 -1.4237 0.7394
0.3816 -1.3976 0.7395
0.4927 -1.3625 0.7396
0.6007 -1.3187 0.7397
0.7048 -1.2663 0.7399
2.2153 -3.3206 2.0382
2.4747 -3.1315 2.0382
2.7181 -2.9221 2.0382
2.9437 -2.6938 2.0382
3.1502 -2.4481 2.0382
3.3363 -2.1866 2.0382
3.5006 -1.9111 2.0382
3.6423 -1.6232 2.0382
3.7603 -1.3250 2.0382
3.8197 -1.0092 2.0201
3.8287 -0.6881 1.9895
3.8354 -0.3745 1.9713
3.8399 -0.0647 1.9649
3.8422 0.2448 1.9701
3.8423 0.5576 1.9872
3.8403 0.8774 2.0166
3.7968 1.1958 2.0382
3.6876 1.4969 2.0382
3.5547 1.7883 2.0382
3.3987 2.0680 2.0382
3.2209 2.3343 2.0382
3.0222 2.5854 2.0382
2.8041 2.8196 2.0382
2.5679 3.0356 2.0382
2.3151 3.2319 2.0382
0.7504 1.2488 0.7470
0.6476 1.3053 0.7472
0.5406 1.3533 0.7473
0.4300 1.3925 0.7474
0.3166 1.4227 0.7475
0.2012 1.4436 0.7476
0.0844 1.4551 0.7476
-0.0329 1.4572 0.7476
-0.1501 1.4498 0.7476
-0.2662 1.4330 0.7476
-0.3806 1.4069 0.7475
-0.4925 1.3716 0.7474
-0.6011 1.3274 0.7473
-0.7059 1.2746 0.7471
-2.1994 3.3115 2.0382
-2.4589 3.1242 2.0382
-2.7026 2.9167 2.0382
-2.9288 2.6902 2.0382
-3.1362 2.4463 2.0382
-3.3233 2.1865 2.0382
-3.4890 1.9125 2.0382
-3.6321 1.6260 2.0382
-3.7518 1.3289 2.0382
-3.8472 1.0231 2.0382
-3.9178 0.7106 2.0382
-3.9630 0.3934 2.0382
-3.9826 0.0735 2.0382
-3.9764 -0.2470 2.0382
-3.9445 -0.5660 2.0382
-3.8870 -0.8815 2.0382
-3.8043 -1.1913 2.0382
-3.6969 -1.4935 2.0382
-3.5655 -1.7862 2.0382
-3.4110 -2.0674 2.0382
-3.2343 -2.3352 2.0382
-3.0366 -2.5881 2.0382
-2.8192 -2.8242 2.0382
-2.5835 -3.0420 2.0382
-2.3309 -3.2402 2.0382
-0.7490 -1.2407 0.7399
-0.6468 -1.2967 0.7398
-0.5405 -1.3444 0.7397
-0.4307 -1.3833 0.7395
-0.3181 -1.4134 0.7395
-0.2035 -1.4343 0.7394
-0.0875 -1.4460 0.7394
0.0289 -1.4483 0.7394
0.1452 -1.4413 0.7394
0.2606 -1.4251 0.7394
0.3743 -1.3996 0.7395
0.4856 -1.3651 0.7396
0.5938 -1.3218 0.7397
0.6982 -1.2699 0.7399
2.1980 -3.3322 2.0382
2.4584 -3.1444 2.0382
2.7028 -2.9363 2.0382
2.9296 -2.7092 2.0382
3.1374 -2.4646 2.0382
3.3248 -2.2041 2.0382
3.4906 -1.9294 2.0382
3.6338 -1.6422 2.0382
3.7533 -1.3446 2.0382
3.8190 -1.0304 2.0225
3.8282 -0.7087 1.9911
3.8351 -0.3947 1.9721
3.8397 -0.0848 1.9649
3.8421 0.2247 1.9695
3.8424 0.5371 1.9858
3.4102 -1.4986 2.0382
3.5190 -1.2194 2.0382
3.6050 -0.9324 2.0382
3.6676 -0.6395 2.0382
3.7064 -0.3425 2.0382
3.7212 -0.0434 2.0382
3.7120 0.2559 2.0382
3.6787 0.5534 2.0382
3.6216 0.8472 2.0382
3.5411 1.1355 2.0382
3.4377 1.4163 2.0382
3.3121 1.6879 2.0382
3.1651 1.9485 2.0382
2.9976 2.1963 2.0382
2.8109 2.4299 2.0382
2.6060 2.6478 2.0382
2.3842 2.8484 2.0382
0.7866 1.1102 0.7466
0.6948 1.1700 0.7468
0.5985 1.2222 0.7470
0.4983 1.2665 0.7471
0.3948 1.3026 0.7472
0.2888 1.3302 0.7473
0.1808 1.3492 0.7473
0.0717 1.3594 0.7473
-0.0379 1.3607 0.7474
-0.1472 1.3533 0.7473
-0.2556 1.3370 0.7473
-0.3623 1.3120 0.7472
-0.4666 1.2785 0.7471
-0.5679 1.2368 0.7470
-0.6655 1.1869 0.7469
-0.7587 1.1294 0.7467
-2.3125 2.9067 2.0382
-2.5392 2.7116 2.0382
-2.7494 2.4989 2.0382
-2.9419 2.2701 2.0382
-3.1154 2.0264 2.0382
-3.2689 1.7696 2.0382
-3.4012 1.5012 2.0382
-3.5115 1.2231 2.0382
-3.5991 0.9369 2.0382
-3.6635 0.6446 2.0382
-3.7042 0.3480 2.0382
-3.7209 0.0491 2.0382
-3.7135 -0.2503 2.0382
-3.6820 -0.5481 2.0382
-3.6267 -0.8425 2.0382
-3.5479 -1.1315 2.0382
-3.4461 -1.4133 2.0382
-3.3219 -1.6861 2.0382
-3.1762 -1.9480 2.0382
-3.0098 -2.1973 2.0382
-2.8239 -2.4325 2.0382
-2.6196 -2.6519 2.0382
-2.3983 -2.8542 2.0382
-2.1615 -3.0381 2.0382
-0.6938 -1.1629 0.7402
-0.5980 -1.2148 0.7400
-0.4984 -1.2588 0.7399
-0.3956 -1.2947 0.7398
-0.2903 -1.3222 0.7397
-0.1831 -1.3412 0.7397
-0.0747 -1.3516 0.7396
0.0341 -1.3532 0.7396
0.1427 -1.3461 0.7397
0.2504 -1.3303 0.7397
0.3566 -1.3060 0.7398
0.4604 -1.2732 0.7399
0.5613 -1.2322 0.7400
0.6585 -1.1832 0.7401
0.7516 -1.1266 0.7403
2.3116 -2.9252 2.0382
2.5389 -2.7296 2.0382
2.7497 -2.5164 2.0382
2.9426 -2.2869 2.0382
3.1164 -2.0427 2.0382
3.2700 -1.7853 2.0382
3.4024 -1.5164 2.0382
3.5126 -1.2378 2.0382
3.6001 -0.9513 2.0382
3.6642 -0.6587 2.0382
3.7046 -0.3619 2.0382
3.7210 -0.0629 2.0382
3.7133 0.2365 2.0382
3.6816 0.5342 2.0382
3.6260 0.8283 2.0382
3.5470 1.1170 2.0382
3.4451 1.3983 2.0382
3.3209 1.6706 2.0382
3.1753 1.9319 2.0382
3.0091 2.1807 2.0382
2.8236 2.4153 2.0382
2.6198 2.6342 2.0382
2.3991 2.8360 2.0382
0.7923 1.1061 0.7466
0.7009 1.1663 0.7468
0.6049 1.2191 0.7469
0.5049 1.2639 0.7471
0.4016 1.3005 0.7472
0.2957 1.3287 0.7473
0.1879 1.3482 0.7473
0.0788 1.3590 0.7473
-0.0308 1.3609 0.7474
-0.1401 1.3540 0.7473
-0.2486 1.3383 0.7473
-0.3554 1.3139 0.7472
-0.4599 1.2810 0.7471
-0.5614 1.2397 0.7470
-0.6593 1.1904 0.7469
-0.7528 1.1334 0.7467
-2.2973 2.9187 2.0382
-2.5249 2.7248 2.0382
-2.7363 2.5132 2.0382
-2.9300 2.2854 2.0382
-3.1048 2.0426 2.0382
-3.2595 1.7866 2.0382
-3.3932 1.5190 2.0382
-3.5050 1.2414 2.0382
-3.5941 0.9557 2.0382
-3.6600 0.6637 2.0382
-3.7022 0.3673 2.0382
-3.7205 0.0685 2.0382
-3.7147 -0.2309 2.0382
-3.6848 -0.5289 2.0382
-3.6310 -0.8236 2.0382
-3.5537 -1.1130 2.0382
-3.4534 -1.3953 2.0382
-3.3306 -1.6687 2.0382
-3.1863 -1.9313 2.0382
-3.0212 -2.1815 2.0382
-2.8365 -2.4177 2.0382
-2.6334 -2.6382 2.0382
-2.4132 -2.8417 2.0382
-2.1773 -3.0268 2.0382
-0.6999 -1.1593 0.7402
-0.6044 -1.2117 0.7400
-0.5050 -1.2562 0.7399
-0.4024 -1.2926 0.7398
-0.2972 -1.3207 0.7397
-0.1901 -1.3403 0.7397
-0.0818 -1.3512 0.7396
0.0270 -1.3534 0.7396
0.1357 -1.3468 0.7396
0.2435 -1.3316 0.7397
0.3497 -1.3078 0.7398
0.4537 -1.2756 0.7399
0.5548 -1.2351 0.7400
0.6523 -1.1866 0.7401
0.7457 -1.1305 0.7403
2.2963 -2.9373 2.0382
2.5247 -2.7429 2.0382
2.7366 -2.5308 2.0382
2.9307 -2.3023 2.0382
3.1058 -2.0590 2.0382
3.2607 -1.8024 2.0382
3.3944 -1.5342 2.0382
3.5061 -1.2562 2.0382
3.5951 -0.9701 2.0382
3.6608 -0.6778 2.0382
3.7027 -0.3812 2.0382
3.7207 -0.0823 2.0382
3.7145 0.2171 2.0382
3.6844 0.5149 2.0382
3.1933 -1.4034 2.0382
3.2952 -1.1420 2.0382
3.3757 -0.8733 2.0382
3.4344 -0.5990 2.0382
3.4708 -0.3209 2.0382
3.4847 -0.0408 2.0382
3.4761 0.2395 2.0382
3.4449 0.5181 2.0382
3.3915 0.7933 2.0382
3.3161 1.0632 2.0382
3.2193 1.3262 2.0382
3.1017 1.5806 2.0382
2.9641 1.8246 2.0382
2.8073 2.0567 2.0382
2.6324 2.2756 2.0382
2.4405 2.4796 2.0382
2.2329 2.6675 2.0382
0.7364 1.0394 0.7464
0.6505 1.0954 0.7466
0.5603 1.1443 0.7467
0.4665 1.1857 0.7469
0.3696 1.2195 0.7469
0.2703 1.2453 0.7470
0.1693 1.2631 0.7471
0.0671 1.2727 0.7471
-0.0355 1.2739 0.7471
-0.1378 1.2669 0.7471
-0.2393 1.2517 0.7470
-0.3392 1.2283 0.7470
-0.4369 1.1970 0.7469
-0.5317 1.1579 0.7468
-0.6231 1.1112 0.7466
-0.7104 1.0574 0.7465
-2.1657 2.7221 2.0382
-2.3780 2.5393 2.0382
-2.5748 2.3402 2.0382
-2.7551 2.1258 2.0382
-2.9176 1.8976 2.0382
-3.0612 1.6571 2.0382
-3.1851 1.4057 2.0382
-3.2884 1.1452 2.0382
-3.3704 0.8773 2.0382
-3.4307 0.6035 2.0382
-3.4687 0.3258 2.0382
-3.4843 0.0458 2.0382
-3.4774 -0.2345 2.0382
-3.4479 -0.5134 2.0382
-3.3961 -0.7891 2.0382
-3.3223 -1.0598 2.0382
-3.2269 -1.3236 2.0382
-3.1106 -1.5789 2.0382
