ply
format ascii 1.0
element vertex 2162
property float32 x
property float32 y
property float32 z
end_header
-10.2423 6.9291 2.0372
-10.7656 6.0844 2.0372
-11.2194 5.2003 2.0372
-11.6007 4.2827 2.0372
-11.9071 3.3374 2.0372
-12.1367 2.3705 2.0372
-12.2878 1.3884 2.0372
-12.3596 0.3972 2.0372
-12.3516 -0.5964 2.0372
-12.2638 -1.5863 2.0372
-12.0969 -2.5659 2.0372
-11.8518 -3.5289 2.0372
-11.5302 -4.4691 2.0372
-11.1341 -5.3805 2.0372
-10.6661 -6.2571 2.0372
-10.1293 -7.0934 2.0372
-9.5270 -7.8838 2.0372
-8.8632 -8.6233 2.0372
-8.1422 -9.3071 2.0372
-7.3686 -9.9308 2.0372
-6.5474 -10.4904 2.0372
-5.6840 -10.9823 2.0372
-4.7838 -11.4032 2.0372
-3.8528 -11.7505 2.0372
-2.8968 -12.0219 2.0372
-1.9222 -12.2157 2.0372
-0.5775 -7.6155 1.2582
0.0357 -7.6209 1.2555
0.6503 -7.6264 1.2609
2.0366 -12.1971 2.0372
3.0094 -11.9942 2.0372
3.7828 -11.1817 1.9446
4.5247 -10.5082 1.8848
5.3538 -10.1109 1.8848
4.2684 -6.6982 1.3085
6.9595 -9.1980 1.9001
7.7231 -8.6628 1.9119
8.4424 -8.0611 1.9230
9.1108 -7.3966 1.9333
9.7222 -6.6734 1.9426
10.2709 -5.8965 1.9510
10.7514 -5.0718 1.9584
11.1591 -4.2054 1.9646
11.4899 -3.3042 1.9695
11.7403 -2.3754 1.9733
11.9079 -1.4269 1.9757
11.9909 -0.4664 1.9769
11.9885 0.4979 1.9767
11.9007 1.4578 1.9752
11.7284 2.4052 1.9723
11.4784 3.3336 1.9691
11.1155 4.2224 1.9588
10.6639 5.0649 1.9448
10.1893 5.8854 1.9385
9.6475 6.6595 1.9312
9.0437 7.3816 1.9231
8.3832 8.0469 1.9143
7.6718 8.6509 1.9048
6.9157 9.1902 1.8948
6.1211 9.6616 1.8842
5.3272 10.1250 1.8848
4.4970 10.5200 1.8848
3.9319 11.7242 2.0372
2.9778 12.0021 2.0372
2.0045 12.2024 2.0372
1.0183 12.3240 2.0372
0.0254 12.3660 2.0372
-0.9675 12.3281 2.0372
-1.9543 12.2106 2.0372
-2.9284 12.0142 2.0372
-3.8836 11.7403 2.0372
-4.8138 11.3906 2.0372
-5.7128 10.9673 2.0372
-6.5750 10.4732 2.0372
-7.3947 9.9114 2.0372
-8.1667 9.2857 2.0372
-8.8859 8.5999 2.0372
-9.5477 7.8587 2.0372
-10.1479 7.0667 2.0372
-10.6825 6.2291 2.0372
-11.1482 5.3512 2.0372
-11.5419 4.4388 2.0372
-11.8610 3.4977 2.0372
-12.1036 2.5341 2.0372
-12.2679 1.5540 2.0372
-12.3531 0.5640 2.0372
-12.3585 -0.4297 2.0372
-12.2841 -1.4207 2.0372
-12.1304 -2.4024 2.0372
-11.8983 -3.3687 2.0372
-11.5894 -4.3131 2.0372
-11.2057 -5.2298 2.0372
-10.7496 -6.1126 2.0372
-10.2240 -6.9560 2.0372
-9.6325 -7.7545 2.0372
-8.9788 -8.5029 2.0372
-8.2670 -9.1964 2.0372
-7.5019 -9.8305 2.0372
-6.6884 -10.4011 2.0372
-5.8316 -10.9046 2.0372
-4.9372 -11.3376 2.0372
-4.0110 -11.6974 2.0372
-3.0588 -11.9817 2.0372
-2.0868 -12.1886 2.0372
-0.6809 -7.6145 1.2594
-0.0671 -7.6200 1.2554
0.5467 -7.6255 1.2594
1.8719 -12.2235 2.0372
2.8473 -12.0337 2.0372
3.7648 -11.6439 2.0160
4.3824 -10.5683 1.8848
5.2169 -10.1822 1.8848
4.1464 -6.7047 1.2987
6.8274 -9.2811 1.8981
7.5979 -8.7574 1.9100
8.3250 -8.1666 1.9212
9.0024 -7.5123 1.9316
9.6238 -6.7986 1.9411
10.1834 -6.0304 1.9497
10.6757 -5.2133 1.9572
11.0959 -4.3534 1.9636
11.4399 -3.4576 1.9688
11.7040 -2.5329 1.9727
11.8857 -1.5872 1.9754
11.9830 -0.6281 1.9768
11.9949 0.3361 1.9768
11.9213 1.2973 1.9755
11.7631 2.2473 1.9729
1.4235 10.4151 2.0372
0.5826 10.4957 2.0372
-0.2620 10.5086 2.0372
-1.1050 10.4537 2.0372
-1.9407 10.3312 2.0372
-2.7640 10.1420 2.0372
-3.5694 9.8873 2.0372
-4.3518 9.5688 2.0372
-5.1061 9.1885 2.0372
-5.8274 8.7488 2.0372
-6.5110 8.2527 2.0372
-7.1526 7.7032 2.0372
-7.7481 7.1040 2.0372
-8.2935 6.4590 2.0372
-8.7853 5.7722 2.0372
-9.2204 5.0481 2.0372
-9.5960 4.2915 2.0372
-9.9096 3.5072 2.0372
-10.1592 2.7001 2.0372
-10.3432 1.8757 2.0372
-10.4604 1.0391 2.0372
-10.5101 0.1959 2.0372
-10.4918 -0.6486 2.0372
-10.4059 -1.4890 2.0372
-10.2527 -2.3197 2.0372
-10.0334 -3.1354 2.0372
-9.7492 -3.9309 2.0372
-9.4021 -4.7011 2.0372
-8.9943 -5.4408 2.0372
-8.5284 -6.1454 2.0372
-8.0074 -6.8104 2.0372
-7.4347 -7.4313 2.0372
-6.8140 -8.0043 2.0372
-6.1493 -8.5256 2.0372
-5.4449 -8.9918 2.0372
-4.7053 -9.4000 2.0372
-3.9354 -9.7474 2.0372
-3.1400 -10.0319 2.0372
-2.3244 -10.2517 2.0372
-1.4937 -10.4052 2.0372
-0.4743 -7.6163 1.4789
0.1386 -7.6218 1.4773
0.7542 -7.6272 1.4853
1.8710 -10.3440 2.0372
2.6955 -10.1604 2.0372
3.5026 -9.9112 2.0372
3.9664 -8.8799 1.8848
4.6666 -8.5328 1.8848
4.3800 -6.6730 1.5469
5.9716 -7.6749 1.8846
6.6025 -7.2076 1.8943
7.1943 -6.6862 1.9034
7.7420 -6.1138 1.9118
8.2407 -5.4944 1.9194
8.6860 -4.8320 1.9262
9.0737 -4.1316 1.9322
9.4002 -3.3984 1.9371
9.6623 -2.6380 1.9411
9.8577 -1.8564 1.9440
9.9844 -1.0599 1.9458
10.0411 -0.2549 1.9466
10.0274 0.5520 1.9462
9.9434 1.3544 1.9448
9.7899 2.1457 1.9423
9.5684 2.9194 1.9387
9.2811 3.6696 1.9341
8.9317 4.3908 1.9288
8.4945 5.0605 1.9162
8.0348 5.7078 1.9100
7.5235 6.3119 1.9032
6.9650 6.8686 1.8957
6.3640 7.3744 1.8877
5.7424 7.8492 1.8848
5.0936 8.2850 1.8848
4.4119 8.6672 1.8848
3.9824 9.6754 2.0277
3.2076 10.0105 2.0372
2.3935 10.2358 2.0372
1.5639 10.3949 2.0372
0.7242 10.4869 2.0372
-0.1202 10.5112 2.0372
-0.9638 10.4676 2.0372
-1.8012 10.3564 2.0372
-2.6269 10.1784 2.0372
-3.4357 9.9346 2.0372
-4.2223 9.6266 2.0372
-4.9816 9.2565 2.0372
-5.7088 8.8267 2.0372
-6.3991 8.3398 2.0372
-7.0480 7.7990 2.0372
-7.6515 7.2079 2.0372
-8.2056 6.5703 2.0372
-8.7066 5.8902 2.0372
-9.1515 5.1721 2.0372
-9.5372 4.4206 2.0372
-9.8613 3.6406 2.0372
-10.1218 2.8370 2.0372
-10.3169 2.0151 2.0372
-10.4454 1.1802 2.0372
-10.5065 0.3377 2.0372
-10.4996 -0.5070 2.0372
-10.4250 -1.3485 2.0372
-10.2831 -2.1812 2.0372
-10.0748 -2.9998 2.0372
-9.8014 -3.7990 2.0372
-9.4647 -4.5738 2.0372
-9.0669 -5.3190 2.0372
-8.6105 -6.0298 2.0372
-8.0986 -6.7017 2.0372
-7.5343 -7.3303 2.0372
-6.9214 -7.9116 2.0372
-6.2638 -8.4418 2.0372
-5.5657 -8.9175 2.0372
-4.8317 -9.3356 2.0372
-4.0665 -9.6934 2.0372
-3.2751 -9.9887 2.0372
-2.4625 -10.2194 2.0372
-1.6340 -10.3841 2.0372
-0.5775 -7.6154 1.4801
0.0357 -7.6208 1.4769
0.6503 -7.6263 1.4833
1.7313 -10.3683 2.0372
2.5582 -10.1959 2.0372
3.3686 -9.9576 2.0372
3.8462 -8.9327 1.8848
4.5511 -8.5949 1.8848
4.2492 -6.6681 1.5323
5.8682 -7.7556 1.8848
6.4992 -7.2899 1.8927
7.0979 -6.7773 1.9019
7.6534 -6.2133 1.9104
8.1606 -5.6015 1.9182
8.6152 -4.9460 1.9252
9.0128 -4.2516 1.9312
9.3498 -3.5235 1.9363
9.6229 -2.7673 1.9405
9.8297 -1.9888 1.9436
9.9680 -1.1944 1.9456
10.0365 -0.3904 1.9465
10.0346 0.4167 1.9464
9.9624 1.2203 1.9451
9.8204 2.0139 1.9428
9.6102 2.7911 1.9394
9.3338 3.5456 1.9350
8.9958 4.2726 1.9300
8.5748 4.9529 1.9191
8.1157 5.6021 1.9111
7.6128 6.2137 1.9044
7.0619 6.7786 1.8970
6.4677 7.2931 1.8891
5.8477 7.7710 1.8848
5.2049 8.2155 1.8848
4.5284 8.6069 1.8848
3.9901 9.3342 1.9673
3.3424 9.9664 2.0372
2.5314 10.2025 2.0372
1.7040 10.3729 2.0372
0.8656 10.4762 2.0372
0.0216 10.5119 2.0372
-0.8225 10.4796 2.0372
-1.6613 10.3798 2.0372
-2.4893 10.2129 2.0372
-3.3013 9.9800 2.0372
-4.0920 9.6827 2.0372
-4.8563 9.3229 2.0372
-5.5892 8.9029 2.0372
-6.2860 8.4254 2.0372
-6.9422 7.8934 2.0372
-7.5536 7.3105 2.0372
-8.1162 6.6804 2.0372
-8.6263 6.0071 2.0372
-9.0808 5.2951 2.0372
-9.4767 4.5489 2.0372
-9.8113 3.7733 2.0372
-10.0826 2.9733 2.0372
-10.2888 2.1541 2.0372
-10.4285 1.3210 2.0372
-10.5009 0.4794 2.0372
-10.5055 -0.3653 2.0372
-10.4423 -1.2077 2.0372
-10.3116 -2.0422 2.0372
-10.1143 -2.8636 2.0372
-9.8517 -3.6665 2.0372
-9.5255 -4.4457 2.0372
-9.1378 -5.1961 2.0372
-8.6911 -5.9131 2.0372
-8.1882 -6.5918 2.0372
-7.6325 -7.2280 2.0372
-7.0275 -7.8175 2.0372
-6.3771 -8.3565 2.0372
-5.6856 -8.8416 2.0372
-4.9573 -9.2696 2.0372
-4.1970 -9.6377 2.0372
-3.4096 -9.9436 2.0372
-2.6002 -10.1852 2.0372
-1.7739 -10.3611 2.0372
-0.6809 -7.6144 1.4815
-0.0671 -7.6199 1.4768
0.5467 -7.6254 1.4816
1.5912 -10.3907 2.0372
2.4204 -10.2294 2.0372
3.2339 -10.0021 2.0372
3.8068 -9.1802 1.9260
4.4347 -8.6556 1.8848
4.1221 -6.6654 1.5188
5.7630 -7.8341 1.8848
6.3948 -7.3707 1.8911
7.0003 -6.8671 1.9004
7.5634 -6.3114 1.9091
8.0790 -5.7073 1.9170
8.5427 -5.0589 1.9241
8.9502 -4.3707 1.9303
9.2976 -3.6479 1.9356
9.5816 -2.8959 1.9398
9.7997 -2.1208 1.9431
9.9496 -1.3286 1.9453
10.0299 -0.5257 1.9464
10.0399 0.2813 1.9465
9.9794 1.0860 1.9454
9.8491 1.8817 1.9432
1.2361 9.0442 2.0372
0.5059 9.1142 2.0372
-0.2275 9.1254 2.0372
-0.9595 9.0777 2.0372
-1.6853 8.9713 2.0372
-2.4002 8.8070 2.0372
-3.0996 8.5859 2.0372
-3.7790 8.3093 2.0372
-4.4340 7.9790 2.0372
-5.0603 7.5972 2.0372
-5.6540 7.1664 2.0372
-6.2112 6.6893 2.0372
-6.7282 6.1689 2.0372
-7.2018 5.6088 2.0372
-7.6289 5.0124 2.0372
-8.0067 4.3837 2.0372
-8.3329 3.7266 2.0372
-8.6052 3.0455 2.0372
-8.8219 2.3447 2.0372
-8.9817 1.6288 2.0372
-9.0835 0.9024 2.0372
-9.1266 0.1701 2.0372
-9.1108 -0.5632 2.0372
-9.0362 -1.2930 2.0372
-8.9032 -2.0144 2.0372
-8.7127 -2.7227 2.0372
-8.4660 -3.4135 2.0372
-8.1645 -4.0823 2.0372
-7.8104 -4.7247 2.0372
-7.4058 -5.3365 2.0372
-6.9534 -5.9139 2.0372
-6.4561 -6.4532 2.0372
-5.9171 -6.9507 2.0372
-5.3399 -7.4034 2.0372
-4.7282 -7.8082 2.0372
-4.0860 -8.1627 2.0372
-3.4174 -8.4644 2.0372
-2.7267 -8.7115 2.0372
-2.0184 -8.9023 2.0372
-1.2971 -9.0356 2.0372
-0.4743 -7.6162 1.7030
0.1386 -7.6216 1.7012
0.7542 -7.6271 1.7105
1.6247 -8.9825 2.0372
2.3407 -8.8230 2.0372
3.0416 -8.6066 2.0372
3.7228 -8.3346 2.0372
4.0524 -7.4096 1.8848
4.3586 -6.6403 1.7727
5.1862 -6.6654 1.8848
5.7046 -6.2274 1.8848
6.1960 -5.7584 1.8877
6.6636 -5.2622 1.8949
7.0889 -4.7264 1.9014
7.4682 -4.1545 1.9072
7.7982 -3.5508 1.9123
8.0759 -2.9196 1.9165
8.2987 -2.2657 1.9198
8.4647 -1.5941 1.9223
8.5723 -0.9100 1.9239
8.6206 -0.2189 1.9245
8.6090 0.4740 1.9242
8.5378 1.1630 1.9230
8.4075 1.8427 1.9209
8.2194 2.5078 1.9178
7.9753 3.1533 1.9139
7.6774 3.7742 1.9092
7.3283 4.3658 1.9037
6.9312 4.9239 1.8974
6.4866 5.4419 1.8896
6.0083 5.9251 1.8832
5.5177 6.3937 1.8848
4.9865 6.8161 1.8848
4.4231 7.1944 1.8848
3.9764 7.8117 1.9562
3.4744 8.4412 2.0372
2.7854 8.6929 2.0372
2.0784 8.8885 2.0372
1.3580 9.0267 2.0372
0.6289 9.1065 2.0372
-0.1044 9.1276 2.0372
-0.8369 9.0898 2.0372
-1.5641 8.9932 2.0372
-2.2812 8.8386 2.0372
-2.9835 8.6269 2.0372
-3.6665 8.3595 2.0372
-4.3259 8.0381 2.0372
-4.9573 7.6648 2.0372
-5.5568 7.2420 2.0372
-6.1203 6.7725 2.0372
-6.6444 6.2592 2.0372
-7.1255 5.7054 2.0372
-7.5606 5.1149 2.0372
-7.9469 4.4913 2.0372
-8.2818 3.8387 2.0372
-8.5633 3.1613 2.0372
-8.7895 2.4635 2.0372
-8.9589 1.7499 2.0372
-9.0705 1.0248 2.0372
-9.1235 0.2932 2.0372
-9.1176 -0.4403 2.0372
-9.0528 -1.1710 2.0372
-8.9296 -1.8941 2.0372
-8.7487 -2.6049 2.0372
-8.5112 -3.2990 2.0372
-8.2189 -3.9717 2.0372
-7.8734 -4.6188 2.0372
-7.4771 -5.2361 2.0372
-7.0326 -5.8196 2.0372
-6.5426 -6.3655 2.0372
-6.0104 -6.8703 2.0372
-5.4393 -7.3307 2.0372
-4.8331 -7.7437 2.0372
-4.1957 -8.1068 2.0372
-3.5313 -8.4175 2.0372
-2.8440 -8.6740 2.0372
-2.1384 -8.8742 2.0372
-1.4189 -9.0173 2.0372
-0.5775 -7.6152 1.7044
0.0357 -7.6207 1.7007
0.6503 -7.6262 1.7081
1.5034 -9.0036 2.0372
2.2215 -8.8538 2.0372
2.9252 -8.6468 2.0372
3.6100 -8.3840 2.0372
3.9520 -7.4637 1.8848
4.2300 -6.6379 1.7566
5.0958 -6.7348 1.8848
5.6201 -6.3039 1.8848
6.1136 -5.8375 1.8865
6.5879 -5.3484 1.8937
7.0206 -4.8189 1.9004
7.4079 -4.2529 1.9063
7.7464 -3.6542 1.9115
8.0330 -3.0273 1.9158
8.2652 -2.3768 1.9193
8.4409 -1.7078 1.9219
8.5584 -1.0255 1.9237
8.6167 -0.3351 1.9245
8.6152 0.3578 1.9243
8.5539 1.0478 1.9233
8.4334 1.7295 1.9213
8.2550 2.3974 1.9184
8.0201 3.0466 1.9146
7.7310 3.6719 1.9101
7.3903 4.2687 1.9047
7.0011 4.8327 1.8985
6.5630 5.3568 1.8906
6.0913 5.8469 1.8843
5.6035 6.3186 1.8848
5.0780 6.7481 1.8848
4.5198 7.1341 1.8848
3.9827 7.5696 1.9089
3.5880 8.3935 2.0372
2.9024 8.6545 2.0372
2.1982 8.8596 2.0372
1.4797 9.0075 2.0372
0.7517 9.0972 2.0372
0.0188 9.1282 2.0372
-0.7142 9.1003 2.0372
-1.4426 9.0135 2.0372
-2.1617 8.8686 2.0372
-2.8668 8.6664 2.0372
-3.5534 8.4082 2.0372
-4.2171 8.0957 2.0372
-4.8535 7.7310 2.0372
-5.4586 7.3163 2.0372
-6.0284 6.8544 2.0372
-6.5593 6.3482 2.0372
-7.0479 5.8011 2.0372
-7.4909 5.2164 2.0372
-7.8855 4.5981 2.0372
-8.2293 3.9501 2.0372
-8.5199 3.2766 2.0372
-8.7555 2.5819 2.0372
-8.9345 1.8706 2.0372
-9.0559 1.1472 2.0372
-9.1187 0.4163 2.0372
-9.1227 -0.3172 2.0372
-9.0678 -1.0487 2.0372
-8.9543 -1.7734 2.0372
-8.7830 -2.4867 2.0372
-8.5550 -3.1838 2.0372
-8.2717 -3.8605 2.0372
-7.9350 -4.5122 2.0372
-7.5471 -5.1347 2.0372
-7.1104 -5.7242 2.0372
-6.6279 -6.2766 2.0372
-6.1025 -6.7885 2.0372
-5.5377 -7.2566 2.0372
-4.9372 -7.6778 2.0372
-4.3047 -8.0494 2.0372
-3.6445 -8.3691 2.0372
-2.9608 -8.6347 2.0372
-2.2579 -8.8446 2.0372
-1.5404 -8.9973 2.0372
-0.6809 -7.6143 1.7061
-0.0671 -7.6198 1.7006
0.5467 -7.6253 1.7061
1.3818 -9.0230 2.0372
2.1018 -8.8829 2.0372
2.8082 -8.6855 2.0372
3.4966 -8.4320 2.0372
3.8509 -7.5162 1.8848
4.1036 -6.6356 1.7412
5.0044 -6.8029 1.8848
5.5345 -6.3791 1.8848
6.0302 -5.9154 1.8852
6.5111 -5.4334 1.8926
6.9510 -4.9105 1.8993
7.3462 -4.3503 1.9054
7.6931 -3.7568 1.9107
7.9886 -3.1343 1.9151
8.2301 -2.4875 1.9188
8.4154 -1.8212 1.9216
8.5428 -1.1408 1.9234
8.6111 -0.4514 1.9244
8.6196 0.2415 1.9244
8.5683 0.9324 1.9235
8.4578 1.6159 1.9217
1.0907 7.9804 2.0372
0.4464 8.0422 2.0372
-0.2008 8.0521 2.0372
-0.8467 8.0100 2.0372
-1.4871 7.9161 2.0372
-2.1179 7.7712 2.0372
-2.7350 7.5760 2.0372
-3.3345 7.3320 2.0372
-3.9125 7.0406 2.0372
-4.4651 6.7037 2.0372
-4.9890 6.3235 2.0372
-5.4806 5.9025 2.0372
-5.9369 5.4434 2.0372
-6.3548 4.9491 2.0372
-6.7316 4.4229 2.0372
-7.0650 3.8681 2.0372
-7.3528 3.2883 2.0372
-7.5931 2.6873 2.0372
-7.7843 2.0690 2.0372
-7.9253 1.4372 2.0372
-8.0152 0.7962 2.0372
-8.0532 0.1501 2.0372
-8.0393 -0.4970 2.0372
-7.9734 -1.1409 2.0372
-7.8560 -1.7775 2.0372
-7.6880 -2.4025 2.0372
-7.4702 -3.0120 2.0372
-7.2043 -3.6021 2.0372
-6.8918 -4.1690 2.0372
-6.5348 -4.7089 2.0372
-6.1356 -5.2184 2.0372
-5.6968 -5.6942 2.0372
-5.2212 -6.1332 2.0372
-4.7118 -6.5326 2.0372
-4.1721 -6.8899 2.0372
-3.6054 -7.2026 2.0372
-3.0154 -7.4689 2.0372
-2.4060 -7.6869 2.0372
-1.7810 -7.8552 2.0372
-1.1445 -7.9729 2.0372
-0.5007 -8.0390 2.0372
0.1464 -8.0533 2.0372
0.7926 -8.0155 2.0372
1.4336 -7.9260 2.0372
2.0654 -7.7853 2.0372
2.6839 -7.5943 2.0372
3.2850 -7.3543 2.0372
3.8140 -6.9737 2.0103
4.0892 -6.2299 1.8848
4.5762 -5.8815 1.8848
5.0337 -5.4950 1.8848
5.4586 -5.0731 1.8848
5.8483 -4.6184 1.8848
6.2099 -4.1403 1.8877
6.5397 -3.6380 1.8927
6.8264 -3.1083 1.8971
7.0676 -2.5551 1.9008
7.2610 -1.9824 1.9037
7.4051 -1.3946 1.9058
7.4985 -0.7960 1.9072
7.5404 -0.1914 1.9077
7.5304 0.4146 1.9075
7.4687 1.0173 1.9064
7.3557 1.6122 1.9046
7.1926 2.1945 1.9019
6.9807 2.7601 1.8986
6.7220 3.3045 1.8944
6.4187 3.8239 1.8897
6.0752 4.3157 1.8848
5.7090 4.7896 1.8848
5.3060 5.2325 1.8848
4.8687 5.6417 1.8848
4.4000 6.0144 1.8848
3.9697 6.4569 1.9170
3.6539 7.1781 2.0372
3.0658 7.4483 2.0372
2.4578 7.6704 2.0372
1.8340 7.8430 2.0372
1.1983 7.9650 2.0372
0.5549 8.0355 2.0372
-0.0921 8.0541 2.0372
-0.7385 8.0207 2.0372
-1.3801 7.9355 2.0372
-2.0128 7.7991 2.0372
-2.6326 7.6122 2.0372
-3.2353 7.3763 2.0372
-3.8171 7.0927 2.0372
-4.3743 6.7633 2.0372
-4.9032 6.3903 2.0372
-5.4005 5.9759 2.0372
-5.8629 5.5230 2.0372
-6.2874 5.0344 2.0372
-6.6713 4.5133 2.0372
-7.0122 3.9631 2.0372
-7.3078 3.3872 2.0372
-7.5561 2.7895 2.0372
-7.7557 2.1738 2.0372
-7.9052 1.5440 2.0372
-8.0037 0.9043 2.0372
-8.0505 0.2587 2.0372
-8.0452 -0.3885 2.0372
-7.9881 -1.0332 2.0372
-7.8793 -1.6713 2.0372
-7.7197 -2.2985 2.0372
-7.5102 -2.9110 2.0372
-7.2522 -3.5046 2.0372
-6.9474 -4.0756 2.0372
-6.5977 -4.6203 2.0372
-6.2054 -5.1351 2.0372
-5.7731 -5.6168 2.0372
-5.3034 -6.0622 2.0372
-4.7995 -6.4685 2.0372
-4.2647 -6.8330 2.0372
-3.7023 -7.1533 2.0372
-3.1159 -7.4275 2.0372
-2.5095 -7.6537 2.0372
-1.8868 -7.8305 2.0372
-1.2520 -7.9567 2.0372
-0.6091 -8.0315 2.0372
0.0378 -8.0545 2.0372
0.6844 -8.0255 2.0372
1.3266 -7.9446 2.0372
1.9602 -7.8124 2.0372
2.5811 -7.6298 2.0372
3.1854 -7.3980 2.0372
3.7692 -7.1183 2.0372
4.0077 -6.2891 1.8862
4.4964 -5.9427 1.8848
4.9591 -5.5624 1.8848
5.3897 -5.1463 1.8848
5.7855 -4.6969 1.8848
6.1505 -4.2217 1.8868
6.4873 -3.7244 1.8919
6.7814 -3.1990 1.8964
7.0304 -2.6494 1.9002
7.2320 -2.0797 1.9032
7.3844 -1.4941 1.9055
7.4864 -0.8971 1.9070
7.5369 -0.2931 1.9077
7.5357 0.3130 1.9076
7.4826 0.9166 1.9066
7.3782 1.5131 1.9049
7.2234 2.0979 1.9024
7.0196 2.6665 1.8992
6.7686 3.2148 1.8952
6.4726 3.7386 1.8905
6.1342 4.2343 1.8852
5.7731 4.7121 1.8848
5.3761 5.1605 1.8848
4.9444 5.5755 1.8848
4.4808 5.9545 1.8848
3.9882 6.2950 1.8848
3.7504 7.1282 2.0372
3.1660 7.4063 2.0372
2.5611 7.6366 2.0372
1.9396 7.8176 2.0372
1.3057 7.9481 2.0372
0.6633 8.0273 2.0372
0.0166 8.0546 2.0372
-0.6302 8.0299 2.0372
-1.2729 7.9534 2.0372
-1.9074 7.8255 2.0372
-2.5296 7.6471 2.0372
-3.1355 7.4193 2.0372
-3.7211 7.1436 2.0372
-4.2826 6.8217 2.0372
-4.8166 6.4558 2.0372
-5.3194 6.0482 2.0372
-5.7878 5.6016 2.0372
-6.2189 5.1188 2.0372
-6.6098 4.6029 2.0372
-6.9581 4.0573 2.0372
-7.2614 3.4855 2.0372
-7.5178 2.8912 2.0372
-7.7257 2.2782 2.0372
-7.8837 1.6506 2.0372
-7.9908 1.0122 2.0372
-8.0462 0.3673 2.0372
-8.0497 -0.2799 2.0372
-8.0013 -0.9254 2.0372
-7.9011 -1.5648 2.0372
-7.7500 -2.1942 2.0372
-7.5488 -2.8094 2.0372
-7.2988 -3.4064 2.0372
-7.0017 -3.9815 2.0372
-6.6594 -4.5308 2.0372
-6.2741 -5.0509 2.0372
-5.8483 -5.5384 2.0372
-5.3847 -5.9901 2.0372
-4.8864 -6.4031 2.0372
-4.3565 -6.7748 2.0372
-3.7984 -7.1027 2.0372
-3.2159 -7.3848 2.0372
-2.6125 -7.6191 2.0372
-1.9923 -7.8043 2.0372
-1.3593 -7.9391 2.0372
-0.7174 -8.0226 2.0372
-0.0709 -8.0543 2.0372
0.5760 -8.0340 2.0372
1.2192 -7.9618 2.0372
1.8546 -7.8382 2.0372
2.4780 -7.6640 2.0372
3.0853 -7.4403 2.0372
3.6728 -7.1685 2.0372
3.9196 -6.3380 1.8848
4.4158 -6.0028 1.8848
4.8835 -5.6288 1.8848
5.3198 -5.2185 1.8848
5.7216 -4.7745 1.8848
6.0900 -4.3022 1.8859
6.4337 -3.8099 1.8911
6.7351 -3.2890 1.8957
6.9918 -2.7432 1.8996
7.2015 -2.1766 1.9028
7.3623 -1.5933 1.9052
7.4728 -0.9979 1.9068
7.5321 -0.3948 1.9076
7.5395 0.2113 1.9076
7.4951 0.8156 1.9069
7.3993 1.4136 1.9053
0.9745 7.1298 2.0372
0.3988 7.1850 2.0372
-0.1794 7.1939 2.0372
-0.7564 7.1562 2.0372
-1.3286 7.0724 2.0372
-1.8922 6.9429 2.0372
-2.4435 6.7685 2.0372
-2.9791 6.5505 2.0372
-3.4954 6.2901 2.0372
-3.9892 5.9891 2.0372
-4.4572 5.6495 2.0372
-4.8965 5.2734 2.0372
-5.3041 4.8632 2.0372
-5.6774 4.4216 2.0372
-6.0141 3.9515 2.0372
-6.3120 3.4558 2.0372
-6.5691 2.9378 2.0372
-6.7838 2.4009 2.0372
-6.9546 1.8484 2.0372
-7.0806 1.2840 2.0372
-7.1608 0.7114 2.0372
-7.1948 0.1341 2.0372
-7.1824 -0.4440 2.0372
-7.1235 -1.0193 2.0372
-7.0187 -1.5880 2.0372
-6.8685 -2.1464 2.0372
-6.6740 -2.6910 2.0372
-6.4364 -3.2182 2.0372
-6.1572 -3.7245 2.0372
-5.8382 -4.2070 2.0372
-5.4816 -4.6622 2.0372
-5.0896 -5.0872 2.0372
-4.6647 -5.4795 2.0372
-4.2096 -5.8363 2.0372
-3.7274 -6.1555 2.0372
-3.2211 -6.4349 2.0372
-2.6940 -6.6728 2.0372
-2.1496 -6.8675 2.0372
-1.5912 -7.0180 2.0372
-1.0225 -7.1231 2.0372
-0.4473 -7.1822 2.0372
0.1308 -7.1949 2.0372
0.7081 -7.1612 2.0372
1.2808 -7.0812 2.0372
1.8453 -6.9555 2.0372
2.3978 -6.7849 2.0372
2.9348 -6.5704 2.0372
3.4529 -6.3135 2.0372
3.8319 -5.8379 1.9769
4.0884 -5.2546 1.8848
4.4971 -4.9093 1.8848
4.8768 -4.5324 1.8848
5.2250 -4.1262 1.8848
5.5394 -3.6933 1.8848
5.8181 -3.2366 1.8848
6.0604 -2.7595 1.8851
6.2731 -2.2679 1.8884
6.4437 -1.7593 1.8909
6.5707 -1.2374 1.8928
6.6531 -0.7063 1.8940
6.6900 -0.1698 1.8945
6.6813 0.3678 1.8943
6.6269 0.9027 1.8934
6.5274 1.4306 1.8917
6.3836 1.9477 1.8894
6.1968 2.4502 1.8864
5.9748 2.9372 1.8848
5.7197 3.4075 1.8848
5.4276 3.8557 1.8848
5.1005 4.2791 1.8848
4.7405 4.6748 1.8848
4.3498 5.0403 1.8848
3.9622 5.4159 1.8997
3.7688 6.1302 2.0372
3.2645 6.4130 2.0372
2.7390 6.6545 2.0372
2.1958 6.8529 2.0372
1.6385 7.0071 2.0372
1.0706 7.1160 2.0372
0.4957 7.1790 2.0372
-0.0823 7.1956 2.0372
-0.6598 7.1658 2.0372
-1.2330 7.0897 2.0372
-1.7983 6.9678 2.0372
-2.3520 6.8009 2.0372
-2.8904 6.5901 2.0372
-3.4103 6.3367 2.0372
-3.9080 6.0424 2.0372
-4.3806 5.7091 2.0372
-4.8249 5.3390 2.0372
-5.2380 4.9343 2.0372
-5.6173 4.4978 2.0372
-5.9603 4.0322 2.0372
-6.2648 3.5406 2.0372
-6.5288 3.0262 2.0372
-6.7508 2.4922 2.0372
-6.9291 1.9421 2.0372
-7.0626 1.3795 2.0372
-7.1506 0.8079 2.0372
-7.1924 0.2312 2.0372
-7.1877 -0.3471 2.0372
-7.1366 -0.9231 2.0372
-7.0395 -1.4932 2.0372
-6.8969 -2.0536 2.0372
-6.7097 -2.6007 2.0372
-6.4792 -3.1311 2.0372
-6.2069 -3.6412 2.0372
-5.8945 -4.1278 2.0372
-5.5440 -4.5878 2.0372
-5.1577 -5.0181 2.0372
-4.7382 -5.4160 2.0372
-4.2880 -5.7790 2.0372
-3.8101 -6.1046 2.0372
-3.3076 -6.3909 2.0372
-2.7838 -6.6358 2.0372
-2.2420 -6.8379 2.0372
-1.6857 -6.9959 2.0372
-1.1186 -7.1086 2.0372
-0.5442 -7.1755 2.0372
0.0337 -7.1960 2.0372
0.6114 -7.1701 2.0372
1.1852 -7.0978 2.0372
1.7513 -6.9798 2.0372
2.3060 -6.8166 2.0372
2.8459 -6.6094 2.0372
3.3674 -6.3596 2.0372
3.8233 -5.9997 2.0140
4.0172 -5.3093 1.8848
4.4305 -4.9695 1.8848
4.8152 -4.5978 1.8848
5.1688 -4.1963 1.8848
5.4891 -3.7677 1.8848
5.7739 -3.3148 1.8848
6.0207 -2.8401 1.8845
6.2403 -2.3517 1.8879
6.4181 -1.8457 1.8906
6.5525 -1.3258 1.8926
6.6424 -0.7959 1.8939
6.6870 -0.2601 1.8945
6.6859 0.2777 1.8944
6.6392 0.8133 1.8936
6.5472 1.3426 1.8920
6.4108 1.8619 1.8898
6.2311 2.3670 1.8870
6.0139 2.8563 1.8848
5.7651 3.3300 1.8848
5.4792 3.7821 1.8848
5.1578 4.2099 1.8848
4.8031 4.6104 1.8848
4.4174 4.9812 1.8848
4.0032 5.3198 1.8848
3.8512 6.0788 2.0372
3.3507 6.3684 2.0372
2.8285 6.6169 2.0372
2.2881 6.8226 2.0372
1.7329 6.9843 2.0372
1.1665 7.1009 2.0372
0.5926 7.1717 2.0372
0.0148 7.1961 2.0372
-0.5630 7.1740 2.0372
-1.1373 7.1057 2.0372
-1.7041 6.9914 2.0372
-2.2600 6.8320 2.0372
-2.8013 6.6285 2.0372
-3.3245 6.3822 2.0372
-3.8262 6.0946 2.0372
-4.3032 5.7677 2.0372
-4.7524 5.4036 2.0372
-5.1709 5.0045 2.0372
-5.5561 4.5732 2.0372
-5.9053 4.1123 2.0372
-6.2164 3.6248 2.0372
-6.4874 3.1140 2.0372
-6.7165 2.5831 2.0372
-6.9022 2.0354 2.0372
-7.0434 1.4746 2.0372
-7.1390 0.9043 2.0372
-7.1886 0.3282 2.0372
-7.1917 -0.2501 2.0372
-7.1484 -0.8267 2.0372
-7.0590 -1.3980 2.0372
-6.9239 -1.9603 2.0372
-6.7442 -2.5099 2.0372
-6.5209 -3.0434 2.0372
-6.2554 -3.5571 2.0372
-5.9496 -4.0481 2.0372
-5.6054 -4.5126 2.0372
-5.2250 -4.9481 2.0372
-4.8108 -5.3516 2.0372
-4.3656 -5.7206 2.0372
-3.8921 -6.0527 2.0372
-3.3936 -6.3456 2.0372
-2.8731 -6.5976 2.0372
-2.3341 -6.8070 2.0372
-1.7800 -6.9725 2.0372
-1.2144 -7.0929 2.0372
-0.6409 -7.1675 2.0372
-0.0634 -7.1958 2.0372
0.5146 -7.1777 2.0372
1.0893 -7.1132 2.0372
1.6569 -7.0027 2.0372
2.2138 -6.8471 2.0372
2.7565 -6.6472 2.0372
3.2813 -6.4044 2.0372
3.7850 -6.1203 2.0372
3.9451 -5.3630 1.8848
4.3630 -5.0289 1.8848
4.7527 -4.6623 1.8848
5.1118 -4.2656 1.8848
5.4378 -3.8414 1.8848
5.7286 -3.3924 1.8848
5.9798 -2.9202 1.8839
6.2063 -2.4350 1.8874
6.3912 -1.9317 1.8901
6.5330 -1.4139 1.8923
6.6305 -0.8854 1.8937
6.6827 -0.3503 1.8944
6.6893 0.1874 1.8944
6.6502 0.7237 1.8937
6.5658 1.2544 1.8923
0.8792 6.4331 2.0372
0.3599 6.4829 2.0372
-0.1618 6.4909 2.0372
-0.6825 6.4569 2.0372
-1.1987 6.3813 2.0372
-1.7073 6.2644 2.0372
-2.2047 6.1071 2.0372
-2.6880 5.9104 2.0372
-3.1539 5.6755 2.0372
-3.5994 5.4039 2.0372
-4.0217 5.0974 2.0372
-4.4180 4.7581 2.0372
-4.7858 4.3880 2.0372
-5.1226 3.9895 2.0372
-5.4264 3.5653 2.0372
-5.6952 3.1181 2.0372
-5.9272 2.6508 2.0372
-6.1209 2.1663 2.0372
-6.2751 1.6678 2.0372
-6.3887 1.1586 2.0372
-6.4611 0.6419 2.0372
-6.4918 0.1210 2.0372
-6.4805 -0.4006 2.0372
-6.4274 -0.9197 2.0372
-6.3328 -1.4328 2.0372
-6.1973 -1.9367 2.0372
-6.0218 -2.4280 2.0372
-5.8074 -2.9037 2.0372
-5.5555 -3.3607 2.0372
-5.2678 -3.7959 2.0372
-4.9460 -4.2066 2.0372
-4.5922 -4.5901 2.0372
-4.2088 -4.9440 2.0372
-3.7983 -5.2660 2.0372
-3.3632 -5.5540 2.0372
-2.9064 -5.8061 2.0372
-2.4308 -6.0207 2.0372
-1.9395 -6.1965 2.0372
-1.4357 -6.3322 2.0372
-0.9226 -6.4270 2.0372
-0.4036 -6.4804 2.0372
0.1180 -6.4918 2.0372
0.6389 -6.4614 2.0372
1.1557 -6.3892 2.0372
1.6650 -6.2758 2.0372
2.1635 -6.1219 2.0372
2.6481 -5.9284 2.0372
3.1155 -5.6966 2.0372
3.5629 -5.4281 2.0372
3.8436 -4.9398 1.9638
4.0577 -4.4296 1.8848
4.4003 -4.0895 1.8848
4.7144 -3.7230 1.8848
4.9981 -3.3324 1.8848
5.2496 -2.9203 1.8848
5.4671 -2.4894 1.8848
5.6493 -2.0424 1.8848
5.7951 -1.5822 1.8848
5.9034 -1.1117 1.8848
5.9693 -0.6337 1.8834
6.0022 -0.1524 1.8838
5.9945 0.3300 1.8836
5.9522 0.8108 1.8848
5.8679 1.2861 1.8848
5.7457 1.7531 1.8848
5.5864 2.2088 1.8848
5.3910 2.6502 1.8848
5.1608 3.0745 1.8848
4.8973 3.4790 1.8848
4.6021 3.8609 1.8848
4.2772 4.2180 1.8848
3.9545 4.5823 1.8990
3.8337 5.2403 2.0372
3.4006 5.5312 2.0372
2.9455 5.7864 2.0372
2.4713 6.0042 2.0372
1.9813 6.1833 2.0372
1.4784 6.3224 2.0372
0.9660 6.4207 2.0372
0.4473 6.4775 2.0372
-0.0742 6.4925 2.0372
-0.5953 6.4656 2.0372
-1.1125 6.3969 2.0372
-1.6226 6.2869 2.0372
-2.1221 6.1363 2.0372
-2.6080 5.9461 2.0372
-3.0770 5.7175 2.0372
-3.5262 5.4520 2.0372
-3.9525 5.1513 2.0372
-4.3534 4.8172 2.0372
-4.7261 4.4521 2.0372
-5.0684 4.0583 2.0372
-5.3778 3.6382 2.0372
-5.6526 3.1947 2.0372
-5.8909 2.7305 2.0372
-6.0911 2.2487 2.0372
-6.2520 1.7523 2.0372
-6.3725 1.2447 2.0372
-6.4519 0.7290 2.0372
-6.4896 0.2086 2.0372
-6.4854 -0.3132 2.0372
-6.4393 -0.8329 2.0372
-6.3516 -1.3472 2.0372
-6.2229 -1.8529 2.0372
-6.0540 -2.3466 2.0372
-5.8461 -2.8251 2.0372
-5.6004 -3.2854 2.0372
-5.3185 -3.7244 2.0372
-5.0023 -4.1395 2.0372
-4.6537 -4.5278 2.0372
-4.2752 -4.8868 2.0372
-3.8690 -5.2143 2.0372
-3.4378 -5.5081 2.0372
-2.9844 -5.7664 2.0372
-2.5118 -5.9874 2.0372
-2.0229 -6.1697 2.0372
-1.5210 -6.3122 2.0372
-1.0093 -6.4140 2.0372
-0.4910 -6.4743 2.0372
0.0304 -6.4928 2.0372
0.5517 -6.4694 2.0372
1.0694 -6.4042 2.0372
1.5801 -6.2977 2.0372
2.0807 -6.1505 2.0372
2.5678 -5.9636 2.0372
3.0384 -5.7381 2.0372
3.4893 -5.4756 2.0372
3.8364 -5.0704 1.9949
3.9976 -4.4839 1.8848
4.3447 -4.1485 1.8848
4.6638 -3.7862 1.8848
4.9527 -3.3995 1.8848
5.2097 -2.9909 1.8848
5.4330 -2.5629 1.8848
5.6213 -2.1184 1.8848
5.7732 -1.6602 1.8848
5.8879 -1.1913 1.8848
5.9597 -0.7141 1.8833
5.9996 -0.2333 1.8838
5.9986 0.2491 1.8837
5.9626 0.7304 1.8848
5.8847 1.2068 1.8848
5.7688 1.6754 1.8848
5.6157 2.1332 1.8848
5.4262 2.5772 1.8848
5.2018 3.0046 1.8848
4.9437 3.4126 1.8848
4.6538 3.7985 1.8848
4.3338 4.1599 1.8848
3.9857 4.4944 1.8848
3.9041 5.1881 2.0372
3.4749 5.4848 2.0372
3.0233 5.7461 2.0372
2.5521 5.9703 2.0372
2.0645 6.1559 2.0372
1.5636 6.3018 2.0372
1.0525 6.4070 2.0372
0.5347 6.4709 2.0372
0.0134 6.4929 2.0372
-0.5080 6.4730 2.0372
-1.0261 6.4113 2.0372
-1.5376 6.3082 2.0372
-2.0391 6.1644 2.0372
-2.5275 5.9808 2.0372
-2.9996 5.7585 2.0372
-3.4523 5.4991 2.0372
-3.8827 5.2041 2.0372
-4.2880 4.8755 2.0372
-4.6656 4.5155 2.0372
-5.0131 4.1263 2.0372
-5.3283 3.7105 2.0372
-5.6090 3.2707 2.0372
-5.8535 2.8098 2.0372
-6.0602 2.3306 2.0372
-6.2278 1.8365 2.0372
-6.3551 1.3305 2.0372
-6.4414 0.8160 2.0372
-6.4862 0.2961 2.0372
-6.4890 -0.2256 2.0372
-6.4499 -0.7459 2.0372
-6.3692 -1.2614 2.0372
-6.2473 -1.7688 2.0372
-6.0852 -2.2647 2.0372
-5.8837 -2.7460 2.0372
-5.6442 -3.2095 2.0372
-5.3683 -3.6524 2.0372
-5.0577 -4.0716 2.0372
-4.7144 -4.4646 2.0372
-4.3407 -4.8287 2.0372
-3.9390 -5.1616 2.0372
-3.5118 -5.4612 2.0372
-3.0620 -5.7256 2.0372
-2.5923 -5.9529 2.0372
-2.1060 -6.1419 2.0372
-1.6060 -6.2911 2.0372
-1.0957 -6.3998 2.0372
-0.5783 -6.4671 2.0372
-0.0572 -6.4927 2.0372
0.4643 -6.4763 2.0372
0.9828 -6.4181 2.0372
1.4950 -6.3185 2.0372
1.9975 -6.1780 2.0372
2.4871 -5.9977 2.0372
2.9607 -5.7786 2.0372
3.4151 -5.5222 2.0372
3.8290 -5.2052 2.0274
3.9367 -4.5374 1.8848
4.2883 -4.2067 1.8848
4.6122 -3.8488 1.8848
4.9064 -3.4661 1.8848
5.1688 -3.0609 1.8848
5.3979 -2.6360 1.8848
5.5922 -2.1941 1.8848
5.7503 -1.7380 1.8848
5.8713 -1.2706 1.8848
5.9543 -0.7951 1.8848
5.9957 -0.3143 1.8837
6.0016 0.1682 1.8838
5.9668 0.6493 1.8831
5.9005 1.1273 1.8848
0.7997 5.8511 2.0372
0.3273 5.8965 2.0372
-0.1472 5.9037 2.0372
-0.6208 5.8728 2.0372
-1.0903 5.8040 2.0372
-1.5528 5.6977 2.0372
-2.0053 5.5547 2.0372
-2.4448 5.3757 2.0372
-2.8686 5.1621 2.0372
-3.2738 4.9151 2.0372
-3.6579 4.6363 2.0372
-4.0183 4.3277 2.0372
-4.3528 3.9910 2.0372
-4.6592 3.6286 2.0372
-4.9356 3.2428 2.0372
-5.1800 2.8360 2.0372
-5.3910 2.4109 2.0372
-5.5672 1.9703 2.0372
-5.7074 1.5169 2.0372
-5.8108 1.0538 2.0372
-5.8766 0.5837 2.0372
-5.9045 0.1100 2.0372
-5.8943 -0.3645 2.0372
-5.8460 -0.8365 2.0372
-5.7600 -1.3032 2.0372
-5.6367 -1.7615 2.0372
-5.4771 -2.2084 2.0372
-5.2821 -2.6410 2.0372
-5.0530 -3.0566 2.0372
-4.7912 -3.4525 2.0372
-4.4985 -3.8261 2.0372
-4.1768 -4.1749 2.0372
-3.8281 -4.4968 2.0372
-3.4547 -4.7896 2.0372
-3.0589 -5.0516 2.0372
-2.6434 -5.2809 2.0372
-2.2109 -5.4761 2.0372
-1.7641 -5.6359 2.0372
-1.3058 -5.7594 2.0372
-0.8392 -5.8456 2.0372
-0.3671 -5.8941 2.0372
0.1074 -5.9046 2.0372
0.5811 -5.8769 2.0372
1.0511 -5.8112 2.0372
1.5143 -5.7081 2.0372
0.7146 -2.0219 0.7398
2.4085 -5.3921 2.0372
2.8337 -5.1813 2.0372
3.2406 -4.9370 2.0372
3.6265 -4.6609 2.0372
3.8506 -4.2036 1.9665
4.0022 -3.7195 1.8848
4.2879 -3.3862 1.8848
4.5460 -3.0309 1.8848
4.7747 -2.6561 1.8848
4.9725 -2.2642 1.8848
5.1383 -1.8576 1.8848
5.2708 -1.4390 1.8848
5.3694 -1.0112 1.8848
5.4332 -0.5768 1.8848
5.4620 -0.1387 1.8848
5.4555 0.3003 1.8848
5.4138 0.7374 1.8848
5.3371 1.1697 1.8848
5.2259 1.5945 1.8848
5.0810 2.0090 1.8848
4.9033 2.4104 1.8848
4.6939 2.7964 1.8848
4.4542 3.1642 1.8848
4.1858 3.5117 1.8848
3.9444 3.8897 1.9110
3.8583 4.4709 2.0372
3.4869 4.7662 2.0372
3.0929 5.0308 2.0372
2.6790 5.2629 2.0372
2.2478 5.4610 2.0372
1.8020 5.6239 2.0372
1.3446 5.7504 2.0372
0.8786 5.8398 2.0372
0.4068 5.8915 2.0372
-0.0675 5.9052 2.0372
-0.5415 5.8807 2.0372
-1.0119 5.8182 2.0372
-1.4758 5.7182 2.0372
-1.9302 5.5812 2.0372
-2.3721 5.4082 2.0372
-2.7987 5.2003 2.0372
-3.2072 4.9588 2.0372
-3.5950 4.6853 2.0372
-3.9596 4.3815 2.0372
-4.2986 4.0494 2.0372
-4.6099 3.6912 2.0372
-4.8914 3.3091 2.0372
-5.1413 2.9057 2.0372
-5.3580 2.4835 2.0372
-5.5401 2.0452 2.0372
-5.6864 1.5938 2.0372
-5.7960 1.1321 2.0372
-5.8682 0.6630 2.0372
-5.9025 0.1897 2.0372
-5.8987 -0.2849 2.0372
-5.8568 -0.7575 2.0372
-5.7770 -1.2254 2.0372
-5.6600 -1.6853 2.0372
-5.5064 -2.1343 2.0372
-5.3172 -2.5695 2.0372
-5.0937 -2.9882 2.0372
-4.8374 -3.3875 2.0372
-4.5498 -3.7650 2.0372
-4.2328 -4.1182 2.0372
-3.8884 -4.4447 2.0372
-3.5190 -4.7426 2.0372
-3.1268 -5.0098 2.0372
-2.7145 -5.2447 2.0372
-2.2846 -5.4458 2.0372
-1.8399 -5.6116 2.0372
-1.3834 -5.7412 2.0372
-0.9180 -5.8338 2.0372
-0.4466 -5.8886 2.0372
0.0277 -5.9055 2.0372
0.5018 -5.8842 2.0372
0.9726 -5.8249 2.0372
1.4372 -5.7280 2.0372
0.6872 -2.0314 0.7397
2.3355 -5.4241 2.0372
2.7635 -5.2190 2.0372
3.1737 -4.9803 2.0372
3.5633 -4.7094 2.0372
3.8446 -4.3124 1.9929
3.9517 -3.7732 1.8848
4.2419 -3.4437 1.8848
4.5047 -3.0920 1.8848
4.7384 -2.7203 1.8848
4.9415 -2.3311 1.8848
5.1127 -1.9268 1.8848
5.2509 -1.5100 1.8848
5.3552 -1.0835 1.8848
5.4249 -0.6500 1.8848
5.4596 -0.2123 1.8848
5.4590 0.2267 1.8848
5.4232 0.6643 1.8848
5.3524 1.0976 1.8848
5.2470 1.5238 1.8848
5.1077 1.9402 1.8848
4.9354 2.3441 1.8848
4.7312 2.7328 1.8848
4.4965 3.1039 1.8848
4.2328 3.4549 1.8848
3.9545 3.7959 1.8909
3.9183 4.4184 2.0372
3.5509 4.7188 2.0372
3.1605 4.9886 2.0372
2.7498 5.2263 2.0372
2.3213 5.4302 2.0372
1.8777 5.5991 2.0372
1.4221 5.7318 2.0372
0.9573 5.8274 2.0372
0.4863 5.8855 2.0372
0.0122 5.9055 2.0372
-0.4621 5.8875 2.0372
-0.9333 5.8313 2.0372
-1.3985 5.7376 2.0372
-1.8547 5.6067 2.0372
-2.2989 5.4397 2.0372
-2.7282 5.2376 2.0372
-3.1400 5.0016 2.0372
-3.5314 4.7333 2.0372
-3.9001 4.4345 2.0372
-4.2436 4.1070 2.0372
-4.5596 3.7530 2.0372
-4.8463 3.3748 2.0372
-5.1016 2.9748 2.0372
-5.3240 2.5555 2.0372
-5.5120 2.1198 2.0372
-5.6644 1.6704 2.0372
-5.7802 1.2102 2.0372
-5.8587 0.7421 2.0372
-5.8994 0.2693 2.0372
-5.9020 -0.2052 2.0372
-5.8664 -0.6785 2.0372
-5.7930 -1.1473 2.0372
-5.6822 -1.6087 2.0372
-5.5347 -2.0598 2.0372
-5.3514 -2.4976 2.0372
-5.1336 -2.9192 2.0372
-4.8826 -3.3220 2.0372
-4.6001 -3.7033 2.0372
-4.2879 -4.0607 2.0372
-3.9480 -4.3919 2.0372
-3.5827 -4.6947 2.0372
-3.1941 -4.9672 2.0372
-2.7850 -5.2076 2.0372
-2.3578 -5.4144 2.0372
-0.6956 -2.0285 0.7397
-1.4608 -5.7220 2.0372
-0.9966 -5.8208 2.0372
-0.5260 -5.8821 2.0372
-0.0520 -5.9053 2.0372
0.4223 -5.8904 2.0372
0.8939 -5.8375 2.0372
1.3598 -5.7469 2.0372
1.8168 -5.6191 2.0372
2.2621 -5.4551 2.0372
2.6928 -5.2559 2.0372
3.1062 -5.0227 2.0372
3.4994 -4.7570 2.0372
3.8384 -4.4242 2.0205
3.9004 -3.8261 1.8848
4.1950 -3.5006 1.8848
4.4625 -3.1525 1.8848
4.7013 -2.7840 1.8848
4.9096 -2.3975 1.8848
5.0863 -1.9956 1.8848
5.2301 -1.5807 1.8848
5.3401 -1.1557 1.8848
5.4157 -0.7232 1.8848
5.4563 -0.2860 1.8848
5.4616 0.1530 1.8848
5.4317 0.5911 1.8848
5.3667 1.0253 1.8848
0.2685 1.9646 0.7471
0.2997 5.3985 2.0372
-0.1348 5.4052 2.0372
-0.2084 1.9719 0.7471
-0.3661 1.9487 0.7471
-0.5213 1.9128 0.7470
-0.6731 1.8646 0.7469
-2.2384 4.9218 2.0372
-2.6263 4.7261 2.0372
-2.9973 4.5000 2.0372
-3.3490 4.2448 2.0372
-3.6790 3.9622 2.0372
-3.9853 3.6540 2.0372
-4.2658 3.3222 2.0372
-4.5188 2.9690 2.0372
-4.7426 2.5965 2.0372
-4.9357 2.2074 2.0372
-5.0970 1.8039 2.0372
-5.2254 1.3888 2.0372
-5.3201 0.9648 2.0372
-5.3804 0.5345 2.0372
-5.4059 0.1008 2.0372
-5.3965 -0.3336 2.0372
-5.3523 -0.7659 2.0372
-5.2735 -1.1932 2.0372
-5.1607 -1.6127 2.0372
-5.0146 -2.0219 2.0372
-4.8360 -2.4180 2.0372
-4.6263 -2.7985 2.0372
-4.3866 -3.1609 2.0372
-4.1186 -3.5029 2.0372
-3.8241 -3.8224 2.0372
-3.5048 -4.1171 2.0372
-3.1629 -4.3852 2.0372
-2.8006 -4.6250 2.0372
-2.4202 -4.8349 2.0372
-0.7354 -1.8215 0.7401
-0.5867 -1.8744 0.7400
-0.4343 -1.9153 0.7399
-0.2790 -1.9438 0.7399
-0.1221 -1.9599 0.7399
0.0357 -1.9633 0.7399
0.1932 -1.9542 0.7399
0.3495 -1.9325 0.7399
0.5036 -1.8983 0.7400
0.6545 -1.8520 0.7401
2.2051 -4.9367 2.0372
2.5944 -4.7437 2.0372
2.9669 -4.5201 2.0372
3.3203 -4.2673 2.0372
3.6522 -3.9869 2.0372
3.8541 -3.5819 1.9824
3.9258 -3.1003 1.8848
4.1621 -2.7750 1.8848
4.3715 -2.4318 1.8848
4.5526 -2.0730 1.8848
4.7044 -1.7007 1.8848
4.8257 -1.3175 1.8848
4.9159 -0.9258 1.8848
4.9744 -0.5281 1.8848
5.0007 -0.1270 1.8848
4.9948 0.2750 1.8848
4.9566 0.6752 1.8848
4.8864 1.0709 1.8848
4.7846 1.4598 1.8848
4.6519 1.8393 1.8848
4.4892 2.2069 1.8848
4.2975 2.5602 1.8848
4.0781 2.8970 1.8848
3.9339 3.3003 1.9347
3.8498 3.7965 2.0372
3.5325 4.0933 2.0372
3.1924 4.3638 2.0372
2.8318 4.6060 2.0372
2.4528 4.8185 2.0372
0.7545 1.8330 0.7469
0.6049 1.8880 0.7470
0.4514 1.9306 0.7470
0.2950 1.9608 0.7471
0.3725 5.3940 2.0372
-0.0618 5.4065 2.0372
-0.1818 1.9746 0.7471
-0.3397 1.9535 0.7471
-0.4955 1.9197 0.7470
-0.6479 1.8735 0.7469
-2.1718 4.9515 2.0372
-2.5623 4.7611 2.0372
-2.9363 4.5400 2.0372
-3.2914 4.2896 2.0372
-3.6252 4.0115 2.0372
-3.9356 3.7074 2.0372
-4.2206 3.3795 2.0372
-4.4783 3.0297 2.0372
-4.7071 2.6603 2.0372
-4.9055 2.2737 2.0372
-5.0722 1.8725 2.0372
-5.2062 1.4592 2.0372
-5.3066 1.0365 2.0372
-5.3727 0.6070 2.0372
-5.4041 0.1737 2.0372
-5.4005 -0.2608 2.0372
-5.3622 -0.6936 2.0372
-5.2892 -1.1219 2.0372
-5.1820 -1.5429 2.0372
-5.0414 -1.9541 2.0372
-4.8682 -2.3526 2.0372
-4.6636 -2.7358 2.0372
-4.4289 -3.1015 2.0372
-4.1655 -3.4470 2.0372
-3.8753 -3.7704 2.0372
-3.5601 -4.0694 2.0372
-3.2218 -4.3421 2.0372
-2.8628 -4.5868 2.0372
-2.4852 -4.8018 2.0372
-0.7599 -1.8115 0.7401
-0.6119 -1.8664 0.7400
-0.4601 -1.9093 0.7400
-0.3053 -1.9399 0.7399
-0.1485 -1.9581 0.7399
0.0092 -1.9637 0.7399
0.1668 -1.9566 0.7399
0.3234 -1.9370 0.7399
0.4780 -1.9049 0.7400
0.6294 -1.8606 0.7401
0.7769 -1.8043 0.7402
2.5301 -4.7783 2.0372
2.9056 -4.5597 2.0372
3.2624 -4.3117 2.0372
3.5981 -4.0358 2.0372
3.8489 -3.6751 2.0051
3.8872 -3.1558 1.8865
4.1243 -2.8309 1.8848
4.3383 -2.4906 1.8848
4.5242 -2.1342 1.8848
4.6810 -1.7641 1.8848
4.8075 -1.3825 1.8848
4.9030 -0.9920 1.8848
4.9668 -0.5952 1.8848
4.9986 -0.1944 1.8848
4.9981 0.2076 1.8848
4.9652 0.6082 1.8848
4.9004 1.0049 1.8848
4.8039 1.3952 1.8848
4.6763 1.7764 1.8848
4.5186 2.1461 1.8848
4.3317 2.5020 1.8848
4.1168 2.8417 1.8848
3.9367 3.2132 1.9146
3.9007 3.7442 2.0372
3.5874 4.0453 2.0372
3.2510 4.3203 2.0372
2.8936 4.5674 2.0372
2.5176 4.7850 2.0372
0.7791 1.8226 0.7468
0.6304 1.8796 0.7469
0.4774 1.9243 0.7470
0.3214 1.9566 0.7471
0.4452 5.3885 2.0372
0.0111 5.4068 2.0372
-0.4230 5.3903 2.0372
-0.3134 1.9579 0.7471
-0.4695 1.9263 0.7470
-0.6226 1.8822 0.7469
-0.7716 1.8258 0.7468
-2.4979 4.7953 2.0372
-2.8748 4.5792 2.0372
-3.2332 4.3336 2.0372
-3.5707 4.0600 2.0372
-3.8852 3.7602 2.0372
-4.1746 3.4361 2.0372
-4.4370 3.0898 2.0372
-4.6708 2.7236 2.0372
-4.8744 2.3397 2.0372
-5.0465 1.9408 2.0372
-5.1860 1.5293 2.0372
-5.2921 1.1080 2.0372
-5.3640 0.6795 2.0372
-5.4012 0.2466 2.0372
-5.4036 -0.1879 2.0372
-5.3710 -0.6212 2.0372
-5.3038 -1.0504 2.0372
-5.2024 -1.4729 2.0372
-5.0673 -1.8859 2.0372
-4.8995 -2.2867 2.0372
-4.7001 -2.6727 2.0372
-4.4703 -3.0414 2.0372
-4.2117 -3.3905 2.0372
-3.9258 -3.7178 2.0372
-3.6146 -4.0210 2.0372
-3.2801 -4.2982 2.0372
-2.9244 -4.5477 2.0372
-2.5498 -4.7679 2.0372
-0.7843 -1.8011 0.7402
-0.6371 -1.8580 0.7401
-0.4858 -1.9029 0.7400
-0.3314 -1.9356 0.7399
-0.1749 -1.9559 0.7399
-0.0173 -1.9636 0.7399
0.1404 -1.9587 0.7399
0.2973 -1.9412 0.7399
0.4522 -1.9112 0.7400
0.6043 -1.8689 0.7400
0.7525 -1.8146 0.7401
2.4654 -4.8120 2.0372
2.8439 -4.5985 2.0372
3.2039 -4.3553 2.0372
3.5433 -4.0840 2.0372
3.8436 -3.7705 2.0286
3.8729 -3.2319 1.9005
4.0857 -2.8863 1.8848
4.3043 -2.5489 1.8848
4.4950 -2.1951 1.8848
4.6568 -1.8271 1.8848
4.7884 -1.4472 1.8848
4.8892 -1.0581 1.8848
4.9583 -0.6621 1.8848
4.9955 -0.2618 1.8848
5.0004 0.1401 1.8848
4.9730 0.5412 1.8848
4.9135 0.9387 1.8848
0.2471 1.8079 0.7468
0.1011 1.8220 0.7468
-0.0455 1.8242 0.7468
-0.1918 1.8146 0.7468
-0.3369 1.7933 0.7468
-0.4797 1.7603 0.7467
-0.6195 1.7159 0.7466
-0.7551 1.6604 0.7465
-2.4178 4.3508 2.0372
-2.7593 4.1427 2.0372
-3.0830 3.9077 2.0372
-3.3869 3.6476 2.0372
-3.6688 3.3638 2.0372
-3.9270 3.0584 2.0372
-4.1599 2.7332 2.0372
-4.3660 2.3904 2.0372
-4.5438 2.0321 2.0372
-4.6923 1.6607 2.0372
-4.8105 1.2785 2.0372
-4.8976 0.8882 2.0372
-4.9531 0.4920 2.0372
-4.9766 0.0928 2.0372
-4.9680 -0.3071 2.0372
-4.9273 -0.7051 2.0372
-4.8548 -1.0984 2.0372
-4.7509 -1.4847 2.0372
-4.6164 -1.8613 2.0372
-4.4520 -2.2260 2.0372
-4.2589 -2.5763 2.0372
-4.0383 -2.9100 2.0372
-3.7916 -3.2248 2.0372
-3.5204 -3.5188 2.0372
-3.2265 -3.7901 2.0372
-2.9118 -4.0370 2.0372
-2.5782 -4.2577 2.0372
-2.2280 -4.4510 2.0372
-0.6772 -1.6775 0.7404
-0.5403 -1.7262 0.7403
-0.3999 -1.7639 0.7402
-0.2570 -1.7902 0.7402
-0.1124 -1.8050 0.7402
0.0329 -1.8081 0.7401
0.1780 -1.7997 0.7402
0.3219 -1.7797 0.7402
0.4638 -1.7482 0.7403
0.6027 -1.7055 0.7403
0.7378 -1.6519 0.7404
2.3884 -4.3670 2.0372
2.7313 -4.1612 2.0372
3.0566 -3.9284 2.0372
3.3622 -3.6703 2.0372
3.6460 -3.3885 2.0372
3.8545 -3.0439 2.0101
3.8782 -2.5857 1.9077
4.0243 -2.2387 1.8848
4.1911 -1.9084 1.8848
4.3308 -1.5657 1.8848
4.4425 -1.2129 1.8848
4.5256 -0.8523 1.8848
4.5794 -0.4862 1.8848
4.6036 -0.1169 1.8848
4.5982 0.2532 1.8848
4.5630 0.6216 1.8848
4.4984 0.9859 1.8848
4.4047 1.3439 1.8848
4.2825 1.6933 1.8848
4.1328 2.0317 1.8848
3.9563 2.3569 1.8848
3.9222 2.7863 1.9691
3.8133 3.1991 2.0372
3.5441 3.4950 2.0372
3.2520 3.7683 2.0372
2.9389 4.0172 2.0372
2.6069 4.2402 2.0372
2.2580 4.4359 2.0372
0.6943 1.6869 0.7466
0.5567 1.7374 0.7467
0.4154 1.7766 0.7468
0.2715 1.8044 0.7468
0.1257 1.8204 0.7468
-0.0209 1.8247 0.7468
-0.1673 1.8171 0.7468
-0.3126 1.7977 0.7468
-0.4559 1.7666 0.7467
-0.5963 1.7241 0.7466
-0.7327 1.6705 0.7465
-2.3589 4.3831 2.0372
-2.7032 4.1795 2.0372
-3.0300 3.9490 2.0372
-3.3373 3.6929 2.0372
-3.6231 3.4130 2.0372
-3.8854 3.1111 2.0372
-4.1227 2.7891 2.0372
-4.3333 2.4491 2.0372
-4.5160 2.0932 2.0372
-4.6695 1.7238 2.0372
-4.7928 1.3433 2.0372
-4.8852 0.9542 2.0372
-4.9460 0.5588 2.0372
-4.9749 0.1599 2.0372
-4.9717 -0.2401 2.0372
-4.9364 -0.6385 2.0372
-4.8692 -1.0328 2.0372
-4.7705 -1.4204 2.0372
-4.6411 -1.7989 2.0372
-4.4816 -2.1657 2.0372
-4.2933 -2.5186 2.0372
-4.0772 -2.8552 2.0372
-3.8348 -3.1733 2.0372
-3.5676 -3.4710 2.0372
-3.2774 -3.7462 2.0372
-2.9660 -3.9973 2.0372
-2.6354 -4.2225 2.0372
-2.2879 -4.4205 2.0372
-0.6998 -1.6682 0.7404
-0.5636 -1.7188 0.7403
-0.4237 -1.7583 0.7402
-0.2811 -1.7865 0.7402
-0.1368 -1.8033 0.7402
0.0085 -1.8084 0.7401
0.1537 -1.8019 0.7402
0.2979 -1.7839 0.7402
0.4402 -1.7543 0.7403
0.5797 -1.7135 0.7403
0.7155 -1.6616 0.7404
2.3292 -4.3989 2.0372
2.6749 -4.1976 2.0372
3.0033 -3.9693 2.0372
3.3123 -3.7153 2.0372
3.6000 -3.4374 2.0372
3.8501 -3.1257 2.0296
3.8745 -2.6595 1.9234
3.9938 -2.2928 1.8848
4.1650 -1.9647 1.8848
4.3093 -1.6240 1.8848
4.4258 -1.2727 1.8848
4.5137 -0.9132 1.8848
4.5724 -0.5479 1.8848
4.6016 -0.1790 1.8848
4.6012 0.1911 1.8848
4.5710 0.5599 1.8848
4.5112 0.9251 1.8848
4.4224 1.2844 1.8848
4.3050 1.6353 1.8848
4.1598 1.9757 1.8848
3.9877 2.3033 1.8848
3.9246 2.7091 1.9518
3.8561 3.1474 2.0372
3.5909 3.4469 2.0372
3.3026 3.7240 2.0372
2.9929 3.9772 2.0372
2.6639 4.2047 2.0372
2.3176 4.4050 2.0372
0.7170 1.6773 0.7466
0.5801 1.7297 0.7467
0.4394 1.7709 0.7467
0.2958 1.8005 0.7468
0.1503 1.8186 0.7468
0.0038 1.8248 0.7468
-0.1428 1.8192 0.7468
-0.2884 1.8017 0.7468
-0.4321 1.7726 0.7467
-0.5730 1.7321 0.7467
-0.7101 1.6802 0.7466
-2.2995 4.4145 2.0372
-2.6465 4.2156 2.0372
-2.9765 3.9895 2.0372
-3.2872 3.7376 2.0372
-3.5767 3.4616 2.0372
-3.8431 3.1632 2.0372
-4.0847 2.8445 2.0372
-4.2999 2.5073 2.0372
-4.4873 2.1539 2.0372
-4.6458 1.7867 2.0372
-4.7742 1.4079 2.0372
-4.8719 1.0200 2.0372
-4.9380 0.6255 2.0372
-4.9723 0.2270 2.0372
-4.9745 -0.1730 2.0372
-4.9445 -0.5718 2.0372
-4.8827 -0.9670 2.0372
-4.7892 -1.3559 2.0372
-4.6649 -1.7361 2.0372
-4.5104 -2.1051 2.0372
-4.3269 -2.4604 2.0372
-4.1153 -2.7999 2.0372
-3.8772 -3.1213 2.0372
-3.6141 -3.4225 2.0372
-3.3276 -3.7017 2.0372
-3.0196 -3.9569 2.0372
-2.6922 -4.1866 2.0372
-2.3473 -4.3892 2.0372
-0.7223 -1.6587 0.7404
-0.5867 -1.7111 0.7403
-0.4474 -1.7525 0.7402
-0.3052 -1.7826 0.7402
-0.1611 -1.8013 0.7402
-0.0159 -1.8084 0.7401
0.1293 -1.8038 0.7402
0.2738 -1.7877 0.7402
0.4164 -1.7601 0.7402
0.5565 -1.7211 0.7403
0.6930 -1.6711 0.7404
2.2697 -4.4299 2.0372
2.6180 -4.2334 2.0372
2.9495 -4.0095 2.0372
3.2619 -3.7597 2.0372
3.5533 -3.4856 2.0372
3.8217 -3.1891 2.0372
3.8708 -2.7344 1.9396
3.9625 -2.3465 1.8848
4.1381 -2.0208 1.8848
4.2870 -1.6820 1.8848
4.4082 -1.3323 1.8848
4.5009 -0.9741 1.8848
4.5646 -0.6095 1.8848
4.5988 -0.2410 1.8848
4.6033 0.1290 1.8848
4.5781 0.4982 1.8848
4.5233 0.8642 1.8848
0.2284 1.6715 0.7466
0.0935 1.6845 0.7466
-0.0421 1.6865 0.7466
-0.1773 1.6777 0.7466
-0.3115 1.6579 0.7465
-0.4435 1.6275 0.7465
-0.5727 1.5864 0.7464
-0.6982 1.5351 0.7463
-2.2361 4.0239 2.0372
-2.5519 3.8313 2.0372
-2.8513 3.6140 2.0372
-3.1323 3.3734 2.0372
-3.3931 3.1110 2.0372
-3.6319 2.8285 2.0372
-3.8473 2.5278 2.0372
-4.0378 2.2107 2.0372
-4.2023 1.8794 2.0372
-4.3396 1.5359 2.0372
-4.4490 1.1825 2.0372
-4.5295 0.8214 2.0372
-4.5809 0.4551 2.0372
-4.6026 0.0858 2.0372
-4.5947 -0.2840 2.0372
-4.5570 -0.6521 2.0372
-4.4899 -1.0159 2.0372
-4.3939 -1.3731 2.0372
-4.2694 -1.7215 2.0372
-4.1174 -2.0587 2.0372
-3.9388 -2.3827 2.0372
-3.7348 -2.6912 2.0372
-3.5066 -2.9824 2.0372
-3.2558 -3.2544 2.0372
-2.9840 -3.5053 2.0372
-2.6929 -3.7336 2.0372
-2.3845 -3.9377 2.0372
-0.7492 -1.4968 0.7407
-0.6265 -1.5519 0.7406
-0.4999 -1.5970 0.7405
-0.3700 -1.6318 0.7405
-0.2378 -1.6562 0.7404
-0.1040 -1.6699 0.7404
0.0304 -1.6728 0.7404
0.1646 -1.6650 0.7404
0.2978 -1.6465 0.7404
0.4291 -1.6174 0.7405
0.5576 -1.5779 0.7406
0.6826 -1.5282 0.7407
2.2089 -4.0388 2.0372
2.5260 -3.8485 2.0372
2.8269 -3.6332 2.0372
3.1095 -3.3945 2.0372
3.3720 -3.1338 2.0372
3.6127 -2.8530 2.0372
3.8302 -2.5537 2.0372
3.8728 -2.1544 1.9612
3.8944 -1.7731 1.8936
4.0053 -1.4480 1.8848
4.1087 -1.1217 1.8848
4.1855 -0.7882 1.8848
4.2352 -0.4496 1.8848
4.2577 -0.1081 1.8848
4.2526 0.2341 1.8848
4.2201 0.5748 1.8848
4.1603 0.9118 1.8848
4.0826 1.2457 1.8889
3.9607 1.5659 1.8848
3.9200 1.9271 1.9330
3.9092 2.3289 2.0137
3.7529 2.6660 2.0372
3.5267 2.9587 2.0372
3.2777 3.2323 2.0372
3.0076 3.4851 2.0372
2.7181 3.7153 2.0372
2.4110 3.9216 2.0372
0.7650 1.5028 0.7463
0.6419 1.5596 0.7464
0.5147 1.6063 0.7464
0.3841 1.6426 0.7465
0.2510 1.6682 0.7466
0.1162 1.6830 0.7466
-0.0193 1.6870 0.7466
-0.1547 1.6799 0.7466
-0.2891 1.6620 0.7465
-0.4215 1.6333 0.7465
-0.5513 1.5940 0.7464
-0.6774 1.5444 0.7463
-2.1816 4.0537 2.0372
-2.5000 3.8654 2.0372
-2.8023 3.6522 2.0372
-3.0865 3.4154 2.0372
-3.3508 3.1565 2.0372
-3.5934 2.8773 2.0372
-3.8128 2.5795 2.0372
-4.0076 2.2650 2.0372
-4.1766 1.9359 2.0372
-4.3185 1.5943 2.0372
-4.4326 1.2424 2.0372
-4.5180 0.8825 2.0372
-4.5743 0.5168 2.0372
-4.6010 0.1479 2.0372
-4.5980 -0.2222 2.0372
-4.5654 -0.5905 2.0372
-4.5032 -0.9552 2.0372
-4.4120 -1.3137 2.0372
-4.2923 -1.6638 2.0372
-4.1448 -2.0030 2.0372
-3.9706 -2.3293 2.0372
-3.7708 -2.6406 2.0372
-3.5466 -2.9349 2.0372
-3.2995 -3.2101 2.0372
-3.0311 -3.4647 2.0372
-2.7431 -3.6969 2.0372
-2.4374 -3.9052 2.0372
-0.7694 -1.4866 0.7407
-0.6474 -1.5433 0.7406
-0.5214 -1.5901 0.7405
-0.3920 -1.6267 0.7405
-0.2601 -1.6528 0.7404
-0.1265 -1.6683 0.7404
0.0078 -1.6731 0.7404
0.1422 -1.6671 0.7404
0.2756 -1.6503 0.7404
0.4072 -1.6230 0.7405
0.5363 -1.5852 0.7406
0.6619 -1.5372 0.7407
0.7833 -1.4793 0.7408
2.4739 -3.8822 2.0372
2.7776 -3.6710 2.0372
3.0634 -3.4361 2.0372
3.3294 -3.1791 2.0372
3.5739 -2.9015 2.0372
3.7954 -2.6051 2.0372
3.8696 -2.2215 1.9746
3.8870 -1.8335 1.9019
3.9854 -1.5019 1.8848
4.0931 -1.1771 1.8848
4.1744 -0.8446 1.8848
4.2288 -0.5067 1.8848
4.2558 -0.1655 1.8848
4.2554 0.1767 1.8848
4.2274 0.5178 1.8848
4.1722 0.8556 1.8848
4.0900 1.1878 1.8848
3.9815 1.5124 1.8848
3.9216 1.8626 1.9212
3.9113 2.2592 1.9989
3.7885 2.6151 2.0372
3.5663 2.9109 2.0372
3.3210 3.1878 2.0372
3.0544 3.4442 2.0372
2.7679 3.6783 2.0372
2.4637 3.8887 2.0372
0.7852 1.4923 0.7462
0.6629 1.5508 0.7463
0.5363 1.5992 0.7464
0.4062 1.6372 0.7465
0.2735 1.6647 0.7465
0.1389 1.6813 0.7466
0.0035 1.6871 0.7466
-0.1320 1.6819 0.7466
-0.2666 1.6658 0.7465
-0.3995 1.6389 0.7465
-0.5297 1.6014 0.7464
-0.6565 1.5535 0.7463
-2.1267 4.0827 2.0372
-2.4476 3.8988 2.0372
-2.7528 3.6897 2.0372
-3.0402 3.4567 2.0372
-3.3079 3.2015 2.0372
-3.5543 2.9255 2.0372
-3.7777 2.6307 2.0372
-3.9767 2.3189 2.0372
-4.1501 1.9921 2.0372
-4.2966 1.6524 2.0372
-4.4154 1.3021 2.0372
-4.5057 0.9433 2.0372
-4.5669 0.5785 2.0372
-4.5986 0.2099 2.0372
-4.6006 -0.1600 2.0372
-4.5729 -0.5289 2.0372
-4.5157 -0.8943 2.0372
-4.4293 -1.2540 2.0372
-4.3143 -1.6055 2.0372
-4.1715 -1.9469 2.0372
-4.0017 -2.2755 2.0372
-3.8060 -2.5895 2.0372
-3.5858 -2.8867 2.0372
-3.3425 -3.1653 2.0372
-3.0775 -3.4235 2.0372
-2.7927 -3.6595 2.0372
-2.4898 -3.8720 2.0372
-2.1709 -4.0594 2.0372
-0.6682 -1.5345 0.7406
-0.5428 -1.5830 0.7406
-0.4139 -1.6213 0.7405
-0.2824 -1.6492 0.7404
-0.1490 -1.6665 0.7404
-0.0147 -1.6730 0.7404
0.1197 -1.6688 0.7404
0.2533 -1.6539 0.7404
0.3853 -1.6283 0.7405
0.5148 -1.5923 0.7406
0.6411 -1.5460 0.7406
0.7633 -1.4897 0.7407
2.4213 -3.9152 2.0372
2.7278 -3.7082 2.0372
3.0168 -3.4772 2.0372
3.2862 -3.2237 2.0372
3.5345 -2.9494 2.0372
3.7599 -2.6561 2.0372
3.8663 -2.2896 1.9885
3.8843 -1.8968 1.9130
3.9648 -1.5556 1.8848
4.0769 -1.2322 1.8848
4.1627 -0.9009 1.8848
4.2216 -0.5637 1.8848
4.2532 -0.2229 1.8848
4.2574 0.1193 1.8848
4.2340 0.4607 1.8848
4.1834 0.7992 1.8848
0.2120 1.5514 0.7463
0.0868 1.5635 0.7464
-0.0390 1.5654 0.7464
-0.1646 1.5572 0.7463
-0.2891 1.5389 0.7463
-0.4117 1.5106 0.7463
-0.5316 1.4725 0.7462
-0.6480 1.4249 0.7461
-0.7603 1.3681 0.7460
-2.3694 3.5572 2.0372
-2.6474 3.3555 2.0372
-2.9082 3.1321 2.0372
-3.1503 2.8885 2.0372
-3.3721 2.6262 2.0372
-3.5721 2.3470 2.0372
-3.7490 2.0526 2.0372
-3.9017 1.7449 2.0372
-4.0292 1.4260 2.0372
-4.1307 1.0979 2.0372
-4.2055 0.7627 2.0372
-4.2532 0.4225 2.0372
-4.2734 0.0796 2.0372
-4.2660 -0.2637 2.0372
-4.2310 -0.6054 2.0372
-4.1687 -0.9432 2.0372
-4.0795 -1.2749 2.0372
-3.9640 -1.5983 2.0372
-3.8229 -1.9114 2.0372
-3.6570 -2.2122 2.0372
-3.4676 -2.4987 2.0372
-3.2558 -2.7691 2.0372
-3.0229 -3.0216 2.0372
-2.7706 -3.2545 2.0372
-2.5003 -3.4665 2.0372
-2.2139 -3.6560 2.0372
-0.6958 -1.3901 0.7409
-0.5819 -1.4413 0.7408
-0.4642 -1.4832 0.7407
-0.3436 -1.5155 0.7407
-0.2208 -1.5382 0.7406
-0.0966 -1.5509 0.7406
0.0283 -1.5536 0.7406
0.1529 -1.5464 0.7406
0.2766 -1.5291 0.7407
0.3985 -1.5021 0.7407
0.5179 -1.4654 0.7408
0.6339 -1.4192 0.7409
0.7460 -1.3640 0.7410
2.3453 -3.5731 2.0372
2.6247 -3.3733 2.0372
2.8870 -3.1517 2.0372
3.1308 -2.9097 2.0372
3.3543 -2.6489 2.0372
3.5562 -2.3710 2.0372
