ply
format ascii 1.0
element vertex 2158
property float32 x
property float32 y
property float32 z
end_header
-7.3679 -17.6446 2.0382
-5.9279 -18.1823 2.0382
-4.4489 -18.6018 2.0382
-2.9406 -18.9002 2.0382
-1.4131 -19.0756 2.0382
0.1236 -19.1268 2.0382
1.6593 -19.0534 2.0382
3.1838 -18.8561 2.0382
4.6872 -18.5360 2.0382
6.1594 -18.0955 2.0382
7.5908 -17.5375 2.0382
8.9720 -16.8658 2.0382
10.2940 -16.0849 2.0382
11.5481 -15.2000 2.0382
11.7745 -13.1541 1.8858
12.7870 -12.1602 1.8858
3.9337 -3.1802 0.5409
4.1787 -2.8555 0.5414
4.3973 -2.5122 0.5421
4.5882 -2.1524 0.5428
4.7501 -1.7784 0.5435
4.8819 -1.3923 0.5444
18.2697 -3.6542 1.9991
18.5977 -2.1859 2.0104
18.7895 -0.6877 2.0198
10.1572 0.4455 1.0929
10.1101 1.2626 1.0959
18.5211 3.8443 2.0358
18.1505 5.3190 2.0367
17.6438 6.7519 2.0355
17.0065 8.1292 2.0320
16.2453 9.4382 2.0265
8.8893 6.1697 1.1677
8.4805 6.9587 1.1843
13.3100 12.8436 1.9977
12.1498 13.7745 1.9845
10.9185 14.5917 1.9698
9.6286 15.2907 1.9536
8.2927 15.8684 1.9363
6.9233 16.3232 1.9179
5.5326 16.6550 1.8986
4.1483 16.9291 1.8858
2.7747 17.2065 1.8858
1.4953 18.7775 2.0382
-0.0180 18.8375 2.0382
-1.5313 18.7767 2.0382
-3.0352 18.5955 2.0382
-4.5199 18.2948 2.0382
-5.9763 17.8765 2.0382
-7.3951 17.3433 2.0382
-8.7671 16.6985 2.0382
-10.0837 15.9458 2.0382
-11.3366 15.0903 2.0382
-12.5175 14.1368 2.0382
-13.6189 13.0917 2.0382
-14.6338 11.9613 2.0382
-15.5555 10.7527 2.0382
-16.3779 9.4736 2.0382
-17.0957 8.1320 2.0382
-17.7040 6.7364 2.0382
-18.1990 5.2964 2.0382
-18.1779 3.7371 1.9945
-1.8241 -14.9737 2.0382
-0.6155 -15.0718 2.0382
0.5969 -15.0719 2.0382
1.8054 -14.9740 2.0382
3.0019 -14.7788 2.0382
4.1785 -14.4876 2.0382
5.3275 -14.1024 2.0382
6.4415 -13.6258 2.0382
7.5131 -13.0609 2.0382
8.5353 -12.4115 2.0382
9.5014 -11.6820 2.0382
10.4053 -10.8772 2.0382
3.2414 -2.8843 0.5877
3.1992 -2.4157 0.5433
3.3844 -2.1519 0.5437
3.5482 -1.8741 0.5443
3.6895 -1.5840 0.5448
3.8073 -1.2834 0.5455
3.9009 -0.9741 0.5461
3.9696 -0.6581 0.5468
4.0130 -0.3374 0.5475
4.0307 -0.0140 0.5483
4.0225 0.3101 0.5490
3.9884 0.6328 0.5498
3.9286 0.9521 0.5506
3.8433 1.2659 0.5514
3.7330 1.5721 0.5523
12.7674 6.6309 1.9623
12.1592 7.6136 1.9576
8.7371 6.5031 1.4868
10.6983 9.3882 1.9436
9.8602 10.1664 1.9345
8.9609 10.8641 1.9242
8.0090 11.4770 1.9127
7.0134 12.0014 1.9002
5.9828 12.4351 1.8868
4.9613 12.8673 1.8858
3.9112 13.2228 1.8858
3.0438 14.4813 2.0239
1.8837 14.7822 2.0382
0.6901 14.8858 2.0382
-0.5080 14.8938 2.0382
-1.7029 14.8060 2.0382
-2.8872 14.6231 2.0382
-4.0532 14.3461 2.0382
-5.1936 13.9769 2.0382
-6.3011 13.5175 2.0382
-7.3685 12.9711 2.0382
-8.3892 12.3409 2.0382
-9.3565 11.6308 2.0382
-10.2642 10.8454 2.0382
-11.1065 9.9897 2.0382
-11.8778 9.0688 2.0382
-12.5733 8.0888 2.0382
-13.1882 7.0558 2.0382
-13.7187 5.9763 2.0382
-14.1611 4.8573 2.0382
-14.5124 3.7059 2.0382
-14.7704 2.5294 2.0382
-14.9332 1.3354 2.0382
-14.9995 0.1317 2.0382
-14.9689 -1.0741 2.0382
-14.8414 -2.2741 2.0382
-14.6177 -3.4605 2.0382
-14.2991 -4.6255 2.0382
-13.8875 -5.7617 2.0382
-13.3855 -6.8614 2.0382
-12.7963 -7.9176 2.0382
-12.1237 -8.9232 2.0382
-11.3718 -9.8716 2.0382
-10.5456 -10.7566 2.0382
-9.6505 -11.5723 2.0382
-8.6921 -12.3132 2.0382
-7.6768 -12.9746 2.0382
-6.6112 -13.5518 2.0382
-5.5022 -14.0412 2.0382
-4.3573 -14.4395 2.0382
-3.1837 -14.7440 2.0382
-1.9893 -14.9526 2.0382
-0.7819 -15.0641 2.0382
0.4305 -15.0777 2.0382
1.6400 -14.9932 2.0382
2.8385 -14.8113 2.0382
4.0183 -14.5332 2.0382
5.1716 -14.1608 2.0382
6.2908 -13.6965 2.0382
7.3686 -13.1436 2.0382
8.3980 -12.5056 2.0382
9.3723 -11.7868 2.0382
10.2851 -10.9921 2.0382
3.2678 -2.9731 0.5984
3.1722 -2.4508 0.5432
3.3602 -2.1890 0.5437
3.5270 -1.9130 0.5442
3.6714 -1.6245 0.5448
3.7925 -1.3252 0.5454
3.8895 -1.0170 0.5460
3.9617 -0.7019 0.5467
4.0086 -0.3817 0.5474
4.0298 -0.0585 0.5482
4.0252 0.2656 0.5489
3.9946 0.5886 0.5497
3.9383 0.9085 0.5505
3.8565 1.2232 0.5513
3.7496 1.5306 0.5521
12.8440 6.4916 1.9628
12.2478 7.4820 1.9583
8.8160 6.4117 1.4880
10.8082 9.2753 1.9448
9.9791 10.0641 1.9359
9.0877 10.7732 1.9257
8.1426 11.3980 1.9144
7.1524 11.9347 1.9020
6.1261 12.3810 1.8887
5.1032 12.8120 1.8858
4.0570 13.1789 1.8858
3.1425 14.1717 1.9854
2.0469 14.7605 2.0382
0.8545 14.8772 2.0382
-0.3434 14.8983 2.0382
-1.5393 14.8237 2.0382
-2.7255 14.6538 2.0382
-3.8944 14.3897 2.0382
-5.0388 14.0329 2.0382
-6.1512 13.5858 2.0382
-7.2246 13.0512 2.0382
-8.2520 12.4322 2.0382
-9.2270 11.7329 2.0382
-10.1433 10.9576 2.0382
-10.9949 10.1112 2.0382
-11.7763 9.1990 2.0382
-12.4824 8.2267 2.0382
-13.1087 7.2006 2.0382
-13.6510 6.1271 2.0382
-14.1056 5.0131 2.0382
-14.4697 3.8657 2.0382
-14.7406 2.6922 2.0382
-14.9165 1.5002 2.0382
-14.9962 0.2973 2.0382
-14.9789 -0.9086 2.0382
-14.8646 -2.1099 2.0382
-14.6541 -3.2986 2.0382
-14.3484 -4.4671 2.0382
-13.9494 -5.6076 2.0382
-13.4597 -6.7128 2.0382
-12.8823 -7.7754 2.0382
-12.2208 -8.7883 2.0382
-11.4796 -9.7450 2.0382
-10.6633 -10.6390 2.0382
-9.7773 -11.4646 2.0382
-8.8272 -12.2161 2.0382
-7.8194 -12.8887 2.0382
-6.7603 -13.4777 2.0382
-5.6569 -13.9794 2.0382
-4.5164 -14.3903 2.0382
-3.3463 -14.7078 2.0382
-2.1543 -14.9297 2.0382
-0.9482 -15.0546 2.0382
0.2640 -15.0816 2.0382
1.4743 -15.0106 2.0382
2.6749 -14.8420 2.0382
3.8577 -14.5770 2.0382
5.0151 -14.2174 2.0382
6.1394 -13.7656 2.0382
7.2234 -13.2246 2.0382
8.2598 -12.5981 2.0382
9.2420 -11.8901 2.0382
10.1636 -11.1055 2.0382
3.2952 -3.0651 0.6095
3.1447 -2.4855 0.5431
3.3356 -2.2259 0.5436
3.5054 -1.9517 0.5441
3.6530 -1.6648 0.5447
3.7773 -1.3669 0.5453
3.8776 -1.0598 0.5459
3.9533 -0.7455 0.5466
4.0037 -0.4259 0.5473
4.0284 -0.1030 0.5481
4.0273 0.2211 0.5488
4.0004 0.5444 0.5496
3.9476 0.8649 0.5504
3.8692 1.1803 0.5512
3.7657 1.4889 0.5520
12.9190 6.3513 1.9633
12.3348 7.3494 1.9590
8.9354 6.3489 1.4961
10.9167 9.1611 1.9459
10.0969 9.9604 1.9372
9.2135 10.6807 1.9272
8.2752 11.3173 1.9160
7.2907 11.8663 1.9037
6.2689 12.3251 1.8905
5.2445 12.7551 1.8858
4.2024 13.1335 1.8858
3.2376 13.8737 1.9485
2.2098 14.7371 2.0382
1.0188 14.8669 2.0382
-0.1789 14.9012 2.0382
-1.3754 14.8396 2.0382
-2.5634 14.6827 2.0382
-3.7352 14.4315 2.0382
-4.8833 14.0874 2.0382
-6.0006 13.6525 2.0382
-7.0797 13.1297 2.0382
-8.1139 12.5221 2.0382
-9.0965 11.8336 2.0382
-10.0211 11.0684 2.0382
-10.8820 10.2314 2.0382
-11.6733 9.3279 2.0382
-12.3901 8.3636 2.0382
-13.0276 7.3445 2.0382
-13.5816 6.2771 2.0382
-14.0485 5.1682 2.0382
-14.4252 4.0250 2.0382
-14.7090 2.8546 2.0382
-14.8980 1.6647 2.0382
-14.9909 0.4629 2.0382
-14.9870 -0.7431 2.0382
-14.8860 -1.9455 2.0382
-14.6887 -3.1364 2.0382
-14.3959 -4.3081 2.0382
-14.0097 -5.4529 2.0382
-13.5322 -6.5634 2.0382
-12.9667 -7.6322 2.0382
-12.3165 -8.6524 2.0382
-11.5860 -9.6172 2.0382
-10.7797 -10.5202 2.0382
-9.9029 -11.3555 2.0382
-8.9613 -12.1174 2.0382
-7.9610 -12.8011 2.0382
-6.9085 -13.4019 2.0382
-5.8108 -13.9158 2.0382
-4.6749 -14.3393 2.0382
-3.5085 -14.6698 2.0382
-2.3190 -14.9050 2.0382
-1.1144 -15.0432 2.0382
0.0974 -15.0837 2.0382
1.3085 -15.0261 2.0382
2.5108 -14.8709 2.0382
3.6966 -14.6191 2.0382
4.8579 -14.2723 2.0382
5.9872 -13.8330 2.0382
7.0771 -13.3041 2.0382
8.1205 -12.6890 2.0382
9.1105 -11.9920 2.0382
10.0408 -11.2177 2.0382
3.3235 -3.1607 0.6212
3.1384 -2.5373 0.5468
3.3107 -2.2624 0.5435
3.4834 -1.9902 0.5440
3.6341 -1.7049 0.5446
3.7616 -1.4084 0.5452
3.8653 -1.1025 0.5458
3.9444 -0.7890 0.5465
3.9982 -0.4700 0.5472
4.0266 -0.1475 0.5480
4.0290 0.1766 0.5487
4.0056 0.5001 0.5495
3.9563 0.8211 0.5503
3.8815 1.1374 0.5511
3.7814 1.4470 0.5519
12.9922 6.2101 1.9638
12.4203 7.2156 1.9597
9.1040 6.3185 1.5125
11.0239 9.0454 1.9470
10.2134 9.8552 1.9384
9.3383 10.5867 1.9286
8.4070 11.2350 1.9176
7.4283 11.7962 1.9055
6.4111 12.2675 1.8924
5.3852 12.6966 1.8858
4.3473 13.0865 1.8858
3.3292 13.5863 1.9132
2.3724 14.7118 2.0382
1.1829 14.8547 2.0382
-0.0143 14.9021 2.0382
-1.2114 14.8537 2.0382
-2.4010 14.7099 2.0382
-3.5755 14.4715 2.0382
-4.7273 14.1400 2.0382
-5.8492 13.7175 2.0382
-6.9340 13.2066 2.0382
-7.9748 12.6104 2.0382
-8.9648 11.9328 2.0382
-9.8978 11.1779 2.0382
-10.7677 10.3505 2.0382
-11.5689 9.4557 2.0382
-12.2962 8.4994 2.0382
-12.9449 7.4874 2.0382
-13.5106 6.4263 2.0382
-13.9897 5.3227 2.0382
-14.3789 4.1838 2.0382
-14.6756 3.0167 2.0382
-1.5037 -12.3443 2.0382
-0.5075 -12.4252 2.0382
0.4921 -12.4253 2.0382
1.4883 -12.3448 2.0382
2.4747 -12.1842 2.0382
3.4449 -11.9444 2.0382
4.3924 -11.6273 2.0382
5.3110 -11.2347 2.0382
6.1948 -10.7695 2.0382
7.0380 -10.2346 2.0382
7.8351 -9.6336 2.0382
8.5810 -8.9705 2.0382
3.2415 -2.8845 0.7127
3.0743 -2.3215 0.6329
2.9400 -1.8694 0.5726
2.9337 -1.5496 0.5455
3.0501 -1.3096 0.5460
3.1472 -1.0610 0.5465
3.2242 -0.8052 0.5470
3.2805 -0.5440 0.5476
3.3159 -0.2789 0.5482
3.3300 -0.0117 0.5488
3.3227 0.2561 0.5495
3.2940 0.5226 0.5501
3.2440 0.7861 0.5508
3.1730 1.0450 0.5514
3.0814 1.2976 0.5521
10.3160 5.3574 1.9202
9.8298 6.1548 1.9165
9.2767 6.9045 1.9115
8.6618 7.6008 1.9054
7.9908 8.2387 1.8982
7.2698 8.8135 1.8900
6.5224 9.3464 1.8858
5.7494 9.8383 1.8858
4.9397 10.2668 1.8858
4.1570 10.7807 1.9128
3.4921 11.8057 2.0382
2.5322 12.0473 2.0382
1.5561 12.2114 2.0382
0.5701 12.2970 2.0382
-0.4197 12.3034 2.0382
-1.4068 12.2308 2.0382
-2.3851 12.0794 2.0382
-3.3482 11.8503 2.0382
-4.2901 11.5449 2.0382
-5.2047 11.1651 2.0382
-6.0861 10.7132 2.0382
-6.9288 10.1922 2.0382
-7.7272 9.6052 2.0382
-8.4764 8.9561 2.0382
-9.1713 8.2488 2.0382
-9.8076 7.4879 2.0382
-10.3811 6.6782 2.0382
-10.8880 5.8249 2.0382
-11.3250 4.9333 2.0382
-11.6893 4.0092 2.0382
-11.9784 3.0585 2.0382
-12.1903 2.0873 2.0382
-12.3236 1.1018 2.0382
-12.3773 0.1084 2.0382
-12.3510 -0.8865 2.0382
-12.2448 -1.8765 2.0382
-12.0592 -2.8551 2.0382
-11.7954 -3.8159 2.0382
-11.4550 -4.7528 2.0382
-11.0401 -5.6596 2.0382
-10.5535 -6.5302 2.0382
-9.9981 -7.3590 2.0382
-9.3775 -8.1407 2.0382
-8.6957 -8.8699 2.0382
-7.9572 -9.5420 2.0382
-7.1666 -10.1525 2.0382
-6.3293 -10.6974 2.0382
-5.4505 -11.1729 2.0382
-4.5362 -11.5761 2.0382
-3.5921 -11.9042 2.0382
-2.6246 -12.1550 2.0382
-1.6400 -12.3270 2.0382
-0.6446 -12.4189 2.0382
0.3549 -12.4301 2.0382
1.3519 -12.3606 2.0382
2.3401 -12.2109 2.0382
3.3128 -11.9820 2.0382
4.2638 -11.6753 2.0382
5.1867 -11.2930 2.0382
6.0757 -10.8376 2.0382
6.9248 -10.3121 2.0382
7.7286 -9.7199 2.0382
8.4818 -9.0651 2.0382
3.2679 -2.9732 0.7256
3.0950 -2.3913 0.6426
2.9569 -1.9264 0.5800
2.9162 -1.5818 0.5454
3.0353 -1.3431 0.5459
3.1350 -1.0956 0.5464
3.2148 -0.8407 0.5470
3.2740 -0.5801 0.5475
3.3123 -0.3155 0.5481
3.3293 -0.0484 0.5487
3.3249 0.2193 0.5494
3.2992 0.4861 0.5500
3.2521 0.7501 0.5507
3.1840 1.0098 0.5514
3.0952 1.2634 0.5520
10.3772 5.2445 1.9206
9.9006 6.0479 1.9171
9.3564 6.8045 1.9123
8.7497 7.5085 1.9063
8.0861 8.1547 1.8993
7.3715 8.7385 1.8912
6.6254 9.2740 1.8858
5.8579 9.7744 1.8858
5.0529 10.2118 1.8858
4.2237 10.6036 1.8895
3.6223 11.7665 2.0382
2.6651 12.0187 2.0382
1.6909 12.1935 2.0382
0.7059 12.2899 2.0382
-0.2837 12.3072 2.0382
-1.2716 12.2454 2.0382
-2.2515 12.1048 2.0382
-3.2170 11.8863 2.0382
-4.1622 11.5913 2.0382
-5.0809 11.2216 2.0382
-5.9672 10.7794 2.0382
-6.8155 10.2677 2.0382
-7.6204 9.6896 2.0382
-8.3766 9.0487 2.0382
-9.0793 8.3492 2.0382
-9.7239 7.5954 2.0382
-10.3062 6.7921 2.0382
-10.8225 5.9444 2.0382
-11.2693 5.0578 2.0382
-11.6437 4.1378 2.0382
-11.9432 3.1904 2.0382
-12.1658 2.2216 2.0382
-12.3100 1.2377 2.0382
-12.3746 0.2450 2.0382
-12.3594 -0.7500 2.0382
-12.2641 -1.7411 2.0382
-12.0894 -2.7216 2.0382
-11.8362 -3.6853 2.0382
-11.5063 -4.6257 2.0382
-11.1014 -5.5371 2.0382
-10.6245 -6.4129 2.0382
-10.0783 -7.2479 2.0382
-9.4664 -8.0363 2.0382
-8.7928 -8.7731 2.0382
-8.0618 -9.4533 2.0382
-7.2781 -10.0725 2.0382
-6.4468 -10.6266 2.0382
-5.5735 -11.1118 2.0382
-4.6636 -11.5251 2.0382
-3.7233 -11.8637 2.0382
-2.7587 -12.1252 2.0382
-1.7760 -12.3081 2.0382
-0.7817 -12.4110 2.0382
0.2176 -12.4333 2.0382
1.2154 -12.3750 2.0382
2.2052 -12.2362 2.0382
3.1804 -12.0181 2.0382
4.1347 -11.7220 2.0382
5.0619 -11.3499 2.0382
5.9558 -10.9044 2.0382
6.8107 -10.3883 2.0382
7.6210 -9.8051 2.0382
8.3815 -9.1586 2.0382
3.2952 -3.0653 0.7391
3.1164 -2.4632 0.6526
2.9743 -1.9848 0.5876
2.8984 -1.6138 0.5454
3.0201 -1.3764 0.5458
3.1225 -1.1300 0.5463
3.2050 -0.8761 0.5469
3.2671 -0.6162 0.5474
3.3083 -0.3520 0.5480
3.3282 -0.0852 0.5487
3.3268 0.1826 0.5493
3.3040 0.4496 0.5499
3.2598 0.7141 0.5506
3.1945 0.9745 0.5513
3.1086 1.2290 0.5519
10.4372 5.1309 1.9210
9.9702 5.9402 1.9176
9.1190 6.4791 1.8489
8.8365 7.4152 1.9072
8.1804 8.0696 1.9003
7.4724 8.6621 1.8924
6.7276 9.2006 1.8858
5.9656 9.7094 1.8858
5.1655 10.1555 1.8858
4.3323 10.5363 1.8858
3.7521 11.7259 2.0382
2.7977 11.9885 2.0382
1.8255 12.1741 2.0382
0.8416 12.2813 2.0382
-0.1478 12.3095 2.0382
-1.1363 12.2586 2.0382
-2.1176 12.1288 2.0382
-3.0855 11.9209 2.0382
-4.0338 11.6363 2.0382
-4.9565 11.2767 2.0382
-5.8476 10.8443 2.0382
-6.7015 10.3420 2.0382
-7.5126 9.7728 2.0382
-8.2758 9.1403 2.0382
-8.9861 8.4486 2.0382
-9.6389 7.7020 2.0382
-10.2300 6.9052 2.0382
-10.7556 6.0633 2.0382
-11.2121 5.1817 2.0382
-11.5967 4.2660 2.0382
-11.9066 3.3219 2.0382
-12.1398 2.3557 2.0382
-12.2948 1.3735 2.0382
-12.3705 0.3817 2.0382
-12.3662 -0.6135 2.0382
-12.2819 -1.6054 2.0382
-12.1180 -2.5878 2.0382
-11.8756 -3.5541 2.0382
-11.5561 -4.4982 2.0382
-11.1614 -5.4138 2.0382
-10.6941 -6.2950 2.0382
-10.1573 -7.1358 2.0382
-9.5542 -7.9310 2.0382
-8.8888 -8.6751 2.0382
-8.1654 -9.3634 2.0382
-7.3887 -9.9912 2.0382
-6.5636 -10.5545 2.0382
-5.6957 -11.0494 2.0382
-4.7905 -11.4727 2.0382
-3.8541 -11.8217 2.0382
-2.8924 -12.0939 2.0382
-1.9118 -12.2877 2.0382
-0.9187 -12.4016 2.0382
0.0803 -12.4351 2.0382
1.0787 -12.3877 2.0382
2.0699 -12.2600 2.0382
3.0476 -12.0527 2.0382
4.0051 -11.7672 2.0382
4.9364 -11.4054 2.0382
5.8352 -10.9698 2.0382
6.6958 -10.4632 2.0382
7.5126 -9.8890 2.0382
8.2802 -9.2510 2.0382
3.3236 -3.1609 0.7532
3.1384 -2.5374 0.6630
2.9921 -2.0448 0.5956
2.8802 -1.6456 0.5453
3.0045 -1.4096 0.5458
3.1096 -1.1643 0.5463
3.1949 -0.9113 0.5468
3.2598 -0.6522 0.5474
3.3039 -0.3885 0.5480
3.3268 -0.1219 0.5486
3.3283 0.1458 0.5492
3.3084 0.4130 0.5498
3.2671 0.6780 0.5505
3.2048 0.9390 0.5512
3.1216 1.1944 0.5518
3.0181 1.4425 0.5525
10.0385 5.8316 1.9182
9.1900 6.3780 1.8488
8.9223 7.3207 1.9081
8.2737 7.9833 1.9013
7.5725 8.5846 1.8935
6.8250 9.1206 1.8847
6.0726 9.6431 1.8858
5.2774 10.0981 1.8858
4.4485 10.4880 1.8858
3.8738 11.6611 2.0343
2.9300 11.9570 2.0382
1.9599 12.1532 2.0382
0.9772 12.2712 2.0382
-0.0118 12.3104 2.0382
-1.0008 12.2703 2.0382
-1.9835 12.1513 2.0382
-2.9536 11.9541 2.0382
-3.9050 11.6799 2.0382
-4.8315 11.3304 2.0382
-5.7273 10.9079 2.0382
-6.5866 10.4150 2.0382
-7.4039 9.8548 2.0382
-8.1740 9.2308 2.0382
-8.8918 8.5470 2.0382
-9.5528 7.8076 2.0382
-10.1527 7.0174 2.0382
-10.6874 6.1814 2.0382
-11.1536 5.3049 2.0382
-11.5482 4.3935 2.0382
-11.8685 3.4530 2.0382
-12.1124 2.4895 2.0382
-1.2774 -10.4859 2.0382
-0.4311 -10.5546 2.0382
0.4180 -10.5548 2.0382
1.2642 -10.4865 2.0382
2.1022 -10.3502 2.0382
2.9263 -10.1468 2.0382
3.7313 -9.8776 2.0382
4.5118 -9.5444 2.0382
5.2627 -9.1495 2.0382
5.9793 -8.6954 2.0382
6.6568 -8.1851 2.0382
7.2908 -7.6221 2.0382
3.2416 -2.8846 0.8387
3.0743 -2.3216 0.7449
2.9401 -1.8695 0.6739
2.8286 -1.4942 0.6189
2.7334 -1.1737 0.5757
2.6785 -0.9030 0.5472
2.7437 -0.6853 0.5477
2.7914 -0.4629 0.5482
2.8212 -0.2374 0.5487
2.8329 -0.0100 0.5492
2.8264 0.2177 0.5498
2.8016 0.4444 0.5503
2.7587 0.6685 0.5509
2.6980 0.8885 0.5514
2.6198 1.1032 0.5520
2.5245 1.3110 0.5526
8.2371 5.1573 1.8884
7.7772 5.7882 1.8843
7.2913 6.3980 1.8858
6.7522 6.9615 1.8858
6.1699 7.4799 1.8858
5.5480 7.9499 1.8858
4.8906 8.3686 1.8858
4.5340 9.4233 2.0349
3.7681 9.7722 2.0382
2.9706 10.0426 2.0382
2.1541 10.2482 2.0382
1.3238 10.3879 2.0382
0.4849 10.4607 2.0382
-0.3570 10.4661 2.0382
-1.1968 10.4042 2.0382
-2.0289 10.2753 2.0382
-2.8482 10.0802 2.0382
-3.6493 9.8202 2.0382
-4.4271 9.4968 2.0382
-5.1767 9.1122 2.0382
-5.8933 8.6687 2.0382
-6.5721 8.1692 2.0382
-7.2090 7.6167 2.0382
-7.7997 7.0149 2.0382
-8.3404 6.3675 2.0382
-8.8276 5.6786 2.0382
-9.2582 4.9527 2.0382
-9.6293 4.1943 2.0382
-9.9384 3.4084 2.0382
-10.1836 2.6000 2.0382
-10.3631 1.7742 2.0382
-10.4758 0.9363 2.0382
-10.5209 0.0919 2.0382
-10.4979 -0.7538 2.0382
-10.4070 -1.5951 2.0382
-10.2487 -2.4267 2.0382
-10.0240 -3.2431 2.0382
-9.7342 -4.0390 2.0382
-9.3811 -4.8093 2.0382
-8.9672 -5.5488 2.0382
-8.4949 -6.2528 2.0382
-7.9672 -6.9166 2.0382
-7.3877 -7.5359 2.0382
-6.7600 -8.1066 2.0382
-6.0882 -8.6250 2.0382
-5.3767 -9.0876 2.0382
-4.6301 -9.4914 2.0382
-3.8533 -9.8337 2.0382
-3.0513 -10.1122 2.0382
-2.2295 -10.3252 2.0382
-1.3931 -10.4712 2.0382
-0.5476 -10.5492 2.0382
0.3014 -10.5588 2.0382
1.1484 -10.4999 2.0382
1.9878 -10.3729 2.0382
2.8141 -10.1786 2.0382
3.6220 -9.9184 2.0382
4.4062 -9.5939 2.0382
5.1615 -9.2073 2.0382
5.8831 -8.7611 2.0382
6.5662 -8.2584 2.0382
7.2065 -7.7024 2.0382
3.2679 -2.9734 0.8540
3.0951 -2.3914 0.7562
2.9570 -1.9265 0.6825
2.8428 -1.5421 0.6257
2.7456 -1.2150 0.5811
2.6682 -0.9325 0.5472
2.7358 -0.7155 0.5476
2.7859 -0.4937 0.5481
2.8182 -0.2685 0.5486
2.8324 -0.0413 0.5491
2.8283 0.1865 0.5497
2.8061 0.4134 0.5502
2.7657 0.6379 0.5508
2.7074 0.8586 0.5514
2.6316 1.0741 0.5519
2.5386 1.2829 0.5525
8.2960 5.0675 1.8888
7.8435 5.7041 1.8849
7.3618 6.3173 1.8858
6.8289 6.8867 1.8858
6.2523 7.4115 1.8858
5.6356 7.8883 1.8858
4.9829 8.3142 1.8858
4.5849 9.2658 2.0116
3.8759 9.7302 2.0382
3.0814 10.0093 2.0382
2.2672 10.2239 2.0382
1.4384 10.3726 2.0382
0.6005 10.4547 2.0382
-0.2414 10.4694 2.0382
-1.0818 10.4167 2.0382
-1.9153 10.2970 2.0382
-2.7366 10.1109 2.0382
-3.5405 9.8597 2.0382
-4.3219 9.5449 2.0382
-5.0756 9.1686 2.0382
-5.7970 8.7330 2.0382
-6.4813 8.2410 2.0382
-7.1242 7.6956 2.0382
-7.7214 7.1003 2.0382
-8.2692 6.4589 2.0382
-8.7640 5.7755 2.0382
-9.2025 5.0544 2.0382
-9.5819 4.3002 2.0382
-9.8997 3.5178 2.0382
-10.1538 2.7122 2.0382
-10.3424 1.8884 2.0382
-10.4643 1.0519 2.0382
-10.5187 0.2081 2.0382
-10.5051 -0.6377 2.0382
-10.4235 -1.4800 2.0382
-10.2744 -2.3132 2.0382
-10.0587 -3.1321 2.0382
-9.7778 -3.9311 2.0382
-9.4333 -4.7052 2.0382
-9.0275 -5.4492 2.0382
-8.5631 -6.1584 2.0382
-8.0428 -6.8280 2.0382
-7.4702 -7.4537 2.0382
-6.8489 -8.0313 2.0382
-6.1829 -8.5570 2.0382
-5.4766 -9.0275 2.0382
-4.7346 -9.4395 2.0382
-3.9616 -9.7904 2.0382
-3.1628 -10.0778 2.0382
-2.3433 -10.2999 2.0382
-1.5086 -10.4551 2.0382
-0.6640 -10.5426 2.0382
0.1848 -10.5616 2.0382
1.0324 -10.5121 2.0382
1.8732 -10.3944 2.0382
2.7016 -10.2093 2.0382
3.5124 -9.9580 2.0382
4.3001 -9.6422 2.0382
5.0597 -9.2639 2.0382
5.7862 -8.8258 2.0382
6.4748 -8.3307 2.0382
7.1212 -7.7818 2.0382
3.2953 -3.0655 0.8699
3.1164 -2.4633 0.7680
2.9743 -1.9849 0.6915
2.8573 -1.5910 0.6327
2.7582 -1.2572 0.5866
2.6720 -0.9670 0.5501
2.7275 -0.7456 0.5476
2.7801 -0.5244 0.5480
2.8148 -0.2996 0.5485
2.8315 -0.0725 0.5491
2.8300 0.1552 0.5496
2.8102 0.3823 0.5502
2.7723 0.6072 0.5507
2.7165 0.8286 0.5513
2.6430 1.0448 0.5519
2.5524 1.2547 0.5524
8.3538 4.9769 1.8893
7.9089 5.6191 1.8855
7.4313 6.2359 1.8858
6.9048 6.8110 1.8858
6.3339 7.3422 1.8858
5.7225 7.8258 1.8858
5.0764 8.2620 1.8866
4.6347 9.1118 1.9892
3.9832 9.6869 2.0382
3.1918 9.9747 2.0382
2.3800 10.1983 2.0382
1.5529 10.3561 2.0382
0.7159 10.4473 2.0382
-0.1257 10.4713 2.0382
-0.9666 10.4279 2.0382
-1.8014 10.3174 2.0382
-2.6247 10.1403 2.0382
-3.4313 9.8980 2.0382
-4.2161 9.5919 2.0382
-4.9739 9.2238 2.0382
-5.7000 8.7962 2.0382
-6.3897 8.3118 2.0382
-7.0385 7.7735 2.0382
-7.6423 7.1849 2.0382
-8.1971 6.5496 2.0382
-8.6993 5.8717 2.0382
-9.1457 5.1555 2.0382
-9.5334 4.4056 2.0382
-9.8598 3.6268 2.0382
-10.1227 2.8240 2.0382
-10.3204 2.0024 2.0382
-10.4516 1.1674 2.0382
-10.5153 0.3242 2.0382
-10.5110 -0.5217 2.0382
-10.4387 -1.3647 2.0382
-10.2989 -2.1995 2.0382
-10.0922 -3.0206 2.0382
-9.8202 -3.8227 2.0382
-9.4843 -4.6005 2.0382
-9.0868 -5.3490 2.0382
-8.6302 -6.0632 2.0382
-8.1175 -6.7385 2.0382
-7.5518 -7.3705 2.0382
-6.9370 -7.9549 2.0382
-6.2769 -8.4880 2.0382
-5.5758 -8.9663 2.0382
-4.8384 -9.3865 2.0382
-4.0694 -9.7459 2.0382
-3.2738 -10.0421 2.0382
-2.4569 -10.2733 2.0382
-1.6239 -10.4378 2.0382
-0.7804 -10.5346 2.0382
0.0682 -10.5630 2.0382
0.9162 -10.5229 2.0382
1.7583 -10.4146 2.0382
2.5888 -10.2386 2.0382
3.4023 -9.9963 2.0382
4.1935 -9.6893 2.0382
4.9572 -9.3195 2.0382
5.6885 -8.8894 2.0382
6.3827 -8.4019 2.0382
7.0351 -7.8602 2.0382
3.3237 -3.1611 0.8865
3.1385 -2.5376 0.7803
2.9921 -2.0449 0.7009
2.8722 -1.6411 0.6399
2.7709 -1.3001 0.5923
2.6832 -1.0048 0.5546
2.7189 -0.7756 0.5475
2.7739 -0.5550 0.5480
2.8111 -0.3306 0.5485
2.8303 -0.1038 0.5490
2.8313 0.1240 0.5495
2.8140 0.3512 0.5501
2.7786 0.5765 0.5506
2.7252 0.7984 0.5512
2.6541 1.0155 0.5518
2.5658 1.2263 0.5523
8.4106 4.8857 1.8897
7.9732 5.5333 1.8861
7.5000 6.1536 1.8858
6.9798 6.7346 1.8858
6.4148 7.2720 1.8858
5.8087 7.7623 1.8858
5.1655 8.2025 1.8858
4.6833 8.9611 1.9674
4.0900 9.6424 2.0382
3.3018 9.9389 2.0382
2.4925 10.1714 2.0382
1.6672 10.3384 2.0382
0.8312 10.4388 2.0382
-0.0101 10.4720 2.0382
-0.8514 10.4379 2.0382
-1.6873 10.3365 2.0382
-2.5125 10.1686 2.0382
-3.3217 9.9351 2.0382
-4.1098 9.6376 2.0382
-4.8716 9.2780 2.0382
-5.6023 8.8583 2.0382
-6.2973 8.3816 2.0382
-6.9520 7.8505 2.0382
-7.5621 7.2686 2.0382
-8.1239 6.6395 2.0382
-8.6336 5.9672 2.0382
-9.0879 5.2560 2.0382
-9.4838 4.5104 2.0382
-9.8187 3.7353 2.0382
-10.0904 2.9355 2.0382
-10.2972 2.1162 2.0382
-1.1086 -9.1009 2.0382
-0.3742 -9.1605 2.0382
0.3627 -9.1607 2.0382
1.0972 -9.1015 2.0382
1.8245 -8.9833 2.0382
2.5398 -8.8068 2.0382
3.2385 -8.5733 2.0382
3.9160 -8.2843 2.0382
4.5679 -7.9417 2.0382
5.1900 -7.5478 2.0382
5.7783 -7.1051 2.0382
6.3288 -6.6166 2.0382
3.2416 -2.8848 0.9662
3.0744 -2.3218 0.8581
2.9401 -1.8697 0.7762
2.8286 -1.4943 0.7129
2.7334 -1.1737 0.6631
2.6502 -0.8935 0.6236
2.5759 -0.6434 0.5922
2.5083 -0.4161 0.5673
2.4515 -0.2063 0.5491
2.4614 -0.0087 0.5495
2.4555 0.1891 0.5500
2.4338 0.3860 0.5505
2.3964 0.5806 0.5510
2.3434 0.7717 0.5514
2.2752 0.9580 0.5519
2.1923 1.1384 0.5524
7.1457 4.4738 1.8858
6.7616 5.0322 1.8858
6.3341 5.5579 1.8858
5.8659 6.0476 1.8858
5.4062 6.5540 1.9020
5.1439 7.3706 2.0126
4.5923 7.8580 2.0382
3.9457 8.2006 2.0382
3.2738 8.4902 2.0382
2.5810 8.7252 2.0382
1.8715 8.9039 2.0382
1.1501 9.0253 2.0382
0.4213 9.0885 2.0382
-0.3102 9.0932 2.0382
-1.0398 9.0394 2.0382
-1.7628 8.9273 2.0382
-2.4746 8.7577 2.0382
-3.1705 8.5316 2.0382
-3.8462 8.2505 2.0382
-4.4974 7.9161 2.0382
-5.1198 7.5306 2.0382
-5.7094 7.0965 2.0382
-6.2624 6.6163 2.0382
-6.7753 6.0933 2.0382
-7.2447 5.5307 2.0382
-7.6676 4.9322 2.0382
-8.0413 4.3015 2.0382
-8.3633 3.6427 2.0382
-8.6314 2.9599 2.0382
-8.8439 2.2577 2.0382
-8.9995 1.5405 2.0382
-9.0969 0.8129 2.0382
-9.1356 0.0796 2.0382
-9.1153 -0.6547 2.0382
-9.0360 -1.3852 2.0382
-8.8981 -2.1071 2.0382
-8.7027 -2.8158 2.0382
-8.4507 -3.5067 2.0382
-8.1439 -4.1752 2.0382
-7.7843 -4.8170 2.0382
-7.3740 -5.4280 2.0382
-6.9158 -6.0040 2.0382
-6.4125 -6.5414 2.0382
-5.8675 -7.0366 2.0382
-5.2843 -7.4863 2.0382
-4.6667 -7.8877 2.0382
-4.0186 -8.2380 2.0382
-3.3443 -8.5349 2.0382
-2.6483 -8.7766 2.0382
-1.9350 -8.9614 2.0382
-1.2090 -9.0881 2.0382
-0.4753 -9.1558 2.0382
0.2616 -9.1642 2.0382
0.9967 -9.1131 2.0382
1.7252 -9.0030 2.0382
2.4424 -8.8345 2.0382
3.1437 -8.6087 2.0382
3.8244 -8.3273 2.0382
4.4801 -7.9919 2.0382
5.1065 -7.6049 2.0382
5.6996 -7.1687 2.0382
6.2556 -6.6863 2.0382
3.2680 -2.9736 0.9838
3.0951 -2.3915 0.8711
2.9570 -1.9266 0.7862
2.8428 -1.5422 0.7207
2.7457 -1.2151 0.6693
2.6610 -0.9300 0.6285
2.5856 -0.6763 0.5961
2.5173 -0.4462 0.5704
2.4542 -0.2339 0.5502
2.4610 -0.0359 0.5494
2.4573 0.1620 0.5499
2.4377 0.3591 0.5504
2.4024 0.5540 0.5509
2.3516 0.7457 0.5514
2.2855 0.9328 0.5519
2.2045 1.1140 0.5524
7.1949 4.3947 1.8858
6.8170 4.9573 1.8858
6.3953 5.4877 1.8858
5.9325 5.9826 1.8858
5.4461 6.4556 1.8908
5.1818 7.2530 1.9959
4.6790 7.8069 2.0382
4.0361 8.1566 2.0382
3.3675 8.4537 2.0382
2.6772 8.6962 2.0382
1.9698 8.8827 2.0382
1.2498 9.0121 2.0382
0.5217 9.0833 2.0382
-0.2098 9.0961 2.0382
-0.9399 9.0502 2.0382
-1.6641 8.9461 2.0382
-2.3776 8.7843 2.0382
-3.0760 8.5659 2.0382
-3.7548 8.2923 2.0382
-4.4096 7.9651 2.0382
-5.0361 7.5865 2.0382
-5.6305 7.1589 2.0382
-6.1887 6.6849 2.0382
-6.7074 6.1675 2.0382
-7.1829 5.6102 2.0382
-7.6124 5.0164 2.0382
-7.9930 4.3899 2.0382
-8.3222 3.7347 2.0382
-8.5978 3.0550 2.0382
-8.8181 2.3552 2.0382
-8.9815 1.6397 2.0382
-9.0871 0.9133 2.0382
-9.1338 0.1804 2.0382
-9.1216 -0.5540 2.0382
-9.0503 -1.2852 2.0382
-8.9205 -2.0086 2.0382
-8.7329 -2.7194 2.0382
-8.4886 -3.4130 2.0382
-8.1893 -4.0849 2.0382
-7.8367 -4.7306 2.0382
-7.4332 -5.3460 2.0382
-6.9814 -5.9271 2.0382
-6.4842 -6.4700 2.0382
-5.9447 -6.9712 2.0382
-5.3665 -7.4274 2.0382
-4.7534 -7.8355 2.0382
-4.1093 -8.1930 2.0382
-3.4383 -8.4974 2.0382
-2.7450 -8.7467 2.0382
-2.0338 -8.9394 2.0382
-1.3093 -9.0741 2.0382
-0.5763 -9.1500 2.0382
0.1604 -9.1665 2.0382
0.8960 -9.1236 2.0382
1.6257 -9.0216 2.0382
2.3448 -8.8610 2.0382
3.0485 -8.6431 2.0382
3.7323 -8.3692 2.0382
4.3917 -8.0411 2.0382
5.0224 -7.6610 2.0382
5.6203 -7.2314 2.0382
6.1816 -6.7552 2.0382
3.2953 -3.0657 1.0021
3.1165 -2.4635 0.8847
2.9744 -1.9850 0.7966
2.8574 -1.5911 0.7288
2.7582 -1.2572 0.6756
2.6720 -0.9671 0.6336
2.5955 -0.7096 0.6001
2.5263 -0.4766 0.5735
2.4626 -0.2621 0.5527
2.4603 -0.0631 0.5494
2.4587 0.1348 0.5499
2.4414 0.3321 0.5503
2.4082 0.5274 0.5508
2.3595 0.7196 0.5513
2.2955 0.9074 0.5518
2.2165 1.0895 0.5523
7.2433 4.3151 1.8858
6.8715 4.8819 1.8858
6.4557 5.4169 1.8858
5.9984 5.9168 1.8858
5.5027 6.3784 1.8858
5.2191 7.1371 1.9797
4.7650 7.7549 2.0382
4.1260 8.1116 2.0382
3.4607 8.4161 2.0382
2.7731 8.6662 2.0382
2.0678 8.8605 2.0382
1.3492 8.9977 2.0382
0.6220 9.0770 2.0382
-0.1093 9.0978 2.0382
-0.8399 9.0600 2.0382
-1.5651 8.9638 2.0382
-2.2804 8.8099 2.0382
-2.9812 8.5992 2.0382
-3.6629 8.3331 2.0382
-4.3212 8.0132 2.0382
-4.9519 7.6415 2.0382
-5.5509 7.2204 2.0382
-6.1143 6.7526 2.0382
-6.6386 6.2410 2.0382
-7.1203 5.6890 2.0382
-7.5563 5.1000 2.0382
-7.9437 4.4777 2.0382
-8.2801 3.8262 2.0382
-8.5632 3.1496 2.0382
-8.7912 2.4523 2.0382
-8.9625 1.7387 2.0382
-9.0760 1.0135 2.0382
-9.1309 0.2813 2.0382
-9.1268 -0.4532 2.0382
-9.0636 -1.1852 2.0382
-8.9418 -1.9099 2.0382
-8.7620 -2.6227 2.0382
-8.5255 -3.3189 2.0382
-8.2336 -3.9940 2.0382
-7.8882 -4.6436 2.0382
-7.4916 -5.2635 2.0382
-7.0462 -5.8495 2.0382
-6.5550 -6.3978 2.0382
-6.0212 -6.9050 2.0382
-5.4481 -7.3675 2.0382
-4.8395 -7.7824 2.0382
-4.1994 -8.1470 2.0382
-3.5319 -8.4588 2.0382
-2.8414 -8.7158 2.0382
-2.1324 -8.9164 2.0382
-1.4094 -9.0591 2.0382
-0.6773 -9.1431 2.0382
0.0592 -9.1678 2.0382
0.7952 -9.1330 2.0382
1.5260 -9.0391 2.0382
2.2468 -8.8865 2.0382
2.9529 -8.6764 2.0382
3.6397 -8.4100 2.0382
4.3027 -8.0893 2.0382
4.9376 -7.7162 2.0382
5.5403 -7.2932 2.0382
6.1068 -6.8232 2.0382
3.3237 -3.1613 1.0213
3.1385 -2.5377 0.8988
2.9922 -2.0450 0.8073
2.8722 -1.6412 0.7371
2.7710 -1.3002 0.6822
2.6832 -1.0048 0.6388
2.6056 -0.7434 0.6043
2.5355 -0.5074 0.5768
2.4711 -0.2907 0.5552
2.4593 -0.0902 0.5493
2.4599 0.1076 0.5498
2.4447 0.3051 0.5503
2.4137 0.5008 0.5508
2.3671 0.6935 0.5512
2.3051 0.8819 0.5517
2.2282 1.0649 0.5522
7.2907 4.2350 1.8858
6.9253 4.8058 1.8858
6.5153 5.3455 1.8858
6.0636 5.8504 1.8858
5.5729 6.3174 1.8858
5.2558 7.0232 1.9640
4.8504 7.7020 2.0382
4.2154 8.0657 2.0382
3.5534 8.3774 2.0382
2.8687 8.6351 2.0382
2.1656 8.8372 2.0382
1.4485 8.9823 2.0382
0.7222 9.0695 2.0382
-0.0088 9.0984 2.0382
-0.7397 9.0686 2.0382
-1.4660 8.9805 2.0382
-2.1830 8.8345 2.0382
-2.8860 8.6315 2.0382
-3.5706 8.3729 2.0382
-4.2323 8.0602 2.0382
-4.8671 7.6955 2.0382
-5.4706 7.2811 2.0382
-6.0392 6.8195 2.0382
-6.5690 6.3138 2.0382
-7.0568 5.7671 2.0382
-7.4992 5.1829 2.0382
-7.8935 4.5650 2.0382
-8.2370 3.9172 2.0382
-8.5276 3.2439 2.0382
-8.7632 2.5491 2.0382
-8.9424 1.8375 2.0382
-0.9778 -8.0272 2.0382
-0.3300 -8.0798 2.0382
0.3199 -8.0800 2.0382
0.9677 -8.0278 2.0382
1.6092 -7.9236 2.0382
2.2402 -7.7681 2.0382
2.8565 -7.5623 2.0382
3.4541 -7.3075 2.0382
4.0292 -7.0054 2.0382
4.5781 -6.6581 2.0382
5.0971 -6.2677 2.0382
5.5829 -5.8369 2.0382
3.2417 -2.8850 1.0953
3.0744 -2.3219 0.9727
2.9401 -1.8698 0.8799
2.8286 -1.4944 0.8080
2.7334 -1.1738 0.7516
2.6502 -0.8936 0.7068
2.5759 -0.6435 0.6712
2.5084 -0.4161 0.6429
2.4459 -0.2059 0.6208
2.3873 -0.0085 0.6040
2.3314 0.1795 0.5918
2.2775 0.3611 0.5837
2.2247 0.5389 0.5796
2.1723 0.7153 0.5792
2.1197 0.8925 0.5826
2.0661 1.0728 0.5899
6.3069 3.9484 1.8858
6.0184 4.4789 1.9018
5.8211 5.1075 1.9635
5.5961 5.7692 2.0382
5.1137 6.1992 2.0382
4.5985 6.5890 2.0382
4.0538 6.9363 2.0382
3.4830 7.2388 2.0382
2.8899 7.4945 2.0382
2.2783 7.7020 2.0382
1.6521 7.8598 2.0382
1.0153 7.9670 2.0382
0.3719 8.0228 2.0382
-0.2739 8.0269 2.0382
-0.9179 7.9794 2.0382
-1.5561 7.8803 2.0382
-2.1844 7.7305 2.0382
-2.7987 7.5309 2.0382
-3.3951 7.2826 2.0382
-3.9698 6.9873 2.0382
-4.5191 6.6469 2.0382
-5.0394 6.2635 2.0382
-5.5274 5.8396 2.0382
-5.9799 5.3778 2.0382
-6.3941 4.8811 2.0382
-6.7672 4.3527 2.0382
-7.0967 3.7960 2.0382
-7.3806 3.2145 2.0382
-7.6170 2.6119 2.0382
-7.8043 1.9921 2.0382
-7.9413 1.3591 2.0382
-8.0270 0.7171 2.0382
-8.0609 0.0700 2.0382
-8.0427 -0.5778 2.0382
-7.9724 -1.2223 2.0382
-7.8505 -1.8592 2.0382
-7.6778 -2.4844 2.0382
-7.4553 -3.0938 2.0382
-7.1845 -3.6835 2.0382
-6.8670 -4.2496 2.0382
-6.5049 -4.7884 2.0382
-6.1005 -5.2964 2.0382
-5.6564 -5.7703 2.0382
-5.1756 -6.2070 2.0382
-4.6611 -6.6035 2.0382
-4.1162 -6.9574 2.0382
-3.5445 -7.2663 2.0382
-2.9498 -7.5282 2.0382
-2.3358 -7.7413 2.0382
-1.7067 -7.9042 2.0382
-1.0664 -8.0159 2.0382
-0.4192 -8.0757 2.0382
0.2307 -8.0831 2.0382
0.8790 -8.0381 2.0382
1.5216 -7.9410 2.0382
2.1543 -7.7924 2.0382
2.7728 -7.5934 2.0382
3.3733 -7.3453 2.0382
3.9517 -7.0496 2.0382
4.5044 -6.7084 2.0382
5.0277 -6.3238 2.0382
5.5182 -5.8984 2.0382
3.2680 -2.9738 1.1152
3.0952 -2.3917 0.9875
2.9570 -1.9267 0.8912
2.8429 -1.5423 0.8169
2.7457 -1.2152 0.7586
2.6610 -0.9301 0.7124
2.5857 -0.6764 0.6756
2.5173 -0.4462 0.6464
2.4542 -0.2339 0.6235
2.3952 -0.0350 0.6060
2.3390 0.1541 0.5932
2.2848 0.3365 0.5846
2.2319 0.5147 0.5799
2.1795 0.6911 0.5791
2.1270 0.8680 0.5819
2.0736 1.0478 0.5887
6.3503 3.8787 1.8858
6.0483 4.3974 1.8956
5.8490 5.0188 1.9541
5.6377 5.6851 2.0304
5.1820 6.1424 2.0382
4.6711 6.5379 2.0382
4.1302 6.8912 2.0382
3.5628 7.1999 2.0382
2.9726 7.4622 2.0382
2.3633 7.6764 2.0382
1.7388 7.8411 2.0382
1.1032 7.9553 2.0382
0.4605 8.0182 2.0382
-0.1852 8.0294 2.0382
-0.8297 7.9889 2.0382
-1.4690 7.8970 2.0382
-2.0988 7.7541 2.0382
-2.7153 7.5612 2.0382
-3.3144 7.3195 2.0382
-3.8923 7.0306 2.0382
-4.4453 6.6963 2.0382
-4.9698 6.3187 2.0382
-5.4624 5.9001 2.0382
-5.9200 5.4434 2.0382
-6.3396 4.9513 2.0382
-6.7184 4.4271 2.0382
-7.0541 3.8740 2.0382
-7.3444 3.2957 2.0382
-7.5874 2.6958 2.0382
-7.7815 2.0781 2.0382
-7.9255 1.4467 2.0382
-8.0183 0.8056 2.0382
-8.0593 0.1590 2.0382
-8.0482 -0.4890 2.0382
-7.9851 -1.1342 2.0382
-7.8703 -1.7723 2.0382
-7.7045 -2.3994 2.0382
-7.4888 -3.0112 2.0382
-7.2245 -3.6038 2.0382
-6.9133 -4.1734 2.0382
-6.5571 -4.7161 2.0382
-6.1584 -5.2286 2.0382
-5.7197 -5.7073 2.0382
-5.2437 -6.1493 2.0382
-4.7336 -6.5515 2.0382
-4.1927 -6.9114 2.0382
-3.6245 -7.2266 2.0382
-3.0327 -7.4951 2.0382
-2.4211 -7.7149 2.0382
-1.7938 -7.8848 2.0382
-1.1548 -8.0036 2.0382
-0.5084 -8.0705 2.0382
0.1414 -8.0851 2.0382
0.7903 -8.0473 2.0382
1.4339 -7.9574 2.0382
2.0681 -7.8159 2.0382
2.6889 -7.6237 2.0382
3.2920 -7.3822 2.0382
3.8737 -7.0930 2.0382
4.4301 -6.7578 2.0382
4.9577 -6.3791 2.0382
5.4529 -5.9591 2.0382
3.2954 -3.0658 1.1360
3.1165 -2.4636 1.0029
2.9744 -1.9852 0.9030
2.8574 -1.5913 0.8261
2.7582 -1.2573 0.7658
2.6720 -0.9672 0.7181
2.5956 -0.7097 0.6802
2.5263 -0.4767 0.6500
2.4626 -0.2622 0.6263
2.4031 -0.0617 0.6081
2.3466 0.1286 0.5947
2.2922 0.3117 0.5855
2.2391 0.4903 0.5803
2.1867 0.6669 0.5790
2.1342 0.8436 0.5813
2.0810 1.0228 0.5875
6.3929 3.8084 1.8858
6.0778 4.3178 1.8898
5.8767 4.9310 1.9450
5.6679 5.5906 2.0188
5.2497 6.0848 2.0382
4.7431 6.4861 2.0382
4.2061 6.8452 2.0382
3.6422 7.1602 2.0382
3.0549 7.4290 2.0382
2.4480 7.6499 2.0382
1.8253 7.8215 2.0382
1.1910 7.9426 2.0382
0.5490 8.0126 2.0382
-0.0965 8.0310 2.0382
-0.7414 7.9976 2.0382
-1.3816 7.9126 2.0382
-2.0130 7.7767 2.0382
-2.6316 7.5906 2.0382
-3.2333 7.3556 2.0382
-3.8144 7.0730 2.0382
-4.3710 6.7448 2.0382
-4.8996 6.3730 2.0382
-5.3968 5.9599 2.0382
-5.8594 5.5083 2.0382
-6.2843 5.0209 2.0382
-6.6689 4.5009 2.0382
-7.0107 3.9515 2.0382
-7.3073 3.3765 2.0382
-7.5569 2.7793 2.0382
-7.7578 2.1639 2.0382
-7.9087 1.5341 2.0382
-8.0086 0.8941 2.0382
-8.0567 0.2480 2.0382
-8.0528 -0.4001 2.0382
-7.9969 -1.0459 2.0382
-7.8891 -1.6852 2.0382
-7.7303 -2.3141 2.0382
-7.5213 -2.9282 2.0382
-7.2636 -3.5237 2.0382
-6.9587 -4.0966 2.0382
-6.6086 -4.6433 2.0382
-6.2156 -5.1601 2.0382
-5.7822 -5.6437 2.0382
-5.3112 -6.0909 2.0382
-4.8056 -6.4987 2.0382
-4.2687 -6.8646 2.0382
-3.7040 -7.1861 2.0382
-3.1152 -7.4610 2.0382
-2.5062 -7.6877 2.0382
-1.8808 -7.8645 2.0382
-1.2431 -7.9904 2.0382
-0.5974 -8.0644 2.0382
0.0522 -8.0863 2.0382
0.7013 -8.0556 2.0382
1.3459 -7.9728 2.0382
1.9817 -7.8382 2.0382
2.6046 -7.6531 2.0382
3.2104 -7.4183 2.0382
3.7952 -7.1355 2.0382
4.3554 -6.8065 2.0382
4.8871 -6.4336 2.0382
5.3869 -6.0192 2.0382
3.3238 -3.1614 1.1577
3.1386 -2.5379 1.0189
2.9922 -2.0452 0.9152
2.8723 -1.6413 0.8355
2.7710 -1.3003 0.7733
2.6832 -1.0049 0.7240
2.6056 -0.7434 0.6849
2.5355 -0.5074 0.6538
2.4711 -0.2907 0.6292
2.4111 -0.0885 0.6103
2.3542 0.1030 0.5963
2.2995 0.2869 0.5865
2.2464 0.4660 0.5808
2.1939 0.6427 0.5789
2.1414 0.8192 0.5808
2.0883 0.9980 0.5864
6.4348 3.7377 1.8858
6.1124 4.2416 1.8858
5.9041 4.8438 1.9361
5.6976 5.4971 2.0076
5.3166 6.0267 2.0382
4.8146 6.4334 2.0382
4.2816 6.7985 2.0382
3.7211 7.1197 2.0382
3.1368 7.3949 2.0382
2.5323 7.6225 2.0382
1.9116 7.8009 2.0382
1.2787 7.9290 2.0382
0.6375 8.0061 2.0382
-0.0078 8.0315 2.0382
-0.6530 8.0052 2.0382
-1.2941 7.9273 2.0382
-1.9270 7.7984 2.0382
-2.5476 7.6191 2.0382
-3.1518 7.3907 2.0382
-3.7359 7.1146 2.0382
-4.2961 6.7925 2.0382
-4.8288 6.4265 2.0382
-5.3305 6.0190 2.0382
-5.7980 5.5725 2.0382
-6.2283 5.0898 2.0382
-6.6186 4.5741 2.0382
-6.9664 4.0286 2.0382
-7.2693 3.4568 2.0382
-7.5255 2.8625 2.0382
-7.7332 2.2493 2.0382
-7.8910 1.6213 2.0382
-0.8733 -7.1693 2.0382
-0.2948 -7.2163 2.0382
0.2857 -7.2165 2.0382
0.8643 -7.1699 2.0382
1.4372 -7.0769 2.0382
2.0007 -6.9381 2.0382
2.5512 -6.7543 2.0382
3.0850 -6.5268 2.0382
3.5987 -6.2571 2.0382
4.0890 -5.9470 2.0382
4.5527 -5.5985 2.0382
4.9867 -5.2138 2.0382
3.2417 -2.8851 1.2263
3.0745 -2.3220 1.0889
2.9402 -1.8699 0.9850
2.8287 -1.4945 0.9046
2.7335 -1.1739 0.8414
2.6502 -0.8937 0.7912
2.5759 -0.6436 0.7513
2.5084 -0.4162 0.7197
2.4459 -0.2060 0.6949
2.3873 -0.0086 0.6760
2.3315 0.1795 0.6623
2.2775 0.3611 0.6533
2.2247 0.5389 0.6487
2.1723 0.7152 0.6482
2.1197 0.8924 0.6520
2.0661 1.0728 0.6602
6.0912 3.8133 2.0382
5.7641 4.2895 2.0382
5.3999 4.7378 2.0382
5.0010 5.1555 2.0382
4.5699 5.5398 2.0382
4.1096 5.8883 2.0382
3.6228 6.1987 2.0382
3.1128 6.4691 2.0382
2.5828 6.6977 2.0382
2.0362 6.8832 2.0382
1.4765 7.0243 2.0382
0.9073 7.1201 2.0382
0.3324 7.1700 2.0382
-0.2448 7.1736 2.0382
-0.8204 7.1311 2.0382
-1.3907 7.0425 2.0382
-1.9522 6.9086 2.0382
-2.5012 6.7301 2.0382
-3.0342 6.5081 2.0382
-3.5477 6.2442 2.0382
-4.0385 5.9398 2.0382
-4.5034 5.5971 2.0382
-4.9394 5.2182 2.0382
-5.3437 4.8054 2.0382
-5.7136 4.3615 2.0382
-6.0469 3.8892 2.0382
-6.3412 3.3917 2.0382
-6.5947 2.8720 2.0382
-6.8057 2.3335 2.0382
-6.9729 1.7797 2.0382
-7.0950 1.2141 2.0382
-7.1714 0.6405 2.0382
-7.2015 0.0624 2.0382
-7.1850 -0.5164 2.0382
-7.1221 -1.0921 2.0382
-7.0130 -1.6610 2.0382
-6.8585 -2.2195 2.0382
-6.6596 -2.7638 2.0382
-6.4175 -3.2904 2.0382
-6.1338 -3.7960 2.0382
-5.8102 -4.2772 2.0382
-5.4489 -4.7309 2.0382
-5.0522 -5.1541 2.0382
-4.6227 -5.5440 2.0382
-4.1630 -5.8981 2.0382
-3.6764 -6.2141 2.0382
-3.1657 -6.4899 2.0382
-2.6345 -6.7237 2.0382
-2.0862 -6.9140 2.0382
-1.5243 -7.0595 2.0382
-0.9524 -7.1592 2.0382
-0.3744 -7.2126 2.0382
0.2060 -7.2192 2.0382
0.7851 -7.1791 2.0382
1.3590 -7.0924 2.0382
1.9240 -6.9598 2.0382
2.4765 -6.7822 2.0382
3.0128 -6.5606 2.0382
3.5295 -6.2966 2.0382
4.0232 -5.9919 2.0382
4.4907 -5.6485 2.0382
4.9289 -5.2687 2.0382
3.2681 -2.9739 1.2486
3.0952 -2.3918 1.1055
2.9571 -1.9268 0.9977
2.8429 -1.5424 0.9145
2.7457 -1.2153 0.8492
2.6611 -0.9302 0.7974
2.5857 -0.6764 0.7562
2.5173 -0.4463 0.7236
2.4543 -0.2340 0.6979
2.3952 -0.0351 0.6783
2.3390 0.1541 0.6639
2.2848 0.3364 0.6543
2.2319 0.5146 0.6490
2.1795 0.6910 0.6481
2.1270 0.8680 0.6513
2.0736 1.0477 0.6588
6.1331 3.7459 2.0382
5.8113 4.2257 2.0382
5.4520 4.6780 2.0382
5.0577 5.1000 2.0382
4.6309 5.4891 2.0382
4.1744 5.8426 2.0382
3.6911 6.1584 2.0382
3.1841 6.4344 2.0382
2.6566 6.6689 2.0382
2.1121 6.8603 2.0382
1.5540 7.0076 2.0382
0.9859 7.1096 2.0382
0.4115 7.1658 2.0382
-0.1655 7.1759 2.0382
-0.7416 7.1397 2.0382
-1.3128 7.0574 2.0382
-1.8758 6.9297 2.0382
-2.4267 6.7572 2.0382
-2.9621 6.5411 2.0382
-3.4785 6.2828 2.0382
-3.9726 5.9840 2.0382
-4.4412 5.6464 2.0382
-4.8813 5.2723 2.0382
-5.2901 4.8640 2.0382
-5.6649 4.4242 2.0382
-6.0033 3.9557 2.0382
-6.3031 3.4614 2.0382
-6.5623 2.9445 2.0382
-6.7793 2.4085 2.0382
-6.9525 1.8565 2.0382
-7.0810 1.2924 2.0382
-7.1637 0.7196 2.0382
-7.2001 0.1419 2.0382
-7.1900 -0.4370 2.0382
-7.1335 -1.0134 2.0382
-7.0307 -1.5834 2.0382
-6.8824 -2.1435 2.0382
-6.6895 -2.6900 2.0382
-6.4533 -3.2193 2.0382
-6.1752 -3.7280 2.0382
-5.8569 -4.2127 2.0382
-5.5007 -4.6703 2.0382
-5.1087 -5.0978 2.0382
-4.6835 -5.4925 2.0382
-4.2278 -5.8517 2.0382
-3.7447 -6.1731 2.0382
-3.2372 -6.4545 2.0382
-2.7083 -6.6944 2.0382
-2.1624 -6.8905 2.0382
-1.6021 -7.0422 2.0382
-1.0314 -7.1483 2.0382
-0.4540 -7.2080 2.0382
0.1263 -7.2211 2.0382
0.7058 -7.1873 2.0382
1.2806 -7.1071 2.0382
1.8471 -6.9807 2.0382
2.4015 -6.8092 2.0382
2.9403 -6.5936 2.0382
3.4598 -6.3353 2.0382
3.9569 -6.0361 2.0382
4.4281 -5.6979 2.0382
4.8706 -5.3229 2.0382
3.2955 -3.0660 1.2718
3.1166 -2.4638 1.1228
2.9745 -1.9853 1.0109
2.8574 -1.5914 0.9247
2.7583 -1.2574 0.8573
2.6721 -0.9673 0.8039
2.5956 -0.7097 0.7614
2.5264 -0.4767 0.7276
2.4627 -0.2623 0.7011
2.4031 -0.0617 0.6807
2.3466 0.1286 0.6656
2.2922 0.3117 0.6553
2.2391 0.4903 0.6495
2.1867 0.6668 0.6479
2.1342 0.8435 0.6506
2.0810 1.0228 0.6575
6.1743 3.6780 2.0382
5.8577 4.1613 2.0382
5.5035 4.6176 2.0382
5.1139 5.0440 2.0382
4.6914 5.4377 2.0382
4.2388 5.7962 2.0382
3.7589 6.1173 2.0382
3.2550 6.3989 2.0382
2.7301 6.6392 2.0382
2.1878 6.8366 2.0382
1.6313 6.9900 2.0382
1.0644 7.0983 2.0382
0.4907 7.1609 2.0382
-0.0862 7.1772 2.0382
-0.6626 7.1474 2.0382
-1.2348 7.0714 2.0382
-1.7991 6.9499 2.0382
-2.3518 6.7835 2.0382
-2.8896 6.5733 2.0382
-3.4088 6.3207 2.0382
-3.9061 6.0273 2.0382
-4.3785 5.6950 2.0382
-4.8227 5.3257 2.0382
-5.2359 4.9220 2.0382
-5.6156 4.4864 2.0382
-5.9591 4.0216 2.0382
-6.2643 3.5307 2.0382
-6.5292 3.0167 2.0382
-6.7520 2.4831 2.0382
-6.9314 1.9332 2.0382
-7.0660 1.3705 2.0382
-7.1550 0.7986 2.0382
-7.1979 0.2214 2.0382
-7.1942 -0.3576 2.0382
-7.1440 -0.9345 2.0382
-7.0475 -1.5057 2.0382
-6.9054 -2.0673 2.0382
-6.7186 -2.6159 2.0382
-6.4882 -3.1477 2.0382
-6.2158 -3.6594 2.0382
-5.9029 -4.1476 2.0382
-5.5518 -4.6092 2.0382
-5.1646 -5.0410 2.0382
-4.7438 -5.4403 2.0382
-4.2921 -5.8045 2.0382
-3.8126 -6.1312 2.0382
-3.3082 -6.4183 2.0382
-2.7823 -6.6638 2.0382
-2.2383 -6.8661 2.0382
-1.6798 -7.0240 2.0382
-1.1103 -7.1364 2.0382
-0.5336 -7.2026 2.0382
0.0466 -7.2221 2.0382
0.6264 -7.1948 2.0382
1.2021 -7.1208 2.0382
1.7699 -7.0008 2.0382
2.3262 -6.8354 2.0382
2.8673 -6.6258 2.0382
3.3897 -6.3733 2.0382
3.8901 -6.0796 2.0382
4.3650 -5.7466 2.0382
4.8116 -5.3765 2.0382
3.3239 -3.1616 1.2962
3.1386 -2.5380 1.1407
2.9923 -2.0453 1.0245
2.8723 -1.6415 0.9353
2.7710 -1.3004 0.8656
2.6833 -1.0050 0.8105
2.6056 -0.7435 0.7666
2.5355 -0.5075 0.7318
2.4711 -0.2908 0.7043
2.4111 -0.0886 0.6831
2.3542 0.1029 0.6674
2.2996 0.2869 0.6565
2.2464 0.4659 0.6501
2.1939 0.6426 0.6479
2.1415 0.8192 0.6500
2.0884 0.9979 0.6563
6.2147 3.6097 2.0382
5.9035 4.0965 2.0382
5.5543 4.5567 2.0382
5.1694 4.9873 2.0382
4.7513 5.3857 2.0382
4.3026 5.7492 2.0382
3.8264 6.0755 2.0382
3.3255 6.3626 2.0382
2.8033 6.6087 2.0382
2.2631 6.8121 2.0382
1.7085 6.9716 2.0382
1.1428 7.0861 2.0382
0.5697 7.1550 2.0382
-0.0070 7.1777 2.0382
-0.5836 7.1542 2.0382
-1.1566 7.0846 2.0382
-1.7222 6.9692 2.0382
-2.2768 6.8090 2.0382
-2.8167 6.6047 2.0382
-3.3387 6.3579 2.0382
-3.8393 6.0700 2.0382
-4.3152 5.7428 2.0382
-4.7634 5.3786 2.0382
-5.1811 4.9794 2.0382
-5.5655 4.5480 2.0382
-5.9141 4.0871 2.0382
-6.2247 3.5995 2.0382
-6.4953 3.0886 2.0382
-6.7240 2.5574 2.0382
-6.9094 2.0095 2.0382
-7.0502 1.4484 2.0382
-0.7878 -6.4671 2.0382
-0.2659 -6.5095 2.0382
0.2577 -6.5096 2.0382
0.7796 -6.4677 2.0382
1.2964 -6.3838 2.0382
1.8047 -6.2586 2.0382
2.3013 -6.0929 2.0382
2.7829 -5.8878 2.0382
3.2463 -5.6446 2.0382
3.6886 -5.3649 2.0382
4.1069 -5.0505 2.0382
4.4985 -4.7036 2.0382
3.2418 -2.8853 1.3593
3.0745 -2.3222 1.2071
2.9402 -1.8700 1.0919
2.8287 -1.4946 1.0027
2.7335 -1.1740 0.9326
2.6502 -0.8938 0.8770
2.5760 -0.6437 0.8327
2.5084 -0.4163 0.7976
2.4460 -0.2060 0.7702
2.3873 -0.0086 0.7492
2.3315 0.1794 0.7340
2.2775 0.3610 0.7240
2.2247 0.5388 0.7189
2.1724 0.7152 0.7184
2.1197 0.8924 0.7226
2.0662 1.0728 0.7316
5.4969 3.4411 2.0382
5.2018 3.8709 2.0382
4.8732 4.2756 2.0382
4.5133 4.6526 2.0382
4.1243 4.9995 2.0382
3.7089 5.3140 2.0382
3.2696 5.5942 2.0382
2.8093 5.8383 2.0382
2.3310 6.0447 2.0382
1.8377 6.2121 2.0382
1.3326 6.3395 2.0382
0.8189 6.4260 2.0382
0.3000 6.4710 2.0382
-0.2209 6.4743 2.0382
-0.7404 6.4359 2.0382
-1.2552 6.3559 2.0382
-1.7619 6.2350 2.0382
-2.2574 6.0738 2.0382
-2.7384 5.8734 2.0382
-3.2018 5.6351 2.0382
-3.6447 5.3604 2.0382
-4.0642 5.0510 2.0382
-4.4576 4.7090 2.0382
-4.8223 4.3364 2.0382
-5.1561 3.9357 2.0382
-5.4567 3.5095 2.0382
-5.7222 3.0604 2.0382
-5.9508 2.5914 2.0382
-6.1411 2.1055 2.0382
-6.2918 1.6057 2.0382
-6.4019 1.0954 2.0382
-6.4707 0.5777 2.0382
-6.4977 0.0561 2.0382
-6.4826 -0.4661 2.0382
-6.4257 -0.9855 2.0382
-6.3272 -1.4987 2.0382
-6.1877 -2.0025 2.0382
-6.0081 -2.4935 2.0382
-5.7896 -2.9686 2.0382
-5.5335 -3.4246 2.0382
-5.2415 -3.8587 2.0382
-4.9155 -4.2679 2.0382
-4.5575 -4.6496 2.0382
-4.1700 -5.0012 2.0382
-3.7553 -5.3206 2.0382
-3.3163 -5.6056 2.0382
-2.8557 -5.8544 2.0382
-2.3765 -6.0652 2.0382
-1.8818 -6.2368 2.0382
-1.3749 -6.3680 2.0382
-0.8591 -6.4580 2.0382
-0.3377 -6.5061 2.0382
0.1858 -6.5121 2.0382
0.7081 -6.4759 2.0382
1.2258 -6.3978 2.0382
1.7355 -6.2782 2.0382
2.2339 -6.1180 2.0382
2.7177 -5.9182 2.0382
3.1839 -5.6802 2.0382
3.6292 -5.4054 2.0382
4.0510 -5.0957 2.0382
4.4464 -4.7531 2.0382
3.2682 -2.9741 1.3840
3.0953 -2.3920 1.2255
2.9571 -1.9270 1.1059
2.8429 -1.5425 1.0137
2.7458 -1.2154 0.9413
2.6611 -0.9303 0.8839
2.5857 -0.6765 0.8382
2.5174 -0.4464 0.8020
2.4543 -0.2341 0.7735
2.3952 -0.0351 0.7517
2.3390 0.1540 0.7358
2.2849 0.3364 0.7251
2.2319 0.5146 0.7193
2.1795 0.6910 0.7182
2.1270 0.8679 0.7217
2.0736 1.0477 0.7300
5.5348 3.3802 2.0382
5.2444 3.8132 2.0382
4.9202 4.2216 2.0382
4.5645 4.6025 2.0382
4.1794 4.9537 2.0382
3.7674 5.2728 2.0382
3.3312 5.5578 2.0382
2.8737 5.8070 2.0382
2.3976 6.0187 2.0382
1.9062 6.1915 2.0382
1.4025 6.3244 2.0382
0.8898 6.4165 2.0382
0.3714 6.4673 2.0382
-0.1494 6.4763 2.0382
-0.6693 6.4436 2.0382
-1.1849 6.3693 2.0382
-1.6929 6.2540 2.0382
-2.1901 6.0983 2.0382
-2.6733 5.9032 2.0382
-3.1393 5.6700 2.0382
-3.5852 5.4002 2.0382
-4.0080 5.0955 2.0382
-4.4052 4.7578 2.0382
-4.7740 4.3893 2.0382
-5.1122 3.9923 2.0382
-5.4174 3.5695 2.0382
-5.6879 3.1233 2.0382
-5.9216 2.6569 2.0382
-6.1173 2.1731 2.0382
-6.2735 1.6750 2.0382
-6.3892 1.1660 2.0382
-6.4637 0.6491 2.0382
-6.4964 0.1279 2.0382
-6.4872 -0.3944 2.0382
-6.4360 -0.9145 2.0382
-6.3431 -1.4288 2.0382
-6.2092 -1.9340 2.0382
-6.0351 -2.4270 2.0382
-5.8218 -2.9044 2.0382
-5.5708 -3.3633 2.0382
-5.2837 -3.8005 2.0382
-4.9622 -4.2132 2.0382
-4.6085 -4.5989 2.0382
-4.2249 -4.9548 2.0382
-3.8138 -5.2788 2.0382
-3.3779 -5.5686 2.0382
-2.9201 -5.8224 2.0382
-2.4433 -6.0386 2.0382
-1.9506 -6.2156 2.0382
-1.4452 -6.3524 2.0382
-0.9304 -6.4481 2.0382
-0.4096 -6.5020 2.0382
0.1139 -6.5138 2.0382
0.6366 -6.4834 2.0382
1.1552 -6.4110 2.0382
1.6661 -6.2971 2.0382
2.1663 -6.1424 2.0382
2.6523 -5.9480 2.0382
3.1210 -5.7151 2.0382
3.5694 -5.4452 2.0382
3.9946 -5.1402 2.0382
4.3938 -4.8020 2.0382
3.2955 -3.0662 1.4098
3.1166 -2.4639 1.2446
2.9745 -1.9854 1.1205
2.8575 -1.5915 1.0250
2.7583 -1.2575 0.9502
2.6721 -0.9674 0.8910
2.5956 -0.7098 0.8439
2.5264 -0.4768 0.8064
2.4627 -0.2623 0.7770
2.4031 -0.0618 0.7544
2.3466 0.1285 0.7377
2.2922 0.3116 0.7263
2.2392 0.4902 0.7198
2.1867 0.6668 0.7181
2.1342 0.8435 0.7209
2.0810 1.0228 0.7286
5.5719 3.3190 2.0382
5.2863 3.7552 2.0382
4.9667 4.1671 2.0382
4.6151 4.5519 2.0382
4.2339 4.9073 2.0382
3.8255 5.2309 2.0382
3.3925 5.5208 2.0382
2.9377 5.7750 2.0382
2.4640 5.9919 2.0382
1.9745 6.1701 2.0382
1.4723 6.3086 2.0382
0.9607 6.4063 2.0382
0.4428 6.4628 2.0382
-0.0778 6.4775 2.0382
-0.5981 6.4506 2.0382
-1.1145 6.3820 2.0382
-1.6237 6.2722 2.0382
-2.1226 6.1220 2.0382
-2.6079 5.9323 2.0382
-3.0764 5.7043 2.0382
-3.5252 5.4394 2.0382
-3.9514 5.1394 2.0382
-4.3523 4.8061 2.0382
-4.7251 4.4417 2.0382
-5.0676 4.0484 2.0382
-5.3775 3.6290 2.0382
-5.6528 3.1859 2.0382
-5.8918 2.7221 2.0382
-6.0927 2.2405 2.0382
-6.2544 1.7442 2.0382
-6.3757 1.2364 2.0382
-6.4559 0.7204 2.0382
-6.4944 0.1996 2.0382
-6.4910 -0.3228 2.0382
-6.4455 -0.8433 2.0382
-6.3583 -1.3586 2.0382
-6.2300 -1.8653 2.0382
-6.0614 -2.3601 2.0382
-5.8534 -2.8399 2.0382
-5.6075 -3.3015 2.0382
-5.3252 -3.7418 2.0382
-5.0083 -4.1581 2.0382
-4.6589 -4.5476 2.0382
-4.2792 -4.9078 2.0382
-3.8718 -5.2362 2.0382
-3.4391 -5.5309 2.0382
-2.9842 -5.7897 2.0382
-2.5098 -6.0112 2.0382
-2.0191 -6.1937 2.0382
-1.5152 -6.3361 2.0382
-1.0015 -6.4374 2.0382
-0.4813 -6.4971 2.0382
0.0420 -6.5147 2.0382
0.5650 -6.4901 2.0382
1.0843 -6.4234 2.0382
1.5965 -6.3152 2.0382
2.0983 -6.1660 2.0382
2.5865 -5.9770 2.0382
3.0578 -5.7493 2.0382
3.5091 -5.4844 2.0382
3.9377 -5.1841 2.0382
4.3406 -4.8504 2.0382
3.3239 -3.1618 1.4368
3.1387 -2.5382 1.2645
2.9923 -2.0454 1.1357
2.8724 -1.6416 1.0368
2.7711 -1.3005 0.9595
2.6833 -1.0051 0.8983
2.6056 -0.7436 0.8497
2.5355 -0.5076 0.8111
2.4712 -0.2909 0.7806
2.4111 -0.0887 0.7571
2.3542 0.1029 0.7396
2.2996 0.2868 0.7275
2.2464 0.4659 0.7204
2.1939 0.6426 0.7180
2.1415 0.8191 0.7203
2.0884 0.9979 0.7273
5.6083 3.2573 2.0382
5.3276 3.6967 2.0382
5.0125 4.1121 2.0382
4.6652 4.5008 2.0382
4.2879 4.8603 2.0382
3.8831 5.1885 2.0382
3.4533 5.4831 2.0382
3.0013 5.7422 2.0382
2.5300 5.9645 2.0382
2.0425 6.1480 2.0382
1.5419 6.2919 2.0382
1.0314 6.3953 2.0382
0.5142 6.4575 2.0382
-0.0063 6.4780 2.0382
-0.5268 6.4567 2.0382
-1.0439 6.3938 2.0382
-1.5543 6.2897 2.0382
-2.0548 6.1450 2.0382
-2.5421 5.9607 2.0382
-3.0132 5.7378 2.0382
-3.4649 5.4779 2.0382
-3.8943 5.1826 2.0382
-4.2988 4.8537 2.0382
-4.6757 4.4935 2.0382
-5.0225 4.1041 2.0382
-5.3370 3.6880 2.0382
-5.6172 3.2480 2.0382
-5.8612 2.7869 2.0382
-6.0674 2.3075 2.0382
-6.2346 1.8131 2.0382
-6.3615 1.3067 2.0382
-0.7164 -5.8808 2.0382
-0.2418 -5.9194 2.0382
0.2343 -5.9195 2.0382
0.7089 -5.8814 2.0382
1.1788 -5.8052 2.0382
1.6411 -5.6914 2.0382
0.7579 -2.0068 0.7382
2.5306 -5.3542 2.0382
2.9521 -5.1331 2.0382
3.3543 -4.8788 2.0382
3.7348 -4.5930 2.0382
4.0909 -4.2776 2.0382
3.2419 -2.8855 1.4948
3.0746 -2.3223 1.3273
2.9403 -1.8701 1.2006
2.8287 -1.4947 1.1025
2.7335 -1.1741 1.0254
2.6503 -0.8939 0.9642
2.5760 -0.6437 0.9156
2.5084 -0.4163 0.8770
2.4460 -0.2061 0.8468
2.3874 -0.0087 0.8237
2.3315 0.1793 0.8070
2.2776 0.3610 0.7960
2.2248 0.5388 0.7903
2.1724 0.7151 0.7898
2.1197 0.8923 0.7944
2.0662 1.0727 0.8042
5.0004 3.1301 2.0382
4.7320 3.5211 2.0382
4.4331 3.8893 2.0382
4.1057 4.2323 2.0382
3.7519 4.5479 2.0382
3.3740 4.8341 2.0382
2.9744 5.0891 2.0382
2.5557 5.3112 2.0382
2.1206 5.4990 2.0382
1.6718 5.6513 2.0382
1.2123 5.7672 2.0382
0.7450 5.8459 2.0382
0.2729 5.8868 2.0382
-0.2010 5.8898 2.0382
-0.6736 5.8548 2.0382
-1.1419 5.7821 2.0382
-1.6029 5.6720 2.0382
