ply
format ascii 1.0
element vertex 2183
property float32 x
property float32 y
property float32 z
end_header
-4.0931 6.9162 2.0382
-4.6372 6.5656 2.0382
-5.1515 6.1724 2.0382
-5.6327 5.7391 2.0382
-6.0777 5.2684 2.0382
-6.4835 4.7635 2.0382
-6.8475 4.2274 2.0382
-7.1673 3.6637 2.0382
-7.4409 3.0760 2.0382
-7.6664 2.4680 2.0382
-7.8424 1.8437 2.0382
-7.9675 1.2071 2.0382
-8.0411 0.5623 2.0382
-8.0626 -0.0865 2.0382
-8.0317 -0.7351 2.0382
-7.9487 -1.3792 2.0382
-7.8141 -2.0148 2.0382
-7.6287 -2.6376 2.0382
-7.3936 -3.2435 2.0382
-7.1104 -3.8287 2.0382
-6.7808 -4.3893 2.0382
-6.4071 -4.9216 2.0382
-5.9916 -5.4221 2.0382
-5.5370 -5.8875 2.0382
-5.0462 -6.3148 2.0382
-4.5225 -6.7012 2.0382
-3.9693 -7.0441 2.0382
-3.3901 -7.3412 2.0382
-2.7888 -7.5907 2.0382
-2.1693 -7.7908 2.0382
-1.5356 -7.9403 2.0382
-0.8919 -8.0381 2.0382
-0.2424 -8.0836 2.0382
0.4086 -8.0766 2.0382
1.0569 -8.0170 2.0382
1.6982 -7.9054 2.0382
2.3283 -7.7423 2.0382
2.9432 -7.5289 2.0382
3.5388 -7.2667 2.0382
4.1112 -6.9573 2.0382
4.6567 -6.6028 2.0382
3.2531 -3.9035 1.2821
3.0042 -3.0655 1.0832
2.8212 -2.4493 0.9431
2.6793 -1.9717 0.8400
2.5648 -1.5862 0.7616
2.4693 -1.2648 0.7009
2.3875 -0.9892 0.6530
2.3157 -0.7476 0.6151
2.2515 -0.5313 0.5849
2.1929 -0.3341 0.5610
2.1700 -0.1536 0.5503
2.1763 0.0215 0.5507
2.1686 0.1967 0.5512
2.1468 0.3707 0.5516
2.1111 0.5425 0.5520
2.0617 0.7110 0.5525
6.8178 2.9847 1.8858
6.5540 3.5228 1.8858
6.2478 4.0379 1.8858
5.9015 4.5266 1.8858
5.5700 5.0340 1.9040
5.3604 5.6924 1.9833
5.0195 6.2734 2.0382
4.4978 6.6561 2.0382
3.9471 6.9956 2.0382
3.3710 7.2900 2.0382
2.7733 7.5370 2.0382
2.1577 7.7354 2.0382
1.5281 7.8837 2.0382
0.8887 7.9811 2.0382
0.2436 8.0269 2.0382
-0.4032 8.0208 2.0382
-1.0474 7.9629 2.0382
-1.6849 7.8534 2.0382
-2.3117 7.6932 2.0382
-2.9236 7.4832 2.0382
-3.5169 7.2247 2.0382
-4.0875 6.9194 2.0382
2.5617 -1.5759 0.8503
2.4667 -1.2560 0.7828
2.3852 -0.9816 0.7296
2.3137 -0.7408 0.6874
2.2496 -0.5252 0.6538
2.1912 -0.3285 0.6272
2.1370 -0.1461 0.6065
2.0860 0.0257 0.5909
2.0373 0.1897 0.5797
1.9901 0.3486 0.5725
1.9438 0.5045 0.5692
1.8977 0.6596 0.5696
6.2386 2.7490 1.9332
6.0756 3.2845 1.9589
5.9052 3.8366 1.9977
5.6893 4.3856 2.0382
5.3169 4.8286 2.0382
4.9105 5.2397 2.0382
4.4722 5.6171 2.0382
4.0052 5.9581 2.0382
3.5124 6.2604 2.0382
2.9969 6.5222 2.0382
2.4622 6.7418 2.0382
1.9116 6.9178 2.0382
1.3486 7.0490 2.0382
0.7770 7.1347 2.0382
0.2003 7.1742 2.0382
-0.3777 7.1673 2.0382
-0.9533 7.1141 2.0382
-1.5228 7.0148 2.0382
-2.0826 6.8702 2.0382
-2.6290 6.6811 2.0382
-3.1586 6.4488 2.0382
-3.6678 6.1746 2.0382
-4.1535 5.8604 2.0382
-4.6125 5.5082 2.0382
-5.0418 5.1202 2.0382
-5.4386 4.6989 2.0382
-5.8003 4.2470 2.0382
-6.1247 3.7673 2.0382
-6.4095 3.2631 2.0382
-6.6529 2.7375 2.0382
-6.8533 2.1939 2.0382
-7.0094 1.6358 2.0382
-7.1201 1.0668 2.0382
-7.1847 0.4906 2.0382
-7.2028 -0.0891 2.0382
-7.1741 -0.6684 2.0382
-7.0988 -1.2437 2.0382
-6.9774 -1.8112 2.0382
-6.8107 -2.3672 2.0382
-6.5997 -2.9081 2.0382
-6.3457 -3.4303 2.0382
-6.0504 -3.9305 2.0382
-5.7157 -4.4053 2.0382
-5.3437 -4.8517 2.0382
-4.9369 -5.2666 2.0382
-4.4979 -5.6475 2.0382
-4.0295 -5.9917 2.0382
-3.5349 -6.2971 2.0382
-3.0172 -6.5616 2.0382
-2.4797 -6.7835 2.0382
-1.9262 -6.9613 2.0382
-1.3600 -7.0938 2.0382
-0.7850 -7.1802 2.0382
-0.2049 -7.2200 2.0382
0.3765 -7.2128 2.0382
0.9554 -7.1587 2.0382
1.5280 -7.0581 2.0382
2.0906 -6.9116 2.0382
2.6395 -6.7203 2.0382
3.1711 -6.4853 2.0382
3.6820 -6.2082 2.0382
4.1687 -5.8909 2.0382
3.2473 -3.8839 1.4301
3.0001 -3.0515 1.2091
2.8180 -2.4387 1.0532
2.6768 -1.9634 0.9383
2.5628 -1.5794 0.8511
2.4676 -1.2589 0.7834
2.3860 -0.9842 0.7301
2.3144 -0.7431 0.6877
2.2503 -0.5272 0.6541
2.1918 -0.3304 0.6275
2.1376 -0.1478 0.6067
2.0865 0.0240 0.5910
2.0378 0.1881 0.5798
1.9906 0.3470 0.5726
1.9443 0.5030 0.5692
1.8982 0.6580 0.5696
6.2402 2.7437 1.9330
6.0773 3.2791 1.9586
5.9070 3.8309 1.9973
5.6928 4.3810 2.0382
5.3209 4.8242 2.0382
4.9147 5.2358 2.0382
4.4768 5.6135 2.0382
4.0100 5.9548 2.0382
3.5174 6.2576 2.0382
3.0022 6.5198 2.0382
2.4676 6.7398 2.0382
1.9172 6.9162 2.0382
1.3543 7.0479 2.0382
0.7828 7.1340 2.0382
0.2061 7.1740 2.0382
-0.3719 7.1676 2.0382
-0.9476 7.1148 2.0382
-1.5172 7.0161 2.0382
-2.0771 6.8719 2.0382
-2.6237 6.6832 2.0382
-3.1534 6.4513 2.0382
-3.6629 6.1776 2.0382
-4.1488 5.8638 2.0382
-4.6080 5.5119 2.0382
-5.0376 5.1242 2.0382
-5.4348 4.7033 2.0382
-5.7969 4.2516 2.0382
-6.1216 3.7723 2.0382
-6.4068 3.2683 2.0382
-6.6507 2.7428 2.0382
-6.8515 2.1994 2.0382
-7.0081 1.6414 2.0382
-7.1192 1.0725 2.0382
-7.1843 0.4964 2.0382
-7.2028 -0.0832 2.0382
-7.1746 -0.6626 2.0382
-7.0998 -1.2380 2.0382
-6.9789 -1.8056 2.0382
-6.8126 -2.3617 2.0382
-6.6020 -2.9028 2.0382
-6.3485 -3.4252 2.0382
-6.0536 -3.9256 2.0382
-5.7192 -4.4007 2.0382
-5.3476 -4.8473 2.0382
-4.9412 -5.2626 2.0382
-4.5025 -5.6438 2.0382
-4.0344 -5.9885 2.0382
-3.5400 -6.2942 2.0382
-3.0225 -6.5591 2.0382
-2.4852 -6.7814 2.0382
-1.9318 -6.9597 2.0382
-1.3657 -7.0927 2.0382
-0.7908 -7.1796 2.0382
-0.2107 -7.2198 2.0382
0.3707 -7.2131 2.0382
0.9497 -7.1595 2.0382
1.5224 -7.0593 2.0382
2.0851 -6.9133 2.0382
2.6341 -6.7224 2.0382
3.1659 -6.4879 2.0382
3.6769 -6.2112 2.0382
4.1640 -5.8943 2.0382
3.2503 -3.8938 1.4328
3.0022 -3.0586 1.2109
2.8196 -2.4441 1.0545
2.6781 -1.9676 0.9393
2.5638 -1.5829 0.8519
2.4685 -1.2619 0.7840
2.3868 -0.9868 0.7306
2.3151 -0.7454 0.6881
2.2509 -0.5293 0.6544
2.1923 -0.3322 0.6277
2.1381 -0.1496 0.6069
2.0870 0.0223 0.5911
2.0383 0.1865 0.5799
1.9911 0.3454 0.5726
1.9447 0.5014 0.5692
1.8987 0.6565 0.5695
6.2418 2.7384 1.9328
6.0789 3.2736 1.9583
5.9087 3.8253 1.9968
5.6964 4.3764 2.0382
5.3247 4.8201 2.0382
4.9189 5.2318 2.0382
4.4813 5.6099 2.0382
4.0148 5.9516 2.0382
3.5225 6.2548 2.0382
3.0075 6.5174 2.0382
2.4731 6.7378 2.0382
1.9227 6.9147 2.0382
1.3600 7.0468 2.0382
0.7885 7.1334 2.0382
0.2119 7.1738 2.0382
-0.3661 7.1679 2.0382
-0.9418 7.1156 2.0382
-1.5115 7.0173 2.0382
-2.0715 6.8736 2.0382
-2.6182 6.6853 2.0382
-3.1482 6.4538 2.0382
-3.6579 6.1805 2.0382
-4.1440 5.8671 2.0382
-4.6036 5.5156 2.0382
-5.0335 5.1283 2.0382
-5.4310 4.7076 2.0382
-5.7934 4.2563 2.0382
-6.1185 3.7772 2.0382
-6.4042 3.2734 2.0382
-6.6484 2.7482 2.0382
-6.8497 2.2049 2.0382
-7.0067 1.6471 2.0382
-7.1184 1.0783 2.0382
-7.1839 0.5022 2.0382
-7.2029 -0.0774 2.0382
-7.1751 -0.6568 2.0382
-7.1008 -1.2323 2.0382
-6.9803 -1.8000 2.0382
-6.8145 -2.3562 2.0382
-6.6043 -2.8974 2.0382
-6.3512 -3.4201 2.0382
-6.0567 -3.9207 2.0382
-5.7228 -4.3961 2.0382
-5.3515 -4.8430 2.0382
-4.9454 -5.2586 2.0382
-4.5070 -5.6402 2.0382
-4.0392 -5.9852 2.0382
-3.5450 -6.2914 2.0382
-3.0277 -6.5567 2.0382
-2.4907 -6.7794 2.0382
-1.9374 -6.9581 2.0382
-1.3714 -7.0916 2.0382
-0.7966 -7.1789 2.0382
-0.2165 -7.2196 2.0382
0.3649 -7.2134 2.0382
0.9439 -7.1603 2.0382
1.5167 -7.0606 2.0382
2.0795 -6.9150 2.0382
2.6287 -6.7245 2.0382
3.1606 -6.4904 2.0382
3.6720 -6.2142 2.0382
4.1592 -5.8977 2.0382
3.2532 -3.9037 1.4355
3.0043 -3.0656 1.2127
2.8212 -2.4495 1.0558
2.6794 -1.9719 0.9403
2.5649 -1.5864 0.8526
2.4694 -1.2648 0.7846
2.3875 -0.9893 0.7310
2.3157 -0.7477 0.6885
2.2515 -0.5313 0.6547
2.1929 -0.3341 0.6279
2.1386 -0.1514 0.6071
2.0875 0.0206 0.5913
2.0387 0.1849 0.5799
1.9915 0.3439 0.5727
1.9452 0.4998 0.5693
1.8991 0.6549 0.5695
6.2434 2.7331 1.9326
6.0806 3.2682 1.9580
5.9105 3.8196 1.9964
5.6999 4.3718 2.0382
5.3286 4.8159 2.0382
4.9231 5.2279 2.0382
4.4859 5.6063 2.0382
4.0196 5.9484 2.0382
3.5276 6.2519 2.0382
3.0127 6.5150 2.0382
2.4785 6.7358 2.0382
1.9283 6.9131 2.0382
1.3657 7.0457 2.0382
0.7943 7.1328 2.0382
0.2177 7.1737 2.0382
-0.3603 7.1682 2.0382
-0.9361 7.1164 2.0382
-1.5059 7.0185 2.0382
-2.0660 6.8752 2.0382
-2.6128 6.6874 2.0382
-3.1430 6.4564 2.0382
-3.6529 6.1834 2.0382
2.5618 -1.5760 0.9426
2.4668 -1.2561 0.8677
2.3853 -0.9817 0.8087
2.3137 -0.7409 0.7619
2.2497 -0.5252 0.7246
2.1912 -0.3285 0.6952
2.1371 -0.1461 0.6722
2.0861 0.0256 0.6548
2.0373 0.1896 0.6424
1.9901 0.3485 0.6345
1.9438 0.5045 0.6308
1.8978 0.6595 0.6312
5.9355 2.6157 2.0382
5.7048 3.0839 2.0382
5.4372 3.5323 2.0382
5.1344 3.9577 2.0382
4.7985 4.3573 2.0382
4.4316 4.7287 2.0382
4.0362 5.0693 2.0382
3.6148 5.3771 2.0382
3.1700 5.6500 2.0382
2.7048 5.8864 2.0382
2.2221 6.0848 2.0382
1.7253 6.2434 2.0382
1.2172 6.3619 2.0382
0.7012 6.4392 2.0382
0.1808 6.4748 2.0382
-0.3409 6.4686 2.0382
-0.8604 6.4205 2.0382
-1.3744 6.3309 2.0382
-1.8796 6.2003 2.0382
-2.3728 6.0296 2.0382
-2.8506 5.8198 2.0382
-3.3102 5.5723 2.0382
-3.7485 5.2887 2.0382
-4.1626 4.9708 2.0382
-4.5499 4.6205 2.0382
-4.9079 4.2402 2.0382
-5.2343 3.8323 2.0382
-5.5268 3.3994 2.0382
-5.7837 2.9444 2.0382
-6.0033 2.4700 2.0382
-6.1840 1.9794 2.0382
-6.3247 1.4758 2.0382
-6.4244 0.9624 2.0382
-6.4825 0.4425 2.0382
-6.4987 -0.0805 2.0382
-6.4726 -0.6032 2.0382
-6.4046 -1.1223 2.0382
-6.2949 -1.6342 2.0382
-6.1444 -2.1358 2.0382
-5.9539 -2.6237 2.0382
-5.7247 -3.0948 2.0382
-5.4582 -3.5459 2.0382
-5.1561 -3.9742 2.0382
-4.8205 -4.3768 2.0382
-4.4535 -4.7510 2.0382
-4.0574 -5.0945 2.0382
-3.6349 -5.4050 2.0382
-3.1886 -5.6804 2.0382
-2.7216 -5.9189 2.0382
-2.2368 -6.1190 2.0382
-1.7375 -6.2794 2.0382
-1.2268 -6.3989 2.0382
-0.7081 -6.4769 2.0382
-0.1848 -6.5127 2.0382
0.3396 -6.5063 2.0382
0.8618 -6.4575 2.0382
1.3783 -6.3668 2.0382
1.8858 -6.2348 2.0382
2.3810 -6.0622 2.0382
2.8605 -5.8503 2.0382
3.3214 -5.6005 2.0382
3.7605 -5.3143 2.0382
3.2474 -3.8842 1.5853
3.0001 -3.0517 1.3403
2.8181 -2.4389 1.1674
2.6769 -1.9635 1.0401
2.5628 -1.5795 0.9434
2.4676 -1.2590 0.8683
2.3860 -0.9843 0.8092
2.3144 -0.7432 0.7623
2.2503 -0.5273 0.7250
2.1918 -0.3304 0.6954
2.1376 -0.1479 0.6724
2.0866 0.0239 0.6550
2.0378 0.1880 0.6425
1.9906 0.3470 0.6345
1.9443 0.5029 0.6308
1.8982 0.6580 0.6312
5.9377 2.6107 2.0382
5.7073 3.0793 2.0382
5.4400 3.5280 2.0382
5.1376 3.9535 2.0382
4.8020 4.3535 2.0382
4.4355 4.7251 2.0382
4.0403 5.0661 2.0382
3.6191 5.3742 2.0382
3.1746 5.6475 2.0382
2.7096 5.8842 2.0382
2.2271 6.0827 2.0382
1.7303 6.2420 2.0382
1.2223 6.3609 2.0382
0.7064 6.4386 2.0382
0.1860 6.4747 2.0382
-0.3357 6.4689 2.0382
-0.8552 6.4212 2.0382
-1.3693 6.3320 2.0382
-1.8746 6.2019 2.0382
-2.3679 6.0315 2.0382
-2.8459 5.8221 2.0382
-3.3057 5.5750 2.0382
-3.7442 5.2917 2.0382
-4.1586 4.9741 2.0382
-4.5462 4.6242 2.0382
-4.9045 4.2442 2.0382
-5.2312 3.8365 2.0382
-5.5241 3.4039 2.0382
-5.7813 2.9490 2.0382
-6.0012 2.4748 2.0382
-6.1823 1.9844 2.0382
-6.3234 1.4809 2.0382
-6.4236 0.9676 2.0382
-6.4822 0.4477 2.0382
-6.4987 -0.0753 2.0382
-6.4731 -0.5980 2.0382
-6.4055 -1.1171 2.0382
-6.2962 -1.6291 2.0382
-6.1461 -2.1308 2.0382
-5.9560 -2.6189 2.0382
-5.7271 -3.0902 2.0382
-5.4610 -3.5415 2.0382
-5.1593 -3.9700 2.0382
-4.8240 -4.3729 2.0382
-4.4573 -4.7474 2.0382
-4.0615 -5.0912 2.0382
-3.6392 -5.4020 2.0382
-3.1932 -5.6778 2.0382
-2.7264 -5.9167 2.0382
-2.2418 -6.1172 2.0382
-1.7425 -6.2780 2.0382
-1.2319 -6.3979 2.0382
-0.7133 -6.4763 2.0382
-0.1901 -6.5126 2.0382
0.3344 -6.5066 2.0382
0.8566 -6.4582 2.0382
1.3732 -6.3679 2.0382
1.8808 -6.2363 2.0382
2.3761 -6.0641 2.0382
2.8558 -5.8526 2.0382
3.3169 -5.6032 2.0382
3.7563 -5.3174 2.0382
3.2504 -3.8940 1.5883
3.0022 -3.0588 1.3423
2.8197 -2.4442 1.1689
2.6782 -1.9677 1.0412
2.5639 -1.5830 0.9443
2.4685 -1.2620 0.8690
2.3868 -0.9868 0.8097
2.3151 -0.7455 0.7627
2.2509 -0.5293 0.7253
2.1924 -0.3323 0.6957
2.1381 -0.1497 0.6726
2.0871 0.0222 0.6551
2.0383 0.1864 0.6426
1.9911 0.3454 0.6346
1.9447 0.5014 0.6308
1.8987 0.6564 0.6312
5.9399 2.6057 2.0382
5.7098 3.0747 2.0382
5.4429 3.5235 2.0382
5.1408 3.9494 2.0382
4.8055 4.3496 2.0382
4.4393 4.7215 2.0382
4.0444 5.0628 2.0382
3.6234 5.3713 2.0382
3.1791 5.6449 2.0382
2.7143 5.8820 2.0382
2.2320 6.0810 2.0382
1.7353 6.2406 2.0382
1.2275 6.3599 2.0382
0.7116 6.4380 2.0382
0.1912 6.4745 2.0382
-0.3305 6.4691 2.0382
-0.8501 6.4219 2.0382
-1.3642 6.3331 2.0382
-1.8696 6.2034 2.0382
-2.3630 6.0334 2.0382
-2.8412 5.8244 2.0382
-3.3012 5.5777 2.0382
-3.7399 5.2947 2.0382
-4.1546 4.9775 2.0382
-4.5425 4.6279 2.0382
-4.9011 4.2481 2.0382
-5.2281 3.8408 2.0382
-5.5213 3.4083 2.0382
-5.7789 2.9537 2.0382
-5.9992 2.4797 2.0382
-6.1807 1.9894 2.0382
-6.3222 1.4860 2.0382
-6.4228 0.9727 2.0382
-6.4818 0.4529 2.0382
-6.4988 -0.0700 2.0382
-6.4736 -0.5928 2.0382
-6.4064 -1.1119 2.0382
-6.2975 -1.6241 2.0382
-6.1478 -2.1259 2.0382
-5.9581 -2.6141 2.0382
-5.7296 -3.0855 2.0382
-5.4639 -3.5371 2.0382
-5.1625 -3.9658 2.0382
-4.8275 -4.3690 2.0382
-4.4611 -4.7438 2.0382
-4.0656 -5.0880 2.0382
-3.6436 -5.3991 2.0382
-3.1978 -5.6752 2.0382
-2.7311 -5.9145 2.0382
-2.2467 -6.1154 2.0382
-1.7476 -6.2766 2.0382
-1.2371 -6.3969 2.0382
-0.7186 -6.4757 2.0382
-0.1953 -6.5124 2.0382
0.3291 -6.5068 2.0382
0.8514 -6.4589 2.0382
1.3681 -6.3691 2.0382
1.8757 -6.2378 2.0382
2.3712 -6.0661 2.0382
2.8511 -5.8550 2.0382
3.3124 -5.6058 2.0382
3.7520 -5.3204 2.0382
3.2533 -3.9040 1.5913
3.0043 -3.0658 1.3444
2.8213 -2.4496 1.1704
2.6794 -1.9720 1.0423
2.5649 -1.5865 0.9451
2.4694 -1.2649 0.8697
2.3876 -0.9894 0.8103
2.3158 -0.7477 0.7631
2.2515 -0.5314 0.7256
2.1929 -0.3342 0.6960
2.1386 -0.1514 0.6728
2.0876 0.0206 0.6553
2.0388 0.1848 0.6427
1.9915 0.3438 0.6347
1.9452 0.4998 0.6308
1.8992 0.6549 0.6311
5.9420 2.6011 2.0382
5.7123 3.0701 2.0382
5.4457 3.5191 2.0382
5.1440 3.9453 2.0382
4.8090 4.3458 2.0382
4.4431 4.7180 2.0382
4.0485 5.0596 2.0382
3.6278 5.3683 2.0382
3.1837 5.6423 2.0382
2.7191 5.8798 2.0382
2.2369 6.0792 2.0382
1.7404 6.2392 2.0382
1.2326 6.3589 2.0382
0.7168 6.4375 2.0382
0.1964 6.4744 2.0382
-0.3252 6.4694 2.0382
-0.8449 6.4226 2.0382
-1.3591 6.3342 2.0382
-1.8646 6.2049 2.0382
-2.3581 6.0353 2.0382
-2.8365 5.8267 2.0382
-3.2967 5.5803 2.0382
2.5618 -1.5761 1.0364
2.4668 -1.2562 0.9541
2.3853 -0.9818 0.8892
2.3138 -0.7410 0.8377
2.2497 -0.5253 0.7967
2.1913 -0.3286 0.7643
2.1371 -0.1462 0.7391
2.0861 0.0255 0.7200
2.0374 0.1896 0.7063
1.9902 0.3485 0.6975
1.9438 0.5044 0.6935
1.8978 0.6595 0.6939
5.3994 2.3789 2.0382
5.1895 2.8052 2.0382
4.9461 3.2131 2.0382
4.6707 3.6002 2.0382
4.3652 3.9638 2.0382
4.0315 4.3016 2.0382
3.6718 4.6116 2.0382
3.2885 4.8916 2.0382
2.8839 5.1399 2.0382
2.4607 5.3549 2.0382
2.0216 5.5353 2.0382
1.5695 5.6798 2.0382
1.1073 5.7876 2.0382
0.6379 5.8579 2.0382
0.1644 5.8904 2.0382
-0.3102 5.8847 2.0382
-0.7828 5.8409 2.0382
-1.2504 5.7594 2.0382
-1.7100 5.6405 2.0382
-2.1586 5.4852 2.0382
-2.5933 5.2943 2.0382
-3.0114 5.0691 2.0382
-3.4100 4.8110 2.0382
-3.7867 4.5217 2.0382
-4.1390 4.2030 2.0382
-4.4646 3.8570 2.0382
-4.7613 3.4859 2.0382
-5.0274 3.0921 2.0382
-5.2610 2.6781 2.0382
-5.4605 2.2465 2.0382
-5.6248 1.8003 2.0382
-5.7527 1.3422 2.0382
-5.8433 0.8752 2.0382
-5.8960 0.4023 2.0382
-5.9106 -0.0734 2.0382
-5.8868 -0.5488 2.0382
-5.8248 -1.0208 2.0382
-5.7250 -1.4864 2.0382
-5.5880 -1.9425 2.0382
-5.4146 -2.3862 2.0382
-5.2061 -2.8146 2.0382
-4.9636 -3.2248 2.0382
-4.6889 -3.6142 2.0382
-4.3836 -3.9802 2.0382
-4.0498 -4.3205 2.0382
-3.6896 -4.6328 2.0382
-3.3054 -4.9151 2.0382
-2.8995 -5.1655 2.0382
-2.4748 -5.3824 2.0382
-0.7365 -2.0147 0.7380
-1.5799 -5.7101 2.0382
-1.1155 -5.8188 2.0382
-0.6439 -5.8897 2.0382
-0.1681 -5.9223 2.0382
0.3088 -5.9165 2.0382
0.7836 -5.8721 2.0382
1.2533 -5.7897 2.0382
1.7148 -5.6697 2.0382
2.1651 -5.5128 2.0382
2.6012 -5.3202 2.0382
3.0203 -5.0930 2.0382
3.4197 -4.8329 2.0382
3.2475 -3.8844 1.7434
2.9418 -2.9925 1.4451
2.8182 -2.4390 1.2838
2.6769 -1.9636 1.1437
2.5629 -1.5796 1.0374
2.4677 -1.2591 0.9548
2.3861 -0.9843 0.8898
2.3144 -0.7432 0.8381
2.2503 -0.5274 0.7971
2.1918 -0.3305 0.7646
2.1376 -0.1480 0.7393
2.0866 0.0239 0.7201
2.0378 0.1880 0.7064
1.9906 0.3469 0.6976
1.9443 0.5029 0.6935
1.8982 0.6579 0.6939
5.4013 2.3746 2.0382
5.1917 2.8010 2.0382
4.9487 3.2091 2.0382
4.6736 3.5964 2.0382
4.3684 3.9603 2.0382
4.0350 4.2984 2.0382
3.6756 4.6086 2.0382
3.2924 4.8889 2.0382
2.8880 5.1376 2.0382
2.4650 5.3530 2.0382
2.0261 5.5337 2.0382
1.5741 5.6786 2.0382
1.1120 5.7867 2.0382
0.6427 5.8574 2.0382
0.1692 5.8902 2.0382
-0.3054 5.8849 2.0382
-0.7781 5.8416 2.0382
-1.2457 5.7604 2.0382
-1.7054 5.6419 2.0382
-2.1542 5.4869 2.0382
-2.5890 5.2964 2.0382
-3.0073 5.0715 2.0382
-3.4061 4.8137 2.0382
-3.7830 4.5247 2.0382
-4.1356 4.2063 2.0382
-4.4614 3.8606 2.0382
-4.7585 3.4897 2.0382
-5.0249 3.0961 2.0382
-5.2588 2.6823 2.0382
-5.4587 2.2509 2.0382
-5.6233 1.8048 2.0382
-5.7516 1.3468 2.0382
-5.8426 0.8799 2.0382
-5.8957 0.4070 2.0382
-5.9106 -0.0686 2.0382
-5.8872 -0.5440 2.0382
-5.8256 -1.0161 2.0382
-5.7262 -1.4818 2.0382
-5.5895 -1.9380 2.0382
-5.4165 -2.3818 2.0382
-5.2083 -2.8104 2.0382
-4.9662 -3.2208 2.0382
-4.6918 -3.6104 2.0382
-4.3868 -3.9767 2.0382
-4.0533 -4.3173 2.0382
-3.6933 -4.6299 2.0382
-3.3093 -4.9124 2.0382
-2.9037 -5.1632 2.0382
-2.4792 -5.3804 2.0382
-0.7381 -2.0141 0.7380
-1.5845 -5.7088 2.0382
-1.1202 -5.8179 2.0382
-0.6487 -5.8892 2.0382
-0.1729 -5.9222 2.0382
0.3040 -5.9167 2.0382
0.7789 -5.8728 2.0382
1.2487 -5.7907 2.0382
1.7102 -5.6710 2.0382
2.1606 -5.5146 2.0382
2.5969 -5.3223 2.0382
3.0162 -5.0955 2.0382
3.4158 -4.8356 2.0382
3.2504 -3.8943 1.7466
2.9425 -2.9980 1.4467
2.8198 -2.4444 1.2854
2.6782 -1.9679 1.1450
2.5639 -1.5831 1.0383
2.4685 -1.2621 0.9555
2.3868 -0.9869 0.8903
2.3151 -0.7455 0.8386
2.2509 -0.5294 0.7975
2.1924 -0.3324 0.7649
2.1381 -0.1497 0.7395
2.0871 0.0222 0.7203
2.0383 0.1864 0.7065
1.9911 0.3453 0.6977
1.9448 0.5013 0.6935
1.8987 0.6564 0.6939
5.4032 2.3702 2.0382
5.1940 2.7968 2.0382
4.9513 3.2052 2.0382
4.6765 3.5926 2.0382
4.3716 3.9567 2.0382
4.0385 4.2951 2.0382
3.6793 4.6056 2.0382
3.2964 4.8863 2.0382
2.8922 5.1353 2.0382
2.4693 5.3510 2.0382
2.0306 5.5320 2.0382
1.5787 5.6773 2.0382
1.1167 5.7858 2.0382
0.6474 5.8569 2.0382
0.1739 5.8901 2.0382
-0.3007 5.8852 2.0382
-0.7734 5.8422 2.0382
-1.2411 5.7614 2.0382
-1.7009 5.6433 2.0382
-2.1497 5.4886 2.0382
-2.5848 5.2984 2.0382
-3.0032 5.0739 2.0382
-3.4022 4.8165 2.0382
-3.7794 4.5278 2.0382
-4.1322 4.2097 2.0382
-4.4583 3.8642 2.0382
-4.7557 3.4936 2.0382
-5.0224 3.1002 2.0382
-5.2566 2.6865 2.0382
-5.4569 2.2553 2.0382
-5.6219 1.8094 2.0382
-5.7505 1.3515 2.0382
-5.8418 0.8846 2.0382
-5.8954 0.4118 2.0382
-5.9107 -0.0638 2.0382
-5.8877 -0.5393 2.0382
-5.8264 -1.0114 2.0382
-5.7273 -1.4772 2.0382
-5.5911 -1.9335 2.0382
-5.4184 -2.3775 2.0382
-5.2106 -2.8061 2.0382
-4.9688 -3.2168 2.0382
-4.6947 -3.6066 2.0382
-4.3900 -3.9731 2.0382
-4.0568 -4.3140 2.0382
-3.6971 -4.6269 2.0382
-3.3133 -4.9098 2.0382
-2.9079 -5.1608 2.0382
-2.4835 -5.3784 2.0382
-0.7397 -2.0135 0.7380
-1.5891 -5.7076 2.0382
-1.1249 -5.8170 2.0382
-0.6534 -5.8886 2.0382
-0.1777 -5.9220 2.0382
0.2992 -5.9169 2.0382
0.7742 -5.8734 2.0382
1.2440 -5.7917 2.0382
1.7057 -5.6724 2.0382
0.7810 -1.9980 0.7382
2.5926 -5.3244 2.0382
3.0121 -5.0979 2.0382
3.4119 -4.8384 2.0382
3.2534 -3.9043 1.7499
2.9432 -3.0036 1.4482
2.8213 -2.4498 1.2870
2.6795 -1.9721 1.1462
2.5649 -1.5866 1.0392
2.4694 -1.2650 0.9563
2.3876 -0.9895 0.8909
2.3158 -0.7478 0.8391
2.2515 -0.5315 0.7978
2.1930 -0.3343 0.7652
2.1387 -0.1515 0.7397
2.0876 0.0205 0.7204
2.0388 0.1848 0.7066
1.9916 0.3438 0.6977
1.9452 0.4998 0.6935
1.8992 0.6548 0.6938
5.4051 2.3658 2.0382
5.1963 2.7926 2.0382
4.9538 3.2012 2.0382
4.6794 3.5889 2.0382
4.3748 3.9532 2.0382
4.0419 4.2919 2.0382
3.6830 4.6027 2.0382
3.3003 4.8836 2.0382
2.8963 5.1329 2.0382
2.4736 5.3490 2.0382
2.0350 5.5304 2.0382
1.5833 5.6760 2.0382
1.1213 5.7849 2.0382
0.6521 5.8564 2.0382
0.1787 5.8900 2.0382
-0.2959 5.8854 2.0382
-0.7686 5.8428 2.0382
-1.2365 5.7624 2.0382
-1.6963 5.6446 2.0382
-2.1453 5.4904 2.0382
-2.5805 5.3005 2.0382
-2.9991 5.0763 2.0382
2.5619 -1.5762 1.1321
2.4668 -1.2563 1.0422
2.3853 -0.9819 0.9713
2.3138 -0.7411 0.9150
2.2497 -0.5254 0.8702
2.1913 -0.3286 0.8348
2.1371 -0.1462 0.8072
2.0861 0.0255 0.7863
2.0374 0.1895 0.7714
1.9902 0.3484 0.7618
1.9439 0.5044 0.7574
1.8978 0.6594 0.7579
4.9439 2.1781 2.0382
4.7518 2.5685 2.0382
4.5290 2.9421 2.0382
4.2769 3.2965 2.0382
3.9972 3.6295 2.0382
3.6917 3.9389 2.0382
3.3623 4.2227 2.0382
3.0113 4.4792 2.0382
2.6408 4.7066 2.0382
2.2533 4.9036 2.0382
0.6799 1.8615 0.7485
0.5279 1.9104 0.7487
0.3725 1.9468 0.7487
0.2146 1.9706 0.7488
0.1506 5.3939 2.0382
-0.2840 5.3887 2.0382
-0.2633 1.9647 0.7487
-0.4206 1.9370 0.7486
-0.5750 1.8967 0.7485
-0.7257 1.8441 0.7483
-2.3747 4.8479 2.0382
-2.7575 4.6416 2.0382
-3.1225 4.4052 2.0382
-3.4674 4.1403 2.0382
-3.7899 3.8484 2.0382
-4.0880 3.5315 2.0382
-4.3597 3.1917 2.0382
-4.6032 2.8310 2.0382
-4.8170 2.4519 2.0382
-4.9997 2.0568 2.0382
-5.1500 1.6482 2.0382
-5.2670 1.2287 2.0382
-5.3499 0.8011 2.0382
-5.3981 0.3682 2.0382
-5.4113 -0.0673 2.0382
-5.3894 -0.5026 2.0382
-5.3326 -0.9347 2.0382
-5.2411 -1.3609 2.0382
-5.1156 -1.7785 2.0382
-4.9569 -2.1846 2.0382
-4.7659 -2.5767 2.0382
-4.5439 -2.9522 2.0382
-4.2923 -3.3086 2.0382
-4.0128 -3.6437 2.0382
-3.7072 -3.9552 2.0382
-3.3774 -4.2410 2.0382
-3.0257 -4.4994 2.0382
-2.6542 -4.7285 2.0382
-2.2654 -4.9270 2.0382
-0.6746 -1.8454 0.7385
-0.5239 -1.8935 0.7384
-0.3699 -1.9293 0.7383
-0.2135 -1.9527 0.7382
-0.0557 -1.9635 0.7382
0.1024 -1.9616 0.7382
0.2598 -1.9471 0.7383
0.4156 -1.9200 0.7384
0.5688 -1.8805 0.7385
0.7183 -1.8289 0.7387
2.3811 -4.8702 2.0382
2.7648 -4.6623 2.0382
3.1304 -4.4242 2.0382
3.4757 -4.1575 2.0382
2.8757 -2.9253 1.5432
2.8182 -2.4392 1.4024
2.6770 -1.9637 1.2494
2.5629 -1.5797 1.1332
2.4677 -1.2592 1.0429
2.3861 -0.9844 0.9719
2.3145 -0.7433 0.9155
2.2503 -0.5274 0.8706
2.1919 -0.3305 0.8351
2.1376 -0.1480 0.8075
2.0866 0.0238 0.7865
2.0379 0.1879 0.7715
1.9906 0.3469 0.7619
1.9443 0.5028 0.7574
1.8983 0.6579 0.7578
4.9457 2.1741 2.0382
4.7539 2.5646 2.0382
4.5314 2.9384 2.0382
4.2796 3.2930 2.0382
4.0001 3.6262 2.0382
3.6949 3.9359 2.0382
3.3657 4.2200 2.0382
3.0149 4.4768 2.0382
2.6446 4.7045 2.0382
2.2573 4.9017 2.0382
0.6814 1.8609 0.7485
0.5295 1.9100 0.7487
0.3741 1.9465 0.7487
0.2162 1.9705 0.7488
0.1549 5.3938 2.0382
-0.2797 5.3889 2.0382
-0.2617 1.9649 0.7487
-0.4190 1.9374 0.7486
-0.5735 1.8972 0.7485
-0.7242 1.8446 0.7483
-2.3708 4.8498 2.0382
-2.7538 4.6438 2.0382
-3.1190 4.4077 2.0382
-3.4641 4.1431 2.0382
-3.7868 3.8515 2.0382
-4.0852 3.5348 2.0382
-4.3571 3.1952 2.0382
-4.6009 2.8347 2.0382
-4.8150 2.4558 2.0382
-4.9980 2.0608 2.0382
-5.1487 1.6523 2.0382
-5.2660 1.2330 2.0382
-5.3492 0.8054 2.0382
-5.3978 0.3725 2.0382
-5.4114 -0.0630 2.0382
-5.3898 -0.4982 2.0382
-5.3333 -0.9304 2.0382
-5.2422 -1.3567 2.0382
-5.1170 -1.7743 2.0382
-4.9586 -2.1806 2.0382
-4.7679 -2.5729 2.0382
-4.5463 -2.9485 2.0382
-4.2950 -3.3052 2.0382
-4.0158 -3.6404 2.0382
-3.7104 -3.9522 2.0382
-3.3809 -4.2383 2.0382
-3.0293 -4.4969 2.0382
-2.6580 -4.7264 2.0382
-2.2694 -4.9252 2.0382
-0.6761 -1.8449 0.7385
-0.5254 -1.8931 0.7384
-0.3714 -1.9290 0.7383
-0.2151 -1.9525 0.7382
-0.0573 -1.9635 0.7382
0.1008 -1.9617 0.7382
0.2583 -1.9473 0.7383
0.4141 -1.9203 0.7384
0.5672 -1.8810 0.7385
0.7168 -1.8295 0.7387
2.3772 -4.8721 2.0382
2.7610 -4.6646 2.0382
3.1269 -4.4268 2.0382
3.4723 -4.1603 2.0382
2.8756 -2.9300 1.5444
2.8198 -2.4446 1.4041
2.6782 -1.9680 1.2507
2.5639 -1.5832 1.1342
2.4686 -1.2622 1.0437
2.3868 -0.9870 0.9725
2.3151 -0.7456 0.9160
2.2509 -0.5295 0.8710
2.1924 -0.3324 0.8355
2.1382 -0.1498 0.8077
2.0871 0.0221 0.7867
2.0383 0.1863 0.7716
1.9911 0.3453 0.7620
1.9448 0.5013 0.7574
1.8987 0.6563 0.7578
4.9474 2.1702 2.0382
4.7560 2.5608 2.0382
4.5337 2.9347 2.0382
4.2822 3.2896 2.0382
4.0030 3.6230 2.0382
3.6980 3.9329 2.0382
3.3691 4.2173 2.0382
3.0185 4.4743 2.0382
2.6484 4.7024 2.0382
2.2612 4.8999 2.0382
0.6829 1.8604 0.7485
0.5310 1.9095 0.7487
0.3756 1.9462 0.7487
0.2178 1.9703 0.7488
0.1593 5.3936 2.0382
-0.2753 5.3891 2.0382
-0.2601 1.9651 0.7487
-0.4174 1.9377 0.7486
-0.5720 1.8976 0.7485
-0.7227 1.8452 0.7483
-2.3669 4.8517 2.0382
-2.7500 4.6460 2.0382
-3.1154 4.4102 2.0382
-3.4607 4.1459 2.0382
-3.7837 3.8545 2.0382
-4.0823 3.5381 2.0382
-4.3545 3.1987 2.0382
-4.5987 2.8385 2.0382
-4.8131 2.4597 2.0382
-4.9963 2.0648 2.0382
-5.1473 1.6565 2.0382
-5.2650 1.2372 2.0382
-5.3485 0.8098 2.0382
-5.3975 0.3769 2.0382
-5.4114 -0.0586 2.0382
-5.3902 -0.4939 2.0382
-5.3341 -0.9261 2.0382
-5.2433 -1.3525 2.0382
-5.1185 -1.7702 2.0382
-4.9604 -2.1766 2.0382
-4.7700 -2.5690 2.0382
-4.5486 -2.9449 2.0382
-4.2976 -3.3017 2.0382
-4.0187 -3.6372 2.0382
-3.7136 -3.9491 2.0382
-3.3843 -4.2355 2.0382
-3.0329 -4.4945 2.0382
-2.6618 -4.7242 2.0382
-2.2734 -4.9234 2.0382
-0.6776 -1.8443 0.7385
-0.5270 -1.8926 0.7384
-0.3730 -1.9287 0.7383
-0.2166 -1.9524 0.7382
-0.0589 -1.9634 0.7382
0.0992 -1.9618 0.7382
0.2567 -1.9475 0.7383
0.4125 -1.9207 0.7384
0.5657 -1.8814 0.7385
0.7153 -1.8301 0.7387
2.3733 -4.8741 2.0382
2.7573 -4.6668 2.0382
3.1233 -4.4293 2.0382
3.4690 -4.1631 2.0382
2.8756 -2.9347 1.5457
2.8214 -2.4499 1.4059
2.6795 -1.9723 1.2520
2.5650 -1.5867 1.1352
2.4695 -1.2651 1.0446
2.3876 -0.9896 0.9732
2.3158 -0.7479 0.9165
2.2516 -0.5315 0.8714
2.1930 -0.3343 0.8358
2.1387 -0.1516 0.8080
2.0876 0.0205 0.7869
2.0388 0.1847 0.7718
1.9916 0.3437 0.7621
1.9452 0.4997 0.7574
1.8992 0.6548 0.7578
4.9492 2.1662 2.0382
4.7580 2.5570 2.0382
4.5361 2.9311 2.0382
4.2849 3.2861 2.0382
4.0060 3.6198 2.0382
3.7012 3.9299 2.0382
3.3726 4.2146 2.0382
3.0221 4.4719 2.0382
2.6522 4.7002 2.0382
2.2652 4.8981 2.0382
0.6844 1.8598 0.7485
0.5325 1.9091 0.7486
0.3772 1.9459 0.7487
0.2194 1.9701 0.7488
0.1636 5.3935 2.0382
-0.2710 5.3894 2.0382
-0.2586 1.9653 0.7487
-0.4159 1.9380 0.7486
-0.5704 1.8981 0.7485
-0.7213 1.8458 0.7483
-2.3630 4.8536 2.0382
-2.7463 4.6483 2.0382
2.5619 -1.5763 1.2299
2.4669 -1.2564 1.1321
2.3854 -0.9820 1.0551
2.3138 -0.7411 0.9940
2.2498 -0.5254 0.9453
2.1913 -0.3287 0.9069
2.1371 -0.1463 0.8769
2.0861 0.0254 0.8542
2.0374 0.1895 0.8379
1.9902 0.3484 0.8275
1.9439 0.5043 0.8227
1.8978 0.6594 0.8232
4.5517 2.0052 2.0382
4.3749 2.3646 2.0382
4.1698 2.7086 2.0382
3.9377 3.0350 2.0382
3.6803 3.3416 2.0382
3.3990 3.6265 2.0382
3.0958 3.8879 2.0382
2.7726 4.1240 2.0382
2.4315 4.3335 2.0382
0.7614 1.6569 0.7480
0.6257 1.7130 0.7481
0.4858 1.7580 0.7482
0.3428 1.7915 0.7483
0.1975 1.8134 0.7484
0.0509 1.8234 0.7484
-0.0960 1.8216 0.7483
-0.2423 1.8079 0.7483
-0.3870 1.7825 0.7482
-0.5292 1.7454 0.7481
-0.6679 1.6970 0.7479
-2.1865 4.4634 2.0382
-2.5389 4.2735 2.0382
-2.8750 4.0558 2.0382
-3.1925 3.8118 2.0382
-3.4894 3.5431 2.0382
-3.7638 3.2513 2.0382
-4.0139 2.9384 2.0382
-4.2380 2.6063 2.0382
-4.4348 2.2572 2.0382
-4.6029 1.8934 2.0382
-4.7412 1.5172 2.0382
-4.8488 1.1310 2.0382
-4.9251 0.7374 2.0382
-4.9694 0.3388 2.0382
-4.9815 -0.0621 2.0382
-4.9613 -0.4628 2.0382
-4.9089 -0.8606 2.0382
-4.8246 -1.2529 2.0382
-4.7090 -1.6372 2.0382
-4.5628 -2.0111 2.0382
-4.3870 -2.3720 2.0382
-4.1826 -2.7176 2.0382
-3.9510 -3.0456 2.0382
-3.6937 -3.3540 2.0382
-3.4124 -3.6407 2.0382
-3.1088 -3.9038 2.0382
-2.7850 -4.1415 2.0382
-2.4430 -4.3525 2.0382
-0.7560 -1.6443 0.7390
-0.6212 -1.6995 0.7389
-0.4825 -1.7438 0.7388
-0.3406 -1.7768 0.7387
-0.1966 -1.7984 0.7386
-0.0513 -1.8083 0.7386
0.0943 -1.8066 0.7387
0.2393 -1.7932 0.7387
0.3828 -1.7683 0.7388
0.5238 -1.7319 0.7389
0.6614 -1.6843 0.7391
2.1917 -4.4829 2.0382
2.5449 -4.2916 2.0382
2.8815 -4.0725 2.0382
3.1993 -3.8270 2.0382
2.8525 -2.9019 1.6630
2.8183 -2.4394 1.5235
2.6770 -1.9639 1.3573
2.5629 -1.5798 1.2310
2.4677 -1.2593 1.1330
2.3861 -0.9845 1.0558
2.3145 -0.7434 0.9945
2.2504 -0.5275 0.9458
2.1919 -0.3306 0.9072
2.1377 -0.1481 0.8771
2.0866 0.0238 0.8544
2.0379 0.1879 0.8380
1.9907 0.3468 0.8276
1.9443 0.5028 0.8227
1.8983 0.6578 0.8231
4.5533 2.0015 2.0382
4.3768 2.3611 2.0382
4.1720 2.7052 2.0382
3.9402 3.0318 2.0382
3.6830 3.3386 2.0382
3.4019 3.6238 2.0382
3.0989 3.8854 2.0382
2.7759 4.1218 2.0382
2.4350 4.3315 2.0382
0.7627 1.6563 0.7480
0.6270 1.7125 0.7481
0.4872 1.7576 0.7482
0.3442 1.7912 0.7483
0.1989 1.8132 0.7484
0.0524 1.8234 0.7484
-0.0946 1.8217 0.7483
-0.2409 1.8081 0.7483
-0.3856 1.7828 0.7482
-0.5278 1.7458 0.7481
-0.6665 1.6975 0.7479
-2.1829 4.4652 2.0382
-2.5355 4.2755 2.0382
-2.8717 4.0581 2.0382
-3.1894 3.8144 2.0382
-3.4865 3.5459 2.0382
-3.7611 3.2543 2.0382
-4.0115 2.9416 2.0382
-4.2359 2.6097 2.0382
-4.4330 2.2608 2.0382
-4.6014 1.8971 2.0382
-4.7400 1.5210 2.0382
-4.8479 1.1349 2.0382
-4.9245 0.7413 2.0382
-4.9691 0.3428 2.0382
-4.9815 -0.0581 2.0382
-4.9616 -0.4588 2.0382
-4.9096 -0.8566 2.0382
-4.8256 -1.2490 2.0382
-4.7103 -1.6334 2.0382
-4.5644 -2.0074 2.0382
-4.3889 -2.3684 2.0382
-4.1848 -2.7142 2.0382
-3.9535 -3.0425 2.0382
-3.6964 -3.3510 2.0382
-3.4153 -3.6379 2.0382
-3.1119 -3.9013 2.0382
-2.7883 -4.1393 2.0382
-2.4466 -4.3505 2.0382
-0.7573 -1.6437 0.7390
-0.6226 -1.6990 0.7389
-0.4839 -1.7434 0.7388
-0.3421 -1.7766 0.7387
-0.1981 -1.7982 0.7386
-0.0528 -1.8083 0.7386
0.0928 -1.8067 0.7387
0.2378 -1.7934 0.7387
0.3813 -1.7686 0.7388
0.5224 -1.7323 0.7389
0.6601 -1.6849 0.7391
2.1881 -4.4847 2.0382
2.5414 -4.2937 2.0382
2.8782 -4.0749 2.0382
3.1962 -3.8296 2.0382
2.8526 -2.9066 1.6644
2.8199 -2.4447 1.5254
2.6783 -1.9681 1.3587
2.5640 -1.5833 1.2321
2.4686 -1.2623 1.1339
2.3869 -0.9871 1.0565
2.3152 -0.7457 0.9951
2.2510 -0.5296 0.9462
2.1924 -0.3325 0.9075
2.1382 -0.1498 0.8774
2.0871 0.0221 0.8546
2.0384 0.1863 0.8382
1.9911 0.3452 0.8277
1.9448 0.5012 0.8227
1.8987 0.6563 0.8231
4.5550 1.9979 2.0382
4.3787 2.3576 2.0382
4.1742 2.7019 2.0382
3.9427 3.0286 2.0382
3.6857 3.3356 2.0382
3.4048 3.6210 2.0382
3.1021 3.8829 2.0382
2.7793 4.1195 2.0382
2.4385 4.3295 2.0382
0.7641 1.6556 0.7480
0.6284 1.7120 0.7481
0.4886 1.7572 0.7482
0.3457 1.7910 0.7483
0.2004 1.8131 0.7484
0.0538 1.8234 0.7484
-0.0931 1.8218 0.7483
-0.2394 1.8083 0.7483
-0.3841 1.7831 0.7482
-0.5264 1.7462 0.7481
-0.6651 1.6980 0.7479
-2.1793 4.4670 2.0382
-2.5320 4.2776 2.0382
-2.8684 4.0604 2.0382
-3.1863 3.8170 2.0382
-3.4836 3.5487 2.0382
-3.7585 3.2573 2.0382
-4.0091 2.9448 2.0382
-4.2338 2.6131 2.0382
-4.4311 2.2644 2.0382
-4.5998 1.9008 2.0382
-4.7387 1.5249 2.0382
-4.8470 1.1388 2.0382
-4.9239 0.7453 2.0382
-4.9688 0.3468 2.0382
-4.9816 -0.0541 2.0382
-4.9620 -0.4548 2.0382
-4.9103 -0.8526 2.0382
-4.8266 -1.2451 2.0382
-4.7117 -1.6296 2.0382
-4.5661 -2.0037 2.0382
-4.3908 -2.3649 2.0382
-4.1870 -2.7108 2.0382
-3.9559 -3.0393 2.0382
-3.6991 -3.3481 2.0382
-3.4182 -3.6352 2.0382
-3.1151 -3.8987 2.0382
-2.7917 -4.1370 2.0382
-2.4501 -4.3485 2.0382
-0.7587 -1.6431 0.7390
-0.6240 -1.6985 0.7389
-0.4853 -1.7430 0.7388
-0.3435 -1.7763 0.7387
-0.1995 -1.7981 0.7386
-0.0543 -1.8082 0.7386
0.0914 -1.8068 0.7387
0.2364 -1.7936 0.7387
0.3799 -1.7689 0.7388
0.5210 -1.7327 0.7389
0.6587 -1.6854 0.7391
2.1845 -4.4865 2.0382
2.5380 -4.2957 2.0382
2.8749 -4.0772 2.0382
3.1931 -3.8322 2.0382
2.8527 -2.9115 1.6658
2.8215 -2.4501 1.5274
2.6796 -1.9724 1.3602
2.5650 -1.5868 1.2332
2.4695 -1.2652 1.1347
2.3876 -0.9897 1.0572
2.3159 -0.7480 0.9956
2.2516 -0.5316 0.9466
2.1930 -0.3344 0.9079
2.1387 -0.1516 0.8777
2.0876 0.0204 0.8548
2.0388 0.1847 0.8383
1.9916 0.3437 0.8278
1.9453 0.4997 0.8227
1.8992 0.6547 0.8231
4.5566 1.9942 2.0382
4.3806 2.3540 2.0382
4.1764 2.6985 2.0382
3.9451 3.0254 2.0382
3.6883 3.3327 2.0382
3.4078 3.6183 2.0382
3.1052 3.8804 2.0382
2.7827 4.1170 2.0382
2.4420 4.3276 2.0382
0.7654 1.6550 0.7480
0.6298 1.7115 0.7481
0.4901 1.7568 0.7482
0.3471 1.7907 0.7483
0.2019 1.8129 0.7484
0.0553 1.8233 0.7484
-0.0916 1.8219 0.7483
-0.2379 1.8085 0.7483
-0.3827 1.7834 0.7482
-0.5250 1.7467 0.7481
-0.6638 1.6986 0.7479
-2.1757 4.4687 2.0382
-2.5286 4.2796 2.0382
2.5620 -1.5764 1.3300
2.4669 -1.2565 1.2242
2.3854 -0.9820 1.1409
2.3139 -0.7412 1.0748
2.2498 -0.5255 1.0222
2.1913 -0.3288 0.9806
2.1372 -0.1464 0.9481
2.0861 0.0254 0.9236
2.0374 0.1894 0.9060
1.9902 0.3483 0.8947
1.9439 0.5043 0.8895
1.8978 0.6593 0.8900
4.2100 1.8545 2.0382
4.0465 2.1870 2.0382
3.8568 2.5052 2.0382
3.6422 2.8071 2.0382
3.4041 3.0907 2.0382
3.1439 3.3542 2.0382
2.8635 3.5960 2.0382
2.5646 3.8145 2.0382
2.2491 4.0082 2.0382
0.7039 1.5318 0.7477
0.5784 1.5837 0.7478
0.4491 1.6253 0.7479
0.3169 1.6563 0.7479
0.1826 1.6765 0.7480
0.0470 1.6858 0.7480
-0.0888 1.6841 0.7480
-0.2240 1.6715 0.7479
-0.3578 1.6479 0.7478
-0.4893 1.6136 0.7477
-0.6175 1.5689 0.7476
-0.7417 1.5139 0.7474
-2.3484 3.9527 2.0382
-2.6592 3.7513 2.0382
-2.9529 3.5256 2.0382
-3.2275 3.2770 2.0382
-3.4812 3.0071 2.0382
-3.7125 2.7176 2.0382
-3.9198 2.4104 2.0382
-4.1017 2.0876 2.0382
-4.2572 1.7511 2.0382
-4.3850 1.4031 2.0382
-4.4845 1.0459 2.0382
-4.5550 0.6818 2.0382
-4.5959 0.3132 2.0382
-4.6070 -0.0576 2.0382
-4.5883 -0.4281 2.0382
-4.5398 -0.7960 2.0382
-4.4618 -1.1588 2.0382
-4.3549 -1.5142 2.0382
-4.2196 -1.8599 2.0382
-4.0569 -2.1936 2.0382
-3.8679 -2.5132 2.0382
-3.6537 -2.8166 2.0382
-3.4157 -3.1017 2.0382
-3.1555 -3.3668 2.0382
-2.8748 -3.6100 2.0382
-2.5753 -3.8299 2.0382
-2.2591 -4.0249 2.0382
-0.6994 -1.5212 0.7393
-0.5747 -1.5724 0.7392
-0.4464 -1.6133 0.7391
-0.3151 -1.6439 0.7390
-0.1819 -1.6638 0.7390
-0.0475 -1.6730 0.7390
0.0872 -1.6714 0.7390
0.2214 -1.6591 0.7391
0.3541 -1.6360 0.7391
0.4846 -1.6023 0.7393
0.6119 -1.5583 0.7394
0.7354 -1.5042 0.7395
2.3533 -3.9688 2.0382
2.6646 -3.7662 2.0382
2.9585 -3.5392 2.0382
2.8836 -2.9337 1.8179
2.8183 -2.4395 1.6475
2.6771 -1.9640 1.4677
2.5630 -1.5799 1.3312
2.4678 -1.2594 1.2252
2.3862 -0.9846 1.1417
2.3145 -0.7435 1.0754
2.2504 -0.5276 1.0227
2.1919 -0.3307 0.9809
2.1377 -0.1481 0.9484
2.0866 0.0237 0.9238
2.0379 0.1878 0.9061
1.9907 0.3468 0.8948
1.9444 0.5027 0.8895
1.8983 0.6578 0.8900
4.2115 1.8511 2.0382
4.0482 2.1837 2.0382
3.8588 2.5021 2.0382
3.6445 2.8041 2.0382
3.4066 3.0879 2.0382
3.1466 3.3517 2.0382
2.8664 3.5937 2.0382
2.5676 3.8124 2.0382
2.2523 4.0064 2.0382
0.7052 1.5313 0.7477
0.5797 1.5832 0.7478
0.4505 1.6249 0.7479
0.3182 1.6560 0.7479
0.1839 1.6763 0.7480
0.0484 1.6857 0.7480
-0.0874 1.6842 0.7480
-0.2227 1.6716 0.7479
-0.3565 1.6482 0.7478
-0.4880 1.6140 0.7477
-0.6162 1.5694 0.7476
-0.7404 1.5145 0.7474
-2.3452 3.9546 2.0382
-2.6562 3.7534 2.0382
-2.9500 3.5280 2.0382
-3.2248 3.2796 2.0382
-3.4788 3.0099 2.0382
-3.7103 2.7206 2.0382
-3.9178 2.4136 2.0382
-4.1000 2.0909 2.0382
-4.2557 1.7545 2.0382
-4.3839 1.4066 2.0382
-4.4837 1.0495 2.0382
-4.5544 0.6855 2.0382
-4.5956 0.3169 2.0382
-4.6071 -0.0539 2.0382
-4.5886 -0.4244 2.0382
-4.5404 -0.7923 2.0382
-4.4627 -1.1552 2.0382
-4.3560 -1.5107 2.0382
-4.2211 -1.8565 2.0382
-4.0587 -2.1904 2.0382
-3.8699 -2.5101 2.0382
-3.6560 -2.8136 2.0382
-3.4182 -3.0990 2.0382
-3.1582 -3.3642 2.0382
-2.8777 -3.6077 2.0382
-2.5784 -3.8278 2.0382
-2.2624 -4.0231 2.0382
-0.7006 -1.5207 0.7393
-0.5760 -1.5719 0.7392
-0.4477 -1.6130 0.7391
-0.3165 -1.6436 0.7390
-0.1833 -1.6637 0.7390
-0.0489 -1.6730 0.7390
0.0859 -1.6715 0.7390
0.2200 -1.6592 0.7391
0.3528 -1.6362 0.7391
0.4833 -1.6027 0.7393
0.6107 -1.5588 0.7394
0.7342 -1.5048 0.7395
2.3501 -3.9707 2.0382
2.6616 -3.7683 2.0382
2.9557 -3.5415 2.0382
2.8855 -2.9403 1.8205
2.8199 -2.4449 1.6496
2.6783 -1.9683 1.4693
2.5640 -1.5834 1.3324
2.4687 -1.2624 1.2261
2.3869 -0.9872 1.1424
2.3152 -0.7458 1.0760
2.2510 -0.5296 1.0231
2.1925 -0.3326 0.9813
2.1382 -0.1499 0.9487
2.0871 0.0220 0.9240
2.0384 0.1862 0.9063
1.9912 0.3452 0.8949
1.9448 0.5012 0.8895
1.8988 0.6562 0.8899
4.2130 1.8478 2.0382
4.0500 2.1804 2.0382
3.8608 2.4989 2.0382
3.6467 2.8012 2.0382
3.4090 3.0852 2.0382
3.1493 3.3492 2.0382
2.8693 3.5914 2.0382
2.5707 3.8104 2.0382
2.2555 4.0046 2.0382
0.7064 1.5307 0.7477
0.5810 1.5828 0.7478
0.4518 1.6246 0.7479
0.3196 1.6558 0.7479
0.1853 1.6762 0.7480
0.0498 1.6857 0.7480
-0.0861 1.6842 0.7480
-0.2213 1.6718 0.7479
-0.3552 1.6485 0.7478
-0.4867 1.6144 0.7477
-0.6149 1.5699 0.7476
-0.7392 1.5151 0.7474
-2.3420 3.9564 2.0382
-2.6531 3.7556 2.0382
-2.9472 3.5303 2.0382
-3.2222 3.2822 2.0382
-3.4764 3.0127 2.0382
-3.7081 2.7236 2.0382
-3.9159 2.4168 2.0382
-4.0983 2.0942 2.0382
-4.2543 1.7579 2.0382
-4.3827 1.4102 2.0382
-4.4828 1.0531 2.0382
-4.5538 0.6892 2.0382
-4.5954 0.3206 2.0382
-4.6071 -0.0501 2.0382
-4.5890 -0.4207 2.0382
-4.5410 -0.7886 2.0382
-4.4636 -1.1516 2.0382
-4.3572 -1.5073 2.0382
-4.2226 -1.8531 2.0382
-4.0605 -2.1871 2.0382
-3.8719 -2.5070 2.0382
-3.6582 -2.8107 2.0382
-3.4207 -3.0962 2.0382
-3.1609 -3.3617 2.0382
-2.8806 -3.6054 2.0382
-2.5815 -3.8257 2.0382
-2.2656 -4.0213 2.0382
-0.7019 -1.5201 0.7393
-0.5773 -1.5714 0.7392
-0.4490 -1.6126 0.7391
-0.3178 -1.6434 0.7390
-0.1846 -1.6635 0.7390
-0.0502 -1.6730 0.7390
0.0845 -1.6716 0.7390
0.2187 -1.6594 0.7391
0.3515 -1.6365 0.7391
0.4820 -1.6031 0.7393
0.6094 -1.5593 0.7394
0.7329 -1.5054 0.7395
2.3469 -3.9726 2.0382
2.6585 -3.7705 2.0382
2.9528 -3.5439 2.0382
2.8876 -2.9473 1.8234
2.8215 -2.4503 1.6517
2.6796 -1.9725 1.4709
2.5651 -1.5869 1.3336
2.4695 -1.2653 1.2270
2.3877 -0.9898 1.1432
2.3159 -0.7480 1.0766
2.2516 -0.5317 1.0236
2.1930 -0.3345 0.9817
2.1387 -0.1517 0.9490
2.0876 0.0203 0.9242
2.0389 0.1846 0.9064
1.9916 0.3436 0.8950
1.9453 0.4996 0.8896
1.8992 0.6547 0.8899
4.2145 1.8443 2.0382
4.0518 2.1772 2.0382
3.8629 2.4958 2.0382
3.6490 2.7982 2.0382
3.4115 3.0824 2.0382
3.1520 3.3466 2.0382
2.8722 3.5891 2.0382
2.5738 3.8083 2.0382
2.2588 4.0028 2.0382
0.7077 1.5301 0.7477
0.5823 1.5823 0.7478
0.4531 1.6242 0.7479
0.3209 1.6555 0.7479
0.1866 1.6760 0.7480
0.0511 1.6857 0.7480
-0.0847 1.6843 0.7480
-0.2200 1.6720 0.7479
-0.3538 1.6488 0.7478
-0.4853 1.6148 0.7477
-0.6137 1.5704 0.7476
-0.7380 1.5157 0.7474
-2.3388 3.9583 2.0382
2.5620 -1.5765 1.4326
2.4669 -1.2566 1.3186
2.3854 -0.9821 1.2289
2.3139 -0.7413 1.1576
2.2498 -0.5256 1.1010
2.1914 -0.3289 1.0561
2.1372 -0.1464 1.0212
2.0862 0.0253 0.9947
2.0374 0.1894 0.9758
1.9902 0.3483 0.9637
1.9439 0.5042 0.9580
1.8979 0.6593 0.9585
3.9091 1.7219 2.0382
3.7573 2.0306 2.0382
3.5812 2.3260 2.0382
3.3819 2.6064 2.0382
3.1609 2.8697 2.0382
2.9193 3.1145 2.0382
2.6589 3.3390 2.0382
2.3814 3.5419 2.0382
0.7656 1.3644 0.7472
0.6534 1.4218 0.7474
0.5369 1.4700 0.7475
0.4169 1.5085 0.7476
0.2941 1.5373 0.7476
0.1695 1.5561 0.7477
0.0437 1.5647 0.7477
-0.0824 1.5631 0.7476
-0.2080 1.5514 0.7476
-0.3321 1.5295 0.7475
-0.4541 1.4977 0.7474
-0.5732 1.4562 0.7473
-0.6884 1.4052 0.7472
-2.1807 3.6702 2.0382
-2.4692 3.4832 2.0382
-2.7419 3.2735 2.0382
-2.9968 3.0427 2.0382
-3.2324 2.7920 2.0382
-3.4472 2.5232 2.0382
-3.6396 2.2380 2.0382
-3.8085 1.9382 2.0382
-3.9528 1.6257 2.0382
-4.0714 1.3026 2.0382
-4.1638 0.9710 2.0382
-4.2291 0.6329 2.0382
-4.2671 0.2907 2.0382
-4.2774 -0.0536 2.0382
-4.2599 -0.3976 2.0382
-4.2149 -0.7391 2.0382
-4.1424 -1.0760 2.0382
-4.0431 -1.4059 2.0382
-3.9175 -1.7269 2.0382
-3.7664 -2.0367 2.0382
-3.5909 -2.3333 2.0382
-3.3920 -2.6149 2.0382
-3.1711 -2.8796 2.0382
-2.9295 -3.1257 2.0382
-2.6688 -3.3515 2.0382
-2.3908 -3.5556 2.0382
-0.7612 -1.3562 0.7398
-0.6496 -1.4128 0.7396
-0.5338 -1.4603 0.7395
-0.4146 -1.4984 0.7394
-0.2927 -1.5268 0.7394
-0.1690 -1.5453 0.7393
-0.0441 -1.5539 0.7393
0.0810 -1.5524 0.7393
0.2056 -1.5409 0.7394
0.3289 -1.5194 0.7395
0.4500 -1.4881 0.7396
0.5683 -1.4472 0.7397
0.6829 -1.3970 0.7398
2.1847 -3.6846 2.0382
2.4737 -3.4965 2.0382
2.7466 -3.2858 2.0382
3.0016 -3.0538 2.0382
2.8184 -2.4397 1.7746
2.6771 -1.9642 1.5810
2.5630 -1.5800 1.4338
2.4678 -1.2595 1.3196
2.3862 -0.9847 1.2297
2.3146 -0.7436 1.1583
2.2504 -0.5276 1.1015
2.1919 -0.3307 1.0565
2.1377 -0.1482 1.0215
2.0867 0.0236 0.9950
2.0379 0.1878 0.9759
1.9907 0.3467 0.9638
1.9444 0.5027 0.9580
1.8983 0.6577 0.9585
3.9105 1.7187 2.0382
3.7589 2.0275 2.0382
3.5831 2.3232 2.0382
3.3841 2.6036 2.0382
3.1632 2.8670 2.0382
2.9218 3.1122 2.0382
2.6616 3.3369 2.0382
2.3842 3.5400 2.0382
0.7667 1.3638 0.7472
0.6546 1.4213 0.7474
0.5381 1.4695 0.7475
0.4181 1.5082 0.7476
0.2954 1.5371 0.7476
0.1707 1.5559 0.7477
0.0449 1.5646 0.7477
-0.0812 1.5632 0.7476
-0.2067 1.5515 0.7476
-0.3309 1.5298 0.7475
-0.4529 1.4981 0.7474
-0.5720 1.4567 0.7473
-0.6873 1.4058 0.7472
-2.1777 3.6719 2.0382
-2.4664 3.4851 2.0382
-2.7392 3.2757 2.0382
-2.9944 3.0451 2.0382
-3.2302 2.7946 2.0382
-3.4451 2.5260 2.0382
-3.6378 2.2409 2.0382
-3.8069 1.9413 2.0382
-3.9514 1.6289 2.0382
-4.0704 1.3059 2.0382
-4.1630 0.9743 2.0382
-4.2286 0.6363 2.0382
-4.2668 0.2941 2.0382
-4.2774 -0.0501 2.0382
-4.2603 -0.3941 2.0382
-4.2154 -0.7357 2.0382
-4.1433 -1.0726 2.0382
-4.0442 -1.4027 2.0382
-3.9189 -1.7237 2.0382
-3.7681 -2.0336 2.0382
-3.5928 -2.3305 2.0382
-3.3941 -2.6122 2.0382
-3.1734 -2.8771 2.0382
-2.9320 -3.1233 2.0382
-2.6715 -3.3493 2.0382
-2.3937 -3.5537 2.0382
-0.7623 -1.3556 0.7398
-0.6507 -1.4123 0.7396
-0.5350 -1.4599 0.7395
-0.4158 -1.4981 0.7394
-0.2939 -1.5265 0.7394
-0.1702 -1.5452 0.7393
-0.0454 -1.5538 0.7393
0.0797 -1.5524 0.7393
0.2043 -1.5410 0.7394
0.3276 -1.5197 0.7395
0.4488 -1.4885 0.7396
0.5671 -1.4477 0.7397
0.6818 -1.3976 0.7398
2.1817 -3.6863 2.0382
2.4709 -3.4985 2.0382
2.7439 -3.2880 2.0382
2.9991 -3.0562 2.0382
2.8200 -2.4451 1.7769
2.6784 -1.9684 1.5826
2.5641 -1.5835 1.4351
2.4687 -1.2625 1.3206
2.3870 -0.9873 1.2305
2.3152 -0.7458 1.1589
2.2510 -0.5297 1.1020
2.1925 -0.3326 1.0569
2.1382 -0.1500 1.0218
2.0872 0.0220 0.9952
2.0384 0.1862 0.9761
1.9912 0.3451 0.9638
1.9448 0.5011 0.9580
1.8988 0.6562 0.9585
3.9118 1.7156 2.0382
3.7606 2.0245 2.0382
3.5849 2.3203 2.0382
3.3862 2.6009 2.0382
3.1654 2.8649 2.0382
2.9243 3.1098 2.0382
2.6643 3.3348 2.0382
2.3871 3.5381 2.0382
0.7678 1.3632 0.7472
0.6557 1.4208 0.7474
0.5393 1.4691 0.7475
0.4193 1.5079 0.7476
0.2966 1.5368 0.7476
0.1720 1.5558 0.7477
0.0462 1.5646 0.7477
-0.0799 1.5632 0.7476
-0.2055 1.5517 0.7476
-0.3297 1.5301 0.7475
-0.4517 1.4985 0.7474
-0.5708 1.4571 0.7473
-0.6862 1.4063 0.7472
-2.1747 3.6737 2.0382
-2.4636 3.4871 2.0382
-2.7366 3.2780 2.0382
-2.9919 3.0475 2.0382
-3.2279 2.7972 2.0382
-3.4431 2.5288 2.0382
-3.6360 2.2439 2.0382
-3.8053 1.9443 2.0382
-3.9501 1.6321 2.0382
-4.0693 1.3092 2.0382
-4.1622 0.9777 2.0382
-4.2281 0.6398 2.0382
-4.2666 0.2976 2.0382
-4.2774 -0.0467 2.0382
-4.2606 -0.3907 2.0382
-4.2160 -0.7323 2.0382
-4.1441 -1.0693 2.0382
-4.0453 -1.3994 2.0382
-3.9202 -1.7205 2.0382
-3.7697 -2.0306 2.0382
-3.5946 -2.3276 2.0382
-3.3962 -2.6095 2.0382
-3.1757 -2.8745 2.0382
-2.9345 -3.1210 2.0382
-2.6742 -3.3472 2.0382
-2.3966 -3.5517 2.0382
-0.7634 -1.3550 0.7398
-0.6518 -1.4118 0.7396
-0.5361 -1.4595 0.7395
-0.4170 -1.4977 0.7394
-0.2952 -1.5263 0.7394
-0.1714 -1.5450 0.7393
-0.0466 -1.5538 0.7393
0.0785 -1.5525 0.7393
0.2031 -1.5412 0.7394
0.3264 -1.5199 0.7395
0.4476 -1.4889 0.7396
0.5660 -1.4482 0.7397
0.6807 -1.3981 0.7398
2.1788 -3.6881 2.0382
2.4681 -3.5005 2.0382
2.7413 -3.2902 2.0382
2.9967 -3.0587 2.0382
2.8216 -2.4504 1.7791
2.6797 -1.9727 1.5843
2.5651 -1.5870 1.4364
2.4696 -1.2654 1.3217
2.3877 -0.9898 1.2313
2.3159 -0.7481 1.1596
2.2516 -0.5318 1.1025
2.1931 -0.3345 1.0573
2.1388 -0.1517 1.0221
2.0877 0.0203 0.9954
2.0389 0.1845 0.9762
1.9916 0.3436 0.9639
1.9453 0.4996 0.9581
1.8992 0.6546 0.9584
3.9132 1.7124 2.0382
3.7622 2.0215 2.0382
3.5868 2.3174 2.0382
3.3883 2.5982 2.0382
3.1679 2.8617 2.0382
2.9269 3.1075 2.0382
2.6670 3.3326 2.0382
2.3899 3.5362 2.0382
0.7689 1.3626 0.7472
0.6568 1.4202 0.7474
0.5405 1.4686 0.7475
0.4205 1.5075 0.7476
0.2979 1.5366 0.7476
0.1732 1.5556 0.7477
0.0474 1.5646 0.7477
-0.0786 1.5633 0.7477
-0.2042 1.5519 0.7476
-0.3284 1.5303 0.7475
-0.4505 1.4988 0.7474
-0.5696 1.4576 0.7473
-0.6850 1.4069 0.7472
-2.1718 3.6754 2.0382
2.5620 -1.5767 1.5379
2.4670 -1.2567 1.4156
2.3855 -0.9822 1.3193
2.3139 -0.7414 1.2428
2.2498 -0.5257 1.1819
2.1914 -0.3289 1.1338
2.1372 -0.1465 1.0962
2.0862 0.0253 1.0678
2.0375 0.1893 1.0475
1.9903 0.3482 1.0345
1.9439 0.5042 1.0283
1.8979 0.6593 1.0289
3.6417 1.6040 2.0382
3.5003 1.8916 2.0382
3.3363 2.1669 2.0382
3.1507 2.4281 2.0382
2.9447 2.6735 2.0382
2.7197 2.9015 2.0382
2.4772 3.1107 2.0382
2.2186 3.2997 2.0382
0.7130 1.2707 0.7470
0.6085 1.3241 0.7471
0.5000 1.3689 0.7472
0.3882 1.4049 0.7473
0.2739 1.4316 0.7473
0.1578 1.4491 0.7474
0.0407 1.4571 0.7474
-0.0768 1.4557 0.7474
-0.1937 1.4448 0.7473
-0.3093 1.4244 0.7473
-0.4229 1.3948 0.7472
-0.5338 1.3561 0.7470
-0.6411 1.3086 0.7469
-0.7443 1.2527 0.7467
-2.3004 3.2449 2.0382
-2.5544 3.0496 2.0382
-2.7919 2.8345 2.0382
-3.0114 2.6010 2.0382
-3.2114 2.3505 2.0382
-3.3906 2.0848 2.0382
-3.5479 1.8055 2.0382
-3.6823 1.5144 2.0382
-3.7928 1.2134 2.0382
-3.8788 0.9044 2.0382
-3.9397 0.5895 2.0382
-3.9750 0.2707 2.0382
-3.9845 -0.0500 2.0382
-3.9682 -0.3705 2.0382
-3.9262 -0.6886 2.0382
-3.8587 -1.0024 2.0382
-3.7661 -1.3097 2.0382
-3.6491 -1.6087 2.0382
-3.5084 -1.8972 2.0382
-3.3448 -2.1736 2.0382
-3.1595 -2.4358 2.0382
-2.9537 -2.6824 2.0382
-2.7287 -2.9116 2.0382
-2.4859 -3.1219 2.0382
-2.2270 -3.3119 2.0382
-0.7093 -1.2637 0.7400
-0.6053 -1.3165 0.7399
-0.4974 -1.3607 0.7398
-0.3863 -1.3962 0.7397
-0.2727 -1.4227 0.7396
-0.1574 -1.4399 0.7396
-0.0411 -1.4479 0.7396
0.0755 -1.4465 0.7396
0.1916 -1.4358 0.7397
0.3064 -1.4158 0.7397
0.4193 -1.3867 0.7398
0.5295 -1.3485 0.7399
0.6363 -1.3017 0.7401
0.7391 -1.2465 0.7402
2.3042 -3.2570 2.0382
2.5584 -3.0607 2.0382
2.7959 -2.8447 2.0382
3.0152 -2.6102 2.0382
2.6772 -1.9643 1.6973
2.5631 -1.5802 1.5393
2.4679 -1.2596 1.4167
2.3862 -0.9848 1.3201
2.3146 -0.7437 1.2434
2.2504 -0.5277 1.1825
2.1920 -0.3308 1.1342
2.1377 -0.1483 1.0966
2.0867 0.0236 1.0681
2.0379 0.1877 1.0476
1.9907 0.3466 1.0345
1.9444 0.5026 1.0284
1.8983 0.6577 1.0289
3.6430 1.6010 2.0382
3.5018 1.8888 2.0382
3.3380 2.1642 2.0382
3.1527 2.4255 2.0382
2.9469 2.6711 2.0382
2.7221 2.8993 2.0382
2.4797 3.1087 2.0382
2.2212 3.2979 2.0382
0.7141 1.2701 0.7470
0.6096 1.3236 0.7471
0.5011 1.3685 0.7472
0.3894 1.4046 0.7473
0.2751 1.4314 0.7473
0.1590 1.4490 0.7474
0.0418 1.4571 0.7474
-0.0756 1.4557 0.7474
-0.1925 1.4449 0.7473
-0.3082 1.4247 0.7473
-0.4218 1.3952 0.7472
-0.5327 1.3566 0.7470
-0.6401 1.3092 0.7469
-0.7433 1.2533 0.7467
-2.2978 3.2467 2.0382
-2.5520 3.0516 2.0382
-2.7896 2.8367 2.0382
-3.0093 2.6034 2.0382
-3.2095 2.3531 2.0382
-3.3889 2.0875 2.0382
-3.5465 1.8083 2.0382
-3.6811 1.5173 2.0382
-3.7918 1.2164 2.0382
-3.8781 0.9075 2.0382
-3.9392 0.5927 2.0382
-3.9747 0.2739 2.0382
-3.9846 -0.0468 2.0382
-3.9685 -0.3673 2.0382
-3.9268 -0.6854 2.0382
-3.8595 -0.9993 2.0382
-3.7672 -1.3067 2.0382
-3.6504 -1.6057 2.0382
-3.5099 -1.8944 2.0382
-3.3466 -2.1709 2.0382
-3.1615 -2.4333 2.0382
-2.9559 -2.6800 2.0382
-2.7310 -2.9094 2.0382
-2.4884 -3.1199 2.0382
-2.2296 -3.3102 2.0382
-0.7103 -1.2631 0.7400
-0.6063 -1.3160 0.7399
-0.4985 -1.3603 0.7398
-0.3874 -1.3959 0.7397
-0.2739 -1.4225 0.7396
-0.1586 -1.4398 0.7396
-0.0423 -1.4479 0.7396
0.0743 -1.4466 0.7396
0.1904 -1.4360 0.7397
0.3053 -1.4160 0.7397
0.4182 -1.3870 0.7398
0.5284 -1.3490 0.7399
0.6353 -1.3022 0.7401
0.7380 -1.2471 0.7402
2.3015 -3.2588 2.0382
2.5559 -3.0628 2.0382
2.7936 -2.8469 2.0382
3.0131 -2.6127 2.0382
2.6785 -1.9686 1.6991
2.5641 -1.5837 1.5407
2.4687 -1.2626 1.4178
2.3870 -0.9874 1.3210
2.3153 -0.7459 1.2441
2.2511 -0.5298 1.1830
2.1925 -0.3327 1.1346
2.1383 -0.1500 1.0969
2.0872 0.0219 1.0683
2.0384 0.1861 1.0478
1.9912 0.3451 1.0346
1.9449 0.5011 1.0284
1.8988 0.6561 1.0289
3.6443 1.5981 2.0382
3.5034 1.8859 2.0382
3.3398 2.1615 2.0382
3.1546 2.4230 2.0382
2.9490 2.6687 2.0382
2.7244 2.8971 2.0382
2.4822 3.1067 2.0382
2.2239 3.2961 2.0382
0.7151 1.2695 0.7470
0.6107 1.3231 0.7471
0.5022 1.3681 0.7472
0.3905 1.4042 0.7473
0.2762 1.4312 0.7473
0.1601 1.4489 0.7474
0.0430 1.4571 0.7474
-0.0744 1.4558 0.7474
-0.1913 1.4451 0.7473
-0.3070 1.4249 0.7473
-0.4207 1.3955 0.7472
-0.5316 1.3570 0.7470
-0.6390 1.3097 0.7469
-0.7423 1.2539 0.7467
-2.2952 3.2486 2.0382
-2.5495 3.0537 2.0382
-2.7873 2.8390 2.0382
-3.0072 2.6058 2.0382
-3.2076 2.3557 2.0382
-3.3872 2.0903 2.0382
-3.5450 1.8112 2.0382
-3.6798 1.5203 2.0382
-3.7909 1.2195 2.0382
-3.8773 0.9107 2.0382
-3.9387 0.5958 2.0382
-3.9745 0.2771 2.0382
-3.9846 -0.0436 2.0382
-3.9688 -0.3641 2.0382
-3.9273 -0.6823 2.0382
-3.8603 -0.9962 2.0382
-3.7682 -1.3036 2.0382
-3.6517 -1.6028 2.0382
-3.5114 -1.8916 2.0382
-3.3483 -2.1682 2.0382
-3.1635 -2.4307 2.0382
-2.9580 -2.6776 2.0382
-2.7334 -2.9071 2.0382
-2.4909 -3.1179 2.0382
-2.2323 -3.3084 2.0382
-0.7113 -1.2625 0.7400
-0.6074 -1.3155 0.7399
-0.4996 -1.3599 0.7398
-0.3885 -1.3956 0.7397
-0.2750 -1.4222 0.7396
-0.1598 -1.4397 0.7396
-0.0435 -1.4478 0.7396
0.0731 -1.4466 0.7396
0.1892 -1.4361 0.7397
0.3041 -1.4163 0.7397
0.4171 -1.3873 0.7398
0.5273 -1.3494 0.7399
0.6342 -1.3027 0.7401
