ply
format ascii 1.0
element vertex 2154
property float32 x
property float32 y
property float32 z
end_header
11.8843 3.5378 0.9147
6.6381 3.2059 0.5470
6.3507 3.7229 0.5481
6.0203 4.2124 0.5492
5.6495 4.6706 0.5502
5.2417 5.0942 0.5512
4.8003 5.4802 0.5520
-15.6344 10.7687 1.5949
-15.7562 9.0800 1.5314
-15.8728 7.5199 1.4819
-15.9803 6.0529 1.4439
-16.0828 4.6545 1.4163
-16.1880 3.3042 1.3985
-16.2873 1.9802 1.3892
-16.3820 0.6658 1.3879
-16.4788 -0.6553 1.3952
-16.5840 -2.0015 1.4116
-16.6895 -3.3913 1.4371
-16.7957 -4.8448 1.4722
-16.9096 -6.3878 1.5189
-17.0359 -8.0524 1.5791
-17.1740 -9.8767 1.6551
0.5948 -19.1233 2.0383
2.1362 -19.0946 2.0383
3.6765 -18.9406 2.0383
5.2054 -18.6607 2.0383
6.7121 -18.2552 2.0383
7.6644 -16.5960 1.9084
8.8975 -15.7975 1.8859
8.4875 -12.5881 1.5737
11.4193 -14.3097 1.8916
12.5976 -13.4195 1.8961
13.7093 -12.4348 1.9014
14.8955 -11.4749 1.9270
16.0177 -10.4056 1.9533
17.0639 -9.2299 1.9803
17.9650 -7.9270 2.0014
18.6469 -6.4971 2.0104
11.4811 -2.9927 1.2070
11.4880 -2.0278 1.1862
19.8086 -1.8761 2.0231
19.8830 -0.2814 2.0224
19.7980 1.3111 2.0193
5.2563 0.7751 0.5413
5.1794 1.1946 0.5422
5.0671 1.6062 0.5432
4.9203 2.0067 0.5441
4.7401 2.3931 0.5449
4.5279 2.7626 0.5458
4.4877 3.2591 0.5723
4.5324 3.8832 0.6178
4.5848 4.6153 0.6757
4.6481 5.4983 0.7505
10.4947 14.6541 1.8859
9.9966 16.6319 2.0383
8.5953 17.3102 2.0383
7.1493 17.8698 2.0383
5.6686 18.3085 2.0383
4.1636 18.6248 2.0383
2.6445 18.8182 2.0383
1.1212 18.8890 2.0383
-0.3964 18.8382 2.0383
-1.8990 18.6677 2.0383
-3.3772 18.3801 2.0383
-4.8223 17.9785 2.0383
-6.2258 17.4667 2.0383
-7.5799 16.8489 2.0383
-8.8770 16.1301 2.0383
-10.1100 15.3154 2.0383
-11.2725 14.4105 2.0383
-12.3582 13.4214 2.0383
-13.3618 12.3545 2.0383
-13.7658 10.8143 1.9652
-13.9733 9.2649 1.8859
-14.6472 8.0999 1.8859
-15.2291 6.8882 1.8859
-15.7162 5.6372 1.8859
-16.1060 4.3539 1.8859
-16.2099 3.0107 1.8644
-16.3090 1.6902 1.8543
-16.4040 0.3755 1.8553
-16.5011 -0.9497 1.8678
-16.5441 -2.2954 1.8859
-16.3258 -3.6206 1.8859
-16.0064 -4.9270 1.8859
-15.5872 -6.2073 1.8859
-15.1322 -7.4850 1.8937
-15.2295 -9.1231 1.9866
-14.8628 -10.6125 2.0383
-14.0034 -11.8055 2.0383
-13.0513 -12.9318 2.0383
-12.0112 -13.9844 2.0383
-10.8885 -14.9562 2.0383
-9.6889 -15.8407 2.0383
-8.4189 -16.6315 2.0383
-7.0853 -17.3227 2.0383
-5.6956 -17.9089 2.0383
-4.2580 -18.3850 2.0383
-2.7807 -18.7468 2.0383
-1.2730 -18.9905 2.0383
0.2559 -19.1129 2.0383
1.7961 -19.1117 2.0383
3.3376 -18.9854 2.0383
4.8698 -18.7332 2.0383
6.3824 -18.3554 2.0383
7.5983 -17.2488 1.9693
8.6097 -15.9400 1.8859
8.1602 -12.5773 1.5552
11.1504 -14.4916 1.8905
12.3440 -13.6247 1.8951
13.4646 -12.6544 1.8994
14.6391 -11.6959 1.9213
15.7764 -10.6506 1.9474
16.8404 -9.4981 1.9743
17.7856 -8.2270 1.9979
18.5085 -6.8185 2.0086
19.0800 -5.3358 2.0157
11.3370 -2.2087 1.1745
19.7708 -2.2263 2.0229
19.8803 -0.6334 2.0228
19.8304 0.9611 2.0202
5.2684 0.6819 0.5411
5.1994 1.1027 0.5420
5.0948 1.5163 0.5430
4.9555 1.9195 0.5439
4.7826 2.3093 0.5447
4.5773 2.6827 0.5456
4.4787 3.1330 0.5636
4.5220 3.7375 0.6069
4.5725 4.4427 0.6617
4.6330 5.2877 0.7322
10.7616 14.4782 1.8859
10.0945 16.1406 1.9979
8.9085 17.1707 2.0383
7.4714 17.7568 2.0383
5.9975 18.2223 2.0383
4.4970 18.5656 2.0383
2.9801 18.7861 2.0383
1.4569 18.8838 2.0383
-0.0628 18.8597 2.0383
-1.5695 18.7155 2.0383
-3.0538 18.4534 2.0383
-4.5069 18.0767 2.0383
-5.9204 17.5887 2.0383
-7.2860 16.9939 2.0383
-8.5963 16.2970 2.0383
-9.8440 15.5029 2.0383
-11.0226 14.6174 2.0383
-12.1257 13.6464 2.0383
-13.1479 12.5961 2.0383
-13.7341 11.1883 1.9877
-13.8766 9.5595 1.8946
-14.5064 8.3610 1.8859
-15.1089 7.1590 1.8859
-15.6171 5.9160 1.8859
-16.0285 4.6392 1.8859
-16.1879 3.3044 1.8682
-16.2872 1.9802 1.8556
-16.3828 0.6656 1.8541
-16.4795 -0.6557 1.8641
-16.5785 -2.0015 1.8859
-16.3826 -3.3298 1.8859
-16.0854 -4.6410 1.8859
-15.6881 -5.9277 1.8859
-15.1923 -7.1826 1.8859
-15.2059 -8.7468 1.9641
-15.0394 -10.3413 2.0383
-14.2010 -11.5480 2.0383
-13.2689 -12.6896 2.0383
-12.2478 -13.7591 2.0383
-11.1429 -14.7493 2.0383
-9.9597 -15.6535 2.0383
-8.7046 -16.4655 2.0383
-7.3844 -17.1792 2.0383
-6.0064 -17.7889 2.0383
-4.5786 -18.2897 2.0383
-3.1093 -18.6771 2.0383
-1.6075 -18.9471 2.0383
-0.0825 -19.0964 2.0383
1.4561 -19.1227 2.0383
2.9982 -19.0240 2.0383
0.4715 -15.0801 2.0383
1.6855 -15.0442 2.0383
2.8965 -14.9097 2.0383
4.0964 -14.6767 2.0383
5.2770 -14.3458 2.0383
6.4301 -13.9183 2.0383
7.5475 -13.3964 2.0383
8.0457 -11.9296 1.9022
8.9220 -11.1777 1.8859
9.8128 -10.4508 1.8859
10.6676 -9.6740 1.8904
11.5036 -8.8603 1.9024
12.2668 -7.9677 1.9132
12.9483 -7.0028 1.9227
13.5399 -5.9737 1.9307
14.0344 -4.8894 1.9371
14.4257 -3.7599 1.9419
14.7089 -2.5961 1.9449
14.8805 -1.4094 1.9462
14.9387 -0.2117 1.9458
14.8829 0.9852 1.9435
4.5119 0.6651 0.5947
4.3258 0.9975 0.5795
4.3531 1.3796 0.5969
4.3823 1.7869 0.6196
4.4139 2.2280 0.6485
4.4487 2.7136 0.6849
4.4877 3.2584 0.7306
4.5323 3.8822 0.7881
4.5848 4.6140 0.8613
4.6480 5.4967 0.9558
8.9130 12.4417 2.0383
7.8619 13.0760 2.0383
6.7660 13.6209 2.0383
5.6330 14.0735 2.0383
4.4708 14.4317 2.0383
3.2874 14.6941 2.0383
2.0907 14.8600 2.0383
0.8886 14.9291 2.0383
-0.3112 14.9020 2.0383
-1.5011 14.7798 2.0383
-2.6737 14.5643 2.0383
-3.8219 14.2576 2.0383
-4.9389 13.8625 2.0383
-6.0181 13.3821 2.0383
-7.0533 12.8202 2.0383
-8.0386 12.1807 2.0383
-8.9687 11.4681 2.0383
-9.8383 10.6870 2.0383
-10.6429 9.8425 2.0383
-11.3780 8.9399 2.0383
-12.0399 7.9846 2.0383
-12.6250 6.9826 2.0383
-13.1303 5.9397 2.0383
-13.5532 4.8619 2.0383
-13.8915 3.7556 2.0383
-14.1433 2.6270 2.0383
-14.3074 1.4827 2.0383
-14.3829 0.3290 2.0383
-14.3692 -0.8274 2.0383
-14.2663 -1.9796 2.0383
-14.0747 -3.1221 2.0383
-13.7951 -4.2473 2.0383
-13.4289 -5.3490 2.0383
-12.9779 -6.4208 2.0383
-12.4441 -7.4562 2.0383
-11.8303 -8.4491 2.0383
-11.1396 -9.3934 2.0383
-10.3755 -10.2831 2.0383
-9.5420 -11.1125 2.0383
-8.6436 -11.8762 2.0383
-7.6853 -12.5690 2.0383
-6.6723 -13.1860 2.0383
-5.6104 -13.7227 2.0383
-4.5057 -14.1751 2.0383
-3.3649 -14.5394 2.0383
-2.1947 -14.8125 2.0383
-1.0025 -14.9917 2.0383
0.2042 -15.0749 2.0383
1.4178 -15.0605 2.0383
2.6302 -14.9478 2.0383
3.8332 -14.7365 2.0383
5.0188 -14.4271 2.0383
6.1787 -14.0208 2.0383
7.3046 -13.5194 2.0383
8.0067 -12.3374 1.9455
8.7180 -11.3276 1.8859
9.6215 -10.6175 1.8859
10.4744 -9.8422 1.8876
11.3252 -9.0467 1.8999
12.1053 -8.1710 1.9109
12.8055 -7.2214 1.9207
13.4176 -6.2057 1.9290
13.9341 -5.1327 1.9358
14.3486 -4.0123 1.9410
11.5453 -2.2491 1.5317
14.8524 -1.6724 1.9461
14.9357 -0.4761 1.9460
14.9050 0.7220 1.9442
4.9161 0.6361 0.6463
4.3199 0.9160 0.5763
4.3470 1.2934 0.5927
4.3757 1.6945 0.6141
4.4067 2.1273 0.6415
4.4407 2.6020 0.6761
4.4786 3.1323 0.7196
4.5219 3.7366 0.7742
4.5724 4.4415 0.8435
4.6329 5.2862 0.9328
9.1379 12.2902 2.0383
8.0978 12.9438 2.0383
7.0111 13.5086 2.0383
5.8856 13.9818 2.0383
4.7291 14.3610 2.0383
3.5497 14.6446 2.0383
2.3553 14.8317 2.0383
1.1537 14.9221 2.0383
-0.0473 14.9162 2.0383
-1.2400 14.8148 2.0383
-2.4171 14.6197 2.0383
-3.5712 14.3329 2.0383
-4.6957 13.9570 2.0383
-5.7837 13.4952 2.0383
-6.8291 12.9509 2.0383
-7.8260 12.3281 2.0383
-8.7687 11.6312 2.0383
-9.6520 10.8648 2.0383
-10.4713 10.0338 2.0383
-11.2221 9.1436 2.0383
-11.9005 8.1995 2.0383
-12.5028 7.2072 2.0383
-13.0259 6.1728 2.0383
-13.4672 5.1022 2.0383
-13.8243 4.0017 2.0383
-14.0953 2.8774 2.0383
-14.2788 1.7360 2.0383
-14.3739 0.5838 2.0383
-14.3799 -0.5725 2.0383
-14.2966 -1.7265 2.0383
-14.1245 -2.8716 2.0383
-13.8642 -4.0010 2.0383
-13.5170 -5.1085 2.0383
-13.0845 -6.1874 2.0383
-12.5687 -7.2314 2.0383
-11.9723 -8.2342 2.0383
-11.2983 -9.1897 2.0383
-10.5500 -10.0919 2.0383
-9.7315 -10.9351 2.0383
-8.8470 -11.7138 2.0383
-7.9014 -12.4226 2.0383
-6.9000 -13.0567 2.0383
-5.8483 -13.6115 2.0383
-4.7526 -14.0828 2.0383
-3.6191 -14.4668 2.0383
-2.4548 -14.7603 2.0383
-1.2669 -14.9603 2.0383
-0.0627 -15.0649 2.0383
1.1501 -15.0721 2.0383
2.3634 -14.9812 2.0383
0.3907 -12.4316 2.0383
1.3906 -12.3948 2.0383
2.3870 -12.2770 2.0383
3.3731 -12.0784 2.0383
4.3423 -11.7996 2.0383
5.2880 -11.4419 2.0383
6.2034 -11.0073 2.0383
7.0821 -10.4981 2.0383
7.9178 -9.9173 2.0383
8.2696 -8.8054 1.9364
8.7309 -7.9162 1.8859
9.3523 -7.2021 1.8859
9.9134 -6.4381 1.8859
10.4100 -5.6292 1.8859
10.8482 -4.7855 1.8876
11.2350 -3.9137 1.8926
11.5410 -3.0078 1.8963
11.7631 -2.0761 1.8987
11.8986 -1.1271 1.8997
11.9462 -0.1695 1.8994
11.9055 0.7877 1.8976
4.5114 0.6649 0.7257
4.3258 0.9972 0.7071
4.3531 1.3793 0.7282
4.3823 1.7865 0.7556
4.4139 2.2275 0.7906
4.4486 2.7130 0.8347
4.4876 3.2576 0.8899
4.5323 3.8813 0.9596
4.5847 4.6128 1.0482
4.6479 5.4951 1.1627
7.3313 10.2307 2.0383
6.4705 10.7582 2.0383
5.5719 11.2127 2.0383
4.6418 11.5919 2.0383
3.6867 11.8938 2.0383
2.7129 12.1171 2.0383
1.7271 12.2610 2.0383
0.7356 12.3252 2.0383
-0.2551 12.3100 2.0383
-1.2388 12.2160 2.0383
-2.2092 12.0445 2.0383
-3.1605 11.7971 2.0383
-4.0868 11.4761 2.0383
-4.9827 11.0839 2.0383
-5.8428 10.6235 2.0383
-6.6623 10.0980 2.0383
-7.4364 9.5110 2.0383
-8.1607 8.8666 2.0383
-8.8313 8.1686 2.0383
-9.4443 7.4217 2.0383
-9.9964 6.6305 2.0383
-10.4847 5.7997 2.0383
-10.9064 4.9343 2.0383
-11.2594 4.0395 2.0383
-11.5416 3.1206 2.0383
-11.7515 2.1829 2.0383
-11.8881 1.2319 2.0383
-11.9504 0.2732 2.0383
-11.9381 -0.6877 2.0383
-11.8513 -1.6453 2.0383
-11.6902 -2.5939 2.0383
-11.4557 -3.5279 2.0383
-11.1489 -4.4418 2.0383
-10.7713 -5.3303 2.0383
-10.3250 -6.1879 2.0383
-9.8121 -7.0094 2.0383
-9.2355 -7.7897 2.0383
-8.5983 -8.5239 2.0383
-7.9038 -9.2073 2.0383
-7.1561 -9.8353 2.0383
-6.3592 -10.4038 2.0383
-5.5179 -10.9088 2.0383
-4.6369 -11.3467 2.0383
-3.7214 -11.7141 2.0383
-2.7771 -12.0084 2.0383
-1.8096 -12.2268 2.0383
-0.8250 -12.3675 2.0383
0.1704 -12.4289 2.0383
1.1703 -12.4099 2.0383
2.1680 -12.3099 2.0383
3.1569 -12.1291 2.0383
4.1305 -11.8679 2.0383
5.0819 -11.5275 2.0383
6.0045 -11.1096 2.0383
6.8918 -10.6166 2.0383
7.7376 -10.0513 2.0383
8.2425 -9.0938 1.9683
8.5862 -8.0664 1.8859
9.2203 -7.3640 1.8859
9.7951 -6.6106 1.8859
10.3063 -5.8111 1.8859
10.7526 -4.9724 1.8864
11.1565 -4.1091 1.8916
11.4807 -3.2100 1.8956
11.6001 -2.2596 1.8786
11.8762 -1.3373 1.8996
11.9433 -0.3809 1.8996
11.9221 0.5772 1.8981
4.9155 0.6358 0.7887
4.3199 0.9157 0.7032
4.3469 1.2931 0.7230
4.3757 1.6942 0.7490
4.4066 2.1268 0.7822
4.4406 2.6014 0.8241
4.4786 3.1315 0.8766
4.5219 3.7357 0.9428
4.5723 4.4403 1.0267
4.6328 5.2847 1.1347
7.5154 10.1050 2.0383
6.6637 10.6481 2.0383
5.7729 11.1189 2.0383
4.8492 11.5149 2.0383
3.8991 11.8340 2.0383
2.9289 12.0747 2.0383
1.9451 12.2362 2.0383
0.9543 12.3179 2.0383
-0.0371 12.3201 2.0383
-1.0228 12.2434 2.0383
-1.9967 12.0888 2.0383
-2.9527 11.8581 2.0383
-3.8850 11.5531 2.0383
-4.7881 11.1764 2.0383
-5.6565 10.7307 2.0383
-6.4854 10.2192 2.0383
-7.2699 9.6455 2.0383
-8.0055 9.0134 2.0383
-8.6883 8.3269 2.0383
-9.3143 7.5904 2.0383
-9.8801 6.8085 2.0383
-10.3827 5.9860 2.0383
-10.8193 5.1278 2.0383
-11.1876 4.2391 2.0383
-11.4855 3.3250 2.0383
-11.7115 2.3910 2.0383
-11.8643 1.4425 2.0383
-11.9431 0.4849 2.0383
-11.9473 -0.4760 2.0383
-11.8769 -1.4348 2.0383
-11.7321 -2.3858 2.0383
-11.5137 -3.3235 2.0383
-11.2227 -4.2423 2.0383
-10.8605 -5.1369 2.0383
-10.4292 -6.0017 2.0383
-9.9308 -6.8316 2.0383
-9.3680 -7.6215 2.0383
-8.7438 -8.3662 2.0383
-8.0617 -9.0612 2.0383
-7.3253 -9.7018 2.0383
-6.5389 -10.2838 2.0383
-5.7069 -10.8031 2.0383
-4.8342 -11.2561 2.0383
-3.9259 -11.6393 2.0383
-2.9874 -11.9499 2.0383
-2.0245 -12.1853 2.0383
-1.0432 -12.3433 2.0383
-0.0497 -12.4222 2.0383
0.9498 -12.4210 2.0383
1.9485 -12.3389 2.0383
0.3336 -10.5598 2.0383
1.1825 -10.5242 2.0383
2.0276 -10.4200 2.0383
2.8635 -10.2473 2.0383
3.6843 -10.0070 2.0383
4.4846 -9.7001 2.0383
5.2588 -9.3283 2.0383
6.0014 -8.8937 2.0383
6.7073 -8.3991 2.0383
7.3714 -7.8474 2.0383
7.9889 -7.2421 2.0383
8.4269 -6.4884 2.0077
8.5149 -5.5290 1.9142
8.8074 -4.7619 1.8859
9.1683 -4.0439 1.8859
9.4689 -3.2981 1.8859
9.7071 -2.5296 1.8859
9.8810 -1.7438 1.8859
9.9894 -0.9463 1.8859
10.0315 -0.1425 1.8859
10.0071 0.6618 1.8859
4.5109 0.6646 0.8579
4.3257 0.9970 0.8358
4.3531 1.3789 0.8606
4.3823 1.7861 0.8929
4.4138 2.2269 0.9340
4.4486 2.7123 0.9857
4.4876 3.2568 1.0507
4.5322 3.8803 1.1326
4.5846 4.6115 1.2367
4.6478 5.4934 1.3713
6.2182 8.6747 2.0383
5.4903 9.1254 2.0383
4.7299 9.5147 2.0383
3.9423 9.8404 2.0383
3.1327 10.1009 2.0383
2.3067 10.2948 2.0383
1.4697 10.4214 2.0383
0.6272 10.4802 2.0383
-0.2153 10.4715 2.0383
-1.0525 10.3957 2.0383
-1.8791 10.2538 2.0383
-2.6900 10.0471 2.0383
-3.4802 9.7773 2.0383
-4.2450 9.4464 2.0383
-4.9797 9.0570 2.0383
-5.6802 8.6117 2.0383
-6.3422 8.1135 2.0383
-6.9620 7.5657 2.0383
-7.5360 6.9720 2.0383
-8.0609 6.3358 2.0383
-8.5339 5.6614 2.0383
-8.9523 4.9527 2.0383
-9.3137 4.2143 2.0383
-9.6161 3.4504 2.0383
-9.8579 2.6656 2.0383
-10.0377 1.8647 2.0383
-10.1544 1.0523 2.0383
-10.2075 0.2332 2.0383
-10.1965 -0.5877 2.0383
-10.1214 -1.4056 2.0383
-9.9827 -2.2155 2.0383
-9.7810 -3.0128 2.0383
-9.5173 -3.7927 2.0383
-9.1931 -4.5503 2.0383
-8.8101 -5.2812 2.0383
-8.3703 -5.9808 2.0383
-7.8761 -6.6447 2.0383
-7.3304 -7.2688 2.0383
-6.7360 -7.8490 2.0383
-6.0965 -8.3816 2.0383
-5.4156 -8.8629 2.0383
-4.6971 -9.2896 2.0383
-3.9453 -9.6587 2.0383
-3.1648 -9.9676 2.0383
-2.3603 -10.2138 2.0383
-1.5368 -10.3954 2.0383
-0.6994 -10.5107 2.0383
0.1465 -10.5584 2.0383
0.9954 -10.5380 2.0383
1.8419 -10.4489 2.0383
2.6803 -10.2912 2.0383
3.5049 -10.0657 2.0383
4.3102 -9.7734 2.0383
5.0906 -9.4157 2.0383
5.8407 -8.9948 2.0383
6.5551 -8.5132 2.0383
7.2288 -7.9737 2.0383
7.8570 -7.3800 2.0383
8.4061 -6.7125 2.0313
8.4964 -5.7331 1.9330
8.7284 -4.9207 1.8877
9.0938 -4.2048 1.8859
9.4080 -3.4647 1.8859
9.6601 -2.7007 1.8859
9.8483 -1.9183 1.8859
9.9712 -1.1228 1.8859
10.0279 -0.3199 1.8859
10.0182 0.4847 1.8859
4.9148 0.6355 0.9323
4.3199 0.9155 0.8313
4.3469 1.2928 0.8545
4.3756 1.6938 0.8850
4.4066 2.1263 0.9241
4.4406 2.6008 0.9733
4.4786 3.1308 1.0351
4.5218 3.7347 1.1129
4.5723 4.4391 1.2115
4.6327 5.2831 1.3385
6.3737 8.5674 2.0383
5.6538 9.0313 2.0383
4.9001 9.4343 2.0383
4.1180 9.7742 2.0383
3.3128 10.0492 2.0383
2.4899 10.2578 2.0383
1.6549 10.3993 2.0383
0.8131 10.4731 2.0383
-0.0298 10.4792 2.0383
-0.8687 10.4182 2.0383
-1.6980 10.2907 2.0383
-2.5128 10.0981 2.0383
-3.3080 9.8421 2.0383
-4.0788 9.5245 2.0383
-4.8205 9.1478 2.0383
-5.5289 8.7145 2.0383
-6.1997 8.2277 2.0383
-6.8291 7.6906 2.0383
-7.4135 7.1065 2.0383
-7.9496 6.4794 2.0383
-8.4343 5.8131 2.0383
-8.8649 5.1116 2.0383
-9.2390 4.3794 2.0383
-9.5546 3.6208 2.0383
-9.8099 2.8402 2.0383
-10.0034 2.0424 2.0383
-10.1341 1.2321 2.0383
-10.2013 0.4141 2.0383
-10.2044 -0.4068 2.0383
-10.1435 -1.2257 2.0383
-10.0187 -2.0379 2.0383
-9.8308 -2.8384 2.0383
-9.5807 -3.6225 2.0383
-9.2697 -4.3854 2.0383
-8.8995 -5.1226 2.0383
-8.4720 -5.8295 2.0383
-7.9896 -6.5017 2.0383
-7.4550 -7.1349 2.0383
-6.8711 -7.7251 2.0383
-6.2412 -8.2685 2.0383
-5.5691 -8.7613 2.0383
-4.8585 -9.2004 2.0383
-4.1137 -9.5825 2.0383
-3.3391 -9.9048 2.0383
-2.5395 -10.1650 2.0383
-1.7197 -10.3610 2.0383
-0.8849 -10.4910 2.0383
-0.0405 -10.5538 2.0383
0.8083 -10.5484 2.0383
1.6558 -10.4744 2.0383
0.2910 -9.1648 2.0383
1.0274 -9.1311 2.0383
1.7602 -9.0380 2.0383
2.4844 -8.8856 2.0383
3.1952 -8.6747 2.0383
3.8879 -8.4063 2.0383
4.5576 -8.0820 2.0383
5.1997 -7.7036 2.0383
5.8098 -7.2735 2.0383
6.3835 -6.7942 2.0383
6.9168 -6.2690 2.0383
7.4058 -5.7012 2.0383
7.8471 -5.0945 2.0383
8.2375 -4.4531 2.0383
8.5741 -3.7813 2.0383
8.6836 -3.0242 1.9989
8.7450 -2.2787 1.9638
8.8024 -1.5534 1.9420
8.8567 -0.8390 1.9328
8.9086 -0.1267 1.9359
8.9586 0.5922 1.9514
4.5104 0.6643 0.9914
4.3257 0.9967 0.9659
4.3531 1.3786 0.9944
4.3822 1.7857 1.0316
4.4138 2.2264 1.0789
4.4486 2.7117 1.1384
4.4875 3.2560 1.2132
4.5322 3.8792 1.3074
4.5609 4.5865 1.4199
4.6477 5.4918 1.5821
5.3911 7.5186 2.0383
4.7616 7.9115 2.0383
4.1035 8.2514 2.0383
3.4215 8.5364 2.0383
2.7200 8.7650 2.0383
2.0038 8.9361 2.0383
1.2776 9.0487 2.0383
0.5463 9.1026 2.0383
-0.1856 9.0978 2.0383
-0.9132 9.0347 2.0383
-1.6321 8.9140 2.0383
-2.3377 8.7367 2.0383
-3.0257 8.5044 2.0383
-3.6919 8.2188 2.0383
-4.3323 7.8820 2.0383
-4.9430 7.4962 2.0383
-5.5205 7.0641 2.0383
-6.0614 6.5885 2.0383
-6.5625 6.0724 2.0383
-7.0209 5.5193 2.0383
-7.4340 4.9325 2.0383
-7.7994 4.3156 2.0383
-8.1152 3.6725 2.0383
-8.3794 3.0070 2.0383
-8.5906 2.3232 2.0383
-8.7475 1.6251 2.0383
-8.8493 0.9170 2.0383
-8.8954 0.2030 2.0383
-8.8855 -0.5124 2.0383
-8.8195 -1.2251 2.0383
-8.6979 -1.9309 2.0383
-8.5212 -2.6254 2.0383
-8.2904 -3.3045 2.0383
-8.0067 -3.9640 2.0383
-7.6717 -4.5999 2.0383
-7.2873 -5.2082 2.0383
-6.8556 -5.7852 2.0383
-6.3790 -6.3271 2.0383
-5.8603 -6.8305 2.0383
-5.3024 -7.2920 2.0383
-4.7087 -7.7086 2.0383
-4.0826 -8.0776 2.0383
-3.4280 -8.3961 2.0383
-2.7487 -8.6620 2.0383
-2.0490 -8.8733 2.0383
-1.3331 -9.0283 2.0383
-0.6057 -9.1256 2.0383
0.1286 -9.1642 2.0383
0.8652 -9.1437 2.0383
1.5992 -9.0636 2.0383
2.3257 -8.9242 2.0383
3.0399 -8.7262 2.0383
3.7370 -8.4704 2.0383
4.4122 -8.1582 2.0383
5.0608 -7.7916 2.0383
5.6783 -7.3726 2.0383
6.2604 -6.9039 2.0383
6.8029 -6.3886 2.0383
7.3020 -5.8298 2.0383
7.7541 -5.2314 2.0383
8.1559 -4.5973 2.0383
8.5046 -3.9318 2.0383
8.6694 -3.1923 2.0086
8.7318 -2.4409 1.9704
8.7900 -1.7120 1.9457
8.8450 -0.9960 1.9337
8.8973 -0.2840 1.9341
8.9477 0.4327 1.9469
4.9142 0.6352 1.0774
4.3199 0.9152 0.9607
4.3469 1.2925 0.9874
4.3756 1.6934 1.0226
4.4066 2.1259 1.0675
4.4406 2.6002 1.1241
4.4785 3.1300 1.1952
4.5218 3.7338 1.2847
4.5722 4.4379 1.3982
4.6326 5.2816 1.5443
5.5256 7.4251 2.0383
4.9030 7.8294 2.0383
4.2508 8.1811 2.0383
3.5737 8.4784 2.0383
2.8761 8.7196 2.0383
2.1627 8.9034 2.0383
1.4383 9.0289 2.0383
0.7077 9.0958 2.0383
-0.0244 9.1039 2.0383
-0.7534 9.0536 2.0383
-1.4746 8.9455 2.0383
-2.1835 8.7806 2.0383
-2.8758 8.5603 2.0383
-3.5471 8.2863 2.0383
-4.1935 7.9605 2.0383
-4.8111 7.5853 2.0383
-5.3962 7.1632 2.0383
-5.9454 6.6969 2.0383
-6.4556 6.1895 2.0383
-6.9236 5.6443 2.0383
-7.3469 5.0646 2.0383
-7.7231 4.4540 2.0383
-8.0499 3.8163 2.0383
-8.3256 3.1554 2.0383
-8.5486 2.4753 2.0383
-8.7176 1.7800 2.0383
-8.8316 1.0737 2.0383
-8.8901 0.3607 2.0383
-8.8925 -0.3548 2.0383
-8.8389 -1.0685 2.0383
-8.7295 -1.7761 2.0383
-8.5648 -2.4734 2.0383
-8.3459 -3.1563 2.0383
-8.0737 -3.8205 2.0383
-7.7499 -4.4619 2.0383
-7.3762 -5.0766 2.0383
-6.9547 -5.6608 2.0383
-6.4878 -6.2108 2.0383
-5.9781 -6.7230 2.0383
-5.4286 -7.1940 2.0383
-4.8425 -7.6208 2.0383
-4.2232 -8.0005 2.0383
-3.5746 -8.3303 2.0383
-2.9004 -8.6080 2.0383
-2.2048 -8.8315 2.0383
-1.4921 -8.9990 2.0383
-0.7669 -9.1091 2.0383
-0.0336 -9.1608 2.0383
0.7029 -9.1533 2.0383
1.4379 -9.0864 2.0383
0.2580 -8.0835 2.0383
0.9073 -8.0518 2.0383
1.5531 -7.9678 2.0383
2.1911 -7.8317 2.0383
2.8170 -7.6442 2.0383
3.4266 -7.4061 2.0383
4.0158 -7.1189 2.0383
4.5805 -6.7843 2.0383
5.1168 -6.4043 2.0383
5.6210 -5.9814 2.0383
6.0896 -5.5182 2.0383
6.5191 -5.0177 2.0383
6.9067 -4.4832 2.0383
7.2495 -3.9184 2.0383
7.5450 -3.3270 2.0383
7.7912 -2.7131 2.0383
7.9863 -2.0808 2.0383
8.1289 -1.4345 2.0383
8.2179 -0.7785 2.0383
8.2529 -0.1175 2.0383
8.2334 0.5440 2.0383
4.5099 0.6641 1.1266
4.3257 0.9965 1.0977
4.3531 1.3783 1.1299
4.3822 1.7853 1.1720
4.4138 2.2259 1.2255
4.4485 2.7110 1.2930
4.4875 3.2552 1.3777
4.5321 3.8782 1.4844
4.4913 4.5153 1.5872
4.6476 5.4901 1.7955
4.7515 6.6245 2.0383
4.1977 6.9722 2.0383
3.6186 7.2734 2.0383
3.0181 7.5264 2.0383
2.4001 7.7298 2.0383
1.7689 7.8825 2.0383
1.1286 7.9838 2.0383
0.4835 8.0333 2.0383
-0.1625 8.0309 2.0383
-0.8050 7.9771 2.0383
-1.4401 7.8723 2.0383
-2.0637 7.7174 2.0383
-2.6720 7.5139 2.0383
-3.2613 7.2630 2.0383
-3.8280 6.9667 2.0383
-4.3686 6.6269 2.0383
-4.8800 6.2459 2.0383
-5.3590 5.8263 2.0383
-5.8030 5.3707 2.0383
-6.2092 4.8821 2.0383
-6.5754 4.3635 2.0383
-6.8994 3.8181 2.0383
-7.1793 3.2494 2.0383
-7.4135 2.6607 2.0383
-7.6007 2.0557 2.0383
-7.7398 1.4380 2.0383
-7.8299 0.8113 2.0383
-7.8706 0.1796 2.0383
-7.8616 -0.4536 2.0383
-7.8028 -1.0842 2.0383
-7.6947 -1.7086 2.0383
-7.5377 -2.3230 2.0383
-7.3327 -2.9235 2.0383
-7.0810 -3.5065 2.0383
-6.7838 -4.0684 2.0383
-6.4428 -4.6057 2.0383
-6.0600 -5.1151 2.0383
-5.6377 -5.5933 2.0383
-5.1781 -6.0371 2.0383
-4.6842 -6.4438 2.0383
-4.1587 -6.8105 2.0383
-3.6048 -7.1349 2.0383
-3.0259 -7.4146 2.0383
-2.4254 -7.6477 2.0383
-1.8072 -7.8324 2.0383
-1.1751 -7.9673 2.0383
-0.5331 -8.0512 2.0383
0.1148 -8.0834 2.0383
0.7643 -8.0633 2.0383
1.4112 -7.9908 2.0383
2.0513 -7.8662 2.0383
2.6802 -7.6899 2.0383
3.2938 -7.4628 2.0383
3.8878 -7.1864 2.0383
4.4583 -6.8621 2.0383
5.0012 -6.4919 2.0383
5.5128 -6.0782 2.0383
5.9895 -5.6236 2.0383
6.4279 -5.1310 2.0383
6.8250 -4.6038 2.0383
7.1779 -4.0454 2.0383
7.4840 -3.4595 2.0383
7.7413 -2.8502 2.0383
7.9477 -2.2216 2.0383
8.1020 -1.5779 2.0383
8.2029 -0.9237 2.0383
8.2498 -0.2634 2.0383
8.2424 0.3984 2.0383
4.9135 0.6349 1.2242
4.3199 0.9150 1.0917
4.3469 1.2922 1.1220
4.3756 1.6930 1.1618
4.4066 2.1254 1.2126
4.4405 2.5996 1.2768
4.4785 3.1292 1.3573
4.5217 3.7328 1.4587
4.5548 4.4199 1.5812
4.6325 5.2800 1.7527
4.8698 6.5419 2.0383
4.3221 6.8995 2.0383
3.7483 7.2111 2.0383
3.1521 7.4749 2.0383
2.5376 7.6893 2.0383
1.9090 7.8532 2.0383
1.2704 7.9659 2.0383
0.6259 8.0268 2.0383
-0.0202 8.0359 2.0383
-0.6638 7.9933 2.0383
-1.3009 7.8997 2.0383
-1.9274 7.7558 2.0383
-2.5394 7.5629 2.0383
-3.1332 7.3223 2.0383
-3.7051 7.0358 2.0383
-4.2518 6.7054 2.0383
-4.7699 6.3333 2.0383
-5.2563 5.9220 2.0383
-5.7083 5.4741 2.0383
-6.1230 4.9925 2.0383
-6.4982 4.4803 2.0383
-6.8317 3.9405 2.0383
-7.1214 3.3765 2.0383
-7.3659 2.7920 2.0383
-7.5635 2.1903 2.0383
-7.7133 1.5751 2.0383
-7.8143 0.9501 2.0383
-7.8659 0.3191 2.0383
-7.8678 -0.3141 2.0383
-7.8200 -0.9456 2.0383
-7.7227 -1.5717 2.0383
-7.5765 -2.1886 2.0383
-7.3820 -2.7925 2.0383
-7.1404 -3.3796 2.0383
-6.8531 -3.9465 2.0383
-6.5216 -4.4896 2.0383
-6.1479 -5.0054 2.0383
-5.7341 -5.4907 2.0383
-5.2825 -5.9424 2.0383
-4.7959 -6.3575 2.0383
-4.2771 -6.7332 2.0383
-3.7292 -7.0672 2.0383
-3.1555 -7.3569 2.0383
-2.5595 -7.6004 2.0383
-1.9449 -7.7959 2.0383
-1.3155 -7.9419 2.0383
-0.6753 -8.0371 2.0383
-0.0283 -8.0808 2.0383
0.6212 -8.0722 2.0383
1.2691 -8.0113 2.0383
0.2317 -7.2195 2.0383
0.8114 -7.1899 2.0383
1.3878 -7.1135 2.0383
1.9570 -6.9907 2.0383
2.5152 -6.8221 2.0383
3.0587 -6.6085 2.0383
3.5839 -6.3512 2.0383
4.0871 -6.0518 2.0383
4.5648 -5.7120 2.0383
5.0138 -5.3341 2.0383
5.4310 -4.9204 2.0383
5.8134 -4.4737 2.0383
6.1584 -3.9968 2.0383
6.4634 -3.4930 2.0383
6.7264 -2.9657 2.0383
6.9455 -2.4183 2.0383
7.1191 -1.8547 2.0383
7.2461 -1.2786 2.0383
7.3254 -0.6940 2.0383
7.3567 -0.1049 2.0383
7.3396 0.4847 2.0383
4.5094 0.6638 1.2636
4.3257 0.9962 1.2312
4.3531 1.3779 1.2673
4.3822 1.7848 1.3143
4.4137 2.2254 1.3742
4.4485 2.7104 1.4497
4.4874 3.2543 1.5445
4.5321 3.8772 1.6638
4.4937 4.5165 1.7797
4.7087 5.5607 2.0383
4.2414 5.9115 2.0383
3.7478 6.2228 2.0383
3.2315 6.4928 2.0383
2.6959 6.7199 2.0383
2.1446 6.9028 2.0383
1.5812 7.0405 2.0383
1.0095 7.1323 2.0383
0.4332 7.1779 2.0383
-0.1440 7.1772 2.0383
-0.7184 7.1304 2.0383
-1.2863 7.0380 2.0383
-1.8441 6.9008 2.0383
-2.3885 6.7199 2.0383
-2.9160 6.4966 2.0383
-3.4234 6.2325 2.0383
-3.9077 5.9294 2.0383
-4.3658 5.5893 2.0383
-4.7951 5.2144 2.0383
-5.1931 4.8072 2.0383
-5.5573 4.3703 2.0383
-5.8856 3.9064 2.0383
-6.1761 3.4184 2.0383
-6.4271 2.9093 2.0383
-6.6372 2.3824 2.0383
-6.8050 1.8406 2.0383
-6.9297 1.2875 2.0383
-7.0105 0.7264 2.0383
-7.0468 0.1607 2.0383
-7.0386 -0.4063 2.0383
-6.9857 -0.9710 2.0383
-6.8885 -1.5300 2.0383
-6.7475 -2.0799 2.0383
-6.5634 -2.6174 2.0383
-6.3374 -3.1390 2.0383
-6.0707 -3.6416 2.0383
-5.7649 -4.1221 2.0383
-5.4216 -4.5774 2.0383
-5.0429 -5.0045 2.0383
-4.6311 -5.4009 2.0383
-4.1885 -5.7637 2.0383
-3.7179 -6.0908 2.0383
-3.2220 -6.3797 2.0383
-2.7038 -6.6286 2.0383
-2.1667 -6.8357 2.0383
-1.6138 -6.9995 2.0383
-1.0487 -7.1187 2.0383
-0.4750 -7.1923 2.0383
0.1038 -7.2197 2.0383
0.6837 -7.2004 2.0383
1.2612 -7.1344 2.0383
1.8323 -7.0218 2.0383
2.3933 -6.8632 2.0383
2.9404 -6.6594 2.0383
3.4699 -6.4117 2.0383
3.9782 -6.1214 2.0383
4.4619 -5.7903 2.0383
4.9175 -5.4206 2.0383
5.3419 -5.0146 2.0383
5.7322 -4.5749 2.0383
6.0857 -4.1044 2.0383
6.3997 -3.6062 2.0383
6.6722 -3.0838 2.0383
6.9011 -2.5405 2.0383
7.0848 -1.9801 2.0383
7.2222 -1.4065 2.0383
7.3121 -0.8234 2.0383
7.3539 -0.2349 2.0383
7.3475 0.3549 2.0383
4.9128 0.6346 1.3731
4.3199 0.9147 1.2246
4.3469 1.2919 1.2584
4.3756 1.6926 1.3029
4.4065 2.1248 1.3598
4.4405 2.5990 1.4316
4.4784 3.1284 1.5217
4.5216 3.7318 1.6350
4.5548 4.4187 1.7721
4.8078 5.4783 2.0383
4.3467 5.8375 2.0383
3.8587 6.1577 2.0383
3.3472 6.4369 2.0383
2.8155 6.6736 2.0383
2.2673 6.8663 2.0383
1.7063 7.0141 2.0383
1.1361 7.1160 2.0383
0.5605 7.1718 2.0383
-0.0169 7.1813 2.0383
-0.5922 7.1446 2.0383
-1.1618 7.0622 2.0383
-1.7222 6.9348 2.0383
-2.2698 6.7635 2.0383
-2.8013 6.5494 2.0383
-3.3134 6.2942 2.0383
-3.8031 5.9995 2.0383
-4.2672 5.6673 2.0383
-4.7031 5.2999 2.0383
-5.1082 4.8997 2.0383
-5.4800 4.4691 2.0383
-5.8164 4.0109 2.0383
-6.1154 3.5279 2.0383
-6.3753 3.0232 2.0383
-6.5945 2.4999 2.0383
-6.7717 1.9612 2.0383
-6.9060 1.4103 2.0383
-6.9965 0.8507 2.0383
-7.0426 0.2856 2.0383
-7.0442 -0.2814 2.0383
-7.0012 -0.8469 2.0383
-6.9137 -1.4074 2.0383
-6.7823 -1.9596 2.0383
-6.6077 -2.5001 2.0383
-6.3908 -3.0255 2.0383
-6.1330 -3.5326 2.0383
-5.8356 -4.0182 2.0383
-5.5004 -4.4793 2.0383
-5.1293 -4.9129 2.0383
-4.7246 -5.3163 2.0383
-4.2886 -5.6867 2.0383
-3.8239 -6.0219 2.0383
-3.3333 -6.3194 2.0383
-2.8198 -6.5773 2.0383
-2.2866 -6.7938 2.0383
-1.7369 -6.9672 2.0383
-1.1742 -7.0963 2.0383
-0.6020 -7.1801 2.0383
-0.0241 -7.2177 2.0383
0.5560 -7.2087 2.0383
1.1343 -7.1529 2.0383
0.2101 -6.5122 2.0383
0.7329 -6.4845 2.0383
1.2525 -6.4147 2.0383
1.7655 -6.3031 2.0383
2.2685 -6.1501 2.0383
2.7581 -5.9568 2.0383
3.2311 -5.7241 2.0383
3.6841 -5.4535 2.0383
4.1141 -5.1468 2.0383
4.5182 -4.8057 2.0383
4.8936 -4.4326 2.0383
5.2376 -4.0298 2.0383
5.5479 -3.6000 2.0383
5.8222 -3.1460 2.0383
6.0588 -2.6710 2.0383
6.2558 -2.1779 2.0383
6.4120 -1.6703 2.0383
6.5262 -1.1515 2.0383
6.5976 -0.6251 2.0383
6.6258 -0.0946 2.0383
6.6106 0.4364 2.0383
4.5089 0.6635 1.4027
4.3257 0.9959 1.3668
4.3530 1.3776 1.4068
4.3511 1.7717 1.4486
4.4137 2.2248 1.5253
4.4484 2.7097 1.6089
4.4874 3.2535 1.7138
4.5320 3.8761 1.8460
4.6392 4.6614 2.0383
4.2451 5.0117 2.0383
3.8244 5.3286 2.0383
3.3800 5.6101 2.0383
2.9150 5.8544 2.0383
2.4324 6.0601 2.0383
1.9355 6.2259 2.0383
1.4275 6.3511 2.0383
0.9119 6.4350 2.0383
0.3920 6.4771 2.0383
-0.1288 6.4775 2.0383
-0.6473 6.4362 2.0383
-1.1601 6.3537 2.0383
-1.6640 6.2308 2.0383
-2.1559 6.0683 2.0383
-2.6326 5.8675 2.0383
-3.0913 5.6297 2.0383
-3.5291 5.3565 2.0383
-3.9434 5.0498 2.0383
-4.3318 4.7116 2.0383
-4.6918 4.3441 2.0383
-5.0214 3.9496 2.0383
-5.3185 3.5306 2.0383
-5.5814 3.0897 2.0383
-5.8086 2.6297 2.0383
-5.9987 2.1534 2.0383
-6.1506 1.6638 2.0383
-6.2634 1.1638 2.0383
-6.3364 0.6566 2.0383
-6.3693 0.1451 2.0383
-6.3616 -0.3674 2.0383
-6.3136 -0.8779 2.0383
-6.2255 -1.3831 2.0383
-6.0977 -1.8801 2.0383
-5.9310 -2.3657 2.0383
-5.7263 -2.8370 2.0383
-5.4847 -3.2909 2.0383
-5.2078 -3.7247 2.0383
-4.8972 -4.1357 2.0383
-4.5545 -4.5211 2.0383
-4.1820 -4.8785 2.0383
-3.7817 -5.2056 2.0383
-3.3562 -5.5002 2.0383
-2.9079 -5.7603 2.0383
-2.4398 -5.9841 2.0383
-1.9546 -6.1702 2.0383
-1.4553 -6.3170 2.0383
-0.9452 -6.4236 2.0383
-0.4274 -6.4890 2.0383
0.0947 -6.5127 2.0383
0.6178 -6.4943 2.0383
1.1384 -6.4337 2.0383
1.6532 -6.3312 2.0383
2.1587 -6.1873 2.0383
2.6515 -6.0028 2.0383
3.1284 -5.7787 2.0383
3.5861 -5.5164 2.0383
4.0214 -5.2174 2.0383
4.4315 -4.8838 2.0383
4.8134 -4.5175 2.0383
5.1645 -4.1210 2.0383
5.4825 -3.6969 2.0383
5.7649 -3.2480 2.0383
6.0100 -2.7773 2.0383
6.2158 -2.2880 2.0383
6.3811 -1.7833 2.0383
6.5047 -1.2667 2.0383
6.5856 -0.7416 2.0383
6.6233 -0.2117 2.0383
6.6177 0.3195 2.0383
4.9122 0.6343 1.5243
4.3199 0.9145 1.3595
4.3469 1.2915 1.3970
4.3428 1.6795 1.4354
4.4065 2.1243 1.5093
4.4405 2.5983 1.5888
4.4784 3.1276 1.6886
4.5216 3.7308 1.8142
4.7222 4.5799 2.0383
4.3343 4.9373 2.0383
3.9193 5.2617 2.0383
3.4799 5.5512 2.0383
3.0191 5.8038 2.0383
2.5401 6.0181 2.0383
2.0461 6.1928 2.0383
1.5403 6.3271 2.0383
1.0261 6.4201 2.0383
0.5069 6.4714 2.0383
-0.0141 6.4810 2.0383
-0.5334 6.4489 2.0383
-1.0477 6.3754 2.0383
-1.5539 6.2613 2.0383
-2.0486 6.1075 2.0383
-2.5289 5.9150 2.0383
-2.9918 5.6852 2.0383
-3.4345 5.4197 2.0383
-3.8543 5.1202 2.0383
-4.2485 4.7888 2.0383
-4.6150 4.4275 2.0383
-4.9514 4.0388 2.0383
-5.2559 3.6249 2.0383
-5.5265 3.1886 2.0383
-5.7616 2.7326 2.0383
-5.9600 2.2597 2.0383
-6.1204 1.7727 2.0383
-6.2419 1.2748 2.0383
-6.3238 0.7689 2.0383
-6.3655 0.2581 2.0383
-6.3668 -0.2545 2.0383
-6.3277 -0.7657 2.0383
-6.2484 -1.2724 2.0383
-6.1292 -1.7714 2.0383
-5.9710 -2.2598 2.0383
-5.7746 -2.7345 2.0383
-5.5411 -3.1925 2.0383
-5.2719 -3.6310 2.0383
-4.9685 -4.0472 2.0383
-4.6327 -4.4384 2.0383
-4.2665 -4.8022 2.0383
-3.8722 -5.1362 2.0383
-3.4520 -5.4381 2.0383
-3.0086 -5.7060 2.0383
-2.5446 -5.9380 2.0383
-2.0628 -6.1325 2.0383
-1.5664 -6.2881 2.0383
-1.0584 -6.4036 2.0383
-0.5420 -6.4782 2.0383
-0.0206 -6.5111 2.0383
0.5026 -6.5019 2.0383
1.0240 -6.4507 2.0383
0.1921 -5.9218 2.0383
0.6674 -5.8959 2.0383
1.1397 -5.8316 2.0383
1.6059 -5.7294 2.0383
0.7431 -2.0137 0.7343
2.5075 -5.4134 2.0383
2.9370 -5.2014 2.0383
3.3482 -4.9550 2.0383
3.7386 -4.6758 2.0383
4.1053 -4.3656 2.0383
4.4459 -4.0263 2.0383
4.7581 -3.6602 2.0383
5.0396 -3.2696 2.0383
5.2885 -2.8572 2.0383
5.5030 -2.4256 2.0383
5.6818 -1.9778 2.0383
5.8234 -1.5168 2.0383
5.9271 -1.0457 2.0383
5.9919 -0.5677 2.0383
6.0176 -0.0860 2.0383
6.0039 0.3961 2.0383
4.5084 0.6632 1.5442
4.3257 0.9957 1.5049
4.3530 1.3772 1.5487
4.2826 1.7434 1.5695
4.4137 2.2243 1.6790
4.4484 2.7090 1.7708
4.8493 3.5150 2.0383
4.5473 3.8882 2.0383
4.2163 4.2353 2.0383
3.8586 4.5541 2.0383
3.4767 4.8426 2.0383
3.0732 5.0990 2.0383
2.6509 5.3217 2.0383
2.2124 5.5094 2.0383
1.7609 5.6609 2.0383
1.2992 5.7755 2.0383
0.8305 5.8525 2.0383
0.3576 5.8916 2.0383
-0.1162 5.8927 2.0383
-0.5879 5.8559 2.0383
-1.0547 5.7816 2.0383
-1.5134 5.6704 2.0383
-1.9612 5.5232 2.0383
-2.3954 5.3410 2.0383
-2.8132 5.1251 2.0383
-3.2122 4.8769 2.0383
-3.5898 4.5981 2.0383
-3.9437 4.2905 2.0383
-4.2719 3.9561 2.0383
-4.5724 3.5971 2.0383
-4.8433 3.2157 2.0383
-5.0830 2.8143 2.0383
-5.2902 2.3954 2.0383
-5.4635 1.9616 2.0383
-5.6020 1.5156 2.0383
-5.7049 1.0601 2.0383
-5.7714 0.5980 2.0383
-5.8013 0.1321 2.0383
-5.7943 -0.3348 2.0383
-5.7504 -0.7998 2.0383
-5.6699 -1.2600 2.0383
-5.5532 -1.7127 2.0383
-5.4010 -2.1549 2.0383
-5.2142 -2.5839 2.0383
-4.9939 -2.9972 2.0383
-4.7413 -3.3919 2.0383
-4.4580 -3.7658 2.0383
-4.1456 -4.1163 2.0383
-3.8060 -4.4413 2.0383
-3.4413 -4.7385 2.0383
-3.0536 -5.0061 2.0383
-2.6453 -5.2422 2.0383
-2.2190 -5.4453 2.0383
-1.7773 -5.6139 2.0383
-1.3229 -5.7467 2.0383
-0.8587 -5.8429 2.0383
-0.3877 -5.9016 2.0383
0.0872 -5.9224 2.0383
0.5628 -5.9049 2.0383
1.0360 -5.8491 2.0383
1.5038 -5.7552 2.0383
0.7073 -2.0264 0.7345
2.4107 -5.4554 2.0383
2.8437 -5.2511 2.0383
3.2593 -5.0122 2.0383
3.6545 -4.7401 2.0383
4.0266 -4.4366 2.0383
4.3732 -4.1035 2.0383
4.6918 -3.7431 2.0383
4.9802 -3.3577 2.0383
5.2365 -2.9498 2.0383
5.4587 -2.5223 2.0383
5.6455 -2.0778 2.0383
5.7954 -1.6194 2.0383
5.9075 -1.1503 2.0383
5.9810 -0.6735 2.0383
6.0153 -0.1923 2.0383
6.0103 0.2900 2.0383
4.9115 0.6340 1.6780
4.3199 0.9142 1.4968
4.3469 1.2912 1.5380
4.2784 1.6542 1.5568
4.4065 2.1238 1.6614
4.4404 2.5977 1.7487
4.9118 3.4295 2.0383
4.6164 3.8081 2.0383
4.2916 4.1611 2.0383
3.9396 4.4864 2.0383
3.5629 4.7817 2.0383
3.1639 5.0453 2.0383
2.7455 5.2756 2.0383
2.3103 5.4711 2.0383
1.8614 5.6307 2.0383
1.4017 5.7535 2.0383
0.9343 5.8388 2.0383
0.4621 5.8863 2.0383
-0.0118 5.8957 2.0383
-0.4843 5.8673 2.0383
-0.9523 5.8012 2.0383
-1.4131 5.6981 2.0383
-1.8636 5.5587 2.0383
-2.3010 5.3841 2.0383
-2.7227 5.1755 2.0383
-3.1260 4.9343 2.0383
-3.5085 4.6621 2.0383
-3.8678 4.3607 2.0383
-4.2019 4.0320 2.0383
-4.5086 3.6783 2.0383
-4.7862 3.3016 2.0383
-5.0329 2.9043 2.0383
-5.2474 2.4891 2.0383
-5.4283 2.0583 2.0383
-5.5746 1.6148 2.0383
-5.6853 1.1612 2.0383
-5.7599 0.7003 2.0383
-5.7979 0.2350 2.0383
-5.7990 -0.2320 2.0383
-5.7632 -0.6976 2.0383
-5.6908 -1.1591 2.0383
-5.5820 -1.6137 2.0383
-5.4376 -2.0584 2.0383
-5.2583 -2.4906 2.0383
-5.0453 -2.9075 2.0383
-4.7997 -3.3067 2.0383
-4.5230 -3.6853 2.0383
-4.2169 -4.0412 2.0383
-3.8831 -4.3720 2.0383
-3.5238 -4.6755 2.0383
-3.1409 -4.9498 2.0383
-2.7370 -5.1930 2.0383
-2.3144 -5.4034 2.0383
-0.6831 -2.0318 0.7422
-1.4240 -5.7206 2.0383
-0.9617 -5.8249 2.0383
-0.4919 -5.8919 2.0383
-0.0177 -5.9211 2.0383
0.4580 -5.9120 2.0383
0.9320 -5.8647 2.0383
0.0640 -1.9633 0.7382
0.2213 -1.9522 0.7374
0.3773 -1.9286 0.7365
0.5308 -1.8926 0.7358
0.6810 -1.8445 0.7351
2.2951 -4.9527 2.0383
2.6877 -4.7583 2.0383
3.0637 -4.5326 2.0383
3.4205 -4.2768 2.0383
3.7556 -3.9928 2.0383
4.0668 -3.6822 2.0383
4.3520 -3.3472 2.0383
4.6092 -2.9899 2.0383
4.8365 -2.6126 2.0383
5.0325 -2.2179 2.0383
5.1958 -1.8084 2.0383
5.3252 -1.3869 2.0383
5.4199 -0.9562 2.0383
5.4792 -0.5192 2.0383
5.5027 -0.0788 2.0383
5.4902 0.3621 2.0383
4.5078 0.6629 1.6884
4.3257 0.9954 1.6455
4.3530 1.3769 1.6934
4.2694 1.7376 1.7108
4.4137 2.2237 1.8356
4.6837 2.8516 2.0383
4.4362 3.2148 2.0383
4.1603 3.5564 2.0383
3.8579 3.8742 2.0383
3.5310 4.1662 2.0383
3.1820 4.4306 2.0383
2.8131 4.6656 2.0383
2.4268 4.8699 2.0383
0.7394 1.8404 0.7440
0.5894 1.8937 0.7449
0.4356 1.9347 0.7459
0.2789 1.9632 0.7468
0.3284 5.3944 2.0383
-0.1054 5.3960 2.0383
-0.1977 1.9721 0.7495
-0.3553 1.9494 0.7504
-0.5105 1.9141 0.7511
-0.6624 1.8664 0.7519
-2.1937 4.8933 2.0383
-2.5768 4.6959 2.0383
-2.9426 4.4689 2.0383
-3.2888 4.2137 2.0383
-3.6135 3.9322 2.0383
-3.9145 3.6260 2.0383
-4.1902 3.2971 2.0383
-4.4387 2.9476 2.0383
-4.6587 2.5797 2.0383
-4.8488 2.1958 2.0383
-5.0078 1.7982 2.0383
-5.1349 1.3894 2.0383
-5.2293 0.9718 2.0383
-5.2903 0.5481 2.0383
-5.3176 0.1210 2.0383
-5.3111 -0.3071 2.0383
-5.2708 -0.7334 2.0383
-5.1968 -1.1552 2.0383
-5.0896 -1.5701 2.0383
-4.9499 -1.9754 2.0383
-4.7784 -2.3686 2.0383
-4.5762 -2.7471 2.0383
-4.3444 -3.1088 2.0383
-4.0844 -3.4511 2.0383
-3.7978 -3.7721 2.0383
-3.4863 -4.0694 2.0383
-3.1518 -4.3414 2.0383
-2.7964 -4.5861 2.0383
-2.4221 -4.8019 2.0383
-0.7406 -1.8182 0.7431
-0.5922 -1.8719 0.7421
-0.4401 -1.9135 0.7412
-0.2852 -1.9428 0.7402
-0.1284 -1.9597 0.7393
0.0293 -1.9640 0.7384
0.1867 -1.9557 0.7375
0.3430 -1.9348 0.7367
0.4972 -1.9016 0.7359
0.6482 -1.8561 0.7352
2.2065 -4.9913 2.0383
2.6025 -4.8039 2.0383
2.9824 -4.5850 2.0383
3.3436 -4.3357 2.0383
3.6837 -4.0578 2.0383
4.0004 -3.7529 2.0383
4.2915 -3.4230 2.0383
4.5550 -3.0704 2.0383
4.7890 -2.6974 2.0383
4.9921 -2.3063 2.0383
5.1627 -1.8999 2.0383
5.2997 -1.4807 2.0383
5.4021 -1.0518 2.0383
5.4692 -0.6159 2.0383
5.5006 -0.1760 2.0383
5.4961 0.2650 2.0383
4.9108 0.6337 1.8347
4.3199 0.9140 1.6367
4.3469 1.2909 1.6817
4.2618 1.6473 1.6955
4.4065 2.1233 1.8164
4.7343 2.7689 2.0383
4.4933 3.1365 2.0383
4.2235 3.4830 2.0383
3.9267 3.8063 2.0383
3.6051 4.1042 2.0383
3.2607 4.3748 2.0383
2.8960 4.6164 2.0383
2.5134 4.8276 2.0383
0.7719 1.8270 0.7437
0.6229 1.8830 0.7447
0.4698 1.9268 0.7457
0.3137 1.9580 0.7466
0.4240 5.3894 2.0383
-0.0098 5.3987 2.0383
-0.4425 5.3732 2.0383
-0.3207 1.9555 0.7502
-0.4765 1.9230 0.7510
-0.6293 1.8780 0.7517
-2.1072 4.9327 2.0383
-2.4937 4.7420 2.0383
-2.8635 4.5214 2.0383
-3.2143 4.2723 2.0383
-3.5439 3.9964 2.0383
-3.8503 3.6955 2.0383
-4.1317 3.3714 2.0383
-4.3863 3.0263 2.0383
-4.6127 2.6623 2.0383
-4.8095 2.2817 2.0383
-4.9755 1.8869 2.0383
-5.1097 1.4803 2.0383
-5.2113 1.0645 2.0383
-5.2797 0.6419 2.0383
-5.3145 0.2153 2.0383
-5.3155 -0.2128 2.0383
-5.2826 -0.6397 2.0383
-5.2160 -1.0627 2.0383
-5.1161 -1.4794 2.0383
-4.9835 -1.8870 2.0383
-4.8189 -2.2830 2.0383
-4.6233 -2.6650 2.0383
-4.3980 -3.0306 2.0383
-4.1441 -3.3774 2.0383
-3.8632 -3.7032 2.0383
-3.5571 -4.0060 2.0383
-3.2275 -4.2837 2.0383
-2.8764 -4.5346 2.0383
-2.5061 -4.7569 2.0383
-0.7727 -1.8048 0.7433
-0.6253 -1.8611 0.7423
-0.4739 -1.9054 0.7414
-0.3195 -1.9374 0.7404
-0.1630 -1.9571 0.7395
-0.0055 -1.9641 0.7386
0.1521 -1.9586 0.7377
0.3087 -1.9405 0.7369
0.0593 -1.8081 0.7386
0.2042 -1.7979 0.7378
0.3478 -1.7761 0.7371
0.4892 -1.7430 0.7364
0.6275 -1.6986 0.7357
0.7618 -1.6434 0.7351
2.4734 -4.3775 2.0383
2.8191 -4.1695 2.0383
3.1471 -3.9340 2.0383
3.4551 -3.6725 2.0383
3.7411 -3.3866 2.0383
4.0032 -3.0783 2.0383
4.2395 -2.7496 2.0383
4.4484 -2.4025 2.0383
4.6285 -2.0395 2.0383
4.7785 -1.6630 2.0383
4.8974 -1.2754 2.0383
4.9844 -0.8793 2.0383
5.0389 -0.4775 2.0383
5.0606 -0.0725 2.0383
5.0492 0.3328 2.0383
4.5073 0.6626 1.8356
4.3257 0.9951 1.7892
4.3530 1.3765 1.8412
4.3525 1.7710 1.8961
4.5082 2.2708 2.0383
4.3086 2.6226 2.0383
4.0812 2.9568 2.0383
3.8277 3.2712 2.0383
3.5498 3.5638 2.0383
3.2494 3.8328 2.0383
2.9285 4.0763 2.0383
2.5893 4.2929 2.0383
2.2341 4.4813 2.0383
0.6808 1.6936 0.7439
0.5427 1.7426 0.7448
0.4012 1.7804 0.7457
0.2570 1.8066 0.7466
0.1112 1.8211 0.7474
-0.0353 1.8239 0.7483
-0.1816 1.8148 0.7491
-0.3266 1.7939 0.7498
-0.4695 1.7614 0.7505
-0.6092 1.7176 0.7512
-0.7450 1.6626 0.7518
-2.3729 4.3259 2.0383
-2.7101 4.1170 2.0383
-3.0293 3.8823 2.0383
-3.3286 3.6231 2.0383
-3.6062 3.3411 2.0383
-3.8604 3.0382 2.0383
-4.0896 2.7163 2.0383
-4.2925 2.3774 2.0383
-4.4678 2.0236 2.0383
-4.6146 1.6572 2.0383
-4.7318 1.2804 2.0383
-4.8188 0.8956 2.0383
-4.8750 0.5051 2.0383
-4.9002 0.1114 2.0383
-4.8941 -0.2831 2.0383
-4.8568 -0.6760 2.0383
-4.7885 -1.0648 2.0383
-4.6896 -1.4471 2.0383
-4.5607 -1.8205 2.0383
-4.4024 -2.1827 2.0383
-4.2158 -2.5314 2.0383
-4.0020 -2.8645 2.0383
-3.7622 -3.1797 2.0383
-3.4979 -3.4752 2.0383
-3.2107 -3.7489 2.0383
-2.9023 -3.9991 2.0383
-2.5747 -4.2241 2.0383
-2.2298 -4.4225 2.0383
-0.6817 -1.6745 0.7431
-0.5451 -1.7239 0.7422
-0.4050 -1.7622 0.7413
-0.2623 -1.7893 0.7405
-0.1179 -1.8048 0.7396
0.0273 -1.8088 0.7388
0.1723 -1.8011 0.7380
0.3163 -1.7819 0.7373
0.4582 -1.7513 0.7365
0.5973 -1.7094 0.7359
0.7326 -1.6565 0.7352
2.3951 -4.4195 2.0383
2.7443 -4.2177 2.0383
3.0764 -3.9882 2.0383
3.3890 -3.7323 2.0383
3.6801 -3.4516 2.0383
3.9476 -3.1481 2.0383
4.1897 -2.8237 2.0383
4.4048 -2.4805 2.0383
4.5913 -2.1208 2.0383
4.7481 -1.7471 2.0383
4.8739 -1.3616 2.0383
4.9680 -0.9672 2.0383
5.0297 -0.5664 2.0383
5.0586 -0.1619 2.0383
5.0545 0.2435 2.0383
5.0175 0.6473 2.0383
4.3199 0.9137 1.7796
4.3468 1.2905 1.8284
4.3142 1.6672 1.8661
4.5484 2.1911 2.0383
4.3551 2.5465 2.0383
4.1337 2.8847 2.0383
3.8858 3.2037 2.0383
3.6131 3.5013 2.0383
3.3175 3.7756 2.0383
3.0009 4.0249 2.0383
2.6656 4.2476 2.0383
2.3137 4.4423 2.0383
0.7107 1.6813 0.7437
0.5735 1.7328 0.7446
0.4326 1.7730 0.7455
0.2890 1.8018 0.7464
0.1434 1.8189 0.7472
-0.0030 1.8243 0.7481
-0.1494 1.8178 0.7489
-0.2948 1.7995 0.7497
-0.4382 1.7696 0.7504
-0.5787 1.7282 0.7511
-0.7155 1.6756 0.7517
-2.2963 4.3683 2.0383
-2.6372 4.1654 2.0383
-2.9606 3.9362 2.0383
-3.2644 3.6822 2.0383
-3.5470 3.4051 2.0383
-3.8065 3.1067 2.0383
-4.0413 2.7888 2.0383
-4.2501 2.4534 2.0383
-4.4316 2.1028 2.0383
-4.5847 1.7389 2.0383
-4.7085 1.3642 2.0383
-4.8022 0.9810 2.0383
-4.8653 0.5915 2.0383
-4.8973 0.1983 2.0383
-4.8982 -0.1962 2.0383
-4.8677 -0.5896 2.0383
-4.8062 -0.9795 2.0383
-4.7140 -1.3635 2.0383
-4.5916 -1.7391 2.0383
-4.4398 -2.1039 2.0383
-4.2593 -2.4558 2.0383
-4.0514 -2.7925 2.0383
-3.8172 -3.1119 2.0383
-3.5582 -3.4118 2.0383
-3.2759 -3.6905 2.0383
-2.9720 -3.9460 2.0383
-2.6485 -4.1768 2.0383
-2.3072 -4.3811 2.0383
-0.7112 -1.6621 0.7433
-0.5755 -1.7139 0.7424
-0.4361 -1.7548 0.7415
-0.2939 -1.7843 0.7407
-0.1498 -1.8024 0.7398
-0.0048 -1.8089 0.7390
0.1404 -1.8038 0.7382
0.2847 -1.7871 0.7374
0.0552 -1.6728 0.7390
0.1892 -1.6634 0.7383
0.3220 -1.6432 0.7376
0.4529 -1.6126 0.7369
0.5808 -1.5715 0.7363
0.7051 -1.5204 0.7357
2.2870 -4.0461 2.0383
2.6063 -3.8536 2.0383
2.9093 -3.6357 2.0383
3.1938 -3.3938 2.0383
3.4579 -3.1295 2.0383
3.6999 -2.8445 2.0383
3.9181 -2.5406 2.0383
4.1109 -2.2199 2.0383
4.2772 -1.8845 2.0383
4.4157 -1.5365 2.0383
4.5255 -1.1784 2.0383
4.6059 -0.8125 2.0383
4.6562 -0.4412 2.0383
4.6762 -0.0671 2.0383
4.6658 0.3074 2.0383
4.6249 0.6797 2.0383
4.5540 1.0473 2.0383
4.4535 1.4079 2.0383
4.3241 1.7590 2.0383
4.1667 2.0982 2.0383
3.9824 2.4234 2.0383
3.7725 2.7323 2.0383
3.5384 3.0231 2.0383
3.2818 3.2938 2.0383
3.0043 3.5426 2.0383
2.7079 3.7680 2.0383
2.3946 3.9685 2.0383
0.7533 1.5103 0.7431
0.6297 1.5658 0.7439
0.5021 1.6111 0.7447
0.3712 1.6460 0.7455
0.2379 1.6702 0.7463
0.1031 1.6837 0.7471
-0.0323 1.6862 0.7479
-0.1675 1.6778 0.7486
-0.3016 1.6585 0.7493
-0.4337 1.6285 0.7500
-0.5630 1.5879 0.7506
-0.6885 1.5371 0.7512
-2.1950 4.0031 2.0383
-2.5072 3.8101 2.0383
-2.8028 3.5930 2.0383
-3.0800 3.3533 2.0383
-3.3371 3.0925 2.0383
-3.5726 2.8122 2.0383
-3.7849 2.5143 2.0383
-3.9728 2.2007 2.0383
-4.1353 1.8732 2.0383
-4.2712 1.5341 2.0383
-4.3797 1.1853 2.0383
-4.4603 0.8290 2.0383
-4.5124 0.4675 2.0383
-4.5357 0.1030 2.0383
-4.5300 -0.2622 2.0383
-4.4954 -0.6259 2.0383
-4.4321 -0.9858 2.0383
-4.3404 -1.3397 2.0383
-4.2209 -1.6853 2.0383
-4.0742 -2.0205 2.0383
-3.9013 -2.3432 2.0383
-3.7032 -2.6513 2.0383
-3.4811 -2.9429 2.0383
-3.2363 -3.2162 2.0383
-2.9703 -3.4692 2.0383
-2.6847 -3.7005 2.0383
-2.3814 -3.9085 2.0383
-0.7527 -1.4935 0.7440
-0.6303 -1.5492 0.7431
-0.5040 -1.5949 0.7423
-0.3744 -1.6304 0.7415
-0.2423 -1.6554 0.7407
-0.1088 -1.6698 0.7399
0.0255 -1.6734 0.7392
0.1597 -1.6664 0.7384
0.2929 -1.6486 0.7377
0.4242 -1.6202 0.7371
0.5529 -1.5814 0.7364
0.6781 -1.5325 0.7359
2.2146 -4.0850 2.0383
2.5373 -3.8983 2.0383
2.8440 -3.6859 2.0383
3.1327 -3.4491 2.0383
3.4015 -3.1896 2.0383
3.6485 -2.9090 2.0383
3.8721 -2.6092 2.0383
4.0707 -2.2920 2.0383
4.2429 -1.9596 2.0383
4.3876 -1.6142 2.0383
4.5038 -1.2581 2.0383
4.5907 -0.8937 2.0383
4.6477 -0.5234 2.0383
4.6744 -0.1497 2.0383
4.6707 0.2249 2.0383
4.6365 0.5979 2.0383
4.5722 0.9668 2.0383
4.4781 1.3291 2.0383
4.3550 1.6825 2.0383
4.2037 2.0245 2.0383
4.0253 2.3530 2.0383
3.8209 2.6657 2.0383
3.5920 2.9607 2.0383
3.3402 3.2359 2.0383
3.0672 3.4897 2.0383
2.7748 3.7203 2.0383
2.4650 3.9265 2.0383
0.7799 1.4968 0.7429
0.6574 1.5544 0.7437
0.5306 1.6020 0.7445
0.4003 1.6392 0.7454
0.2675 1.6658 0.7462
0.1329 1.6816 0.7470
-0.0025 1.6866 0.7477
-0.1378 1.6806 0.7485
-0.2722 1.6637 0.7492
-0.4048 1.6360 0.7499
-0.5348 1.5978 0.7505
-0.6612 1.5492 0.7511
-2.1241 4.0423 2.0383
-2.4397 3.8547 2.0383
-2.7392 3.6428 2.0383
-3.0206 3.4080 2.0383
-3.2822 3.1517 2.0383
-3.5226 2.8756 2.0383
-3.7401 2.5814 2.0383
-3.9336 2.2711 2.0383
-4.1017 1.9465 2.0383
-4.2435 1.6098 2.0383
-4.3582 1.2629 2.0383
-4.4450 0.9081 2.0383
-4.5034 0.5476 2.0383
-4.5331 0.1835 2.0383
-4.5338 -0.1819 2.0383
-4.5055 -0.5460 2.0383
-4.4485 -0.9069 2.0383
-4.3630 -1.2623 2.0383
-4.2496 -1.6099 2.0383
-4.1088 -1.9476 2.0383
-3.9416 -2.2732 2.0383
-3.7490 -2.5848 2.0383
-3.5320 -2.8802 2.0383
-3.2921 -3.1576 2.0383
-3.0306 -3.4153 2.0383
-2.7493 -3.6515 2.0383
-2.4497 -3.8647 2.0383
-0.7790 -1.4799 0.7441
-0.6577 -1.5377 0.7433
-0.5321 -1.5857 0.7425
-0.4032 -1.6234 0.7417
-0.2716 -1.6508 0.7409
-0.1383 -1.6675 0.7401
-0.0041 -1.6736 0.7393
0.1302 -1.6689 0.7386
0.2637 -1.6534 0.7379
0.0515 -1.5536 0.7393
0.1760 -1.5449 0.7386
0.2994 -1.5262 0.7380
0.4209 -1.4977 0.7374
0.5397 -1.4595 0.7368
0.6551 -1.4120 0.7363
0.7664 -1.3554 0.7358
2.4192 -3.5759 2.0383
2.7002 -3.3735 2.0383
2.9640 -3.1489 2.0383
3.2089 -2.9036 2.0383
3.4333 -2.6390 2.0383
3.6356 -2.3570 2.0383
3.8144 -2.0595 2.0383
3.9686 -1.7482 2.0383
4.0970 -1.4254 2.0383
4.1988 -1.0932 2.0383
4.2733 -0.7538 2.0383
4.3200 -0.4094 2.0383
4.3386 -0.0623 2.0383
4.3289 0.2850 2.0383
4.2911 0.6304 2.0383
4.2254 0.9715 2.0383
4.1322 1.3060 2.0383
4.0123 1.6317 2.0383
3.8664 1.9465 2.0383
3.6956 2.2483 2.0383
3.5011 2.5351 2.0383
3.2841 2.8050 2.0383
3.0461 3.0563 2.0383
2.7888 3.2874 2.0383
2.5140 3.4967 2.0383
2.2233 3.6831 2.0383
0.6995 1.4019 0.7431
0.5848 1.4533 0.7439
0.4664 1.4954 0.7446
0.3449 1.5278 0.7454
0.2212 1.5503 0.7461
0.0960 1.5627 0.7469
-0.0297 1.5650 0.7476
-0.1552 1.5572 0.7483
-0.2797 1.5394 0.7489
-0.4023 1.5115 0.7495
-0.5222 1.4739 0.7501
-0.6388 1.4267 0.7506
-0.7511 1.3703 0.7511
-2.3284 3.5395 2.0383
-2.6031 3.3380 2.0383
-2.8608 3.1154 2.0383
-3.0998 2.8732 2.0383
-3.3187 2.6130 2.0383
-3.5162 2.3363 2.0383
-3.6909 2.0449 2.0383
-3.8419 1.7406 2.0383
-3.9683 1.4255 2.0383
-4.0692 1.1014 2.0383
-4.1442 0.7703 2.0383
-4.1926 0.4344 2.0383
-4.2142 0.0956 2.0383
-4.2089 -0.2438 2.0383
-4.1767 -0.5817 2.0383
-4.1177 -0.9162 2.0383
-4.0324 -1.2450 2.0383
-3.9212 -1.5661 2.0383
-3.7848 -1.8775 2.0383
-3.6240 -2.1772 2.0383
-3.4398 -2.4634 2.0383
-3.2332 -2.7342 2.0383
-3.0056 -2.9879 2.0383
-2.7584 -3.2228 2.0383
-2.4930 -3.4374 2.0383
-2.2110 -3.6303 2.0383
-0.6987 -1.3870 0.7439
-0.5851 -1.4388 0.7432
-0.4678 -1.4812 0.7424
-0.3474 -1.5142 0.7416
-0.2248 -1.5375 0.7409
-0.1007 -1.5508 0.7402
0.0240 -1.5542 0.7395
0.1486 -1.5476 0.7388
0.2723 -1.5311 0.7381
0.3943 -1.5048 0.7375
0.5138 -1.4688 0.7369
0.6300 -1.4233 0.7364
0.7423 -1.3687 0.7359
2.3552 -3.6174 2.0383
2.6397 -3.4201 2.0383
2.9074 -3.2003 2.0383
3.1567 -2.9594 2.0383
3.3857 -2.6989 2.0383
3.5930 -2.4206 2.0383
3.7771 -2.1263 2.0383
3.9367 -1.8179 2.0383
4.0709 -1.4975 2.0383
4.1786 -1.1671 2.0383
4.2592 -0.8291 2.0383
4.3121 -0.4856 2.0383
4.3369 -0.1389 2.0383
4.3335 0.2085 2.0383
4.3018 0.5545 2.0383
4.2422 0.8968 2.0383
4.1551 1.2329 2.0383
4.0410 1.5608 2.0383
3.9008 1.8782 2.0383
3.7354 2.1830 2.0383
3.5459 2.4732 2.0383
3.3338 2.7470 2.0383
3.1003 3.0026 2.0383
2.8471 3.2383 2.0383
2.5759 3.4525 2.0383
2.2886 3.6441 2.0383
0.7242 1.3893 0.7429
0.6105 1.4428 0.7437
0.4928 1.4869 0.7445
0.3719 1.5215 0.7452
0.2486 1.5462 0.7460
0.1237 1.5608 0.7467
-0.0020 1.5654 0.7474
-0.1276 1.5598 0.7481
-0.2524 1.5442 0.7488
-0.3755 1.5185 0.7494
-0.4961 1.4830 0.7500
-0.6134 1.4379 0.7505
-0.7268 1.3835 0.7510
-2.2657 3.5809 2.0383
-2.5440 3.3843 2.0383
-2.8056 3.1662 2.0383
-3.0488 2.9282 2.0383
-3.2723 2.6718 2.0383
-3.4745 2.3986 2.0383
-3.6544 2.1103 2.0383
-3.8107 1.8087 2.0383
-3.9426 1.4958 2.0383
-4.0492 1.1735 2.0383
-4.1299 0.8438 2.0383
-4.1842 0.5087 2.0383
-4.2117 0.1704 2.0383
-4.2124 -0.1690 2.0383
-4.1861 -0.5075 2.0383
-4.1330 -0.8429 2.0383
-4.0535 -1.1731 2.0383
-3.9479 -1.4960 2.0383
-3.8170 -1.8098 2.0383
-3.6615 -2.1122 2.0383
-3.4823 -2.4016 2.0383
-3.2806 -2.6759 2.0383
-3.0575 -2.9335 2.0383
-2.8145 -3.1727 2.0383
-2.5529 -3.3919 2.0383
-2.2745 -3.5897 2.0383
-0.7232 -1.3744 0.7441
-0.6105 -1.4281 0.7433
-0.4939 -1.4727 0.7426
-0.3741 -1.5078 0.7418
-0.2520 -1.5332 0.7411
-0.1282 -1.5487 0.7403
-0.0035 -1.5543 0.7396
0.1212 -1.5500 0.7389
0.2452 -1.5356 0.7383
0.0483 -1.4477 0.7396
0.1643 -1.4395 0.7390
0.2792 -1.4221 0.7384
0.3925 -1.3955 0.7378
0.5032 -1.3600 0.7373
0.6107 -1.3157 0.7368
0.7144 -1.2630 0.7363
2.2532 -3.3294 2.0383
2.5147 -3.1408 2.0383
2.7602 -2.9316 2.0383
2.9881 -2.7031 2.0383
3.1968 -2.4567 2.0383
3.3850 -2.1942 2.0383
3.5514 -1.9171 2.0383
3.6948 -1.6274 2.0383
3.8142 -1.3269 2.0383
3.9090 -1.0176 2.0383
3.9783 -0.7017 2.0383
4.0217 -0.3811 2.0383
4.0391 -0.0581 2.0383
4.0301 0.2652 2.0383
3.9950 0.5867 2.0383
3.9339 0.9042 2.0383
3.8473 1.2156 2.0383
3.7358 1.5188 2.0383
3.6001 1.8119 2.0383
3.4412 2.0929 2.0383
3.2602 2.3600 2.0383
3.0584 2.6114 2.0383
2.8370 2.8456 2.0383
2.5975 3.0609 2.0383
2.3417 3.2560 2.0383
0.7544 1.2492 0.7424
0.6518 1.3056 0.7431
0.5450 1.3535 0.7438
0.4346 1.3926 0.7445
0.3215 1.4228 0.7453
0.2062 1.4437 0.7460
0.0897 1.4553 0.7466
-0.0274 1.4575 0.7473
-0.1443 1.4502 0.7479
-0.2602 1.4336 0.7485
-0.3744 1.4077 0.7491
-0.4861 1.3726 0.7497
-0.5946 1.3287 0.7502
-0.6993 1.2762 0.7506
-2.1694 3.2988 2.0383
-2.4255 3.1112 2.0383
-2.6658 2.9039 2.0383
-2.8887 2.6782 2.0383
-3.0929 2.4357 2.0383
-3.2770 2.1778 2.0383
-3.4400 1.9062 2.0383
-3.5809 1.6226 2.0383
-3.6988 1.3289 2.0383
-3.7929 1.0267 2.0383
-3.8628 0.7180 2.0383
-3.9079 0.4049 2.0383
-3.9281 0.0891 2.0383
-3.9231 -0.2273 2.0383
-3.8930 -0.5424 2.0383
-3.8380 -0.8542 2.0383
-3.7584 -1.1607 2.0383
-3.6546 -1.4600 2.0383
-3.5273 -1.7502 2.0383
