ply
format ascii 1.0
element vertex 2177
property float32 x
property float32 y
property float32 z
end_header
-4.2275 -5.0071 2.0382
-3.8091 -5.3286 2.0382
-3.3662 -5.6150 2.0382
-2.9018 -5.8645 2.0382
-2.4189 -6.0753 2.0382
-1.9208 -6.2463 2.0382
-1.4109 -6.3762 2.0382
-0.8923 -6.4645 2.0382
-0.3688 -6.5105 2.0382
0.1565 -6.5140 2.0382
0.6799 -6.4751 2.0382
0.4846 -2.5863 0.8244
0.6915 -2.5394 0.8252
0.8998 -2.4922 0.8315
1.1123 -2.4441 0.8434
1.3321 -2.3943 0.8612
1.5626 -2.3422 0.8857
1.8079 -2.2867 0.9177
2.0730 -2.2267 0.9585
2.3642 -2.1609 1.0098
5.1040 -3.9598 2.0382
5.4029 -3.5334 2.0382
5.4817 -2.9840 1.9717
5.4527 -2.4208 1.8858
5.6270 -1.9724 1.8858
5.7650 -1.5118 1.8858
5.8656 -1.0418 1.8858
5.9283 -0.5654 1.8858
5.9528 -0.0857 1.8858
5.9389 0.3943 1.8858
5.8868 0.8716 1.8858
5.7967 1.3431 1.8858
5.6693 1.8059 1.8858
5.5054 2.2570 1.8858
5.3060 2.6937 1.8858
5.0723 3.1131 1.8858
4.8059 3.5125 1.8858
4.5084 3.8896 1.8858
4.1816 4.2417 1.8858
3.8276 4.5667 1.8858
3.6494 5.1456 1.9956
3.2933 5.5416 2.0382
2.8376 5.7922 2.0382
2.3630 6.0056 2.0382
1.8726 6.1804 2.0382
1.3695 6.3155 2.0382
0.8568 6.4099 2.0382
0.3379 6.4629 2.0382
-0.1840 6.4741 2.0382
-0.7055 6.4433 2.0382
-1.2232 6.3707 2.0382
-1.7337 6.2566 2.0382
-2.2338 6.1016 2.0382
-2.7201 5.9067 2.0382
-3.1895 5.6731 2.0382
-3.6388 5.4022 2.0382
-4.0651 5.0956 2.0382
-4.4656 4.7555 2.0382
-4.8374 4.3837 2.0382
-5.1782 3.9829 2.0382
-5.4857 3.5555 2.0382
-5.7577 3.1044 2.0382
-5.4212 2.4504 2.0382
-5.6036 2.0072 2.0382
-5.7495 1.5505 2.0382
-5.8580 1.0832 2.0382
-5.9282 0.6086 2.0382
-5.9597 0.1296 2.0382
-5.9522 -0.3504 2.0382
-5.9057 -0.8283 2.0382
-5.8206 -1.3009 2.0382
-5.6973 -1.7651 2.0382
-5.5368 -2.2177 2.0382
-5.3400 -2.6558 2.0382
-5.1084 -3.0764 2.0382
-4.8434 -3.4768 2.0382
-4.5468 -3.8542 2.0382
-4.2206 -4.2063 2.0382
-3.8671 -4.5306 2.0382
-3.4885 -4.8251 2.0382
-3.0875 -5.0878 2.0382
-2.6667 -5.3170 2.0382
-2.2289 -5.5113 2.0382
-1.7770 -5.6694 2.0382
-1.3141 -5.7904 2.0382
-0.8432 -5.8735 2.0382
-0.3673 -5.9182 2.0382
0.1102 -5.9244 2.0382
0.5864 -5.8919 2.0382
1.0582 -5.8212 2.0382
0.6776 -2.5428 0.9072
0.7173 -2.0210 0.7398
1.0979 -2.4476 0.9262
1.3172 -2.3980 0.9453
1.5469 -2.3460 0.9717
1.7910 -2.2907 1.0062
2.0546 -2.2311 1.0503
2.3439 -2.1657 1.1058
4.6248 -3.6283 2.0382
4.8992 -3.2419 2.0382
5.1415 -2.8348 2.0382
5.3397 -2.4052 2.0341
5.2382 -1.8679 1.9326
5.2394 -1.4041 1.8858
5.3334 -0.9769 1.8858
5.3929 -0.5436 1.8858
5.4177 -0.1071 1.8858
5.4074 0.3299 1.8858
5.3623 0.7646 1.8858
5.2827 1.1943 1.8858
5.1689 1.6162 1.8858
5.0219 2.0276 1.8858
4.8424 2.4261 1.8858
4.6317 2.8089 1.8858
4.3911 3.1738 1.8858
4.1220 3.5183 1.8858
3.9304 3.9451 1.9372
3.7887 4.4720 2.0382
3.4173 4.7648 2.0382
3.0236 5.0271 2.0382
2.6099 5.2571 2.0382
2.1789 5.4533 2.0382
1.7334 5.6145 2.0382
1.2762 5.7395 2.0382
0.8101 5.8276 2.0382
0.3382 5.8779 2.0382
-0.1365 5.8902 2.0382
-0.6110 5.8644 2.0382
-1.0822 5.8004 2.0382
-1.5470 5.6987 2.0382
-2.0025 5.5598 2.0382
-2.4456 5.3846 2.0382
-2.8734 5.1741 2.0382
-3.2831 4.9296 2.0382
-3.6719 4.6526 2.0382
-4.0374 4.3450 2.0382
-4.3771 4.0086 2.0382
-4.6886 3.6456 2.0382
-4.9699 3.2584 2.0382
-5.2190 2.8495 2.0382
-5.4344 2.4216 2.0382
-5.6144 1.9774 2.0382
-5.7579 1.5199 2.0382
-5.8638 1.0520 2.0382
-5.9315 0.5770 2.0382
-5.9604 0.0979 2.0382
-5.9503 -0.3821 2.0382
-5.9013 -0.8597 2.0382
-5.8136 -1.3318 2.0382
-5.6879 -1.7954 2.0382
-5.5249 -2.2471 2.0382
-5.3258 -2.6841 2.0382
-5.0919 -3.1035 2.0382
-4.8247 -3.5024 2.0382
-4.5261 -3.8782 2.0382
-4.1981 -4.2286 2.0382
-3.8428 -4.5510 2.0382
-3.4627 -4.8434 2.0382
-3.0603 -5.1040 2.0382
-2.6382 -5.3309 2.0382
-2.1994 -5.5229 2.0382
-1.7467 -5.6786 2.0382
-1.2832 -5.7971 2.0382
-0.8118 -5.8776 2.0382
-0.3358 -5.9198 2.0382
0.1418 -5.9234 2.0382
0.6178 -5.8884 2.0382
0.4844 -2.5866 0.9066
0.6913 -2.5397 0.9074
0.7280 -2.0171 0.7399
1.1122 -2.4444 0.9272
1.3320 -2.3946 0.9468
1.5625 -2.3424 0.9737
1.8078 -2.2869 1.0088
2.0729 -2.2270 1.0536
2.3641 -2.1611 1.1099
4.6439 -3.6034 2.0382
4.9162 -3.2156 2.0382
5.1564 -2.8073 2.0382
5.3328 -2.3679 2.0267
5.2318 -1.8344 1.9266
5.2466 -1.3761 1.8858
5.3384 -0.9484 1.8858
5.3957 -0.5148 1.8858
5.4181 -0.0782 1.8858
5.4055 0.3587 1.8858
5.3581 0.7932 1.8858
5.2762 1.2224 1.8858
5.1603 1.6437 1.8858
5.0110 2.0544 1.8858
4.8295 2.4519 1.8858
4.6167 2.8336 1.8858
4.3741 3.1972 1.8858
4.1032 3.5403 1.8858
3.9218 3.9785 1.9433
3.7649 4.4923 2.0382
3.3919 4.7832 2.0382
2.9968 5.0433 2.0382
2.5819 5.2711 2.0382
2.1499 5.4651 2.0382
1.7035 5.6239 2.0382
1.2456 5.7465 2.0382
0.7791 5.8321 2.0382
0.3069 5.8799 2.0382
-0.1679 5.8897 2.0382
-0.6423 5.8613 2.0382
-1.1132 5.7949 2.0382
-1.5775 5.6907 2.0382
-2.0322 5.5494 2.0382
-2.4743 5.3717 2.0382
-2.9010 5.1589 2.0382
-3.3094 4.9122 2.0382
-3.6968 4.6332 2.0382
-4.0607 4.3236 2.0382
-4.3986 3.9854 2.0382
-4.7081 3.6208 2.0382
-4.9873 3.2321 2.0382
-5.2343 2.8218 2.0382
-4.9613 2.2421 2.0382
-5.1280 1.8365 2.0382
-5.2614 1.4185 2.0382
-5.3604 0.9910 2.0382
-5.4245 0.5566 2.0382
-5.4536 0.1201 2.0382
-5.4462 -0.3207 2.0382
-5.4036 -0.7580 2.0382
-5.3257 -1.1903 2.0382
-5.2129 -1.6150 2.0382
-5.0661 -2.0291 2.0382
-4.8861 -2.4299 2.0382
-4.6742 -2.8148 2.0382
-4.4318 -3.1811 2.0382
-4.1605 -3.5265 2.0382
-3.8622 -3.8487 2.0382
-3.5388 -4.1456 2.0382
-3.1925 -4.4152 2.0382
-2.8257 -4.6557 2.0382
-2.4407 -4.8657 2.0382
-0.7371 -1.8223 0.7364
-0.5880 -1.8754 0.7367
-0.4350 -1.9163 0.7370
-0.2793 -1.9448 0.7373
-0.1219 -1.9607 0.7377
0.0364 -1.9640 0.7381
0.1944 -1.9546 0.7386
0.3511 -1.9325 0.7391
0.5056 -1.8980 0.7396
0.6568 -1.8511 0.7402
1.0978 -2.4479 1.0116
1.3170 -2.3982 1.0325
1.5468 -2.3462 1.0612
1.7909 -2.2910 1.0988
2.0545 -2.2314 1.1469
2.3439 -2.1660 1.2075
4.2354 -3.3234 2.0382
4.4869 -2.9695 2.0382
4.7091 -2.5969 2.0382
4.9006 -2.2078 2.0382
5.0603 -1.8048 2.0382
5.1119 -1.3703 2.0086
5.0239 -0.9204 1.9392
4.9487 -0.4990 1.8890
4.9630 -0.0983 1.8858
4.9537 0.3021 1.8858
4.9125 0.7004 1.8858
4.8395 1.0941 1.8858
4.7353 1.4806 1.8858
4.6006 1.8576 1.8858
4.4362 2.2226 1.8858
4.2545 2.5803 1.8909
4.1431 2.9947 1.9423
4.0297 3.4398 2.0125
3.7880 3.8023 2.0382
3.4703 4.0969 2.0382
3.1300 4.3648 2.0382
2.7692 4.6049 2.0382
2.3902 4.8154 2.0382
0.7349 1.8395 0.7506
0.5843 1.8931 0.7503
0.4300 1.9344 0.7500
0.2727 1.9630 0.7497
0.3093 5.3828 2.0382
-0.1255 5.3938 2.0382
-0.2056 1.9717 0.7484
-0.3638 1.9488 0.7479
-0.5196 1.9132 0.7474
-0.6719 1.8651 0.7468
-2.2394 4.9294 2.0382
-2.6309 4.7364 2.0382
-3.0057 4.5123 2.0382
-3.3615 4.2585 2.0382
-3.6959 3.9767 2.0382
-4.0065 3.6687 2.0382
-4.2914 3.3363 2.0382
-4.5487 2.9818 2.0382
-4.7765 2.6075 2.0382
-4.9733 2.2158 2.0382
-5.1379 1.8092 2.0382
-5.2690 1.3905 2.0382
-5.3657 0.9624 2.0382
-5.4275 0.5278 2.0382
-5.4539 0.0895 2.0382
-5.4445 -0.3497 2.0382
-5.3996 -0.7867 2.0382
-5.3193 -1.2187 2.0382
-5.2043 -1.6427 2.0382
-5.0552 -2.0560 2.0382
-4.8731 -2.4559 2.0382
-4.6591 -2.8396 2.0382
-4.4147 -3.2046 2.0382
-4.1416 -3.5486 2.0382
-3.8416 -3.8692 2.0382
-3.5166 -4.1643 2.0382
-3.1689 -4.4320 2.0382
-2.8008 -4.6706 2.0382
-2.4147 -4.8785 2.0382
-0.7274 -1.8262 0.7364
-0.5780 -1.8784 0.7367
-0.4248 -1.9185 0.7370
-0.2690 -1.9462 0.7373
-0.1114 -1.9613 0.7377
0.0468 -1.9638 0.7382
0.2048 -1.9535 0.7386
0.3614 -1.9306 0.7391
0.5157 -1.8952 0.7396
0.6667 -1.8476 0.7402
1.1120 -2.4446 1.0128
1.3319 -2.3949 1.0341
1.5624 -2.3427 1.0634
1.8077 -2.2872 1.1017
2.0728 -2.2273 1.1505
2.3641 -2.1614 1.2120
4.2529 -3.3006 2.0382
4.5025 -2.9454 2.0382
4.7227 -2.5716 2.0382
4.9122 -2.1815 2.0382
5.0697 -1.7777 2.0382
5.1060 -1.3395 2.0035
5.0183 -0.8918 1.9352
4.9451 -0.4720 1.8867
4.9634 -0.0718 1.8858
4.9520 0.3285 1.8858
4.9086 0.7266 1.8858
4.8336 1.1198 1.8858
4.7274 1.5058 1.8858
4.5906 1.8821 1.8858
4.4243 2.2462 1.8858
4.2462 2.6063 1.8933
4.1359 3.0232 1.9464
4.0219 3.4703 2.0178
3.7678 3.8226 2.0382
3.4486 4.1152 2.0382
3.1068 4.3816 2.0382
2.7447 4.6197 2.0382
2.3646 4.8282 2.0382
0.7250 1.8434 0.7506
0.5742 1.8962 0.7503
0.4196 1.9367 0.7500
0.2623 1.9645 0.7497
0.2806 5.3846 2.0382
-0.1542 5.3933 2.0382
-0.2161 1.9706 0.7484
-0.3742 1.9469 0.7479
-0.5297 1.9104 0.7473
-0.6819 1.8614 0.7468
-2.2657 4.9176 2.0382
-2.6562 4.7225 2.0382
-3.0299 4.4964 2.0382
-3.3843 4.2408 2.0382
-3.7172 3.9571 2.0382
-4.0262 3.6474 2.0382
-4.3093 3.3135 2.0382
-4.5646 2.9577 2.0382
-4.7904 2.5821 2.0382
-4.5657 2.0630 2.0382
-4.7190 1.6897 2.0382
-4.8415 1.3051 2.0382
-4.9326 0.9116 2.0382
-4.9914 0.5120 2.0382
-5.0177 0.1088 2.0382
-5.0112 -0.2952 2.0382
-4.9720 -0.6975 2.0382
-4.9003 -1.0953 2.0382
-4.7965 -1.4860 2.0382
-4.6614 -1.8670 2.0382
-4.4958 -2.2358 2.0382
-4.3009 -2.5899 2.0382
-4.0779 -2.9270 2.0382
-3.8284 -3.2448 2.0382
-3.5540 -3.5413 2.0382
-3.2565 -3.8145 2.0382
-2.9380 -4.0627 2.0382
-2.6005 -4.2842 2.0382
-2.2464 -4.4775 2.0382
-0.6790 -1.6783 0.7370
-0.5416 -1.7271 0.7372
-0.4008 -1.7648 0.7375
-0.2574 -1.7911 0.7378
-0.1124 -1.8058 0.7382
0.0333 -1.8088 0.7386
0.1788 -1.8001 0.7390
0.3232 -1.7798 0.7394
0.4654 -1.7480 0.7399
0.6047 -1.7048 0.7404
0.7401 -1.6506 0.7409
1.3169 -2.3985 1.1215
1.5466 -2.3465 1.1526
1.7908 -2.2913 1.1935
2.0544 -2.2317 1.2456
2.3438 -2.1663 1.3114
3.9000 -3.0606 2.0382
4.1317 -2.7349 2.0382
4.3365 -2.3918 2.0382
4.5130 -2.0335 2.0382
4.6602 -1.6624 2.0382
4.7772 -1.2808 2.0382
4.8632 -0.8912 2.0382
4.9102 -0.4953 2.0350
4.8285 -0.0957 1.9920
4.7476 0.2894 1.9622
4.6664 0.6652 1.9448
4.5840 1.0362 1.9393
4.4995 1.4069 1.9454
4.4119 1.7814 1.9634
4.3200 2.1645 1.9938
4.2225 2.5610 2.0375
4.0042 2.8945 2.0382
3.7587 3.2087 2.0382
3.4887 3.5022 2.0382
3.1960 3.7732 2.0382
2.8825 4.0201 2.0382
2.5501 4.2410 2.0382
2.2009 4.4348 2.0382
0.6761 1.6928 0.7500
0.5376 1.7421 0.7498
0.3955 1.7801 0.7495
0.2508 1.8064 0.7492
0.1045 1.8210 0.7488
-0.0426 1.8236 0.7484
-0.1894 1.8144 0.7480
-0.3349 1.7933 0.7475
-0.4783 1.7605 0.7471
-0.6185 1.7163 0.7465
-0.7547 1.6608 0.7460
-2.4221 4.3596 2.0382
-2.7671 4.1532 2.0382
-3.0944 3.9194 2.0382
-3.4020 3.6599 2.0382
-3.6877 3.3762 2.0382
-3.9498 3.0702 2.0382
-4.1863 2.7438 2.0382
-4.3958 2.3993 2.0382
-4.5768 2.0387 2.0382
-4.7280 1.6646 2.0382
-4.8485 1.2793 2.0382
-4.9375 0.8854 2.0382
-4.9942 0.4854 2.0382
-5.0183 0.0821 2.0382
-5.0096 -0.3219 2.0382
-4.9683 -0.7240 2.0382
-4.8944 -1.1214 2.0382
-4.7885 -1.5115 2.0382
-4.6514 -1.8918 2.0382
-4.4838 -2.2596 2.0382
-4.2870 -2.6127 2.0382
-4.0622 -2.9486 2.0382
-3.8110 -3.2651 2.0382
-3.5350 -3.5601 2.0382
-3.2361 -3.8317 2.0382
-2.9163 -4.0782 2.0382
-2.5776 -4.2978 2.0382
-2.2224 -4.4893 2.0382
-0.6700 -1.6818 0.7370
-0.5324 -1.7300 0.7372
-0.3914 -1.7669 0.7375
-0.2479 -1.7924 0.7378
-0.1028 -1.8063 0.7382
0.0430 -1.8086 0.7386
0.1884 -1.7991 0.7390
0.3327 -1.7780 0.7395
0.4747 -1.7455 0.7399
0.6138 -1.7016 0.7405
0.7489 -1.6467 0.7410
1.3317 -2.3951 1.1233
1.5623 -2.3430 1.1550
1.8076 -2.2875 1.1965
2.0727 -2.2276 1.2495
2.3640 -2.1617 1.3163
3.9161 -3.0397 2.0382
4.1461 -2.7127 2.0382
4.3490 -2.3685 2.0382
4.5237 -2.0094 2.0382
4.6689 -1.6375 2.0382
4.7839 -1.2554 2.0382
4.8678 -0.8652 2.0382
4.9047 -0.4684 2.0317
4.8232 -0.0699 1.9896
4.7422 0.3145 1.9607
4.6610 0.6898 1.9441
4.5785 1.0607 1.9393
4.4938 1.4314 1.9462
4.4060 1.8064 1.9650
4.3138 2.1902 1.9963
4.2102 2.5843 2.0382
3.9888 2.9159 2.0382
3.7416 3.2286 2.0382
3.4700 3.5208 2.0382
3.1759 3.7903 2.0382
2.8611 4.0355 2.0382
2.5275 4.2547 2.0382
2.1773 4.4466 2.0382
0.6671 1.6964 0.7500
0.5283 1.7450 0.7498
0.3860 1.7822 0.7495
0.2412 1.8077 0.7492
0.0947 1.8215 0.7488
-0.0523 1.8234 0.7484
-0.1990 1.8134 0.7480
-0.3445 1.7915 0.7475
-0.4877 1.7580 0.7470
-0.6276 1.7129 0.7465
-0.7635 1.6568 0.7460
-2.4454 4.3469 2.0382
-2.7893 4.1385 2.0382
-3.1154 3.9030 2.0382
-3.4216 3.6419 2.0382
-3.7058 3.3566 2.0382
-3.9662 3.0492 2.0382
-4.2010 2.7216 2.0382
-4.4086 2.3759 2.0382
-4.2214 1.9071 2.0382
-4.3629 1.5619 2.0382
-4.4761 1.2063 2.0382
-4.5602 0.8426 2.0382
-4.6145 0.4731 2.0382
-4.6387 0.1005 2.0382
-4.6326 -0.2731 2.0382
-4.5963 -0.6449 2.0382
-4.5300 -1.0126 2.0382
-4.4341 -1.3737 2.0382
-4.3092 -1.7259 2.0382
-4.1561 -2.0668 2.0382
-3.9760 -2.3941 2.0382
-3.7699 -2.7057 2.0382
-3.5393 -2.9996 2.0382
-3.2857 -3.2737 2.0382
-3.0108 -3.5264 2.0382
-2.7164 -3.7559 2.0382
-2.4045 -3.9607 2.0382
-0.7514 -1.4974 0.7373
-0.6283 -1.5527 0.7374
-0.5012 -1.5979 0.7377
-0.3710 -1.6328 0.7379
-0.2383 -1.6571 0.7382
-0.1041 -1.6707 0.7386
0.0307 -1.6735 0.7389
0.1653 -1.6654 0.7393
0.2988 -1.6466 0.7397
0.4304 -1.6172 0.7402
0.5593 -1.5772 0.7406
0.6845 -1.5271 0.7411
1.3168 -2.3988 1.2126
1.5465 -2.3468 1.2462
1.7907 -2.2916 1.2903
2.0544 -2.2320 1.3467
2.3437 -2.1666 1.4177
3.6075 -2.8316 2.0382
3.8220 -2.5303 2.0382
4.0116 -2.2130 2.0382
4.1750 -1.8815 2.0382
4.3114 -1.5383 2.0382
4.4197 -1.1852 2.0382
4.4994 -0.8247 2.0382
4.5499 -0.4591 2.0382
4.5711 -0.0908 2.0382
4.5627 0.2780 2.0382
4.5247 0.6449 2.0382
4.4576 1.0076 2.0382
4.3616 1.3637 2.0382
4.2375 1.7110 2.0382
4.0860 2.0473 2.0382
3.9080 2.3704 2.0382
3.7048 2.6782 2.0382
3.4775 2.9688 2.0382
3.2276 3.2404 2.0382
2.9567 3.4911 2.0382
2.6666 3.7194 2.0382
2.3590 3.9238 2.0382
0.7489 1.5092 0.7497
0.6249 1.5650 0.7495
0.4969 1.6106 0.7493
0.3655 1.6457 0.7491
0.2317 1.6700 0.7488
0.0964 1.6835 0.7484
-0.0395 1.6860 0.7481
-0.1752 1.6774 0.7477
-0.3098 1.6579 0.7472
-0.4424 1.6276 0.7468
-0.5720 1.5867 0.7463
-0.6979 1.5355 0.7458
-2.2403 4.0315 2.0382
-2.5592 3.8404 2.0382
-2.8618 3.6241 2.0382
-3.1461 3.3839 2.0382
-3.4101 3.1215 2.0382
-3.6523 2.8385 2.0382
-3.8709 2.5367 2.0382
-4.0644 2.2180 2.0382
-4.2316 1.8846 2.0382
-4.3713 1.5387 2.0382
-4.4826 1.1825 2.0382
-4.5647 0.8183 2.0382
-4.6170 0.4486 2.0382
-4.6392 0.0758 2.0382
-4.6312 -0.2977 2.0382
-4.5929 -0.6693 2.0382
-4.5246 -1.0367 2.0382
-4.4267 -1.3973 2.0382
-4.2999 -1.7488 2.0382
-4.1451 -2.0889 2.0382
-3.9632 -2.4152 2.0382
-3.7555 -2.7257 2.0382
-3.5233 -3.0183 2.0382
-3.2682 -3.2911 2.0382
-2.9920 -3.5423 2.0382
-2.6964 -3.7702 2.0382
-2.3834 -3.9733 2.0382
-0.7434 -1.5014 0.7373
-0.6200 -1.5560 0.7375
-0.4927 -1.6005 0.7377
-0.3623 -1.6347 0.7380
-0.2295 -1.6583 0.7383
-0.0952 -1.6712 0.7386
0.0396 -1.6733 0.7389
0.1742 -1.6645 0.7393
0.3076 -1.6450 0.7398
0.4391 -1.6149 0.7402
0.5677 -1.5742 0.7407
0.6926 -1.5235 0.7412
1.3316 -2.3954 1.2145
1.5622 -2.3433 1.2488
1.8075 -2.2878 1.2937
2.0726 -2.2279 1.3509
2.3639 -2.1620 1.4230
3.6224 -2.8122 2.0382
3.8353 -2.5098 2.0382
4.0232 -2.1915 2.0382
4.1849 -1.8592 2.0382
4.3194 -1.5152 2.0382
4.4259 -1.1616 2.0382
4.5036 -0.8007 2.0382
4.5523 -0.4350 2.0382
4.5714 -0.0664 2.0382
4.5611 0.3024 2.0382
4.5212 0.6691 2.0382
4.4521 1.0314 2.0382
4.3543 1.3870 2.0382
4.2283 1.7336 2.0382
4.0750 2.0691 2.0382
3.8954 2.3911 2.0382
3.6905 2.6980 2.0382
3.4616 2.9874 2.0382
3.2103 3.2576 2.0382
2.9381 3.5069 2.0382
2.6468 3.7336 2.0382
2.3381 3.9364 2.0382
0.7408 1.5132 0.7497
0.6166 1.5683 0.7495
0.4883 1.6132 0.7493
0.3567 1.6476 0.7490
0.2228 1.6713 0.7487
0.0874 1.6840 0.7484
-0.0485 1.6857 0.7480
-0.1842 1.6765 0.7476
-0.3186 1.6563 0.7472
-0.4510 1.6253 0.7468
-0.5804 1.5837 0.7463
-0.7061 1.5317 0.7458
-2.2618 4.0196 2.0382
-2.5797 3.8268 2.0382
-2.8812 3.6089 2.0382
-3.1642 3.3673 2.0382
-3.4268 3.1034 2.0382
-3.6675 2.8191 2.0382
-3.8844 2.5161 2.0382
-4.0763 2.1964 2.0382
-3.9184 1.7699 2.0382
-4.0497 1.4495 2.0382
-4.1547 1.1194 2.0382
-4.2326 0.7818 2.0382
-4.2829 0.4390 2.0382
-4.3054 0.0931 2.0382
-4.2997 -0.2535 2.0382
-4.2660 -0.5986 2.0382
-4.2044 -0.9398 2.0382
-4.1153 -1.2750 2.0382
-3.9994 -1.6018 2.0382
-3.8574 -1.9182 2.0382
-3.6903 -2.2220 2.0382
-3.4991 -2.5112 2.0382
-3.2851 -2.7839 2.0382
-3.0498 -3.0384 2.0382
-2.7947 -3.2729 2.0382
-2.5215 -3.4860 2.0382
-2.2321 -3.6762 2.0382
-0.6979 -1.3907 0.7377
-0.5837 -1.4420 0.7379
-0.4657 -1.4840 0.7381
-0.3447 -1.5165 0.7383
-0.2215 -1.5390 0.7386
-0.0969 -1.5517 0.7389
0.0284 -1.5543 0.7392
0.1534 -1.5468 0.7396
0.2774 -1.5293 0.7400
0.3996 -1.5020 0.7404
0.5193 -1.4649 0.7408
0.6356 -1.4183 0.7413
0.7478 -1.3625 0.7418
1.5464 -2.3471 1.3422
1.7906 -2.2919 1.3897
2.0543 -2.2323 1.4503
2.3436 -2.1669 1.5268
3.3499 -2.6298 2.0382
3.5492 -2.3501 2.0382
3.7254 -2.0554 2.0382
3.8773 -1.7477 2.0382
4.0040 -1.4289 2.0382
4.1047 -1.1010 2.0382
4.1788 -0.7662 2.0382
4.2258 -0.4266 2.0382
4.2455 -0.0845 2.0382
4.2378 0.2581 2.0382
4.2026 0.5990 2.0382
4.1402 0.9358 2.0382
4.0511 1.2666 2.0382
3.9358 1.5892 2.0382
3.7950 1.9016 2.0382
3.6297 2.2017 2.0382
3.4409 2.4876 2.0382
3.2297 2.7575 2.0382
2.9976 3.0097 2.0382
2.7459 3.2425 2.0382
2.4764 3.4545 2.0382
2.1906 3.6442 2.0382
0.6950 1.4008 0.7493
0.5799 1.4526 0.7491
0.4610 1.4949 0.7489
0.3391 1.5275 0.7487
0.2149 1.5501 0.7484
0.0894 1.5625 0.7481
-0.0368 1.5648 0.7477
-0.1628 1.5569 0.7474
-0.2877 1.5388 0.7470
-0.4107 1.5107 0.7465
-0.5311 1.4728 0.7461
-0.6479 1.4252 0.7457
-0.7606 1.3684 0.7452
-2.3762 3.5651 2.0382
-2.6570 3.3642 2.0382
-2.9208 3.1411 2.0382
-3.1659 2.8974 2.0382
-3.3905 2.6346 2.0382
-3.5933 2.3544 2.0382
-3.7728 2.0586 2.0382
-3.9279 1.7491 2.0382
-4.0575 1.4280 2.0382
-4.1607 1.0973 2.0382
-4.2368 0.7593 2.0382
-4.2853 0.4162 2.0382
-4.3059 0.0702 2.0382
-4.2983 -0.2764 2.0382
-4.2627 -0.6213 2.0382
-4.1993 -0.9622 2.0382
-4.1085 -1.2969 2.0382
-3.9908 -1.6231 2.0382
-3.8471 -1.9387 2.0382
-3.6784 -2.2415 2.0382
-3.4856 -2.5297 2.0382
-3.2702 -2.8013 2.0382
-3.0335 -3.0545 2.0382
-2.7772 -3.2877 2.0382
-2.5029 -3.4993 2.0382
-2.2125 -3.6879 2.0382
-0.6905 -1.3944 0.7377
-0.5760 -1.4451 0.7379
-0.4577 -1.4865 0.7381
-0.3366 -1.5182 0.7383
-0.2133 -1.5402 0.7386
-0.0886 -1.5521 0.7389
0.0366 -1.5541 0.7393
0.1616 -1.5459 0.7396
0.2855 -1.5278 0.7400
0.4076 -1.4998 0.7404
0.5271 -1.4621 0.7409
0.6431 -1.4149 0.7413
0.7550 -1.3585 0.7418
1.5620 -2.3436 1.3450
1.8074 -2.2881 1.3932
2.0725 -2.2282 1.4548
2.3639 -2.1623 1.5325
3.3637 -2.6118 2.0382
3.5616 -2.3311 2.0382
3.7362 -2.0355 2.0382
3.8865 -1.7269 2.0382
4.0115 -1.4074 2.0382
4.1105 -1.0791 2.0382
4.1828 -0.7439 2.0382
4.2280 -0.4041 2.0382
4.2459 -0.0618 2.0382
4.2363 0.2807 2.0382
4.1993 0.6214 2.0382
4.1352 0.9579 2.0382
4.0443 1.2882 2.0382
3.9273 1.6102 2.0382
3.7849 1.9218 2.0382
3.6179 2.2210 2.0382
3.4276 2.5059 2.0382
3.2150 2.7747 2.0382
2.9815 3.0257 2.0382
2.7286 3.2572 2.0382
2.4580 3.4677 2.0382
2.1712 3.6559 2.0382
0.6875 1.4045 0.7493
0.5722 1.4557 0.7491
0.4531 1.4974 0.7489
0.3310 1.5293 0.7486
0.2067 1.5512 0.7484
0.0810 1.5630 0.7480
-0.0452 1.5646 0.7477
-0.1711 1.5560 0.7473
-0.2959 1.5373 0.7469
-0.4188 1.5085 0.7465
-0.5389 1.4699 0.7461
-0.6555 1.4217 0.7456
-0.7679 1.3643 0.7452
-2.3953 3.5525 2.0382
-2.6750 3.3501 2.0382
-2.9376 3.1256 2.0382
-3.1814 2.8806 2.0382
-3.4046 2.6166 2.0382
-3.6059 2.3353 2.0382
-3.7838 2.0385 2.0382
-3.6495 1.6481 2.0382
-3.7716 1.3497 2.0382
-3.8693 1.0423 2.0382
-3.9418 0.7279 2.0382
-3.9886 0.4086 2.0382
-4.0094 0.0866 2.0382
-4.0041 -0.2362 2.0382
-3.9727 -0.5575 2.0382
-3.9153 -0.8753 2.0382
-3.8324 -1.1873 2.0382
-3.7245 -1.4917 2.0382
-3.5923 -1.7863 2.0382
-3.4366 -2.0691 2.0382
-3.2586 -2.3385 2.0382
-3.0594 -2.5925 2.0382
-2.8404 -2.8295 2.0382
-2.6029 -3.0479 2.0382
-2.3485 -3.2464 2.0382
-0.7528 -1.2396 0.7380
-0.6505 -1.2959 0.7381
-0.5440 -1.3437 0.7383
-0.4340 -1.3829 0.7385
-0.3213 -1.4131 0.7387
-0.2065 -1.4341 0.7389
-0.0904 -1.4459 0.7392
0.0263 -1.4483 0.7395
0.1428 -1.4413 0.7399
0.2583 -1.4251 0.7402
0.3722 -1.3995 0.7406
0.4837 -1.3650 0.7410
0.5921 -1.3216 0.7414
0.6966 -1.2696 0.7419
1.5462 -2.3474 1.4408
1.7905 -2.2922 1.4917
2.0542 -2.2326 1.5568
2.3436 -2.1672 1.6388
3.1209 -2.4505 2.0382
3.3067 -2.1899 2.0382
3.4710 -1.9154 2.0382
3.6126 -1.6287 2.0382
3.7307 -1.3316 2.0382
3.8247 -1.0261 2.0382
3.8938 -0.7141 2.0382
3.9377 -0.3977 2.0382
3.9561 -0.0789 2.0382
3.9489 0.2404 2.0382
3.9161 0.5580 2.0382
3.8580 0.8720 2.0382
3.7750 1.1803 2.0382
3.6675 1.4809 2.0382
3.5363 1.7720 2.0382
3.3822 2.0516 2.0382
3.2062 2.3181 2.0382
3.0094 2.5696 2.0382
2.7930 2.8046 2.0382
2.5585 3.0215 2.0382
2.3072 3.2190 2.0382
0.7500 1.2479 0.7490
0.6471 1.3046 0.7489
0.5399 1.3528 0.7487
0.4292 1.3922 0.7485
0.3157 1.4225 0.7483
0.2000 1.4435 0.7480
0.0831 1.4551 0.7477
-0.0344 1.4573 0.7474
-0.1518 1.4499 0.7471
-0.2681 1.4331 0.7467
-0.3827 1.4069 0.7463
-0.4947 1.3716 0.7459
-0.6036 1.3273 0.7455
-0.7085 1.2743 0.7451
-2.2137 3.3206 2.0382
-2.4752 3.1333 2.0382
-2.7208 2.9255 2.0382
-2.9490 2.6984 2.0382
-3.1581 2.4535 2.0382
-3.3469 2.1925 2.0382
-3.5140 1.9170 2.0382
-3.6583 1.6287 2.0382
-3.7789 1.3296 2.0382
-3.8749 1.0217 2.0382
-3.9457 0.7070 2.0382
-3.9908 0.3874 2.0382
-4.0099 0.0652 2.0382
-4.0029 -0.2575 2.0382
-3.9697 -0.5787 2.0382
-3.9106 -0.8961 2.0382
-3.8260 -1.2077 2.0382
-3.7165 -1.5115 2.0382
-3.5827 -1.8053 2.0382
-3.4256 -2.0874 2.0382
-3.2461 -2.3557 2.0382
-3.0455 -2.6087 2.0382
-2.8252 -2.8445 2.0382
-2.5866 -3.0617 2.0382
-2.3312 -3.2588 2.0382
-0.7462 -1.2436 0.7380
-0.6435 -1.2993 0.7381
-0.5368 -1.3466 0.7383
-0.4267 -1.3851 0.7385
-0.3138 -1.4147 0.7387
-0.1989 -1.4352 0.7390
-0.0827 -1.4463 0.7392
0.0340 -1.4481 0.7396
0.1504 -1.4405 0.7399
0.2659 -1.4237 0.7403
0.3797 -1.3975 0.7406
0.4910 -1.3624 0.7411
0.5991 -1.3184 0.7415
0.7034 -1.2659 0.7419
1.5619 -2.3439 1.4438
1.8073 -2.2884 1.4955
2.0724 -2.2285 1.5616
2.3638 -2.1627 1.6449
3.1338 -2.4337 2.0382
3.3182 -2.1722 2.0382
3.4810 -1.8968 2.0382
3.6211 -1.6093 2.0382
3.7377 -1.3117 2.0382
3.8300 -1.0057 2.0382
3.8975 -0.6933 2.0382
3.9397 -0.3767 2.0382
3.9564 -0.0578 2.0382
3.9475 0.2615 2.0382
3.9130 0.5789 2.0382
3.8533 0.8926 2.0382
3.7686 1.2004 2.0382
3.6596 1.5005 2.0382
3.5268 1.7909 2.0382
3.3713 2.0697 2.0382
3.1938 2.3352 2.0382
2.9957 2.5856 2.0382
2.7781 2.8195 2.0382
2.5424 3.0351 2.0382
2.2901 3.2313 2.0382
0.7434 1.2519 0.7490
0.6401 1.3080 0.7489
0.5327 1.3557 0.7487
0.4218 1.3945 0.7485
0.3081 1.4242 0.7483
0.1923 1.4446 0.7480
0.0753 1.4556 0.7477
-0.0422 1.4571 0.7474
-0.1595 1.4491 0.7471
-0.2757 1.4316 0.7467
-0.3902 1.4048 0.7463
-0.5020 1.3689 0.7459
-0.6106 1.3240 0.7455
-0.7153 1.2705 0.7450
-2.2314 3.3088 2.0382
-2.4919 3.1202 2.0382
-2.7364 2.9110 2.0382
-2.9634 2.6828 2.0382
-3.1712 2.4368 2.0382
-3.3586 2.1747 2.0382
-3.5242 1.8983 2.0382
-3.4087 1.5391 2.0382
-3.5227 1.2604 2.0382
-3.6139 0.9733 2.0382
-3.6815 0.6797 2.0382
-3.7252 0.3815 2.0382
-3.7446 0.0807 2.0382
-3.7396 -0.2207 2.0382
-3.7102 -0.5208 2.0382
-3.6566 -0.8175 2.0382
-3.5792 -1.1089 2.0382
-3.4784 -1.3931 2.0382
-3.3549 -1.6682 2.0382
-3.2096 -1.9324 2.0382
-3.0434 -2.1839 2.0382
-2.8574 -2.4211 2.0382
-2.6529 -2.6425 2.0382
-2.4311 -2.8465 2.0382
-2.1936 -3.0319 2.0382
-0.7035 -1.1583 0.7383
-0.6079 -1.2109 0.7385
-0.5084 -1.2556 0.7386
-0.4057 -1.2922 0.7388
-0.3003 -1.3204 0.7390
-0.1931 -1.3401 0.7392
-0.0846 -1.3511 0.7395
0.0244 -1.3533 0.7398
0.1333 -1.3468 0.7401
0.2413 -1.3316 0.7405
0.3477 -1.3078 0.7408
0.4518 -1.2755 0.7412
0.5531 -1.2349 0.7416
0.6508 -1.1863 0.7420
0.7442 -1.1301 0.7424
1.7904 -2.2925 1.5968
2.0541 -2.2329 1.6664
2.3435 -2.1676 1.7541
2.9157 -2.2898 2.0382
3.0894 -2.0464 2.0382
3.2429 -1.7899 2.0382
3.3754 -1.5220 2.0382
3.4858 -1.2444 2.0382
3.5737 -0.9590 2.0382
3.6383 -0.6675 2.0382
3.6794 -0.3718 2.0382
3.6966 -0.0738 2.0382
3.6899 0.2246 2.0382
3.6593 0.5214 2.0382
3.6050 0.8148 2.0382
3.5275 1.1029 2.0382
3.4270 1.3838 2.0382
3.3044 1.6559 2.0382
3.1604 1.9172 2.0382
2.9959 2.1661 2.0382
2.8119 2.4012 2.0382
2.6097 2.6207 2.0382
2.3905 2.8234 2.0382
2.1557 3.0079 2.0382
0.7004 1.1655 0.7486
0.6043 1.2184 0.7485
0.5042 1.2634 0.7484
0.4007 1.3002 0.7482
0.2947 1.3285 0.7480
0.1867 1.3481 0.7477
0.0774 1.3590 0.7475
-0.0323 1.3610 0.7472
-0.1419 1.3541 0.7468
-0.2505 1.3384 0.7465
-0.3575 1.3140 0.7461
-0.4622 1.2809 0.7458
-0.5639 1.2396 0.7454
-0.6619 1.1902 0.7450
-0.7555 1.1330 0.7445
-2.3124 2.9266 2.0382
-2.5417 2.7324 2.0382
-2.7547 2.5202 2.0382
-2.9500 2.2915 2.0382
-3.1262 2.0476 2.0382
-3.2822 1.7902 2.0382
-3.4169 1.5210 2.0382
-3.5295 1.2416 2.0382
-3.6191 0.9541 2.0382
-3.6852 0.6601 2.0382
-3.7272 0.3617 2.0382
-3.7450 0.0608 2.0382
-3.7384 -0.2406 2.0382
-3.7074 -0.5405 2.0382
-3.6522 -0.8369 2.0382
-3.5732 -1.1279 2.0382
-3.4709 -1.4116 2.0382
-3.3460 -1.6860 2.0382
-3.1993 -1.9494 2.0382
-3.0317 -2.2000 2.0382
-2.8445 -2.4363 2.0382
-2.6387 -2.6565 2.0382
-2.4159 -2.8594 2.0382
-2.1774 -3.0435 2.0382
-0.6973 -1.1620 0.7383
-0.6015 -1.2141 0.7385
-0.5017 -1.2583 0.7386
-0.3988 -1.2943 0.7388
-0.2933 -1.3220 0.7390
-0.1859 -1.3411 0.7393
-0.0774 -1.3515 0.7395
0.0316 -1.3532 0.7398
0.1404 -1.3461 0.7401
0.2483 -1.3303 0.7405
0.3546 -1.3059 0.7408
0.4586 -1.2730 0.7412
0.5597 -1.2319 0.7416
0.6571 -1.1829 0.7420
0.7502 -1.1261 0.7424
1.8071 -2.2887 1.6009
2.0723 -2.2288 1.6716
2.3637 -2.1630 1.7607
2.9278 -2.2741 2.0382
3.1002 -2.0298 2.0382
3.2524 -1.7725 2.0382
3.3834 -1.5040 2.0382
3.4924 -1.2258 2.0382
3.5787 -0.9399 2.0382
3.6418 -0.6481 2.0382
3.6813 -0.3521 2.0382
3.6969 -0.0541 2.0382
3.6886 0.2442 2.0382
3.6565 0.5409 2.0382
3.6006 0.8340 2.0382
3.5215 1.1217 2.0382
3.4196 1.4021 2.0382
3.2955 1.6735 2.0382
3.1501 1.9340 2.0382
2.9843 2.1821 2.0382
2.7991 2.4162 2.0382
2.5957 2.6346 2.0382
2.3754 2.8362 2.0382
0.7860 1.1092 0.7487
0.6942 1.1692 0.7486
0.5978 1.2216 0.7485
0.4974 1.2661 0.7484
0.3938 1.3023 0.7482
0.2876 1.3301 0.7480
0.1795 1.3491 0.7477
0.0702 1.3594 0.7474
-0.0396 1.3608 0.7471
-0.1491 1.3533 0.7468
-0.2576 1.3370 0.7465
-0.3645 1.3120 0.7461
-0.4690 1.2785 0.7457
-0.5705 1.2366 0.7453
-0.6682 1.1866 0.7449
-0.7615 1.1290 0.7445
-2.3280 2.9143 2.0382
-2.5563 2.7189 2.0382
-2.7682 2.5056 2.0382
-2.9623 2.2758 2.0382
-3.1372 2.0310 2.0382
-3.2918 1.7728 2.0382
-3.1916 1.4408 2.0382
-3.2983 1.1798 2.0382
-3.3836 0.9110 2.0382
-3.4469 0.6362 2.0382
-3.4877 0.3570 2.0382
-3.5058 0.0754 2.0382
-3.5011 -0.2067 2.0382
-3.4736 -0.4876 2.0382
-3.4234 -0.7654 2.0382
-3.3509 -1.0382 2.0382
-3.2566 -1.3042 2.0382
-3.1410 -1.5617 2.0382
-3.0050 -1.8091 2.0382
-2.8494 -2.0445 2.0382
-2.6753 -2.2666 2.0382
-2.4839 -2.4739 2.0382
-2.2763 -2.6649 2.0382
-0.7443 -1.0286 0.7386
-0.6590 -1.0849 0.7387
-0.5695 -1.1342 0.7388
-0.4763 -1.1761 0.7389
-0.3801 -1.2103 0.7391
-0.2814 -1.2368 0.7393
-0.1810 -1.2552 0.7395
-0.0794 -1.2655 0.7398
0.0227 -1.2676 0.7400
0.1247 -1.2615 0.7403
0.2258 -1.2473 0.7406
0.3255 -1.2249 0.7410
0.4231 -1.1947 0.7413
0.5179 -1.1567 0.7417
0.6094 -1.1112 0.7421
0.6969 -1.0585 0.7425
0.7799 -0.9989 0.7429
2.0540 -2.2332 1.7794
2.5499 -2.3589 2.0382
2.7305 -2.1447 2.0382
2.8933 -1.9168 2.0382
3.0371 -1.6766 2.0382
3.1612 -1.4257 2.0382
3.2648 -1.1658 2.0382
3.3471 -0.8984 2.0382
3.4077 -0.6254 2.0382
3.4462 -0.3484 2.0382
3.4624 -0.0693 2.0382
3.4561 0.2102 2.0382
3.4275 0.4883 2.0382
3.3767 0.7631 2.0382
3.3040 1.0330 2.0382
3.2099 1.2962 2.0382
3.0950 1.5510 2.0382
2.9601 1.7958 2.0382
2.8060 2.0290 2.0382
2.6337 2.2491 2.0382
2.4442 2.4548 2.0382
2.2388 2.6446 2.0382
0.7413 1.0345 0.7484
0.6556 1.0911 0.7483
0.5656 1.1407 0.7482
0.4719 1.1828 0.7481
0.3751 1.2173 0.7479
0.2758 1.2437 0.7477
0.1747 1.2621 0.7475
0.0724 1.2723 0.7472
-0.0304 1.2742 0.7469
-0.1330 1.2677 0.7466
-0.2347 1.2530 0.7463
-0.3349 1.2301 0.7460
-0.4329 1.1992 0.7456
-0.5281 1.1605 0.7452
-0.6198 1.1143 0.7449
-0.7075 1.0608 0.7445
-2.1655 2.7401 2.0382
-2.3802 2.5582 2.0382
-2.5796 2.3595 2.0382
-2.7623 2.1453 2.0382
-2.9273 1.9169 2.0382
-3.0732 1.6759 2.0382
-3.1993 1.4238 2.0382
-3.3046 1.1623 2.0382
-3.3884 0.8930 2.0382
-3.4502 0.6178 2.0382
-3.4896 0.3385 2.0382
-3.5062 0.0568 2.0382
-3.5000 -0.2254 2.0382
-3.4710 -0.5061 2.0382
-3.4193 -0.7836 2.0382
-3.3453 -1.0560 2.0382
-3.2496 -1.3215 2.0382
-3.1326 -1.5784 2.0382
-2.9953 -1.8250 2.0382
-2.8385 -2.0596 2.0382
-2.6632 -2.2808 2.0382
-2.4706 -2.4870 2.0382
-2.2620 -2.6769 2.0382
-0.7388 -1.0325 0.7386
-0.6532 -1.0884 0.7387
-0.5635 -1.1372 0.7388
-0.4701 -1.1786 0.7389
-0.3737 -1.2123 0.7391
-0.2749 -1.2382 0.7393
-0.1743 -1.2561 0.7395
-0.0726 -1.2659 0.7398
0.0295 -1.2675 0.7400
0.1314 -1.2608 0.7403
0.2325 -1.2460 0.7407
0.3320 -1.2232 0.7410
0.4294 -1.1924 0.7414
0.5241 -1.1539 0.7417
0.6153 -1.1079 0.7421
0.7025 -1.0547 0.7425
1.8070 -2.2890 1.7095
2.0722 -2.2291 1.7850
2.5624 -2.3452 2.0382
2.7418 -2.1301 2.0382
2.9034 -1.9013 2.0382
3.0460 -1.6604 2.0382
3.1687 -1.4088 2.0382
3.2709 -1.1483 2.0382
3.3518 -0.8805 2.0382
3.4109 -0.6072 2.0382
3.4480 -0.3300 2.0382
3.4627 -0.0508 2.0382
3.4549 0.2287 2.0382
3.4248 0.5066 2.0382
3.3725 0.7811 2.0382
3.2984 1.0506 2.0382
3.2030 1.3133 2.0382
3.0867 1.5675 2.0382
2.9505 1.8116 2.0382
2.7952 2.0439 2.0382
2.6217 2.2632 2.0382
2.4311 2.4678 2.0382
2.2247 2.6565 2.0382
0.7358 1.0384 0.7484
0.6498 1.0946 0.7483
0.5595 1.1437 0.7482
0.4656 1.1853 0.7481
0.3686 1.2193 0.7479
0.2691 1.2452 0.7477
0.1679 1.2631 0.7474
0.0656 1.2727 0.7472
-0.0372 1.2740 0.7469
-0.1397 1.2670 0.7466
-0.2413 1.2517 0.7463
-0.3414 1.2283 0.7460
-0.4393 1.1969 0.7456
-0.5342 1.1577 0.7452
-0.6257 1.1110 0.7448
-0.7131 1.0570 0.7445
-2.1801 2.7287 2.0382
-2.3938 2.5456 2.0382
-2.5922 2.3458 2.0382
-2.7738 2.1306 2.0382
-2.9375 1.9014 2.0382
-3.0822 1.6596 2.0382
-2.9945 1.3516 2.0382
-3.0946 1.1067 2.0382
-3.1745 0.8545 2.0382
-3.2339 0.5967 2.0382
-3.2721 0.3348 2.0382
-3.2891 0.0706 2.0382
-3.2847 -0.1940 2.0382
-3.2588 -0.4576 2.0382
-3.2117 -0.7181 2.0382
-3.1437 -0.9740 2.0382
-3.0552 -1.2236 2.0382
-2.9468 -1.4652 2.0382
-2.8192 -1.6972 2.0382
-2.6733 -1.9181 2.0382
-2.5100 -2.1264 2.0382
-2.3304 -2.3209 2.0382
-0.7742 -0.9063 0.7388
-0.6987 -0.9654 0.7389
-0.6186 -1.0182 0.7390
-0.5346 -1.0645 0.7391
-0.4472 -1.1038 0.7392
-0.3569 -1.1360 0.7393
-0.2643 -1.1608 0.7395
-0.1700 -1.1781 0.7397
-0.0746 -1.1878 0.7400
0.0212 -1.1898 0.7402
0.1169 -1.1840 0.7405
0.2118 -1.1707 0.7408
0.3054 -1.1497 0.7411
0.3969 -1.1213 0.7415
0.4859 -1.0856 0.7418
0.5718 -1.0429 0.7422
0.6539 -0.9934 0.7425
0.7318 -0.9375 0.7429
2.2075 -2.4007 2.0382
2.3927 -2.2140 2.0382
2.5623 -2.0130 2.0382
2.7151 -1.7991 2.0382
2.8502 -1.5737 2.0382
2.9667 -1.3383 2.0382
3.0639 -1.0943 2.0382
3.1412 -0.8434 2.0382
3.1981 -0.5871 2.0382
3.2343 -0.3271 2.0382
3.2495 -0.0651 2.0382
3.2437 0.1972 2.0382
3.2168 0.4582 2.0382
3.1691 0.7162 2.0382
3.1009 0.9695 2.0382
3.0126 1.2165 2.0382
2.9048 1.4557 2.0382
2.7781 1.6855 2.0382
2.6334 1.9043 2.0382
2.4717 2.1109 2.0382
2.2938 2.3039 2.0382
0.7712 0.9111 0.7481
0.6954 0.9705 0.7481
0.6150 1.0237 0.7480
0.5305 1.0701 0.7479
0.4426 1.1097 0.7478
0.3518 1.1420 0.7476
0.2586 1.1668 0.7474
0.1637 1.1841 0.7472
0.0678 1.1936 0.7470
-0.0286 1.1953 0.7467
-0.1249 1.1893 0.7464
-0.2203 1.1755 0.7461
-0.3143 1.1540 0.7458
-0.4062 1.1251 0.7455
-0.4955 1.0888 0.7451
-0.5816 1.0454 0.7448
-0.6639 0.9952 0.7444
-0.7418 0.9385 0.7440
-2.2335 2.4001 2.0382
-2.4205 2.2136 2.0382
-2.5920 2.0126 2.0382
-2.7466 1.7983 2.0382
-2.8835 1.5722 2.0382
-3.0018 1.3356 2.0382
-3.1005 1.0903 2.0382
-3.1791 0.8377 2.0382
-3.2370 0.5795 2.0382
-3.2739 0.3174 2.0382
-3.2895 0.0531 2.0382
-3.2836 -0.2115 2.0382
-3.2564 -0.4749 2.0382
-3.2079 -0.7352 2.0382
-3.1385 -0.9907 2.0382
-3.0487 -1.2398 2.0382
-2.9390 -1.4808 2.0382
-2.8102 -1.7121 2.0382
-2.6631 -1.9322 2.0382
-2.4987 -2.1397 2.0382
-2.3180 -2.3332 2.0382
-0.7694 -0.9104 0.7388
-0.6935 -0.9691 0.7389
-0.6132 -1.0215 0.7390
-0.5289 -1.0673 0.7391
-0.4413 -1.1061 0.7392
-0.3508 -1.1378 0.7394
-0.2581 -1.1622 0.7395
-0.1637 -1.1790 0.7398
-0.0683 -1.1881 0.7400
0.0276 -1.1896 0.7403
0.1232 -1.1834 0.7405
0.2181 -1.1695 0.7408
0.3115 -1.1480 0.7412
0.4029 -1.1191 0.7415
0.4917 -1.0830 0.7418
0.5773 -1.0398 0.7422
0.6592 -0.9899 0.7425
0.7368 -0.9336 0.7429
2.2202 -2.3889 2.0382
2.4044 -2.2011 2.0382
2.5729 -1.9992 2.0382
2.7246 -1.7846 2.0382
2.8584 -1.5584 2.0382
2.9737 -1.3224 2.0382
3.0696 -1.0779 2.0382
3.1456 -0.8266 2.0382
3.2012 -0.5700 2.0382
3.2360 -0.3098 2.0382
3.2498 -0.0478 2.0382
3.2426 0.2145 2.0382
3.2143 0.4754 2.0382
3.1653 0.7331 2.0382
3.0957 0.9860 2.0382
3.0061 1.2326 2.0382
2.8970 1.4712 2.0382
2.7691 1.7003 2.0382
2.6233 1.9184 2.0382
2.4604 2.1241 2.0382
2.2815 2.3162 2.0382
0.7663 0.9152 0.7481
0.6902 0.9742 0.7481
0.6095 1.0269 0.7480
0.5248 1.0730 0.7479
0.4367 1.1120 0.7478
0.3457 1.1438 0.7476
0.2524 1.1682 0.7474
0.1574 1.1849 0.7472
0.0614 1.1940 0.7470
-0.0350 1.1952 0.7467
-0.1312 1.1886 0.7464
-0.2266 1.1743 0.7461
-0.3204 1.1524 0.7458
-0.4122 1.1229 0.7455
-0.5013 1.0861 0.7451
-0.5872 1.0423 0.7448
-0.6692 0.9916 0.7444
-0.7468 0.9345 0.7440
-2.2463 2.3883 2.0382
-2.4324 2.2008 2.0382
-2.6027 1.9988 2.0382
-2.7562 1.7837 2.0382
-2.8919 1.5568 2.0382
-2.8146 1.2701 2.0382
-2.9086 1.0400 2.0382
-2.9837 0.8030 2.0382
-3.0394 0.5606 2.0382
-3.0753 0.3145 2.0382
-3.0912 0.0663 2.0382
-3.0870 -0.1825 2.0382
-3.0627 -0.4301 2.0382
-3.0185 -0.6749 2.0382
-2.9546 -0.9154 2.0382
-2.8714 -1.1499 2.0382
-2.7695 -1.3770 2.0382
-2.6497 -1.5950 2.0382
-2.5125 -1.8026 2.0382
-2.3591 -1.9984 2.0382
-2.1904 -2.1811 2.0382
-0.7280 -0.8521 0.7391
-0.6570 -0.9076 0.7392
-0.5817 -0.9573 0.7392
-0.5027 -1.0008 0.7393
-0.4205 -1.0378 0.7394
-0.3356 -1.0680 0.7396
-0.2486 -1.0914 0.7398
-0.1599 -1.1076 0.7400
-0.0703 -1.1167 0.7402
0.0198 -1.1186 0.7404
0.1098 -1.1132 0.7407
0.1990 -1.1006 0.7410
0.2870 -1.0809 0.7413
0.3731 -1.0542 0.7416
0.4567 -1.0207 0.7419
0.5374 -0.9805 0.7422
0.6147 -0.9340 0.7426
0.6879 -0.8814 0.7429
0.7567 -0.8231 0.7433
2.2491 -2.0815 2.0382
2.4085 -1.8926 2.0382
2.5522 -1.6915 2.0382
2.6793 -1.4797 2.0382
2.7889 -1.2583 2.0382
2.8803 -1.0290 2.0382
2.9530 -0.7930 2.0382
3.0066 -0.5521 2.0382
3.0406 -0.3077 2.0382
3.0550 -0.0614 2.0382
3.0495 0.1853 2.0382
3.0243 0.4307 2.0382
2.9794 0.6733 2.0382
2.9153 0.9115 2.0382
2.8323 1.1437 2.0382
2.7309 1.3686 2.0382
2.6118 1.5846 2.0382
2.4757 1.7904 2.0382
2.3236 1.9847 2.0382
2.1563 2.1661 2.0382
0.7247 0.8562 0.7479
0.6534 0.9121 0.7478
0.5778 0.9620 0.7477
0.4985 1.0057 0.7476
0.4158 1.0429 0.7475
0.3305 1.0732 0.7474
0.2429 1.0966 0.7472
0.1538 1.1128 0.7470
0.0636 1.1217 0.7468
-0.0270 1.1234 0.7465
-0.1175 1.1177 0.7463
-0.2072 1.1047 0.7460
-0.2955 1.0846 0.7457
-0.3819 1.0573 0.7454
-0.4659 1.0232 0.7450
-0.5468 0.9824 0.7447
-0.6241 0.9353 0.7444
-0.6973 0.8820 0.7440
-0.7661 0.8230 0.7437
-2.2753 2.0804 2.0382
-2.4364 1.8914 2.0382
-2.5817 1.6900 2.0382
-2.7103 1.4774 2.0382
-2.8214 1.2551 2.0382
-2.9141 1.0245 2.0382
-2.9879 0.7871 2.0382
-3.0424 0.5444 2.0382
-3.0770 0.2981 2.0382
-3.0916 0.0498 2.0382
-3.0860 -0.1989 2.0382
-3.0604 -0.4464 2.0382
-3.0149 -0.6910 2.0382
-2.9496 -0.9311 2.0382
-2.8652 -1.1652 2.0382
-2.7622 -1.3916 2.0382
-2.6411 -1.6090 2.0382
-2.5029 -1.8159 2.0382
-2.3484 -2.0109 2.0382
-2.1787 -2.1927 2.0382
-0.7234 -0.8559 0.7391
-0.6521 -0.9111 0.7392
-0.5766 -0.9604 0.7392
-0.4974 -1.0034 0.7393
-0.4150 -1.0400 0.7395
-0.3299 -1.0698 0.7396
-0.2428 -1.0927 0.7398
-0.1540 -1.1084 0.7400
-0.0643 -1.1171 0.7402
0.0258 -1.1185 0.7405
0.1157 -1.1126 0.7407
0.2049 -1.0995 0.7410
0.2927 -1.0794 0.7413
0.3787 -1.0522 0.7416
0.4621 -1.0182 0.7419
0.5426 -0.9776 0.7423
0.6196 -0.9307 0.7426
0.6926 -0.8777 0.7430
0.7611 -0.8190 0.7433
2.2601 -2.0694 2.0382
2.4185 -1.8796 2.0382
2.5611 -1.6778 2.0382
2.6871 -1.4653 2.0382
2.7955 -1.2434 2.0382
2.8857 -1.0135 2.0382
2.9572 -0.7772 2.0382
3.0095 -0.5360 2.0382
3.0422 -0.2914 2.0382
3.0552 -0.0450 2.0382
3.0484 0.2016 2.0382
3.0219 0.4468 2.0382
2.9758 0.6892 2.0382
2.9104 0.9270 2.0382
2.8261 1.1588 2.0382
2.7235 1.3832 2.0382
2.6033 1.5986 2.0382
2.4662 1.8036 2.0382
2.3130 1.9971 2.0382
0.7870 0.7990 0.7479
0.7201 0.8601 0.7479
0.6485 0.9156 0.7478
0.5727 0.9651 0.7477
0.4931 1.0084 0.7476
0.4103 1.0451 0.7475
0.3247 1.0750 0.7474
0.2371 1.0979 0.7472
0.1478 1.1136 0.7470
0.0576 1.1221 0.7468
-0.0330 1.1232 0.7465
-0.1234 1.1171 0.7462
-0.2130 1.1036 0.7460
-0.3013 1.0830 0.7457
-0.3876 1.0553 0.7453
-0.4713 1.0207 0.7450
-0.5520 0.9795 0.7447
-0.6291 0.9319 0.7443
-0.7020 0.8783 0.7440
-0.7704 0.8189 0.7436
-2.2864 2.0683 2.0382
-2.4465 1.8785 2.0382
-2.5907 1.6763 2.0382
-2.7182 1.4630 2.0382
-2.6494 1.1953 2.0382
-2.7378 0.9787 2.0382
-2.8084 0.7556 2.0382
-2.8608 0.5275 2.0382
-2.8946 0.2959 2.0382
-2.9096 0.0623 2.0382
-2.9056 -0.1718 2.0382
-2.8827 -0.4049 2.0382
-2.8411 -0.6353 2.0382
-2.7809 -0.8616 2.0382
-2.7026 -1.0823 2.0382
-2.6068 -1.2960 2.0382
-2.4940 -1.5012 2.0382
-2.3649 -1.6966 2.0382
-2.2206 -1.8809 2.0382
-0.7479 -0.7447 0.7394
-0.6855 -0.8022 0.7394
-0.6186 -0.8546 0.7394
-0.5478 -0.9013 0.7395
-0.4734 -0.9423 0.7396
-0.3960 -0.9771 0.7397
-0.3161 -1.0056 0.7398
-0.2342 -1.0276 0.7400
-0.1507 -1.0429 0.7402
-0.0663 -1.0514 0.7404
0.0186 -1.0532 0.7406
0.1032 -1.0481 0.7409
0.1873 -1.0363 0.7411
0.2701 -1.0177 0.7414
0.3511 -0.9926 0.7417
0.4299 -0.9610 0.7420
0.5059 -0.9232 0.7423
0.5786 -0.8794 0.7426
0.6475 -0.8299 0.7430
0.7123 -0.7750 0.7433
0.7724 -0.7150 0.7436
2.2673 -1.7819 2.0382
2.4026 -1.5927 2.0382
2.5223 -1.3932 2.0382
2.6255 -1.1849 2.0382
2.7116 -0.9689 2.0382
2.7801 -0.7468 2.0382
2.8306 -0.5199 2.0382
2.8627 -0.2898 2.0382
2.8762 -0.0579 2.0382
2.8710 0.1744 2.0382
2.8473 0.4054 2.0382
2.8051 0.6338 2.0382
2.7447 0.8581 2.0382
2.6665 1.0768 2.0382
2.5710 1.2885 2.0382
2.4589 1.4920 2.0382
2.3308 1.6857 2.0382
2.1875 1.8686 2.0382
0.7446 0.7481 0.7476
0.6820 0.8059 0.7476
0.6149 0.8585 0.7476
0.5438 0.9055 0.7475
0.4691 0.9466 0.7474
0.3913 0.9815 0.7473
0.3109 1.0101 0.7471
0.2285 1.0320 0.7470
0.1446 1.0473 0.7468
0.0597 1.0557 0.7466
-0.0256 1.0573 0.7463
-0.1107 1.0519 0.7461
-0.1951 1.0397 0.7458
-0.2782 1.0208 0.7455
-0.3596 0.9951 0.7453
-0.4386 0.9630 0.7449
-0.5147 0.9246 0.7446
-0.5875 0.8802 0.7443
-0.6565 0.8301 0.7440
-0.7212 0.7746 0.7436
-2.1419 1.9580 2.0382
-2.2935 1.7801 2.0382
-2.4302 1.5905 2.0382
-2.5512 1.3904 2.0382
-2.6557 1.1812 2.0382
-2.7430 0.9641 2.0382
-2.8124 0.7407 2.0382
-2.8636 0.5123 2.0382
-2.8962 0.2805 2.0382
-2.9099 0.0468 2.0382
-2.9047 -0.1873 2.0382
-2.8805 -0.4202 2.0382
-2.8376 -0.6504 2.0382
-2.7763 -0.8764 2.0382
-2.6968 -1.0967 2.0382
-2.5998 -1.3098 2.0382
-2.4859 -1.5144 2.0382
-2.3559 -1.7091 2.0382
-2.2105 -1.8926 2.0382
-0.7439 -0.7486 0.7394
-0.6812 -0.8059 0.7394
-0.6141 -0.8578 0.7394
-0.5430 -0.9042 0.7395
-0.4684 -0.9448 0.7396
-0.3908 -0.9792 0.7397
-0.3108 -1.0072 0.7398
-0.2287 -1.0288 0.7400
-0.1451 -1.0437 0.7402
-0.0607 -1.0518 0.7404
0.0242 -1.0531 0.7406
0.1088 -1.0476 0.7409
0.1928 -1.0353 0.7411
0.2755 -1.0163 0.7414
0.3564 -0.9907 0.7417
0.4350 -0.9587 0.7420
0.5108 -0.9205 0.7423
0.5832 -0.8763 0.7427
0.6519 -0.8264 0.7430
0.7164 -0.7711 0.7433
0.7762 -0.7109 0.7436
2.2767 -1.7698 2.0382
2.4110 -1.5798 2.0382
2.5296 -1.3797 2.0382
2.6317 -1.1708 2.0382
2.7167 -0.9544 2.0382
2.7840 -0.7319 2.0382
2.8333 -0.5048 2.0382
2.8641 -0.2745 2.0382
2.8764 -0.0425 2.0382
2.8700 0.1897 2.0382
2.8451 0.4206 2.0382
2.8016 0.6488 2.0382
2.7401 0.8728 2.0382
2.6607 1.0910 2.0382
2.5641 1.3023 2.0382
2.4509 1.5051 2.0382
2.3218 1.6982 2.0382
2.1775 1.8803 2.0382
0.7406 0.7520 0.7476
0.6777 0.8095 0.7476
0.6103 0.8617 0.7476
0.5389 0.9084 0.7475
0.4640 0.9491 0.7474
0.3860 0.9836 0.7473
0.3055 1.0117 0.7471
0.2230 1.0333 0.7470
0.1390 1.0481 0.7468
0.0541 1.0560 0.7466
-0.0312 1.0571 0.7463
-0.1163 1.0513 0.7461
-0.2006 1.0387 0.7458
-0.2837 1.0193 0.7455
-0.3649 0.9932 0.7452
-0.4437 0.9607 0.7449
-0.5197 0.9219 0.7446
-0.5922 0.8771 0.7443
-0.6609 0.8266 0.7440
-0.7253 0.7708 0.7436
-2.1524 1.9467 2.0382
-2.3030 1.7679 2.0382
-2.4387 1.5776 2.0382
-2.5587 1.3769 2.0382
-2.4969 1.1262 2.0382
-2.5802 0.9221 2.0382
-2.6467 0.7119 2.0382
-2.6961 0.4970 2.0382
-2.7279 0.2787 2.0382
-2.7420 0.0585 2.0382
-2.7382 -0.1620 2.0382
-2.7166 -0.3816 2.0382
-2.6774 -0.5987 2.0382
-2.6207 -0.8120 2.0382
-2.5469 -1.0199 2.0382
-2.4566 -1.2213 2.0382
-2.3503 -1.4146 2.0382
-2.2288 -1.5987 2.0382
-0.7594 -0.6432 0.7396
-0.7051 -0.7020 0.7396
-0.6463 -0.7562 0.7396
-0.5832 -0.8056 0.7396
-0.5165 -0.8496 0.7397
-0.4464 -0.8882 0.7398
-0.3734 -0.9211 0.7399
-0.2981 -0.9479 0.7400
-0.2208 -0.9686 0.7402
-0.1422 -0.9831 0.7404
-0.0626 -0.9912 0.7406
0.0174 -0.9928 0.7408
0.0972 -0.9880 0.7410
0.1764 -0.9769 0.7413
0.2545 -0.9594 0.7415
0.3308 -0.9357 0.7418
0.4051 -0.9059 0.7421
0.4767 -0.8702 0.7424
0.5452 -0.8289 0.7427
0.6102 -0.7823 0.7430
0.6713 -0.7305 0.7433
0.7280 -0.6740 0.7436
0.7799 -0.6131 0.7439
2.2644 -1.5014 2.0382
2.3773 -1.3134 2.0382
2.4746 -1.1170 2.0382
2.5558 -0.9135 2.0382
2.6204 -0.7041 2.0382
2.6680 -0.4903 2.0382
2.6983 -0.2733 2.0382
2.7110 -0.0547 2.0382
2.7062 0.1643 2.0382
2.6838 0.3821 2.0382
2.6441 0.5974 2.0382
2.5871 0.8088 2.0382
2.5134 1.0150 2.0382
2.4234 1.2146 2.0382
2.3177 1.4064 2.0382
2.1969 1.5890 2.0382
0.7560 0.6459 0.7474
0.7016 0.7049 0.7474
0.6426 0.7594 0.7474
0.5793 0.8089 0.7473
0.5123 0.8532 0.7473
0.4419 0.8920 0.7472
0.3686 0.9249 0.7471
0.2929 0.9518 0.7469
0.2152 0.9725 0.7468
0.1361 0.9869 0.7466
0.0562 0.9948 0.7464
-0.0242 0.9963 0.7462
-0.1044 0.9912 0.7459
-0.1840 0.9797 0.7457
-0.2623 0.9619 0.7454
-0.3390 0.9377 0.7452
-0.4134 0.9075 0.7449
-0.4852 0.8713 0.7446
-0.5538 0.8295 0.7443
-0.6188 0.7823 0.7440
-0.6797 0.7300 0.7436
-0.7363 0.6729 0.7433
-2.1616 1.6774 2.0382
-2.2905 1.4987 2.0382
-2.4045 1.3101 2.0382
-2.5029 1.1129 2.0382
-2.5851 0.9084 2.0382
-2.6505 0.6978 2.0382
-2.6987 0.4826 2.0382
-2.7294 0.2642 2.0382
-2.7423 0.0440 2.0382
-2.7373 -0.1766 2.0382
-2.7146 -0.3960 2.0382
-2.6741 -0.6130 2.0382
-2.6163 -0.8259 2.0382
-2.5415 -1.0335 2.0382
-2.4501 -1.2343 2.0382
-2.3428 -1.4271 2.0382
-2.2202 -1.6106 2.0382
-0.7560 -0.6472 0.7396
-0.7013 -0.7057 0.7396
-0.6422 -0.7596 0.7396
-0.5789 -0.8086 0.7396
-0.5119 -0.8524 0.7397
-0.4417 -0.8906 0.7398
-0.3685 -0.9230 0.7399
-0.2930 -0.9495 0.7400
-0.2157 -0.9698 0.7402
-0.1369 -0.9838 0.7404
-0.0573 -0.9915 0.7406
0.0227 -0.9927 0.7408
0.1025 -0.9875 0.7410
0.1816 -0.9759 0.7413
0.2596 -0.9580 0.7415
0.3358 -0.9339 0.7418
0.4099 -0.9037 0.7421
0.4813 -0.8677 0.7424
0.5497 -0.8260 0.7427
0.6144 -0.7790 0.7430
0.6752 -0.7269 0.7433
0.7316 -0.6701 0.7436
0.7832 -0.6090 0.7439
2.2724 -1.4893 2.0382
2.3842 -1.3007 2.0382
2.4805 -1.1038 2.0382
2.5606 -0.8998 2.0382
2.6241 -0.6901 2.0382
2.6706 -0.4760 2.0382
2.6997 -0.2589 2.0382
2.7113 -0.0402 2.0382
2.7053 0.1787 2.0382
2.6817 0.3964 2.0382
2.6408 0.6115 2.0382
2.5828 0.8226 2.0382
2.5080 1.0284 2.0382
2.4169 1.2276 2.0382
2.3102 1.4187 2.0382
2.1884 1.6007 2.0382
0.7526 0.6499 0.7474
0.6978 0.7087 0.7474
0.6385 0.7628 0.7474
0.5750 0.8120 0.7473
0.5077 0.8560 0.7473
0.4371 0.8943 0.7472
0.3637 0.9269 0.7471
0.2878 0.9534 0.7469
0.2100 0.9737 0.7468
0.1309 0.9876 0.7466
0.0509 0.9951 0.7464
-0.0295 0.9961 0.7462
-0.1097 0.9907 0.7459
-0.1892 0.9788 0.7457
-0.2674 0.9605 0.7454
-0.3440 0.9359 0.7451
-0.4183 0.9053 0.7448
-0.4898 0.8687 0.7445
-0.5582 0.8265 0.7442
-0.6229 0.7790 0.7439
-0.6836 0.7263 0.7436
-0.7398 0.6690 0.7433
-2.1706 1.6659 2.0382
-2.2985 1.4865 2.0382
-2.4115 1.2974 2.0382
-2.3555 1.0622 2.0382
-2.4341 0.8697 2.0382
-2.4968 0.6714 2.0382
-2.5433 0.4686 2.0382
-2.5733 0.2628 2.0382
-2.5866 0.0551 2.0382
-2.5830 -0.1529 2.0382
-2.5627 -0.3600 2.0382
-2.5256 -0.5648 2.0382
-2.4721 -0.7660 2.0382
-2.4026 -0.9621 2.0382
-2.3174 -1.1520 2.0382
-2.2172 -1.3344 2.0382
-0.7632 -0.5474 0.7399
-0.7166 -0.6069 0.7398
-0.6654 -0.6624 0.7398
-0.6099 -0.7135 0.7398
-0.5504 -0.7601 0.7399
-0.4874 -0.8017 0.7399
-0.4213 -0.8381 0.7400
-0.3525 -0.8691 0.7401
-0.2814 -0.8944 0.7402
-0.2085 -0.9140 0.7404
-0.1343 -0.9276 0.7405
-0.0592 -0.9352 0.7407
0.0163 -0.9368 0.7409
0.0916 -0.9323 0.7411
0.1663 -0.9218 0.7414
0.2400 -0.9052 0.7416
0.3121 -0.8829 0.7419
0.3821 -0.8548 0.7422
0.4497 -0.8211 0.7424
0.5143 -0.7822 0.7427
0.5757 -0.7381 0.7430
0.6332 -0.6893 0.7433
0.6867 -0.6360 0.7436
0.7358 -0.5785 0.7439
0.7800 -0.5173 0.7442
2.2428 -1.2394 2.0382
2.3346 -1.0541 2.0382
2.4113 -0.8620 2.0382
2.4723 -0.6645 2.0382
2.5172 -0.4627 2.0382
2.5458 -0.2580 2.0382
2.5578 -0.0517 2.0382
2.5533 0.1549 2.0382
2.5322 0.3605 2.0382
2.4947 0.5636 2.0382
2.4410 0.7631 2.0382
2.3714 0.9577 2.0382
2.2865 1.1460 2.0382
2.1867 1.3270 2.0382
0.7598 0.5496 0.7471
0.7131 0.6092 0.7471
0.6617 0.6649 0.7471
0.6060 0.7163 0.7471
0.5464 0.7630 0.7471
0.4831 0.8048 0.7470
0.4167 0.8413 0.7470
0.3476 0.8724 0.7469
0.2761 0.8978 0.7467
0.2029 0.9173 0.7466
0.1283 0.9309 0.7464
0.0529 0.9384 0.7462
-0.0229 0.9397 0.7460
-0.0986 0.9350 0.7458
-0.1736 0.9241 0.7456
-0.2476 0.9073 0.7453
-0.3199 0.8845 0.7451
-0.3901 0.8560 0.7448
-0.4578 0.8219 0.7445
-0.5225 0.7824 0.7442
-0.5838 0.7379 0.7439
-0.6413 0.6885 0.7436
-0.6947 0.6347 0.7433
-0.7435 0.5768 0.7430
-2.1609 1.4136 2.0382
-2.2684 1.2357 2.0382
-2.3612 1.0497 2.0382
-2.4387 0.8567 2.0382
-2.5004 0.6581 2.0382
-2.5458 0.4551 2.0382
-2.5747 0.2491 2.0382
-2.5869 0.0414 2.0382
-2.5822 -0.1667 2.0382
-2.5607 -0.3737 2.0382
-2.5226 -0.5782 2.0382
-2.4680 -0.7791 2.0382
-2.3974 -0.9749 2.0382
-2.3112 -1.1643 2.0382
-2.2100 -1.3461 2.0382
-0.7603 -0.5515 0.7399
-0.7134 -0.6107 0.7398
-0.6618 -0.6659 0.7398
-0.6060 -0.7168 0.7398
-0.5464 -0.7630 0.7399
-0.4831 -0.8043 0.7399
-0.4168 -0.8403 0.7400
-0.3478 -0.8710 0.7401
-0.2766 -0.8959 0.7402
-0.2036 -0.9151 0.7404
-0.1293 -0.9283 0.7406
-0.0542 -0.9355 0.7407
0.0213 -0.9367 0.7409
0.0966 -0.9318 0.7412
0.1712 -0.9209 0.7414
0.2448 -0.9040 0.7416
0.3167 -0.8812 0.7419
0.3867 -0.8527 0.7422
0.4540 -0.8187 0.7425
0.5185 -0.7794 0.7427
0.5796 -0.7350 0.7430
0.6369 -0.6859 0.7433
0.6901 -0.6323 0.7436
0.7388 -0.5746 0.7439
0.7828 -0.5131 0.7442
2.2493 -1.2274 2.0382
2.3402 -1.0416 2.0382
2.4158 -0.8491 2.0382
2.4758 -0.6513 2.0382
2.5196 -0.4493 2.0382
2.5471 -0.2444 2.0382
2.5581 -0.0380 2.0382
2.5524 0.1685 2.0382
2.5302 0.3740 2.0382
2.4916 0.5769 2.0382
2.4368 0.7762 2.0382
2.3663 0.9703 2.0382
2.2803 1.1582 2.0382
2.1796 1.3386 2.0382
0.7568 0.5536 0.7471
0.7098 0.6130 0.7471
0.6582 0.6685 0.7471
0.6022 0.7195 0.7471
0.5423 0.7660 0.7471
0.4788 0.8074 0.7470
0.4122 0.8436 0.7470
0.3429 0.8743 0.7469
0.2714 0.8993 0.7467
0.1980 0.9184 0.7466
0.1233 0.9315 0.7464
0.0479 0.9386 0.7462
-0.0280 0.9396 0.7460
-0.1036 0.9344 0.7458
-0.1786 0.9232 0.7456
-0.2524 0.9060 0.7453
-0.3246 0.8828 0.7450
-0.3947 0.8539 0.7448
-0.4622 0.8194 0.7445
-0.5267 0.7796 0.7442
-0.5877 0.7348 0.7439
-0.6450 0.6851 0.7436
-0.6980 0.6310 0.7433
-0.7465 0.5728 0.7430
-2.1684 1.4021 2.0382
-2.2750 1.2236 2.0382
-2.2239 1.0026 2.0382
-2.2980 0.8208 2.0382
-2.3572 0.6336 2.0382
-2.4011 0.4423 2.0382
-2.4294 0.2479 2.0382
-2.4419 0.0519 2.0382
-2.4386 -0.1445 2.0382
-2.4193 -0.3400 2.0382
-2.3844 -0.5333 2.0382
-2.3339 -0.7231 2.0382
-2.2682 -0.9083 2.0382
-2.1878 -1.0875 2.0382
-0.7601 -0.4574 0.7401
-0.7208 -0.5169 0.7401
-0.6767 -0.5731 0.7400
-0.6284 -0.6255 0.7400
-0.5760 -0.6738 0.7400
-0.5198 -0.7177 0.7401
-0.4604 -0.7570 0.7401
-0.3979 -0.7914 0.7402
-0.3329 -0.8207 0.7403
-0.2658 -0.8446 0.7404
-0.1970 -0.8631 0.7405
-0.1269 -0.8760 0.7407
-0.0560 -0.8831 0.7409
0.0153 -0.8846 0.7411
0.0864 -0.8804 0.7413
0.1569 -0.8704 0.7415
0.2265 -0.8548 0.7417
0.2945 -0.8337 0.7420
0.3607 -0.8072 0.7422
0.4245 -0.7754 0.7425
0.4855 -0.7386 0.7428
0.5434 -0.6970 0.7430
0.5978 -0.6509 0.7433
0.6483 -0.6005 0.7436
0.6946 -0.5463 0.7439
0.7364 -0.4885 0.7442
0.7734 -0.4275 0.7444
2.2042 -0.9955 2.0382
2.2766 -0.8141 2.0382
2.3343 -0.6276 2.0382
2.3767 -0.4370 2.0382
2.4037 -0.2437 2.0382
2.4151 -0.0489 2.0382
2.4108 0.1462 2.0382
2.3909 0.3403 2.0382
2.3555 0.5321 2.0382
2.3047 0.7205 2.0382
2.2391 0.9043 2.0382
2.1589 1.0821 2.0382
0.7565 0.4591 0.7468
0.7171 0.5188 0.7469
0.6731 0.5751 0.7469
0.6246 0.6277 0.7469
0.5720 0.6762 0.7469
0.5157 0.7203 0.7469
0.4560 0.7597 0.7468
0.3933 0.7942 0.7468
0.3280 0.8235 0.7467
0.2606 0.8475 0.7466
0.1914 0.8659 0.7464
0.1210 0.8787 0.7463
0.0498 0.8858 0.7461
-0.0218 0.8871 0.7459
-0.0932 0.8826 0.7457
-0.1640 0.8724 0.7455
-0.2338 0.8564 0.7452
-0.3021 0.8350 0.7450
-0.3684 0.8080 0.7447
-0.4323 0.7758 0.7444
-0.4934 0.7386 0.7442
-0.5513 0.6965 0.7439
-0.6056 0.6500 0.7436
-0.6559 0.5992 0.7433
-0.7020 0.5445 0.7431
-0.7435 0.4863 0.7428
-0.7802 0.4249 0.7425
-2.2293 0.9908 2.0382
-2.3024 0.8086 2.0382
-2.3606 0.6211 2.0382
-2.4035 0.4295 2.0382
-2.4307 0.2350 2.0382
-2.4422 0.0389 2.0382
-2.4378 -0.1574 2.0382
-2.4175 -0.3528 2.0382
-2.3815 -0.5459 2.0382
