ply
format ascii 1.0
element vertex 2176
property float32 x
property float32 y
property float32 z
end_header
-1.7606 10.3775 2.0386
-2.5923 10.2125 2.0386
-3.4089 9.9808 2.0386
-4.2049 9.6838 2.0386
-4.9750 9.3231 2.0386
-5.7141 8.9010 2.0386
-6.4173 8.4201 2.0386
-7.0798 7.8833 2.0386
-7.6972 7.2942 2.0386
-8.2651 6.6565 2.0386
-8.7798 5.9744 2.0386
-9.2378 5.2523 2.0386
-9.6358 4.4949 2.0386
-9.9711 3.7073 2.0386
-10.2413 2.8947 2.0386
-10.4446 2.0624 2.0386
-10.5796 1.2161 2.0386
-10.6452 0.3615 2.0386
-10.6410 -0.4958 2.0386
-10.5670 -1.3500 2.0386
-10.4237 -2.1953 2.0386
-10.2120 -3.0260 2.0386
-9.9335 -3.8366 2.0386
-9.5900 -4.6216 2.0386
-9.1838 -5.3759 2.0386
-8.7179 -6.0944 2.0386
-8.1952 -6.7722 2.0386
-7.6196 -7.4050 2.0386
-6.9948 -7.9886 2.0386
-6.3251 -8.5193 2.0386
-5.6151 -8.9935 2.0386
-4.8696 -9.4083 2.0386
-4.0935 -9.7610 2.0386
-3.2921 -10.0496 2.0386
-2.4708 -10.2722 2.0386
-1.6349 -10.4276 2.0386
-0.7899 -10.5150 2.0386
0.0193 -3.4683 0.6712
0.2960 -3.4304 0.6670
0.5706 -3.3928 0.6671
0.8466 -3.3550 0.6716
1.1275 -3.3165 0.6806
1.4174 -3.2768 0.6944
1.7207 -3.2352 0.7134
5.3936 -8.4263 1.9495
5.8524 -7.6995 1.8862
6.4476 -7.1975 1.8862
7.0003 -6.6500 1.8862
7.5232 -6.0735 1.8902
8.0197 -5.4702 1.8991
8.4650 -4.8247 1.9073
8.8553 -4.1415 1.9147
9.1869 -3.4254 1.9213
9.4568 -2.6817 1.9270
9.6624 -1.9159 1.9318
9.8018 -1.1339 1.9356
9.8734 -0.3417 1.9383
9.8764 0.4545 1.9400
9.8107 1.2483 1.9407
9.6768 2.0336 1.9402
9.4756 2.8041 1.9388
9.2090 3.5537 1.9362
8.8792 4.2768 1.9326
8.4892 4.9676 1.9281
8.0423 5.6211 1.9226
7.5423 6.2324 1.9161
6.9937 6.7973 1.9089
6.4009 7.3118 1.9008
5.7691 7.7727 1.8921
5.1128 8.1925 1.8862
4.4405 8.5843 1.8862
3.7385 8.9214 1.8862
3.0212 9.2324 1.8925
2.4459 10.1841 2.0386
1.6201 10.3578 2.0386
0.7822 10.4648 2.0386
-0.0624 10.5043 2.0386
-0.9082 10.4757 2.0386
-1.7499 10.3792 2.0386
-2.5818 10.2151 2.0386
-3.3986 9.9842 2.0386
-4.1949 9.6880 2.0386
-4.9653 9.3281 2.0386
-5.7049 8.9067 2.0386
-6.4086 8.4265 2.0386
-7.0716 7.8905 2.0386
-7.6896 7.3021 2.0386
-8.2582 6.6650 2.0386
-8.7736 5.9834 2.0386
-9.2323 5.2618 2.0386
-9.6311 4.5048 2.0386
-9.9672 3.7175 2.0386
-10.2383 2.9052 2.0386
-10.4424 2.0731 2.0386
-10.5783 1.2270 2.0386
-10.6448 0.3724 2.0386
-10.6415 -0.4849 2.0386
-10.5684 -1.3391 2.0386
-10.4259 -2.1846 2.0386
-10.2151 -3.0155 2.0386
-9.9374 -3.8264 2.0386
-9.5947 -4.6118 2.0386
-9.1894 -5.3665 2.0386
-8.7242 -6.0854 2.0386
-8.2023 -6.7638 2.0386
-7.6273 -7.3972 2.0386
-7.0031 -7.9815 2.0386
-6.3339 -8.5128 2.0386
-5.6244 -8.9878 2.0386
-4.8793 -9.4034 2.0386
-4.1036 -9.7569 2.0386
-3.3025 -10.0463 2.0386
-2.4813 -10.2698 2.0386
-1.6456 -10.4261 2.0386
-0.8007 -10.5143 2.0386
0.0157 -3.4688 0.6713
0.2925 -3.4309 0.6670
0.5671 -3.3932 0.6671
0.8430 -3.3554 0.6716
1.1239 -3.3170 0.6805
1.4137 -3.2773 0.6942
1.7168 -3.2358 0.7131
5.3960 -8.4491 1.9535
5.8446 -7.7056 1.8862
6.4403 -7.2042 1.8862
6.9935 -6.6572 1.8862
7.5166 -6.0809 1.8901
8.0137 -5.4782 1.8990
8.4597 -4.8332 1.9072
8.8506 -4.1505 1.9146
9.1830 -3.4348 1.9213
9.4538 -2.6914 1.9270
9.6602 -1.9258 1.9317
9.8004 -1.1439 1.9355
9.8729 -0.3518 1.9383
9.8768 0.4443 1.9400
9.8120 1.2382 1.9407
9.6789 2.0237 1.9403
9.4786 2.7944 1.9388
9.2128 3.5443 1.9363
8.8838 4.2677 1.9327
8.4945 4.9590 1.9281
8.0483 5.6130 1.9226
7.5490 6.2249 1.9162
7.0010 6.7904 1.9090
6.9191 4.8470 1.9037
6.4907 5.3751 1.8982
6.0203 5.8637 1.8920
4.1348 4.7335 1.4141
3.7192 5.0223 1.4053
4.4363 7.1257 1.8862
3.8512 7.4650 1.8862
3.2404 7.7565 1.8862
2.8185 8.6446 2.0386
2.1154 8.8506 2.0386
1.3976 8.9997 2.0386
0.6695 9.0908 2.0386
-0.0642 9.1232 2.0386
-0.7987 9.0965 2.0386
-1.5293 9.0108 2.0386
-2.2513 8.8664 2.0386
-2.9598 8.6641 2.0386
-3.6504 8.4052 2.0386
-4.3183 8.0911 2.0386
-4.9591 7.7239 2.0386
-5.5687 7.3057 2.0386
-6.1429 6.8393 2.0386
-6.6778 6.3275 2.0386
-7.1698 5.7738 2.0386
-7.6156 5.1817 2.0386
-8.0121 4.5550 2.0386
-8.3566 3.8979 2.0386
-8.6468 3.2146 2.0386
-8.8807 2.5098 2.0386
-9.0566 1.7881 2.0386
-9.1732 1.0543 2.0386
-9.2299 0.3133 2.0386
-9.2261 -0.4299 2.0386
-9.1619 -1.1705 2.0386
-9.0377 -1.9033 2.0386
-8.8544 -2.6236 2.0386
-8.6131 -3.3265 2.0386
-8.3156 -4.0073 2.0386
-7.9639 -4.6615 2.0386
-7.5603 -5.2847 2.0386
-7.1075 -5.8729 2.0386
-6.6088 -6.4222 2.0386
-6.0675 -6.9289 2.0386
-5.4871 -7.3898 2.0386
-4.8717 -7.8019 2.0386
-4.2254 -8.1626 2.0386
-3.5525 -8.4696 2.0386
-2.8575 -8.7210 2.0386
-2.1450 -8.9152 2.0386
-1.4197 -9.0512 2.0386
-0.6864 -9.1282 2.0386
0.0190 -3.4687 0.7732
0.2958 -3.4307 0.7682
0.5704 -3.3931 0.7683
0.8464 -3.3552 0.7734
1.1274 -3.3168 0.7836
1.4173 -3.2771 0.7993
1.7206 -3.2356 0.8211
4.9005 -7.6570 2.0386
5.1810 -6.8169 1.9216
5.6034 -6.2559 1.8862
6.0845 -5.7806 1.8862
6.5257 -5.2687 1.8862
6.9244 -4.7236 1.8862
7.2954 -4.1585 1.8907
7.6283 -3.5680 1.8970
7.9107 -2.9499 1.9027
8.1402 -2.3086 1.9076
8.3148 -1.6489 1.9116
8.4327 -0.9756 1.9148
8.4928 -0.2940 1.9172
8.4945 0.3908 1.9186
8.4377 1.0736 1.9192
8.3227 1.7491 1.9188
8.1504 2.4120 1.9175
7.9223 3.0574 1.9154
7.6403 3.6802 1.9123
7.3067 4.2759 1.9084
6.9243 4.8400 1.9037
6.4964 5.3686 1.8982
6.0265 5.8578 1.8920
4.1469 4.7374 1.4166
3.7204 5.0131 1.4038
4.4436 7.1211 1.8862
3.8589 7.4609 1.8862
3.2484 7.7530 1.8862
2.8273 8.6416 2.0386
2.1245 8.8484 2.0386
1.4068 8.9982 2.0386
0.6788 9.0900 2.0386
-0.0548 9.1232 2.0386
-0.7894 9.0972 2.0386
-1.5200 9.0122 2.0386
-2.2421 8.8686 2.0386
-2.9509 8.6671 2.0386
-3.6417 8.4089 2.0386
-4.3099 8.0955 2.0386
-4.9511 7.7289 2.0386
-5.5611 7.3114 2.0386
-6.1358 6.8455 2.0386
-6.6712 6.3343 2.0386
-7.1638 5.7811 2.0386
-7.6102 5.1895 2.0386
-8.0074 4.5632 2.0386
-8.3526 3.9064 2.0386
-8.6435 3.2235 2.0386
-8.8781 2.5189 2.0386
-9.0547 1.7974 2.0386
-9.1721 1.0637 2.0386
-9.2296 0.3228 2.0386
-9.2266 -0.4205 2.0386
-9.1631 -1.1611 2.0386
-9.0397 -1.8940 2.0386
-8.8571 -2.6145 2.0386
-8.6166 -3.3176 2.0386
-8.3198 -3.9988 2.0386
-7.9687 -4.6533 2.0386
-7.5657 -5.2770 2.0386
-7.1136 -5.8657 2.0386
-6.6155 -6.4154 2.0386
-6.0746 -6.9227 2.0386
-5.4948 -7.3842 2.0386
-4.8798 -7.7970 2.0386
-4.2339 -8.1583 2.0386
-3.5613 -8.4660 2.0386
-2.8665 -8.7181 2.0386
-2.1542 -8.9131 2.0386
-1.4290 -9.0499 2.0386
-0.6958 -9.1276 2.0386
0.0155 -3.4691 0.7733
0.2923 -3.4312 0.7682
0.5669 -3.3935 0.7682
0.8428 -3.3557 0.7733
1.1237 -3.3173 0.7834
1.4135 -3.2776 0.7991
1.7167 -3.2361 0.8208
4.8927 -7.6621 2.0386
5.1827 -6.8338 1.9248
5.5970 -6.2617 1.8862
6.0786 -5.7869 1.8862
6.5203 -5.2754 1.8862
6.9195 -4.7307 1.8862
7.2909 -4.1659 1.8906
7.6243 -3.5757 1.8970
7.9074 -2.9579 1.9026
8.1377 -2.3169 1.9075
8.3129 -1.6574 1.9116
8.4316 -0.9843 1.9148
8.4924 -0.3027 1.9172
8.4949 0.3821 1.9186
8.4388 1.0649 1.9192
8.3245 1.7405 1.9188
8.1529 2.4037 1.9176
7.9256 3.0493 1.9154
7.6442 3.6724 1.9124
7.3112 4.2685 1.9085
6.9295 4.8331 1.9038
6.5022 5.3620 1.8983
6.0328 5.8518 1.8921
6.0652 4.2491 1.8893
5.6965 4.7177 1.8862
5.3007 5.1633 1.8862
4.1116 4.7074 1.5924
3.6988 4.9952 1.5827
3.9170 6.2924 1.8862
3.4001 6.5914 1.8862
3.0916 7.4016 2.0386
2.4877 7.6318 2.0386
1.8669 7.8129 2.0386
1.2330 7.9438 2.0386
0.5903 8.0234 2.0386
-0.0572 8.0512 2.0386
-0.7054 8.0269 2.0386
-1.3499 7.9504 2.0386
-1.9867 7.8222 2.0386
-2.6116 7.6430 2.0386
-3.2204 7.4139 2.0386
-3.8092 7.1362 2.0386
-4.3741 6.8117 2.0386
-4.9112 6.4423 2.0386
-5.4171 6.0305 2.0386
-5.8882 5.5788 2.0386
-6.3216 5.0902 2.0386
-6.7141 4.5679 2.0386
-7.0632 4.0152 2.0386
-7.3665 3.4357 2.0386
-7.6220 2.8333 2.0386
-7.8277 2.2120 2.0386
-7.9825 1.5759 2.0386
-8.0851 0.9291 2.0386
-8.1348 0.2761 2.0386
-8.1314 -0.3790 2.0386
-8.0748 -1.0316 2.0386
-7.9654 -1.6774 2.0386
-7.8039 -2.3122 2.0386
-7.5915 -2.9318 2.0386
-7.3295 -3.5319 2.0386
-7.0197 -4.1086 2.0386
-6.6643 -4.6581 2.0386
-6.2656 -5.1768 2.0386
-5.8263 -5.6613 2.0386
-5.3495 -6.1084 2.0386
-4.8382 -6.5152 2.0386
-4.2960 -6.8790 2.0386
-3.7264 -7.1976 2.0386
-3.1333 -7.4690 2.0386
-2.5206 -7.6913 2.0386
-1.8924 -7.8634 2.0386
-1.2528 -7.9840 2.0386
-0.6061 -8.0527 2.0386
0.0188 -3.4690 0.8764
0.2956 -3.4310 0.8707
0.5702 -3.3934 0.8707
0.8462 -3.3555 0.8764
1.1272 -3.3171 0.8879
1.4172 -3.2774 0.9056
1.7205 -3.2359 0.9302
4.3259 -6.7601 2.0386
4.8525 -6.3856 2.0386
5.0182 -5.6030 1.9132
5.3725 -5.1047 1.8862
5.7626 -4.6530 1.8862
6.1151 -4.1719 1.8862
6.4279 -3.6643 1.8862
6.6990 -3.1336 1.8862
6.9350 -2.5863 1.8884
7.1343 -2.0235 1.8927
7.2857 -1.4450 1.8962
7.3877 -0.8549 1.8990
7.4393 -0.2576 1.9010
7.4402 0.3423 1.9023
7.3902 0.9403 1.9028
7.2896 1.5320 1.9025
7.1392 2.1129 1.9014
6.9402 2.6785 1.8995
6.6942 3.2247 1.8968
6.4033 3.7475 1.8934
6.0698 4.2430 1.8893
5.6963 4.7078 1.8846
5.3059 5.1578 1.8862
4.1209 4.7082 1.5941
3.7000 4.9861 1.5810
3.9235 6.2883 1.8862
3.4068 6.5881 1.8862
3.0992 7.3984 2.0386
2.4955 7.6291 2.0386
1.8749 7.8109 2.0386
1.2412 7.9424 2.0386
0.5986 8.0227 2.0386
-0.0489 8.0512 2.0386
-0.6971 8.0275 2.0386
-1.3417 7.9517 2.0386
-1.9787 7.8242 2.0386
-2.6037 7.6457 2.0386
-3.2128 7.4171 2.0386
-3.8018 7.1401 2.0386
-4.3670 6.8161 2.0386
-4.9045 6.4473 2.0386
-5.4108 6.0360 2.0386
-5.8825 5.5848 2.0386
-6.3163 5.0967 2.0386
-6.7094 4.5747 2.0386
-7.0591 4.0224 2.0386
-7.3630 3.4433 2.0386
-7.6190 2.8411 2.0386
-7.8254 2.2201 2.0386
-7.9808 1.5841 2.0386
-8.0841 0.9374 2.0386
-8.1345 0.2844 2.0386
-8.1318 -0.3706 2.0386
-8.0759 -1.0233 2.0386
-7.9671 -1.6693 2.0386
-7.8063 -2.3042 2.0386
-7.5945 -2.9240 2.0386
-7.3331 -3.5243 2.0386
-7.0240 -4.1014 2.0386
-6.6691 -4.6513 2.0386
-6.2709 -5.1704 2.0386
-5.8322 -5.6553 2.0386
-5.3558 -6.1029 2.0386
-4.8449 -6.5102 2.0386
-4.3031 -6.8746 2.0386
-3.7338 -7.1938 2.0386
-3.1410 -7.4658 2.0386
-2.5286 -7.6888 2.0386
-1.9005 -7.8615 2.0386
-1.2611 -7.9828 2.0386
-0.6143 -8.0522 2.0386
0.0152 -3.4695 0.8765
0.2921 -3.4315 0.8707
0.5667 -3.3938 0.8707
0.8427 -3.3560 0.8763
1.1236 -3.3176 0.8877
1.4134 -3.2779 0.9054
1.7166 -3.2364 0.9299
4.3190 -6.7646 2.0386
4.8459 -6.3906 2.0386
5.0195 -5.6161 1.9159
5.3673 -5.1103 1.8862
5.7578 -4.6590 1.8862
6.1108 -4.1782 1.8862
6.4241 -3.6710 1.8862
6.6958 -3.1406 1.8862
6.9322 -2.5934 1.8884
7.1321 -2.0308 1.8926
7.2840 -1.4524 1.8962
7.3867 -0.8624 1.8990
7.4390 -0.2653 1.9010
7.4405 0.3346 1.9023
7.3911 0.9327 1.9028
7.2912 1.5245 1.9025
7.1414 2.1055 1.9014
6.9430 2.6714 1.8995
6.6976 3.2179 1.8969
6.4073 3.7410 1.8935
6.0743 4.2368 1.8894
5.7014 4.7020 1.8846
5.3112 5.1523 1.8862
5.4141 3.7932 1.8862
5.0930 4.2183 1.8862
4.7389 4.6165 1.8862
4.0884 4.6812 1.7712
3.6783 4.9680 1.7607
3.5096 5.6384 1.8907
3.2844 6.3681 2.0386
2.7629 6.6158 2.0386
2.2230 6.8211 2.0386
1.6679 6.9825 2.0386
1.1014 7.0989 2.0386
0.5270 7.1695 2.0386
-0.0516 7.1938 2.0386
-0.6307 7.1715 2.0386
-1.2065 7.1026 2.0386
-1.7752 6.9875 2.0386
-2.3333 6.8269 2.0386
-2.8769 6.6217 2.0386
-3.4025 6.3732 2.0386
-3.9067 6.0829 2.0386
-4.3860 5.7527 2.0386
-4.8374 5.3846 2.0386
-5.2578 4.9810 2.0386
-5.6444 4.5445 2.0386
-5.9945 4.0779 2.0386
-6.3058 3.5843 2.0386
-6.5763 3.0669 2.0386
-6.8040 2.5290 2.0386
-6.9875 1.9744 2.0386
-7.1254 1.4065 2.0386
-7.2168 0.8292 2.0386
-7.2611 0.2463 2.0386
-7.2580 -0.3383 2.0386
-7.2075 -0.9208 2.0386
-7.1099 -1.4972 2.0386
-6.9658 -2.0638 2.0386
-6.7763 -2.6168 2.0386
-6.5426 -3.1525 2.0386
-6.2663 -3.6674 2.0386
-5.9493 -4.1580 2.0386
-5.5936 -4.6212 2.0386
-5.2017 -5.0540 2.0386
-4.7763 -5.4533 2.0386
-4.3201 -5.8168 2.0386
-3.8362 -6.1420 2.0386
-3.3279 -6.4269 2.0386
-2.7985 -6.6697 2.0386
-2.2515 -6.8687 2.0386
-1.6907 -7.0229 2.0386
-1.1195 -7.1312 2.0386
-0.5419 -7.1931 2.0386
0.0185 -3.4693 0.9812
0.2954 -3.4313 0.9747
0.5700 -3.3937 0.9746
0.8461 -3.3559 0.9809
1.1271 -3.3174 0.9937
1.4171 -3.2777 1.0135
1.7204 -3.2362 1.0409
3.8659 -6.0422 2.0386
4.3369 -5.7079 2.0386
4.7794 -5.3371 2.0386
4.8873 -4.6444 1.9195
5.1514 -4.1600 1.8862
5.4669 -3.7300 1.8862
5.7468 -3.2764 1.8862
5.9895 -2.8020 1.8862
6.1934 -2.3100 1.8862
6.3574 -1.8033 1.8862
6.4803 -1.2854 1.8862
6.5626 -0.7595 1.8865
6.6078 -0.2289 1.8883
6.6082 0.3040 1.8894
6.5635 0.8352 1.8898
6.4743 1.3607 1.8896
6.3410 1.8767 1.8886
6.1648 2.3794 1.8869
5.9471 2.8650 1.8846
5.7035 3.3382 1.8862
5.4180 3.7876 1.8862
5.0973 4.2130 1.8862
4.7436 4.6116 1.8862
4.0975 4.6820 1.7730
3.6795 4.9590 1.7588
3.5123 5.6301 1.8891
3.2909 6.3647 2.0386
2.7697 6.6130 2.0386
2.2300 6.8188 2.0386
1.6751 6.9807 2.0386
1.1087 7.0977 2.0386
0.5344 7.1689 2.0386
-0.0442 7.1938 2.0386
-0.6233 7.1721 2.0386
-1.1992 7.1038 2.0386
-1.7680 6.9893 2.0386
-2.3262 6.8293 2.0386
-2.8700 6.6246 2.0386
-3.3959 6.3767 2.0386
-3.9004 6.0869 2.0386
-4.3801 5.7572 2.0386
-4.8318 5.3895 2.0386
-5.2526 4.9863 2.0386
-5.6396 4.5502 2.0386
-5.9903 4.0840 2.0386
-6.3021 3.5907 2.0386
-6.5731 3.0736 2.0386
-6.8014 2.5360 2.0386
-6.9854 1.9815 2.0386
-7.1239 1.4138 2.0386
-7.2159 0.8366 2.0386
-7.2609 0.2538 2.0386
-7.2584 -0.3308 2.0386
-7.2084 -0.9134 2.0386
-7.1114 -1.4899 2.0386
-6.9679 -2.0567 2.0386
-6.7790 -2.6098 2.0386
-6.5459 -3.1458 2.0386
-6.2701 -3.6610 2.0386
-5.9535 -4.1519 2.0386
-5.5984 -4.6155 2.0386
-5.2069 -5.0486 2.0386
-4.7819 -5.4485 2.0386
-4.3261 -5.8124 2.0386
-3.8425 -6.1381 2.0386
-3.3345 -6.4236 2.0386
-2.8054 -6.6668 2.0386
-2.2586 -6.8665 2.0386
-1.6979 -7.0212 2.0386
-1.1269 -7.1301 2.0386
-0.5493 -7.1926 2.0386
0.0150 -3.4698 0.9813
0.2919 -3.4318 0.9747
0.5665 -3.3941 0.9746
0.8425 -3.3563 0.9808
1.1234 -3.3179 0.9935
1.4133 -3.2782 1.0132
1.7165 -3.2367 1.0405
3.8598 -6.0462 2.0386
4.3311 -5.7124 2.0386
4.7739 -5.3420 2.0386
4.8883 -4.6549 1.9218
5.1472 -4.1653 1.8862
5.4631 -3.7357 1.8862
5.7435 -3.2823 1.8862
5.9866 -2.8082 1.8862
6.1911 -2.3163 1.8862
6.3555 -1.8099 1.8862
6.4790 -1.2921 1.8862
6.5617 -0.7662 1.8865
6.6075 -0.2357 1.8883
6.6084 0.2972 1.8894
6.5644 0.8284 1.8898
6.4757 1.3541 1.8896
6.3430 1.8702 1.8886
6.1674 2.3731 1.8869
5.9501 2.8589 1.8846
5.7069 3.3323 1.8862
5.4218 3.7821 1.8862
5.1016 4.2078 1.8862
4.7483 4.6067 1.8862
4.8881 3.4250 1.8862
4.5980 3.8086 1.8862
4.2781 4.1680 1.8862
3.9304 4.5007 1.8862
3.6018 4.8652 1.9100
3.4156 5.4882 2.0386
2.9643 5.7484 2.0386
2.4935 5.9717 2.0386
2.0060 6.1566 2.0386
1.5049 6.3019 2.0386
0.9935 6.4066 2.0386
0.4751 6.4699 2.0386
-0.0470 6.4914 2.0386
-0.5695 6.4708 2.0386
-1.0890 6.4082 2.0386
-1.6021 6.3040 2.0386
-2.1054 6.1587 2.0386
-2.5956 5.9732 2.0386
-3.0696 5.7487 2.0386
-3.5241 5.4865 2.0386
-3.9563 5.1884 2.0386
-4.3631 4.8561 2.0386
-4.7420 4.4918 2.0386
-5.0904 4.0980 2.0386
-5.4059 3.6771 2.0386
-5.6864 3.2318 2.0386
-5.9300 2.7652 2.0386
-6.1352 2.2802 2.0386
-6.3004 1.7800 2.0386
-6.4246 1.2680 2.0386
-6.5069 0.7476 2.0386
-6.5468 0.2221 2.0386
-6.5439 -0.3050 2.0386
-6.4984 -0.8302 2.0386
-6.4104 -1.3499 2.0386
-6.2806 -1.8607 2.0386
-6.1098 -2.3593 2.0386
-5.8992 -2.8423 2.0386
-5.6502 -3.3066 2.0386
-5.3645 -3.7491 2.0386
-5.0440 -4.1669 2.0386
-4.6909 -4.5572 2.0386
-4.3074 -4.9175 2.0386
-3.8962 -5.2455 2.0386
-3.4600 -5.5391 2.0386
-3.0018 -5.7963 2.0386
-2.5245 -6.0156 2.0386
-2.0313 -6.1955 2.0386
-1.5255 -6.3349 2.0386
-1.0104 -6.4330 2.0386
-0.4893 -6.4893 2.0386
0.0183 -3.4696 1.0876
0.2952 -3.4316 1.0804
0.5699 -3.3940 1.0802
0.8459 -3.3562 1.0871
1.1269 -3.3177 1.1012
1.4169 -3.2780 1.1231
1.7203 -3.2365 1.1534
3.4889 -5.4537 2.0386
3.9143 -5.1523 2.0386
4.3139 -4.8179 2.0386
4.6852 -4.4527 2.0386
4.7775 -3.8584 1.9378
4.9352 -3.3676 1.8862
5.1882 -2.9582 1.8862
5.4075 -2.5300 1.8862
5.5918 -2.0858 1.8862
5.7400 -1.6284 1.8862
5.8511 -1.1607 1.8862
5.9245 -0.6858 1.8862
5.9597 -0.2065 1.8862
5.9566 0.2740 1.8862
5.9151 0.7527 1.8862
5.8354 1.2265 1.8862
5.7182 1.6925 1.8862
5.5642 2.1477 1.8862
5.3742 2.5891 1.8862
5.1496 3.0141 1.8862
4.8916 3.4199 1.8862
4.6019 3.8039 1.8862
4.2824 4.1636 1.8862
3.9350 4.4967 1.8862
3.6033 4.8568 1.9081
3.4212 5.4847 2.0386
2.9702 5.7453 2.0386
2.4996 5.9691 2.0386
2.0123 6.1545 2.0386
1.5114 6.3003 2.0386
1.0001 6.4055 2.0386
0.4818 6.4693 2.0386
-0.0404 6.4914 2.0386
-0.5629 6.4713 2.0386
-1.0824 6.4093 2.0386
-1.5956 6.3056 2.0386
-2.0990 6.1608 2.0386
-2.5894 5.9759 2.0386
-3.0636 5.7518 2.0386
-3.5185 5.4901 2.0386
-3.9509 5.1924 2.0386
-4.3581 4.8606 2.0386
-4.7374 4.4967 2.0386
-5.0861 4.1032 2.0386
-5.4021 3.6826 2.0386
-5.6830 3.2377 2.0386
-5.9272 2.7713 2.0386
-6.1328 2.2865 2.0386
-6.2986 1.7865 2.0386
-6.4233 1.2746 2.0386
-6.5061 0.7542 2.0386
-6.5465 0.2288 2.0386
-6.5442 -0.2983 2.0386
-6.4992 -0.8235 2.0386
-6.4118 -1.3433 2.0386
-6.2825 -1.8543 2.0386
-6.1122 -2.3530 2.0386
-5.9021 -2.8363 2.0386
-5.6536 -3.3008 2.0386
-5.3684 -3.7436 2.0386
-5.0483 -4.1618 2.0386
-4.6956 -4.5524 2.0386
-4.3125 -4.9131 2.0386
-3.9016 -5.2416 2.0386
-3.4658 -5.5356 2.0386
-3.0078 -5.7933 2.0386
-2.5307 -6.0130 2.0386
-2.0377 -6.1934 2.0386
-1.5320 -6.3334 2.0386
-1.0170 -6.4320 2.0386
-0.4960 -6.4888 2.0386
0.0147 -3.4701 1.0877
0.2917 -3.4321 1.0804
0.5663 -3.3945 1.0802
0.8423 -3.3567 1.0869
1.1233 -3.3182 1.1010
1.4132 -3.2785 1.1228
1.7163 -3.2370 1.1530
3.4834 -5.4574 2.0386
3.9090 -5.1563 2.0386
4.3089 -4.8223 2.0386
4.6807 -4.4575 2.0386
4.7783 -3.8672 1.9397
4.9318 -3.3727 1.8862
5.1852 -2.9635 1.8862
5.4049 -2.5356 1.8862
5.5897 -2.0915 1.8862
5.7383 -1.6343 1.8862
5.8499 -1.1667 1.8862
5.9238 -0.6918 1.8862
5.9595 -0.2126 1.8862
5.9569 0.2679 1.8862
5.9158 0.7465 1.8862
5.8367 1.2205 1.8862
5.7200 1.6866 1.8862
5.5664 2.1419 1.8862
5.3769 2.5836 1.8862
5.1526 3.0088 1.8862
4.8951 3.4148 1.8862
4.6058 3.7991 1.8862
4.2866 4.1591 1.8862
4.4481 3.1169 1.8862
4.1840 3.4660 1.8862
3.8928 3.7929 1.8862
3.6833 4.2182 1.9427
3.4978 4.7253 2.0386
3.1075 4.9938 2.0386
2.6968 5.2303 2.0386
2.2682 5.4332 2.0386
1.8246 5.6012 2.0386
1.3687 5.7331 2.0386
0.9034 5.8280 2.0386
0.4317 5.8853 2.0386
-0.0432 5.9046 2.0386
-0.5185 5.8855 2.0386
-0.9909 5.8283 2.0386
-1.4574 5.7332 2.0386
-1.9151 5.6008 2.0386
-2.3608 5.4318 2.0386
-2.7916 5.2273 2.0386
-3.2048 4.9887 2.0386
-3.5976 4.7174 2.0386
-3.9673 4.4150 2.0386
-4.3116 4.0837 2.0386
-4.6281 3.7255 2.0386
-4.9148 3.3427 2.0386
-5.1696 2.9378 2.0386
-5.3909 2.5136 2.0386
-5.5772 2.0726 2.0386
-5.7273 1.6180 2.0386
-5.8401 1.1525 2.0386
-5.9148 0.6794 2.0386
-5.9510 0.2018 2.0386
-5.9483 -0.2773 2.0386
-5.9069 -0.7546 2.0386
-5.8270 -1.2270 2.0386
-5.7090 -1.6913 2.0386
-5.5539 -2.1445 2.0386
-5.3625 -2.5836 2.0386
-5.1363 -3.0057 2.0386
-4.8767 -3.4080 2.0386
-4.5855 -3.7878 2.0386
-4.2646 -4.1428 2.0386
-3.9162 -4.4705 2.0386
-3.5425 -4.7688 2.0386
-3.1461 -5.0359 2.0386
-2.7296 -5.2700 2.0386
-2.2958 -5.4696 2.0386
-1.8475 -5.6335 2.0386
-1.3876 -5.7605 2.0386
-0.9192 -5.8501 2.0386
-0.4454 -5.9015 2.0386
0.0180 -3.4699 1.1960
0.2950 -3.4320 1.1880
0.5696 -3.3943 1.1877
0.8457 -3.3565 1.1952
0.6894 -2.0302 0.7408
1.4168 -3.2783 1.2347
1.7202 -3.2368 1.2679
3.1738 -4.9619 2.0386
3.5610 -4.6878 2.0386
3.9247 -4.3838 2.0386
4.2628 -4.0517 2.0386
4.5730 -3.6937 2.0386
4.6823 -3.1954 1.9667
4.7210 -2.6921 1.8862
4.9207 -2.3025 1.8862
5.0886 -1.8983 1.8862
5.2236 -1.4820 1.8862
5.3248 -1.0564 1.8862
5.3917 -0.6242 1.8862
5.4238 -0.1880 1.8862
5.4210 0.2493 1.8862
5.3832 0.6850 1.8862
5.3107 1.1162 1.8862
5.2040 1.5403 1.8862
5.0637 1.9546 1.8862
4.8908 2.3564 1.8862
4.6862 2.7431 1.8862
4.4513 3.1123 1.8862
4.1876 3.4617 1.8862
3.8967 3.7889 1.8862
3.6846 4.2109 1.9411
3.5026 4.7217 2.0386
3.1126 4.9906 2.0386
2.7021 5.2275 2.0386
2.2738 5.4308 2.0386
1.8303 5.5993 2.0386
1.3746 5.7316 2.0386
0.9094 5.8271 2.0386
0.4378 5.8848 2.0386
-0.0371 5.9045 2.0386
-0.5124 5.8860 2.0386
-0.9849 5.8293 2.0386
-1.4515 5.7346 2.0386
-1.9093 5.6027 2.0386
-2.3552 5.4342 2.0386
-2.7862 5.2302 2.0386
-3.1997 4.9919 2.0386
-3.5927 4.7210 2.0386
-3.9628 4.4191 2.0386
-4.3074 4.0881 2.0386
-4.6243 3.7302 2.0386
-4.9113 3.3477 2.0386
-5.1666 2.9431 2.0386
-5.3883 2.5191 2.0386
-5.5751 2.0783 2.0386
-5.7256 1.6238 2.0386
-5.8389 1.1585 2.0386
-5.9141 0.6854 2.0386
-5.9508 0.2079 2.0386
-5.9486 -0.2712 2.0386
-5.9077 -0.7486 2.0386
-5.8282 -1.2210 2.0386
-5.7107 -1.6854 2.0386
-5.5560 -2.1389 2.0386
-5.3652 -2.5781 2.0386
-5.1394 -3.0004 2.0386
-4.8803 -3.4029 2.0386
-4.5894 -3.7831 2.0386
-4.2689 -4.1384 2.0386
-3.9208 -4.4665 2.0386
-3.5475 -4.7652 2.0386
-3.1513 -5.0327 2.0386
-2.7351 -5.2672 2.0386
-2.3014 -5.4673 2.0386
-1.8533 -5.6316 2.0386
-1.3935 -5.7591 2.0386
-0.9252 -5.8491 2.0386
-0.4515 -5.9011 2.0386
0.0145 -3.4704 1.1961
0.2914 -3.4324 1.1880
0.5661 -3.3948 1.1877
0.8421 -3.3570 1.1951
0.6874 -2.0309 0.7408
1.4130 -3.2788 1.2343
1.7162 -3.2374 1.2675
3.1687 -4.9652 2.0386
3.5562 -4.6915 2.0386
3.9202 -4.3878 2.0386
4.2586 -4.0561 2.0386
4.5692 -3.6984 2.0386
4.6830 -3.2029 1.9684
4.7182 -2.6970 1.8862
4.9184 -2.3076 1.8862
5.0867 -1.9035 1.8862
5.2221 -1.4874 1.8862
5.3237 -1.0619 1.8862
5.3911 -0.6297 1.8862
5.4236 -0.1936 1.8862
5.4212 0.2437 1.8862
5.3839 0.6794 1.8862
5.3119 1.1108 1.8862
5.2056 1.5350 1.8862
5.0657 1.9494 1.8862
4.8932 2.3513 1.8862
4.6890 2.7383 1.8862
4.4545 3.1077 1.8862
4.1911 3.4573 1.8862
3.9006 3.7849 1.8862
4.0742 2.8551 1.8862
3.8418 3.1827 1.8909
3.7516 3.6556 1.9847
3.5399 4.0544 2.0386
3.2033 4.3279 2.0386
2.8457 4.5737 2.0386
2.4694 4.7901 2.0386
0.7632 1.8285 0.7491
0.6137 1.8843 0.7489
0.4601 1.9279 0.7486
0.3035 1.9590 0.7483
0.3949 5.3889 2.0386
-0.0400 5.4062 2.0386
-0.1741 1.9752 0.7473
-0.3325 1.9548 0.7468
-0.4887 1.9217 0.7464
-0.6416 1.8761 0.7460
-2.1615 4.9722 2.0386
-2.5558 4.7849 2.0386
-2.9338 4.5662 2.0386
-3.2932 4.3177 2.0386
-3.6315 4.0408 2.0386
-3.9465 3.7374 2.0386
-4.2360 3.4094 2.0386
-4.4982 3.0590 2.0386
-4.7312 2.6884 2.0386
-4.9337 2.3001 2.0386
-5.1040 1.8966 2.0386
-5.2412 1.4805 2.0386
-5.3444 1.0546 2.0386
-5.4127 0.6217 2.0386
-5.4457 0.1846 2.0386
-5.4433 -0.2538 2.0386
-5.4054 -0.6905 2.0386
-5.3322 -1.1228 2.0386
-5.2243 -1.5476 2.0386
-5.0824 -1.9624 2.0386
-4.9074 -2.3642 2.0386
-4.7005 -2.7504 2.0386
-4.4630 -3.1186 2.0386
-4.1967 -3.4663 2.0386
-3.9031 -3.7912 2.0386
-3.5844 -4.0913 2.0386
-3.2425 -4.3644 2.0386
-2.8798 -4.6091 2.0386
-2.4987 -4.8235 2.0386
-0.7607 -1.8120 0.7379
-0.6124 -1.8670 0.7381
-0.4602 -1.9099 0.7384
-0.3050 -1.9404 0.7387
-0.1480 -1.9584 0.7390
0.0101 -1.9638 0.7393
0.1680 -1.9566 0.7397
0.3249 -1.9367 0.7401
0.4796 -1.9043 0.7406
0.6313 -1.8596 0.7410
0.7790 -1.8029 0.7415
1.7201 -3.2372 1.3847
2.9061 -4.5441 2.0386
3.2608 -4.2933 2.0386
3.5941 -4.0149 2.0386
3.9038 -3.7109 2.0386
4.1881 -3.3832 2.0386
4.4451 -3.0338 2.0386
4.5974 -2.6219 2.0055
4.5497 -2.1291 1.9041
4.6650 -1.7405 1.8879
4.7846 -1.3576 1.8862
4.8774 -0.9678 1.8862
4.9388 -0.5718 1.8862
4.9682 -0.1722 1.8862
4.9656 0.2283 1.8862
4.9310 0.6275 1.8862
4.8646 1.0225 1.8862
4.7669 1.4110 1.8862
4.6383 1.7905 1.8862
4.4798 2.1585 1.8862
4.2923 2.5127 1.8862
4.0771 2.8509 1.8862
3.8433 3.1772 1.8901
3.7527 3.6492 1.9833
3.5440 4.0507 2.0386
3.2077 4.3245 2.0386
2.8504 4.5707 2.0386
2.4743 4.7875 2.0386
0.7651 1.8277 0.7491
0.6156 1.8837 0.7489
0.4621 1.9275 0.7486
0.3055 1.9587 0.7483
0.4005 5.3884 2.0386
-0.0344 5.4062 2.0386
-0.1721 1.9754 0.7473
-0.3305 1.9552 0.7468
-0.4867 1.9222 0.7464
-0.6397 1.8768 0.7460
-2.1563 4.9744 2.0386
-2.5508 4.7874 2.0386
-2.9291 4.5692 2.0386
-3.2887 4.3210 2.0386
-3.6273 4.0445 2.0386
-3.9426 3.7414 2.0386
-4.2325 3.4138 2.0386
-4.4950 3.0636 2.0386
-4.7285 2.6933 2.0386
-4.9313 2.3052 2.0386
-5.1021 1.9018 2.0386
-5.2397 1.4859 2.0386
-5.3433 1.0601 2.0386
-5.4120 0.6272 2.0386
-5.4455 0.1902 2.0386
-5.4435 -0.2482 2.0386
-5.4061 -0.6850 2.0386
-5.3334 -1.1173 2.0386
-5.2259 -1.5423 2.0386
-5.0844 -1.9571 2.0386
-4.9098 -2.3591 2.0386
-4.7033 -2.7456 2.0386
-4.4663 -3.1140 2.0386
-4.2002 -3.4620 2.0386
-3.9070 -3.7872 2.0386
-3.5886 -4.0876 2.0386
-3.2470 -4.3611 2.0386
-2.8846 -4.6061 2.0386
-2.5037 -4.8209 2.0386
-0.7626 -1.8113 0.7379
-0.6143 -1.8664 0.7381
-0.4622 -1.9094 0.7384
-0.3070 -1.9401 0.7387
-0.1500 -1.9583 0.7390
0.0080 -1.9639 0.7393
0.1660 -1.9567 0.7397
0.3229 -1.9370 0.7401
0.4777 -1.9048 0.7406
0.6294 -1.8602 0.7410
0.7771 -1.8037 0.7415
1.7161 -3.2377 1.3842
2.9015 -4.5471 2.0386
3.2564 -4.2966 2.0386
3.5900 -4.0187 2.0386
3.9000 -3.7150 2.0386
4.1847 -3.3875 2.0386
4.4420 -3.0384 2.0386
4.5981 -2.6285 2.0069
4.5503 -2.1352 1.9052
4.6650 -1.7459 1.8886
4.7832 -1.3626 1.8862
4.8764 -0.9728 1.8862
4.9382 -0.5769 1.8862
4.9680 -0.1774 1.8862
4.9659 0.2232 1.8862
4.9317 0.6224 1.8862
4.8657 1.0175 1.8862
4.7683 1.4061 1.8862
4.6401 1.7857 1.8862
4.4820 2.1539 1.8862
4.2949 2.5083 1.8862
4.0800 2.8467 1.8862
3.8449 3.1719 1.8892
3.7538 3.6428 1.9820
3.8839 2.7220 1.9526
3.8095 3.1563 2.0361
3.5484 3.4580 2.0386
3.2596 3.7337 2.0386
2.9495 3.9855 2.0386
2.6201 4.2117 2.0386
2.2736 4.4109 2.0386
0.7022 1.6827 0.7487
0.5646 1.7340 0.7485
0.4233 1.7742 0.7482
0.2792 1.8027 0.7479
0.1332 1.8196 0.7476
-0.0136 1.8245 0.7473
-0.1604 1.8176 0.7470
-0.3061 1.7989 0.7466
-0.4498 1.7684 0.7462
-0.5906 1.7265 0.7458
-0.7275 1.6733 0.7453
-2.3528 4.4041 2.0386
-2.7007 4.2027 2.0386
-3.0313 3.9738 2.0386
-3.3425 3.7188 2.0386
-3.6323 3.4395 2.0386
-3.8986 3.1376 2.0386
-4.1398 2.8150 2.0386
-4.3542 2.4739 2.0386
-4.5403 2.1165 2.0386
-4.6970 1.7452 2.0386
-4.8232 1.3623 2.0386
-4.9180 0.9703 2.0386
-4.9808 0.5720 2.0386
-5.0112 0.1698 2.0386
-5.0089 -0.2336 2.0386
-4.9740 -0.6354 2.0386
-4.9067 -1.0331 2.0386
-4.8075 -1.4241 2.0386
-4.6769 -1.8057 2.0386
-4.5160 -2.1754 2.0386
-4.3256 -2.5309 2.0386
-4.1072 -2.8698 2.0386
-3.8622 -3.1898 2.0386
-3.5921 -3.4888 2.0386
-3.2989 -3.7650 2.0386
-2.9844 -4.0166 2.0386
-2.6507 -4.2418 2.0386
-2.3000 -4.4393 2.0386
-0.7007 -1.6688 0.7383
-0.5641 -1.7194 0.7385
-0.4239 -1.7589 0.7388
-0.2811 -1.7870 0.7390
-0.1364 -1.8036 0.7393
0.0091 -1.8086 0.7397
0.1546 -1.8019 0.7400
0.2991 -1.7836 0.7404
0.4416 -1.7537 0.7408
0.5813 -1.7126 0.7412
0.7173 -1.6603 0.7416
1.7200 -3.2375 1.5040
2.6756 -4.1842 2.0386
3.0022 -3.9534 2.0386
3.3092 -3.6972 2.0386
3.5946 -3.4174 2.0386
3.8565 -3.1156 2.0386
4.0933 -2.7940 2.0386
4.3035 -2.4545 2.0386
4.4858 -2.0994 2.0386
4.4758 -1.6700 1.9668
4.4353 -1.2595 1.8986
4.4919 -0.8914 1.8862
4.5484 -0.5267 1.8862
4.5756 -0.1587 1.8862
4.5732 0.2103 1.8862
4.5414 0.5779 1.8862
4.4802 0.9417 1.8862
4.3901 1.2996 1.8862
4.2717 1.6491 1.8862
4.1256 1.9880 1.8862
3.9601 2.3184 1.8896
3.8848 2.7166 1.9516
3.8105 3.1505 2.0350
3.5519 3.4543 2.0386
3.2634 3.7304 2.0386
2.9536 3.9825 2.0386
2.6245 4.2090 2.0386
2.2781 4.4085 2.0386
0.7039 1.6819 0.7487
0.5664 1.7335 0.7485
0.4251 1.7737 0.7482
0.2810 1.8024 0.7480
0.1351 1.8194 0.7476
-0.0118 1.8245 0.7473
-0.1585 1.8178 0.7470
-0.3043 1.7992 0.7466
-0.4480 1.7689 0.7462
-0.5888 1.7271 0.7458
-0.7258 1.6740 0.7453
-2.3482 4.4065 2.0386
-2.6963 4.2054 2.0386
-3.0272 3.9768 2.0386
-3.3387 3.7222 2.0386
-3.6287 3.4432 2.0386
-3.8954 3.1416 2.0386
-4.1369 2.8193 2.0386
-4.3516 2.4784 2.0386
-4.5381 2.1212 2.0386
-4.6952 1.7500 2.0386
-4.8218 1.3672 2.0386
-4.9170 0.9754 2.0386
-4.9802 0.5771 2.0386
-5.0110 0.1749 2.0386
-5.0092 -0.2284 2.0386
-4.9747 -0.6303 2.0386
-4.9078 -1.0281 2.0386
-4.8090 -1.4192 2.0386
-4.6788 -1.8009 2.0386
-4.5182 -2.1708 2.0386
-4.3282 -2.5265 2.0386
-4.1102 -2.8656 2.0386
-3.8655 -3.1858 2.0386
-3.5957 -3.4852 2.0386
-3.3028 -3.7617 2.0386
-2.9885 -4.0135 2.0386
-2.6551 -4.2391 2.0386
-2.3046 -4.4369 2.0386
-0.7024 -1.6681 0.7383
-0.5659 -1.7188 0.7385
-0.4257 -1.7585 0.7388
-0.2829 -1.7867 0.7390
-0.1383 -1.8035 0.7393
0.0073 -1.8086 0.7397
0.1527 -1.8021 0.7400
0.2972 -1.7839 0.7404
0.4398 -1.7542 0.7408
0.5795 -1.7132 0.7412
0.7155 -1.6611 0.7416
1.7160 -3.2380 1.5035
2.6713 -4.1869 2.0386
2.9982 -3.9565 2.0386
3.3054 -3.7006 2.0386
3.5911 -3.4211 2.0386
3.8533 -3.1196 2.0386
4.0904 -2.7982 2.0386
4.3010 -2.4590 2.0386
4.4837 -2.1041 2.0386
4.4764 -1.6755 1.9678
4.4351 -1.2623 1.8992
4.4910 -0.8960 1.8862
4.5479 -0.5314 1.8862
4.5754 -0.1634 1.8862
4.5734 0.2056 1.8862
4.5419 0.5732 1.8862
4.4811 0.9371 1.8862
4.3914 1.2950 1.8862
4.2734 1.6447 1.8862
4.1277 1.9837 1.8862
3.9613 2.3136 1.8890
3.8857 2.7114 1.9507
3.8115 3.1448 2.0338
3.5555 3.4506 2.0386
3.7514 2.6293 2.0386
3.5284 2.9236 2.0386
3.2825 3.1991 2.0386
3.0152 3.4542 2.0386
2.7283 3.6870 2.0386
2.4235 3.8962 2.0386
0.7721 1.4981 0.7485
0.6491 1.5557 0.7483
0.5219 1.6032 0.7481
0.3912 1.6403 0.7479
0.2580 1.6667 0.7476
0.1230 1.6822 0.7473
-0.0127 1.6868 0.7470
-0.1484 1.6804 0.7467
-0.2831 1.6631 0.7463
-0.4160 1.6350 0.7460
-0.5462 1.5962 0.7456
-0.6728 1.5470 0.7452
-2.1760 4.0724 2.0386
-2.4976 3.8860 2.0386
-2.8032 3.6743 2.0386
-3.0909 3.4384 2.0386
-3.3587 3.1801 2.0386
-3.6049 2.9008 2.0386
-3.8278 2.6026 2.0386
-4.0259 2.2872 2.0386
-4.1979 1.9567 2.0386
-4.3427 1.6133 2.0386
-4.4593 1.2593 2.0386
-4.5469 0.8970 2.0386
-4.6049 0.5287 2.0386
-4.6330 0.1569 2.0386
-4.6309 -0.2160 2.0386
-4.5986 -0.5875 2.0386
-4.5364 -0.9551 2.0386
-4.4447 -1.3165 2.0386
-4.3240 -1.6693 2.0386
-4.1752 -2.0112 2.0386
-3.9993 -2.3398 2.0386
-3.7975 -2.6531 2.0386
-3.5710 -2.9490 2.0386
-3.3214 -3.2256 2.0386
-3.0503 -3.4810 2.0386
-2.7596 -3.7136 2.0386
-2.4512 -3.9220 2.0386
-0.7706 -1.4870 0.7385
-0.6484 -1.5438 0.7387
-0.5220 -1.5907 0.7389
-0.3923 -1.6272 0.7391
-0.2602 -1.6533 0.7394
-0.1263 -1.6687 0.7397
0.0083 -1.6733 0.7400
0.1429 -1.6671 0.7403
0.2765 -1.6501 0.7406
0.4084 -1.6225 0.7410
0.5376 -1.5844 0.7414
0.6634 -1.5360 0.7418
1.7199 -3.2378 1.6262
2.4746 -3.8705 2.0386
2.7769 -3.6571 2.0386
3.0609 -3.4202 2.0386
3.3250 -3.1614 2.0386
3.5674 -2.8824 2.0386
3.7865 -2.5849 2.0386
3.9811 -2.2709 2.0386
4.1499 -1.9425 2.0386
4.2917 -1.6015 2.0386
4.4056 -1.2504 2.0385
4.3644 -0.8662 1.9809
4.3230 -0.5007 1.9377
4.2809 -0.1486 1.9075
4.2447 0.1951 1.8923
4.2039 0.5349 1.8872
4.1547 0.8733 1.8906
4.0975 1.2129 1.9029
4.0451 1.5615 1.9307
3.9887 1.9222 1.9712
3.9275 2.2995 2.0257
3.7541 2.6254 2.0386
3.5314 2.9200 2.0386
3.2858 3.1958 2.0386
3.0188 3.4511 2.0386
2.7321 3.6842 2.0386
2.4275 3.8937 2.0386
0.7736 1.4973 0.7485
0.6507 1.5550 0.7483
0.5235 1.6027 0.7481
0.3929 1.6399 0.7479
0.2597 1.6664 0.7476
0.1248 1.6821 0.7473
-0.0110 1.6868 0.7470
-0.1467 1.6806 0.7467
-0.2814 1.6634 0.7463
-0.4143 1.6354 0.7460
-0.5445 1.5968 0.7456
-0.6712 1.5477 0.7452
-2.1718 4.0746 2.0386
-2.4936 3.8886 2.0386
-2.7994 3.6771 2.0386
-3.0874 3.4416 2.0386
-3.3555 3.1835 2.0386
-3.6019 2.9045 2.0386
-3.8251 2.6065 2.0386
-4.0235 2.2913 2.0386
-4.1959 1.9610 2.0386
-4.3411 1.6178 2.0386
-4.4580 1.2639 2.0386
-4.5460 0.9017 2.0386
-4.6044 0.5334 2.0386
-4.6328 0.1617 2.0386
-4.6311 -0.2112 2.0386
-4.5992 -0.5827 2.0386
-4.5374 -0.9505 2.0386
-4.4460 -1.3120 2.0386
-4.3257 -1.6649 2.0386
-4.1773 -2.0069 2.0386
-4.0017 -2.3357 2.0386
-3.8002 -2.6492 2.0386
-3.5740 -2.9454 2.0386
-3.3247 -3.2222 2.0386
-3.0539 -3.4779 2.0386
-2.7635 -3.7108 2.0386
-2.4552 -3.9195 2.0386
-0.7721 -1.4862 0.7385
-0.6500 -1.5432 0.7387
-0.5237 -1.5902 0.7389
-0.3940 -1.6268 0.7391
-0.2619 -1.6530 0.7394
-0.1280 -1.6685 0.7396
0.0066 -1.6733 0.7400
0.1412 -1.6672 0.7403
0.2748 -1.6504 0.7406
0.4067 -1.6229 0.7410
0.5360 -1.5849 0.7414
0.6618 -1.5367 0.7418
1.7159 -3.2384 1.6255
2.4706 -3.8730 2.0386
2.7731 -3.6600 2.0386
3.0574 -3.4234 2.0386
3.3218 -3.1649 2.0386
3.5644 -2.8861 2.0386
3.7839 -2.5888 2.0386
3.9788 -2.2750 2.0386
4.1479 -1.9467 2.0386
4.2901 -1.6059 2.0386
4.4045 -1.2550 2.0386
4.3649 -0.8710 1.9816
4.3235 -0.5052 1.9382
4.2815 -0.1530 1.9078
4.2452 0.1908 1.8924
4.2044 0.5306 1.8873
4.1553 0.8690 1.8905
4.0981 1.2087 1.9026
4.0458 1.5575 1.9302
3.9895 1.9175 1.9706
3.9283 2.2945 2.0249
3.7568 2.6216 2.0386
3.5344 2.9163 2.0386
3.2890 3.1924 2.0386
3.4838 2.4420 2.0386
3.2767 2.7153 2.0386
3.0482 2.9711 2.0386
2.8000 3.2079 2.0386
2.5334 3.4241 2.0386
2.2503 3.6183 2.0386
0.7165 1.3905 0.7481
0.6024 1.4440 0.7479
0.4843 1.4881 0.7478
0.3630 1.5225 0.7476
0.2393 1.5470 0.7473
0.1141 1.5614 0.7471
-0.0119 1.5657 0.7468
-0.1379 1.5597 0.7465
-0.2629 1.5437 0.7461
-0.3863 1.5176 0.7458
-0.5071 1.4816 0.7454
-0.6246 1.4359 0.7451
-0.7380 1.3810 0.7447
-2.3189 3.6074 2.0386
-2.6025 3.4107 2.0386
-2.8695 3.1917 2.0386
-3.1181 2.9518 2.0386
-3.3465 2.6926 2.0386
-3.5533 2.4156 2.0386
-3.7371 2.1228 2.0386
-3.8967 1.8161 2.0386
-4.0310 1.4974 2.0386
-4.1392 1.1688 2.0386
-4.2204 0.8325 2.0386
-4.2743 0.4907 2.0386
-4.3003 0.1456 2.0386
-4.2983 -0.2005 2.0386
-4.2683 -0.5453 2.0386
-4.2106 -0.8865 2.0386
-4.1255 -1.2219 2.0386
-4.0135 -1.5494 2.0386
-3.8755 -1.8667 2.0386
-3.7123 -2.1717 2.0386
-3.5250 -2.4625 2.0386
-3.3148 -2.7372 2.0386
-3.0832 -2.9940 2.0386
-2.8317 -3.2311 2.0386
-2.5619 -3.4471 2.0386
-2.2756 -3.6406 2.0386
-0.7158 -1.3810 0.7389
-0.6023 -1.4338 0.7390
-0.4849 -1.4773 0.7392
-0.3645 -1.5113 0.7394
-0.2417 -1.5355 0.7397
-0.1174 -1.5498 0.7399
0.0076 -1.5540 0.7402
0.1326 -1.5483 0.7405
0.2567 -1.5325 0.7408
0.3792 -1.5068 0.7412
0.4992 -1.4715 0.7415
0.6160 -1.4265 0.7419
0.7289 -1.3724 0.7423
2.2976 -3.5942 2.0386
2.5784 -3.3962 2.0386
2.8422 -3.1763 2.0386
3.0875 -2.9360 2.0386
3.3127 -2.6769 2.0386
3.5163 -2.4007 2.0386
3.6971 -2.1091 2.0386
3.8539 -1.8040 2.0386
3.9857 -1.4875 2.0386
4.0917 -1.1613 2.0386
4.1713 -0.8280 2.0386
4.2239 -0.4893 2.0386
4.2491 -0.1475 2.0386
4.2131 0.1937 2.0223
4.1689 0.5305 2.0151
4.1225 0.8666 2.0199
4.0734 1.2059 2.0369
3.9668 1.5316 2.0386
3.8311 1.8463 2.0386
3.6706 2.1492 2.0386
3.4863 2.4385 2.0386
3.2795 2.7119 2.0386
3.0513 2.9680 2.0386
2.8032 3.2050 2.0386
2.5369 3.4215 2.0386
2.2541 3.6160 2.0386
0.7179 1.3898 0.7481
0.6039 1.4434 0.7479
0.4858 1.4876 0.7478
0.3646 1.5221 0.7476
0.2409 1.5467 0.7473
0.1157 1.5613 0.7471
-0.0103 1.5657 0.7468
-0.1363 1.5599 0.7465
-0.2614 1.5439 0.7461
-0.3847 1.5180 0.7458
-0.5056 1.4821 0.7454
-0.6231 1.4366 0.7451
-0.7366 1.3817 0.7447
-2.3151 3.6098 2.0386
-2.5990 3.4134 2.0386
-2.8662 3.1947 2.0386
-3.1150 2.9550 2.0386
-3.3437 2.6960 2.0386
-3.5508 2.4193 2.0386
-3.7349 2.1267 2.0386
-3.8948 1.8201 2.0386
-4.0295 1.5015 2.0386
-4.1380 1.1730 2.0386
-4.2196 0.8368 2.0386
-4.2737 0.4951 2.0386
-4.3001 0.1500 2.0386
-4.2985 -0.1961 2.0386
-4.2689 -0.5409 2.0386
-4.2115 -0.8822 2.0386
-4.1267 -1.2177 2.0386
-4.0151 -1.5453 2.0386
-3.8774 -1.8627 2.0386
-3.7145 -2.1679 2.0386
-3.5275 -2.4589 2.0386
-3.3176 -2.7338 2.0386
-3.0863 -2.9908 2.0386
-2.8350 -3.2282 2.0386
-2.5654 -3.4445 2.0386
-2.2794 -3.6383 2.0386
-0.7172 -1.3803 0.7389
-0.6037 -1.4332 0.7390
-0.4865 -1.4768 0.7392
-0.3661 -1.5109 0.7394
-0.2433 -1.5352 0.7397
-0.1190 -1.5496 0.7399
0.0060 -1.5540 0.7402
0.1310 -1.5484 0.7405
0.2551 -1.5328 0.7408
0.3776 -1.5072 0.7412
0.4977 -1.4720 0.7415
0.6145 -1.4272 0.7419
0.7274 -1.3732 0.7423
2.2939 -3.5966 2.0386
2.5749 -3.3988 2.0386
2.8390 -3.1792 2.0386
3.0845 -2.9392 2.0386
3.3100 -2.6804 2.0386
3.5139 -2.4044 2.0386
3.6949 -2.1129 2.0386
3.8520 -1.8080 2.0386
3.9842 -1.4916 2.0386
4.0905 -1.1654 2.0386
4.1704 -0.8323 2.0386
4.2234 -0.4936 2.0386
4.2490 -0.1518 2.0386
4.2137 0.1894 2.0225
4.1695 0.5262 2.0152
4.1231 0.8623 2.0198
4.0741 1.2016 2.0366
3.9684 1.5275 2.0386
3.8330 1.8424 2.0386
3.6728 2.1455 2.0386
3.4888 2.4348 2.0386
3.2822 2.7085 2.0386
3.0543 2.9648 2.0386
3.2460 2.2754 2.0386
3.0529 2.5301 2.0386
2.8400 2.7685 2.0386
2.6086 2.9891 2.0386
2.3602 3.1904 2.0386
0.7691 1.2368 0.7479
0.6672 1.2950 0.7478
0.5609 1.3448 0.7476
0.4509 1.3858 0.7475
0.3379 1.4179 0.7473
0.2228 1.4407 0.7471
0.1061 1.4541 0.7468
-0.0112 1.4581 0.7465
-0.1285 1.4526 0.7463
-0.2450 1.4376 0.7460
-0.3599 1.4133 0.7456
-0.4724 1.3798 0.7453
-0.5818 1.3373 0.7450
-0.6875 1.2861 0.7446
-2.1601 3.3599 2.0386
-2.4243 3.1767 2.0386
-2.6729 2.9726 2.0386
-2.9043 2.7492 2.0386
-3.1170 2.5076 2.0386
-3.3095 2.2497 2.0386
-3.4807 1.9770 2.0386
-3.6292 1.6913 2.0386
-3.7543 1.3944 2.0386
-3.8550 1.0884 2.0386
-3.9306 0.7752 2.0386
-3.9807 0.4569 2.0386
-4.0049 0.1355 2.0386
-4.0030 -0.1867 2.0386
-3.9751 -0.5078 2.0386
-3.9214 -0.8256 2.0386
-3.8421 -1.1380 2.0386
-3.7379 -1.4429 2.0386
-3.6094 -1.7384 2.0386
-3.4574 -2.0225 2.0386
-3.2830 -2.2933 2.0386
-3.0873 -2.5492 2.0386
-2.8717 -2.7883 2.0386
-2.6375 -3.0092 2.0386
-2.3863 -3.2104 2.0386
-0.7685 -1.2293 0.7391
-0.6670 -1.2868 0.7392
-0.5613 -1.3360 0.7393
-0.4520 -1.3766 0.7395
-0.3398 -1.4082 0.7397
-0.2254 -1.4308 0.7399
-0.1095 -1.4441 0.7402
0.0070 -1.4481 0.7404
0.1234 -1.4427 0.7407
0.2391 -1.4280 0.7410
0.3532 -1.4041 0.7413
0.4650 -1.3711 0.7417
0.5739 -1.3292 0.7420
0.6790 -1.2788 0.7424
0.7798 -1.2200 0.7427
2.4020 -3.1643 2.0386
2.6479 -2.9595 2.0386
2.8765 -2.7357 2.0386
3.0863 -2.4943 2.0386
3.2761 -2.2370 2.0386
3.4446 -1.9653 2.0386
3.5908 -1.6811 2.0386
3.7137 -1.3861 2.0386
3.8125 -1.0823 2.0386
3.8866 -0.7716 2.0386
3.9357 -0.4560 2.0386
3.9592 -0.1374 2.0386
3.9573 0.1819 2.0386
3.9297 0.5001 2.0386
3.8767 0.8150 2.0386
3.7987 1.1247 2.0386
3.6961 1.4272 2.0386
3.5696 1.7206 2.0386
3.4201 2.0027 2.0386
3.2483 2.2721 2.0386
3.0555 2.5269 2.0386
2.8428 2.7655 2.0386
2.6117 2.9864 2.0386
2.3635 3.1880 2.0386
0.7704 1.2360 0.7479
0.6685 1.2943 0.7478
0.5623 1.3442 0.7476
0.4523 1.3854 0.7475
0.3394 1.4175 0.7473
0.2242 1.4404 0.7471
0.1076 1.4540 0.7468
-0.0097 1.4581 0.7465
-0.1270 1.4527 0.7463
-0.2435 1.4379 0.7460
-0.3584 1.4137 0.7456
-0.4710 1.3803 0.7453
-0.5804 1.3379 0.7450
-0.6861 1.2868 0.7446
-2.1567 3.3621 2.0386
-2.4210 3.1791 2.0386
-2.6698 2.9754 2.0386
-2.9015 2.7521 2.0386
-3.1144 2.5108 2.0386
-3.3072 2.2531 2.0386
-3.4786 1.9805 2.0386
-3.6275 1.6950 2.0386
-3.7528 1.3983 2.0386
-3.8538 1.0924 2.0386
-3.9298 0.7792 2.0386
-3.9802 0.4610 2.0386
-4.0047 0.1397 2.0386
-4.0032 -0.1826 2.0386
-3.9757 -0.5037 2.0386
-3.9222 -0.8216 2.0386
-3.8433 -1.1340 2.0386
-3.7394 -1.4390 2.0386
-3.6112 -1.7347 2.0386
-3.4595 -2.0189 2.0386
-3.2854 -2.2900 2.0386
-3.0900 -2.5460 2.0386
-2.8746 -2.7854 2.0386
-2.6406 -3.0065 2.0386
-2.3896 -3.2080 2.0386
-0.7698 -1.2285 0.7391
-0.6684 -1.2861 0.7392
-0.5627 -1.3354 0.7393
-0.4534 -1.3761 0.7395
-0.3412 -1.4079 0.7397
-0.2268 -1.4305 0.7399
-0.1110 -1.4440 0.7402
0.0055 -1.4481 0.7404
0.1219 -1.4428 0.7407
0.2376 -1.4282 0.7410
0.3517 -1.4044 0.7413
0.4636 -1.3716 0.7417
0.5725 -1.3298 0.7420
0.6777 -1.2795 0.7424
0.7785 -1.2208 0.7427
2.3987 -3.1667 2.0386
2.6448 -2.9622 2.0386
2.8737 -2.7386 2.0386
3.0838 -2.4975 2.0386
3.2738 -2.2404 2.0386
3.4426 -1.9689 2.0386
3.5891 -1.6848 2.0386
3.7122 -1.3900 2.0386
3.8114 -1.0862 2.0386
3.8859 -0.7756 2.0386
3.9352 -0.4599 2.0386
3.9591 -0.1414 2.0386
3.9574 0.1778 2.0386
3.9302 0.4960 2.0386
3.8776 0.8110 2.0386
3.7999 1.1208 2.0386
3.6976 1.4234 2.0386
3.5714 1.7167 2.0386
3.4221 1.9992 2.0386
3.2506 2.2688 2.0386
3.0581 2.5238 2.0386
2.8457 2.7626 2.0386
3.0328 2.1262 2.0386
2.8524 2.3641 2.0386
2.6534 2.5868 2.0386
2.4372 2.7929 2.0386
2.2050 2.9810 2.0386
0.7182 1.1552 0.7476
0.6230 1.2095 0.7475
0.5237 1.2560 0.7474
0.4210 1.2943 0.7472
0.3155 1.3242 0.7470
0.2079 1.3455 0.7468
0.0990 1.3581 0.7466
-0.0106 1.3618 0.7463
-0.1202 1.3566 0.7461
-0.2289 1.3427 0.7458
-0.3362 1.3200 0.7455
-0.4413 1.2887 0.7452
-0.5435 1.2490 0.7449
-0.6422 1.2012 0.7445
-0.7367 1.1456 0.7442
-2.2647 2.9671 2.0386
-2.4969 2.7765 2.0386
-2.7129 2.5677 2.0386
-2.9115 2.3421 2.0386
-3.0913 2.1011 2.0386
-3.2511 1.8464 2.0386
-3.3898 1.5795 2.0386
-3.5066 1.3022 2.0386
-3.6005 1.0164 2.0386
-3.6711 0.7239 2.0386
-3.7179 0.4267 2.0386
-3.7405 0.1265 2.0386
-3.7387 -0.1744 2.0386
-3.7127 -0.4743 2.0386
-3.6625 -0.7710 2.0386
-3.5885 -1.0628 2.0386
-3.4912 -1.3476 2.0386
-3.3712 -1.6235 2.0386
-3.2293 -1.8889 2.0386
-3.0664 -2.1419 2.0386
-2.8837 -2.3808 2.0386
-2.6824 -2.6042 2.0386
-2.4637 -2.8106 2.0386
-2.2291 -2.9985 2.0386
-0.7182 -1.1486 0.7394
-0.6234 -1.2024 0.7395
-0.5246 -1.2484 0.7396
-0.4224 -1.2863 0.7398
-0.3176 -1.3158 0.7400
-0.2107 -1.3369 0.7402
-0.1025 -1.3494 0.7404
0.0064 -1.3531 0.7406
0.1152 -1.3481 0.7409
0.2233 -1.3343 0.7412
0.3299 -1.3120 0.7415
0.4344 -1.2811 0.7418
0.5361 -1.2420 0.7421
0.6343 -1.1949 0.7424
0.7285 -1.1400 0.7428
2.2439 -2.9565 2.0386
2.4737 -2.7652 2.0386
2.6874 -2.5561 2.0386
2.8835 -2.3307 2.0386
3.0609 -2.0903 2.0386
3.2184 -1.8364 2.0386
3.3550 -1.5709 2.0386
3.4698 -1.2953 2.0386
3.5622 -1.0114 2.0386
3.6316 -0.7211 2.0386
3.6774 -0.4261 2.0386
3.6995 -0.1285 2.0386
3.6976 0.1699 2.0386
3.6718 0.4672 2.0386
3.6223 0.7615 2.0386
3.5494 1.0509 2.0386
3.4536 1.3335 2.0386
3.3354 1.6076 2.0386
3.1955 1.8714 2.0386
3.0350 2.1231 2.0386
2.8548 2.3611 2.0386
2.6561 2.5841 2.0386
2.4400 2.7904 2.0386
2.2081 2.9787 2.0386
0.7194 1.1544 0.7476
0.6243 1.2089 0.7475
0.5250 1.2555 0.7474
0.4223 1.2939 0.7472
0.3169 1.3239 0.7470
0.2093 1.3453 0.7468
0.1004 1.3580 0.7466
-0.0092 1.3618 0.7463
-0.1188 1.3568 0.7461
-0.2275 1.3429 0.7458
-0.3349 1.3203 0.7455
-0.4400 1.2891 0.7452
-0.5422 1.2496 0.7449
-0.6410 1.2019 0.7445
-0.7355 1.1464 0.7442
-2.2616 2.9694 2.0386
-2.4940 2.7790 2.0386
-2.7103 2.5704 2.0386
-2.9091 2.3450 2.0386
-3.0891 2.1043 2.0386
-3.2492 1.8497 2.0386
-3.3882 1.5830 2.0386
-3.5052 1.3059 2.0386
-3.5995 1.0201 2.0386
-3.6704 0.7277 2.0386
-3.7175 0.4305 2.0386
-3.7403 0.1304 2.0386
-3.7389 -0.1706 2.0386
-3.7132 -0.4705 2.0386
-3.6633 -0.7673 2.0386
-3.5896 -1.0591 2.0386
-3.4925 -1.3440 2.0386
-3.3728 -1.6201 2.0386
-3.2312 -1.8855 2.0386
-3.0686 -2.1387 2.0386
-2.8862 -2.3778 2.0386
-2.6850 -2.6014 2.0386
-2.4666 -2.8080 2.0386
-2.2322 -2.9963 2.0386
-0.7194 -1.1479 0.7394
-0.6246 -1.2017 0.7395
-0.5259 -1.2478 0.7396
-0.4238 -1.2858 0.7398
-0.3189 -1.3155 0.7400
-0.2121 -1.3367 0.7402
-0.1039 -1.3493 0.7404
0.0050 -1.3531 0.7406
0.1138 -1.3482 0.7409
0.2219 -1.3346 0.7412
0.3286 -1.3123 0.7415
0.4331 -1.2816 0.7418
0.5348 -1.2426 0.7421
0.6331 -1.1955 0.7424
0.7273 -1.1407 0.7428
2.2409 -2.9588 2.0386
2.4709 -2.7677 2.0386
2.6847 -2.5589 2.0386
2.8811 -2.3336 2.0386
3.0587 -2.0934 2.0386
3.2165 -1.8398 2.0386
3.3534 -1.5743 2.0386
3.4685 -1.2988 2.0386
3.5612 -1.0151 2.0386
3.6308 -0.7248 2.0386
3.6770 -0.4299 2.0386
3.6993 -0.1323 2.0386
3.6978 0.1661 2.0386
3.6723 0.4635 2.0386
3.6231 0.7578 2.0386
3.5505 1.0472 2.0386
3.4549 1.3300 2.0386
3.3370 1.6042 2.0386
3.1975 1.8680 2.0386
3.0372 2.1199 2.0386
2.8572 2.3582 2.0386
2.6587 2.5813 2.0386
2.8404 1.9915 2.0386
2.6714 2.2143 2.0386
2.4850 2.4229 2.0386
2.2824 2.6159 2.0386
0.7571 1.0236 0.7474
0.6723 1.0815 0.7473
0.5832 1.1324 0.7472
0.4902 1.1759 0.7471
0.3941 1.2118 0.7470
0.2953 1.2398 0.7468
0.1946 1.2597 0.7466
0.0926 1.2715 0.7464
-0.0100 1.2749 0.7462
-0.1126 1.2701 0.7459
-0.2144 1.2570 0.7456
-0.3149 1.2358 0.7454
-0.4133 1.2065 0.7451
-0.5090 1.1694 0.7448
-0.6014 1.1246 0.7445
-0.6898 1.0726 0.7441
-0.7738 1.0136 0.7438
-2.3381 2.5995 2.0386
-2.5404 2.4040 2.0386
-2.7262 2.1927 2.0386
-2.8945 1.9671 2.0386
-3.0441 1.7286 2.0386
-3.1739 1.4787 2.0386
-3.2832 1.2191 2.0386
-3.3711 0.9516 2.0386
-3.4372 0.6777 2.0386
-3.4809 0.3994 2.0386
-3.5021 0.1184 2.0386
-3.5004 -0.1633 2.0386
-3.4760 -0.4440 2.0386
-3.4291 -0.7219 2.0386
-3.3598 -0.9950 2.0386
-3.2687 -1.2616 2.0386
-3.1564 -1.5200 2.0386
-3.0235 -1.7684 2.0386
-2.8711 -2.0052 2.0386
-2.7001 -2.2290 2.0386
-2.5116 -2.4382 2.0386
-2.3069 -2.6314 2.0386
-0.7572 -1.0185 0.7396
-0.6728 -1.0758 0.7396
-0.5840 -1.1262 0.7397
-0.4914 -1.1692 0.7399
-0.3958 -1.2048 0.7400
-0.2976 -1.2325 0.7402
-0.1975 -1.2522 0.7404
-0.0961 -1.2639 0.7406
0.0059 -1.2674 0.7408
0.1078 -1.2626 0.7411
0.2090 -1.2498 0.7413
0.3089 -1.2288 0.7416
0.4068 -1.2000 0.7419
0.5020 -1.1633 0.7422
0.5940 -1.1191 0.7425
0.6822 -1.0677 0.7428
0.7660 -1.0094 0.7431
2.3165 -2.5899 2.0386
2.5167 -2.3941 2.0386
2.7004 -2.1830 2.0386
2.8666 -1.9578 2.0386
3.0142 -1.7201 2.0386
3.1421 -1.4714 2.0386
3.2498 -1.2133 2.0386
3.3363 -0.9474 2.0386
3.4013 -0.6755 2.0386
3.4443 -0.3992 2.0386
3.4649 -0.1204 2.0386
3.4632 0.1591 2.0386
3.4391 0.4376 2.0386
3.3927 0.7133 2.0386
3.3244 0.9844 2.0386
3.2346 1.2491 2.0386
3.1238 1.5058 2.0386
2.9929 1.7528 2.0386
2.8425 1.9885 2.0386
2.6736 2.2115 2.0386
2.4875 2.4203 2.0386
2.2851 2.6135 2.0386
0.7581 1.0229 0.7474
0.6735 1.0808 0.7473
0.5844 1.1318 0.7472
0.4914 1.1754 0.7471
0.3953 1.2114 0.7470
0.2966 1.2395 0.7468
0.1959 1.2595 0.7466
0.0939 1.2714 0.7464
-0.0087 1.2749 0.7462
-0.1113 1.2702 0.7459
-0.2131 1.2573 0.7456
-0.3136 1.2361 0.7454
-0.4120 1.2069 0.7451
-0.5078 1.1699 0.7448
-0.6002 1.1253 0.7445
-0.6887 1.0733 0.7441
-0.7728 1.0144 0.7438
-2.3354 2.6019 2.0386
-2.5379 2.4066 2.0386
-2.7240 2.1956 2.0386
-2.8925 1.9701 2.0386
-3.0423 1.7317 2.0386
-3.1724 1.4820 2.0386
-3.2819 1.2225 2.0386
-3.3701 0.9550 2.0386
-3.4365 0.6812 2.0386
-3.4805 0.4030 2.0386
-3.5019 0.1220 2.0386
-3.5006 -0.1597 2.0386
-3.4765 -0.4405 2.0386
-3.4298 -0.7184 2.0386
-3.3608 -0.9915 2.0386
-3.2700 -1.2583 2.0386
-3.1579 -1.5167 2.0386
-3.0254 -1.7653 2.0386
-2.8732 -2.0023 2.0386
-2.7024 -2.2262 2.0386
-2.5141 -2.4356 2.0386
-2.3096 -2.6290 2.0386
-0.7583 -1.0177 0.7396
-0.6739 -1.0751 0.7396
-0.5851 -1.1256 0.7397
-0.4926 -1.1687 0.7399
-0.3970 -1.2043 0.7400
-0.2988 -1.2322 0.7402
-0.1987 -1.2520 0.7404
-0.0974 -1.2638 0.7406
0.0046 -1.2674 0.7408
0.1065 -1.2628 0.7411
0.2077 -1.2500 0.7413
0.3076 -1.2292 0.7416
0.4055 -1.2004 0.7419
0.5008 -1.1638 0.7422
0.5929 -1.1197 0.7425
0.6811 -1.0684 0.7428
0.7649 -1.0102 0.7431
2.3139 -2.5923 2.0386
2.5142 -2.3967 2.0386
2.6982 -2.1858 2.0386
2.8646 -1.9608 2.0386
3.0124 -1.7232 2.0386
3.1406 -1.4746 2.0386
3.2485 -1.2166 2.0386
3.3354 -0.9508 2.0386
3.4006 -0.6789 2.0386
3.4438 -0.4027 2.0386
3.4648 -0.1240 2.0386
3.4634 0.1556 2.0386
3.4395 0.4341 2.0386
3.3934 0.7098 2.0386
3.3254 0.9809 2.0386
3.2359 1.2457 2.0386
3.1254 1.5026 2.0386
2.9947 1.7497 2.0386
2.8445 1.9856 2.0386
2.6759 2.2088 2.0386
2.4899 2.4177 2.0386
2.6656 1.8691 2.0386
2.5069 2.0782 2.0386
2.3320 2.2739 2.0386
0.7851 0.8999 0.7472
0.7102 0.9604 0.7472
0.6307 1.0147 0.7471
0.5470 1.0624 0.7470
0.4598 1.1032 0.7469
0.3696 1.1369 0.7468
0.2769 1.1631 0.7466
0.1824 1.1818 0.7464
0.0867 1.1928 0.7462
-0.0095 1.1961 0.7460
-0.1058 1.1916 0.7458
-0.2013 1.1793 0.7455
-0.2955 1.1594 0.7452
-0.3878 1.1319 0.7450
-0.4776 1.0971 0.7447
-0.5643 1.0551 0.7444
-0.6473 1.0063 0.7441
-0.7261 0.9510 0.7438
-2.1939 2.4389 2.0386
-2.3837 2.2554 2.0386
-2.5580 2.0572 2.0386
-2.7159 1.8455 2.0386
-2.8561 1.6217 2.0386
-2.9779 1.3872 2.0386
-3.0804 1.1437 2.0386
-3.1629 0.8927 2.0386
-3.2249 0.6358 2.0386
-3.2659 0.3747 2.0386
-3.2857 0.1111 2.0386
-3.2841 -0.1533 2.0386
-3.2613 -0.4166 2.0386
-3.2172 -0.6772 2.0386
-3.1522 -0.9335 2.0386
-3.0667 -1.1836 2.0386
-2.9614 -1.4260 2.0386
-2.8368 -1.6590 2.0386
-2.6938 -1.8813 2.0386
-2.5334 -2.0912 2.0386
-2.3566 -2.2874 2.0386
-2.1646 -2.4688 2.0386
-0.7108 -0.9559 0.7398
-0.6315 -1.0097 0.7399
-0.5482 -1.0569 0.7400
-0.4613 -1.0974 0.7401
-0.3715 -1.1307 0.7402
-0.2794 -1.1567 0.7404
-0.1854 -1.1753 0.7406
-0.0903 -1.1862 0.7408
0.0054 -1.1895 0.7410
0.1011 -1.1851 0.7412
0.1961 -1.1730 0.7415
0.2898 -1.1533 0.7417
0.3817 -1.1262 0.7420
0.4710 -1.0918 0.7423
0.5574 -1.0503 0.7426
0.6401 -1.0021 0.7429
0.7188 -0.9473 0.7432
2.1737 -2.4306 2.0386
2.3616 -2.2469 2.0386
2.5341 -2.0488 2.0386
2.6901 -1.8375 2.0386
2.8286 -1.6144 2.0386
2.9488 -1.3810 2.0386
3.0498 -1.1388 2.0386
3.1311 -0.8892 2.0386
3.1921 -0.6340 2.0386
3.2324 -0.3747 2.0386
3.2518 -0.1130 2.0386
3.2502 0.1493 2.0386
3.2276 0.4107 2.0386
3.1841 0.6695 2.0386
3.1199 0.9238 2.0386
3.0356 1.1723 2.0386
2.9317 1.4132 2.0386
2.8087 1.6451 2.0386
2.6675 1.8664 2.0386
2.5091 2.0756 2.0386
2.3343 2.2715 2.0386
0.7860 0.8990 0.7472
0.7112 0.9596 0.7472
0.6317 1.0140 0.7471
0.5481 1.0618 0.7470
0.4610 1.1027 0.7469
0.3708 1.1365 0.7468
0.2781 1.1628 0.7466
0.1836 1.1816 0.7464
0.0880 1.1928 0.7462
-0.0083 1.1961 0.7460
-0.1045 1.1917 0.7458
-0.2001 1.1795 0.7455
-0.2943 1.1597 0.7452
-0.3867 1.1323 0.7450
-0.4765 1.0976 0.7447
-0.5632 1.0557 0.7444
-0.6463 1.0070 0.7441
-0.7251 0.9517 0.7438
-2.1914 2.4411 2.0386
-2.3813 2.2578 2.0386
-2.5559 2.0598 2.0386
-2.7140 1.8482 2.0386
-2.8545 1.6246 2.0386
-2.9765 1.3903 2.0386
-3.0792 1.1469 2.0386
-3.1620 0.8959 2.0386
-3.2242 0.6391 2.0386
-3.2655 0.3780 2.0386
-3.2856 0.1145 2.0386
-3.2843 -0.1499 2.0386
-3.2617 -0.4133 2.0386
-3.2179 -0.6739 2.0386
-3.1532 -0.9302 2.0386
-3.0680 -1.1804 2.0386
-2.9628 -1.4229 2.0386
-2.8385 -1.6561 2.0386
-2.6958 -1.8785 2.0386
-2.5356 -2.0886 2.0386
-2.3590 -2.2850 2.0386
-2.1671 -2.4666 2.0386
-0.7117 -0.9551 0.7398
-0.6325 -1.0090 0.7399
