ply
format ascii 1.0
element vertex 2178
property float32 x
property float32 y
property float32 z
end_header
-8.3183 3.7741 2.0382
-8.5978 3.0952 2.0382
-8.8220 2.3958 2.0382
-8.9893 1.6803 2.0382
-9.0986 0.9535 2.0382
-9.1491 0.2200 2.0382
-9.1404 -0.5154 2.0382
-9.0725 -1.2480 2.0382
-8.9458 -1.9730 2.0382
-8.7611 -2.6856 2.0382
-8.5195 -3.3813 2.0382
-8.2226 -4.0554 2.0382
-7.8723 -4.7034 2.0382
-7.4708 -5.3213 2.0382
-7.0207 -5.9049 2.0382
-6.5249 -6.4503 2.0382
-5.9867 -6.9541 2.0382
-5.4095 -7.4129 2.0382
-4.7972 -7.8236 2.0382
-4.1537 -8.1836 2.0382
-3.4833 -8.4905 2.0382
-2.7903 -8.7424 2.0382
-2.0793 -8.9375 2.0382
-1.3550 -9.0746 2.0382
-0.6220 -9.1528 2.0382
0.1147 -9.1717 2.0382
0.8505 -9.1311 2.0382
1.5805 -9.0314 2.0382
2.2999 -8.8732 2.0382
3.0040 -8.6575 2.0382
3.6883 -8.3860 2.0382
2.3680 -4.3895 1.1099
1.9651 -3.0317 0.8043
1.7351 -2.2567 0.6339
1.6570 -1.8300 0.5500
1.7987 -1.6911 0.5502
1.9288 -1.5413 0.5505
2.0467 -1.3817 0.5508
2.1514 -1.2131 0.5511
2.2425 -1.0367 0.5514
2.3192 -0.8536 0.5518
2.3811 -0.6648 0.5522
2.4522 -0.4764 0.5582
2.9467 -0.3299 0.6628
8.4321 -0.2624 1.8866
8.4366 0.4161 1.8896
8.3828 1.0932 1.8918
8.2709 1.7635 1.8931
8.1018 2.4218 1.8934
7.8768 3.0629 1.8929
7.5976 3.6819 1.8915
7.2668 4.2739 1.8891
6.8865 4.8342 1.8858
6.4749 5.3707 1.8858
6.0218 5.8725 1.8858
5.5300 6.3365 1.8858
5.0028 6.7596 1.8858
4.4436 7.1392 1.8858
3.8601 7.4813 1.8879
3.5052 8.3855 2.0382
2.8205 8.6403 2.0382
2.1176 8.8395 2.0382
1.4010 8.9820 2.0382
0.6752 9.0667 2.0382
-0.0552 9.0931 2.0382
-0.7854 9.0610 2.0382
-1.5109 8.9706 2.0382
-2.2270 8.8225 2.0382
-2.9292 8.6174 2.0382
-3.6128 8.3567 2.0382
-4.2736 8.0421 2.0382
-4.9072 7.6754 2.0382
-5.5096 7.2591 2.0382
-6.0769 6.7956 2.0382
-6.6054 6.2880 2.0382
-7.0917 5.7394 2.0382
-7.5326 5.1534 2.0382
-7.9251 4.5337 2.0382
-8.2668 3.8842 2.0382
-8.5553 3.2091 2.0382
-8.7888 2.5128 2.0382
-8.9656 1.7997 2.0382
-9.0845 1.0744 2.0382
-9.1448 0.3417 2.0382
-9.1459 -0.3938 2.0382
-9.0878 -1.1272 2.0382
-8.9708 -1.8538 2.0382
-8.7957 -2.5688 2.0382
-8.5634 -3.2675 2.0382
-8.2755 -3.9455 2.0382
-7.9339 -4.5981 2.0382
-7.5407 -5.2213 2.0382
-7.0984 -5.8108 2.0382
-6.6100 -6.3628 2.0382
-6.0785 -6.8738 2.0382
-5.5076 -7.3402 2.0382
-4.9008 -7.7590 2.0382
-4.2622 -8.1276 2.0382
-3.5959 -8.4435 2.0382
-2.9064 -8.7046 2.0382
-2.1981 -8.9092 2.0382
-1.4756 -9.0559 2.0382
-0.7437 -9.1440 2.0382
-0.0073 -9.1727 2.0382
0.7290 -9.1419 2.0382
1.4603 -9.0519 2.0382
2.1817 -8.9033 2.0382
2.8887 -8.6971 2.0382
3.5766 -8.4347 2.0382
2.4664 -4.7211 1.1854
2.0158 -3.2024 0.8423
1.7662 -2.3615 0.6567
1.6325 -1.8518 0.5499
1.7760 -1.7148 0.5502
1.9081 -1.5668 0.5504
2.0280 -1.4088 0.5507
2.1350 -1.2416 0.5510
2.2284 -1.0664 0.5514
2.3075 -0.8843 0.5518
2.3719 -0.6964 0.5522
2.4211 -0.5039 0.5526
2.8524 -0.3579 0.6426
8.4258 -0.3745 1.8860
8.4399 0.3037 1.8892
8.3958 0.9814 1.8915
8.2934 1.6532 1.8929
8.1337 2.3139 1.8934
2.7508 -7.6003 2.0382
3.3512 -7.3530 2.0382
2.2815 -4.0980 1.1834
1.9189 -2.8761 0.8726
1.7062 -2.1591 0.6947
1.5648 -1.6827 0.5803
1.6085 -1.4725 0.5509
1.7216 -1.3387 0.5511
1.8238 -1.1963 0.5514
1.9143 -1.0462 0.5517
1.9926 -0.8893 0.5520
2.0582 -0.7266 0.5523
2.1436 -0.5680 0.5614
2.5233 -0.4555 0.6493
3.0476 -0.3003 0.7757
7.4409 -0.1327 1.8858
7.4252 0.4651 1.8858
7.3617 1.0596 1.8858
7.2508 1.6469 1.8858
7.0933 2.2234 1.8858
6.8901 2.7852 1.8858
6.6427 3.3288 1.8858
6.3527 3.8508 1.8858
6.0218 4.3478 1.8858
5.6523 4.8167 1.8858
5.2466 5.2545 1.8858
4.8071 5.6584 1.8858
4.3368 6.0258 1.8858
4.0553 6.7129 1.9922
3.5838 7.1790 2.0382
2.9957 7.4436 2.0382
2.3883 7.6605 2.0382
1.7655 7.8281 2.0382
1.1311 7.9454 2.0382
0.4894 8.0115 2.0382
-0.1556 8.0262 2.0382
-0.7999 7.9891 2.0382
-1.4392 7.9006 2.0382
-2.0696 7.7612 2.0382
-2.6868 7.5718 2.0382
-3.2871 7.3334 2.0382
-3.8665 7.0477 2.0382
-4.4213 6.7164 2.0382
-4.9479 6.3417 2.0382
-5.4430 5.9257 2.0382
-5.9032 5.4714 2.0382
-6.3256 4.9813 2.0382
-6.7075 4.4588 2.0382
-7.0464 3.9072 2.0382
-7.3399 3.3299 2.0382
-7.5862 2.7308 2.0382
-7.7837 2.1136 2.0382
-7.9309 1.4823 2.0382
-8.0270 0.8410 2.0382
-8.0712 0.1939 2.0382
-8.0632 -0.4549 2.0382
-8.0031 -1.1011 2.0382
-7.8910 -1.7406 2.0382
-7.7279 -2.3691 2.0382
-7.5146 -2.9826 2.0382
-7.2525 -3.5770 2.0382
-6.9433 -4.1486 2.0382
-6.5890 -4.6934 2.0382
-6.1919 -5.2080 2.0382
-5.7546 -5.6890 2.0382
-5.2798 -6.1332 2.0382
-4.7708 -6.5377 2.0382
-4.2308 -6.8999 2.0382
-3.6633 -7.2173 2.0382
-3.0720 -7.4880 2.0382
-2.4609 -7.7102 2.0382
-1.8339 -7.8823 2.0382
-1.1951 -8.0033 2.0382
-0.5487 -8.0725 2.0382
0.1011 -8.0892 2.0382
0.7500 -8.0536 2.0382
1.3939 -7.9658 2.0382
2.0284 -7.8265 2.0382
2.6496 -7.6366 2.0382
3.2532 -7.3973 2.0382
2.3682 -4.3901 1.2584
1.9652 -3.0321 0.9118
1.7352 -2.2570 0.7187
1.5849 -1.7504 0.5963
1.5887 -1.4938 0.5508
1.7037 -1.3615 0.5511
1.8077 -1.2204 0.5513
1.9002 -1.0715 0.5516
1.9805 -0.9157 0.5519
2.0482 -0.7539 0.5523
2.1028 -0.5872 0.5526
2.4524 -0.4765 0.6326
2.9471 -0.3301 0.7512
7.4388 -0.2317 1.8858
7.4311 0.3663 1.8858
7.3755 0.9616 1.8858
7.2724 1.5504 1.8858
7.1225 2.1289 1.8858
6.9269 2.6934 1.8858
6.6867 3.2403 1.8858
6.4036 3.7661 1.8858
6.0793 4.2674 1.8858
5.7161 4.7412 1.8858
5.3161 5.1843 1.8858
4.8821 5.5940 1.8858
4.4167 5.9676 1.8858
4.0978 6.5836 1.9698
3.6791 7.1305 2.0382
3.0945 7.4030 2.0382
2.4900 7.6279 2.0382
1.8695 7.8038 2.0382
1.2368 7.9295 2.0382
0.5960 8.0041 2.0382
-0.0488 8.0273 2.0382
-0.6935 7.9988 2.0382
-1.3339 7.9188 2.0382
-1.9660 7.7878 2.0382
-2.5857 7.6065 2.0382
-3.1891 7.3762 2.0382
-3.7722 7.0982 2.0382
-4.3313 6.7743 2.0382
-4.8629 6.4066 2.0382
-5.3634 5.9973 2.0382
-5.8296 5.5491 2.0382
-6.2584 5.0647 2.0382
-6.6472 4.5474 2.0382
-6.9934 4.0003 2.0382
-7.2945 3.4271 2.0382
-7.5488 2.8313 2.0382
-7.7544 2.2168 2.0382
-7.9101 1.5876 2.0382
-8.0147 0.9477 2.0382
-8.0675 0.3012 2.0382
-8.0682 -0.3476 2.0382
-8.0166 -0.9945 2.0382
-7.9131 -1.6354 2.0382
-7.7584 -2.2660 2.0382
-7.5533 -2.8823 2.0382
-7.2992 -3.4801 2.0382
-6.9976 -4.0557 2.0382
-6.6507 -4.6052 2.0382
-6.2605 -5.1250 2.0382
-5.8296 -5.6118 2.0382
-5.3609 -6.0623 2.0382
-4.8573 -6.4736 2.0382
-4.3221 -6.8429 2.0382
-3.7590 -7.1680 2.0382
-3.1714 -7.4465 2.0382
-2.5633 -7.6768 2.0382
-1.9386 -7.8573 2.0382
-1.3015 -7.9869 2.0382
-0.6561 -8.0646 2.0382
-0.0065 -8.0901 2.0382
0.6428 -8.0631 2.0382
1.2878 -7.9840 2.0382
1.9242 -7.8531 2.0382
2.5478 -7.6715 2.0382
3.1547 -7.4402 2.0382
2.4666 -4.7219 1.3439
2.0159 -3.2028 0.9550
1.7663 -2.3618 0.7445
1.6062 -1.8220 0.6133
1.5687 -1.5147 0.5508
1.6854 -1.3840 0.5510
1.7913 -1.2444 0.5513
1.8857 -1.0967 0.5516
1.9681 -0.9419 0.5519
2.0379 -0.7811 0.5522
2.0947 -0.6151 0.5526
2.3851 -0.4965 0.6168
2.8528 -0.3580 0.7282
7.4355 -0.3307 1.8858
7.4357 0.2674 1.8858
7.3880 0.8634 1.8858
7.2927 1.4535 1.8858
7.1505 2.0340 1.8858
2.4568 -6.7884 2.0382
2.9931 -6.5677 2.0382
2.2817 -4.0986 1.3250
1.9190 -2.8764 0.9770
1.7063 -2.1594 0.7778
1.5649 -1.6828 0.6496
1.4629 -1.3394 0.5609
1.5394 -1.1970 0.5516
1.6307 -1.0697 0.5518
1.7116 -0.9355 0.5521
1.7815 -0.7952 0.5524
1.8529 -0.6542 0.5565
2.1438 -0.5681 0.6283
2.5235 -0.4557 0.7268
3.0480 -0.3004 0.8683
6.6489 -0.1188 1.8858
6.6351 0.4155 1.8858
6.5786 0.9467 1.8858
6.4797 1.4716 1.8858
6.3391 1.9868 1.8858
6.1577 2.4890 1.8858
5.9367 2.9749 1.8858
5.6776 3.4415 1.8858
5.3820 3.8857 1.8858
5.0518 4.3049 1.8858
4.6892 4.6962 1.8858
4.4833 5.2771 1.9678
4.1894 5.8208 2.0382
3.7082 6.1383 2.0382
3.2032 6.4162 2.0382
2.6775 6.6529 2.0382
2.1346 6.8467 2.0382
1.5778 6.9965 2.0382
1.0109 7.1012 2.0382
0.4373 7.1603 2.0382
-0.1392 7.1732 2.0382
-0.7150 7.1400 2.0382
-1.2864 7.0608 2.0382
-1.8497 6.9360 2.0382
-2.4013 6.7666 2.0382
-2.9377 6.5534 2.0382
-3.4554 6.2979 2.0382
-3.9510 6.0017 2.0382
-4.4215 5.6666 2.0382
-4.8637 5.2947 2.0382
-5.2747 4.8885 2.0382
-5.6520 4.4505 2.0382
-5.9930 3.9836 2.0382
-6.2955 3.4906 2.0382
-6.5575 2.9747 2.0382
-6.7774 2.4394 2.0382
-6.9535 1.8879 2.0382
-7.0849 1.3239 2.0382
-7.1704 0.7510 2.0382
-7.2097 0.1730 2.0382
-7.2023 -0.4066 2.0382
-7.1484 -0.9837 2.0382
-7.0481 -1.5548 2.0382
-6.9022 -2.1162 2.0382
-6.7115 -2.6640 2.0382
-6.4773 -3.1949 2.0382
-6.2010 -3.7052 2.0382
-5.8845 -4.1917 2.0382
-5.5298 -4.6512 2.0382
-5.1392 -5.0807 2.0382
-4.7152 -5.4773 2.0382
-4.2606 -5.8385 2.0382
-3.7783 -6.1620 2.0382
-3.2715 -6.4455 2.0382
-2.7435 -6.6872 2.0382
-2.1978 -6.8856 2.0382
-1.6378 -7.0394 2.0382
-1.0674 -7.1475 2.0382
-0.4901 -7.2093 2.0382
0.0902 -7.2244 2.0382
0.6697 -7.1927 2.0382
1.2448 -7.1145 2.0382
1.8115 -6.9902 2.0382
2.3663 -6.8207 2.0382
2.9056 -6.6072 2.0382
2.3684 -4.3907 1.4091
1.9653 -3.0324 1.0209
1.7353 -2.2572 0.8046
1.5850 -1.7506 0.6676
1.4778 -1.3896 0.5736
1.5233 -1.2174 0.5516
1.6163 -1.0913 0.5518
1.6989 -0.9581 0.5521
1.7707 -0.8188 0.5523
1.8312 -0.6741 0.5526
2.0906 -0.5838 0.6149
2.4527 -0.4767 0.7081
2.9475 -0.3302 0.8408
6.6471 -0.2072 1.8858
6.6404 0.3271 1.8858
6.5909 0.8591 1.8858
6.4989 1.3853 1.8858
6.3652 1.9023 1.8858
6.1905 2.4069 1.8858
5.9759 2.8957 1.8858
5.7230 3.3657 1.8858
5.4333 3.8139 1.8858
5.1088 4.2373 1.8858
4.7515 4.6330 1.8858
4.5165 5.1750 1.9519
4.2665 5.7646 2.0382
3.7896 6.0884 2.0382
3.2883 6.3730 2.0382
2.7658 6.6166 2.0382
2.2255 6.8176 2.0382
1.6708 6.9748 2.0382
1.1053 7.0870 2.0382
0.5326 7.1537 2.0382
-0.0437 7.1743 2.0382
-0.6199 7.1487 2.0382
-1.1923 7.0771 2.0382
-1.7572 6.9598 2.0382
-2.3109 6.7977 2.0382
-2.8501 6.5916 2.0382
-3.3711 6.3430 2.0382
-3.8706 6.0534 2.0382
-4.3455 5.7246 2.0382
-4.7926 5.3587 2.0382
-5.2090 4.9580 2.0382
-5.5920 4.5251 2.0382
-5.9392 4.0627 2.0382
-6.2482 3.5738 2.0382
-6.5171 3.0615 2.0382
-6.7440 2.5292 2.0382
-6.9274 1.9802 2.0382
-7.0663 1.4180 2.0382
-7.1595 0.8463 2.0382
-7.2064 0.2689 2.0382
-7.2068 -0.3107 2.0382
-7.1605 -0.8885 2.0382
-7.0679 -1.4609 2.0382
-6.9295 -2.0241 2.0382
-6.7461 -2.5744 2.0382
-6.5190 -3.1083 2.0382
-6.2496 -3.6223 2.0382
-5.9396 -4.1130 2.0382
-5.5911 -4.5771 2.0382
-5.2062 -5.0118 2.0382
-4.7875 -5.4140 2.0382
-4.3378 -5.7813 2.0382
-3.8599 -6.1111 2.0382
-3.3569 -6.4014 2.0382
-2.8322 -6.6501 2.0382
-2.2892 -6.8558 2.0382
-1.7313 -7.0170 2.0382
-1.1624 -7.1328 2.0382
-0.5860 -7.2023 2.0382
-0.0059 -7.2252 2.0382
0.5740 -7.2012 2.0382
1.1501 -7.1306 2.0382
1.7184 -7.0139 2.0382
2.2755 -6.8519 2.0382
2.8175 -6.6455 2.0382
2.3728 -4.5426 1.4475
2.0160 -3.2032 1.0692
1.7664 -2.3620 0.8335
1.6062 -1.8222 0.6866
1.4935 -1.4422 0.5870
1.5069 -1.2375 0.5515
1.6016 -1.1127 0.5518
1.6860 -0.9806 0.5520
1.7596 -0.8422 0.5523
1.8220 -0.6984 0.5526
2.0395 -0.5990 0.6022
2.3853 -0.4966 0.6904
2.8531 -0.3581 0.8151
6.6441 -0.2957 1.8858
6.6445 0.2388 1.8858
6.6020 0.7714 1.8858
6.5171 1.2988 1.8858
6.3902 1.8176 1.8858
2.2160 -6.1237 2.0382
2.6999 -5.9248 2.0382
2.2819 -4.0992 1.4690
1.9191 -2.8767 1.0831
1.7063 -2.1596 0.8622
1.5649 -1.6830 0.7201
1.4630 -1.3395 0.6217
1.3898 -1.0808 0.5520
1.4723 -0.9658 0.5522
1.5453 -0.8446 0.5525
1.6203 -0.7232 0.5568
1.8530 -0.6543 0.6168
2.1440 -0.5682 0.6964
2.5238 -0.4558 0.8055
3.0484 -0.3006 0.9623
6.0819 -0.1086 1.9115
5.9878 0.3748 1.8858
5.9369 0.8542 1.8858
5.8477 1.3280 1.8858
5.7209 1.7929 1.8858
5.5622 2.2481 1.8874
5.3580 2.6848 1.8858
5.1421 3.1168 1.8924
4.9845 3.5986 1.9351
4.8224 4.1093 1.9945
4.5744 4.5811 2.0382
4.1912 4.9335 2.0382
3.7813 5.2537 2.0382
3.3470 5.5403 2.0382
2.8911 5.7911 2.0382
2.4166 6.0047 2.0382
1.9266 6.1796 2.0382
1.4241 6.3148 2.0382
0.9123 6.4093 2.0382
0.3946 6.4625 2.0382
-0.1257 6.4741 2.0382
-0.6454 6.4441 2.0382
-1.1611 6.3725 2.0382
-1.6695 6.2598 2.0382
-2.1673 6.1067 2.0382
-2.6513 5.9142 2.0382
-3.1184 5.6835 2.0382
-3.5657 5.4160 2.0382
-3.9901 5.1135 2.0382
-4.3891 4.7778 2.0382
-4.7599 4.4111 2.0382
-5.1002 4.0158 2.0382
-5.4077 3.5943 2.0382
-5.6805 3.1494 2.0382
-5.9168 2.6838 2.0382
-6.1149 2.2007 2.0382
-6.2737 1.7031 2.0382
-6.3920 1.1942 2.0382
-6.4690 0.6774 2.0382
-6.5043 0.1559 2.0382
-6.4975 -0.3669 2.0382
-6.4486 -0.8876 2.0382
-6.3581 -1.4028 2.0382
-6.2263 -1.9091 2.0382
-6.0542 -2.4032 2.0382
-5.8428 -2.8820 2.0382
-5.5935 -3.3423 2.0382
-5.3079 -3.7811 2.0382
-4.9880 -4.1954 2.0382
-4.6355 -4.5828 2.0382
-4.2530 -4.9406 2.0382
-3.8430 -5.2663 2.0382
-3.4079 -5.5580 2.0382
-2.9508 -5.8137 2.0382
-2.4746 -6.0318 2.0382
-1.9824 -6.2107 2.0382
-1.4774 -6.3495 2.0382
-0.9629 -6.4471 2.0382
-0.4422 -6.5029 2.0382
0.0812 -6.5166 2.0382
0.6040 -6.4881 2.0382
1.1227 -6.4176 2.0382
1.6340 -6.3056 2.0382
2.1345 -6.1529 2.0382
2.6210 -5.9604 2.0382
2.3442 -4.3462 1.5461
1.9654 -3.0328 1.1318
1.7354 -2.2574 0.8920
1.5850 -1.7507 0.7400
1.4779 -1.3897 0.6358
1.3968 -1.1164 0.5606
1.4593 -0.9853 0.5522
1.5339 -0.8651 0.5524
1.5986 -0.7393 0.5527
1.8111 -0.6668 0.6058
2.0907 -0.5840 0.6816
2.4529 -0.4768 0.7848
2.9479 -0.3303 0.9318
6.1045 -0.1902 1.9192
5.9925 0.2951 1.8858
5.9479 0.7752 1.8858
5.8651 1.2501 1.8858
5.7445 1.7167 1.8858
5.5869 2.1721 1.8858
5.3934 2.6133 1.8858
5.1698 3.0402 1.8874
5.0101 3.5171 1.9267
4.8501 4.0227 1.9836
4.6350 4.5199 2.0382
4.2566 4.8771 2.0382
3.8509 5.2030 2.0382
3.4204 5.4953 2.0382
2.9679 5.7521 2.0382
2.4963 5.9720 2.0382
2.0086 6.1534 2.0382
1.5080 6.2952 2.0382
0.9975 6.3965 2.0382
0.4806 6.4566 2.0382
-0.0396 6.4751 2.0382
-0.5596 6.4519 2.0382
-1.0762 6.3872 2.0382
-1.5860 6.2812 2.0382
-2.0857 6.1348 2.0382
-2.5723 5.9487 2.0382
-3.0424 5.7242 2.0382
-3.4931 5.4627 2.0382
-3.9216 5.1659 2.0382
-4.3249 4.8355 2.0382
-4.7005 4.4738 2.0382
-5.0460 4.0831 2.0382
-5.3592 3.6658 2.0382
-5.6378 3.2245 2.0382
-5.8803 2.7622 2.0382
-6.0848 2.2818 2.0382
-6.2502 1.7864 2.0382
-6.3753 1.2791 2.0382
-6.4592 0.7633 2.0382
-6.5014 0.2424 2.0382
-6.5015 -0.2805 2.0382
-6.4596 -0.8017 2.0382
-6.3759 -1.3180 2.0382
-6.2509 -1.8260 2.0382
-6.0854 -2.3224 2.0382
-5.8804 -2.8040 2.0382
-5.6373 -3.2675 2.0382
-5.3576 -3.7101 2.0382
-5.0432 -4.1287 2.0382
-4.6957 -4.5210 2.0382
-4.3183 -4.8835 2.0382
-3.9126 -5.2147 2.0382
-3.4816 -5.5122 2.0382
-3.0279 -5.7740 2.0382
-2.5546 -5.9983 2.0382
-2.0648 -6.1839 2.0382
-1.5617 -6.3293 2.0382
-1.0485 -6.4338 2.0382
-0.5286 -6.4965 2.0382
-0.0054 -6.5172 2.0382
0.5177 -6.4957 2.0382
1.0373 -6.4322 2.0382
1.5500 -6.3270 2.0382
2.0525 -6.1809 2.0382
2.5415 -5.9949 2.0382
2.3142 -4.4305 1.5650
2.0161 -3.2036 1.1854
1.7665 -2.3623 0.9240
1.6063 -1.8224 0.7611
1.4935 -1.4423 0.6507
1.4089 -1.1571 0.5715
1.4460 -1.0046 0.5521
1.5222 -0.8854 0.5524
1.5886 -0.7604 0.5526
1.7706 -0.6787 0.5952
2.0397 -0.5991 0.6674
2.3856 -0.4967 0.7652
2.8535 -0.3582 0.9034
6.1272 -0.2726 1.9272
6.0023 0.2155 1.8877
5.9580 0.6960 1.8858
5.8814 1.1720 1.8858
5.7670 1.6402 1.8858
0.7299 -2.0171 0.7382
2.4551 -5.3880 2.0382
2.2821 -4.0998 1.6155
1.9193 -2.8771 1.1910
1.7064 -2.1598 0.9482
1.5650 -1.6831 0.7919
1.4630 -1.3396 0.6837
1.3852 -1.0773 0.6049
1.3398 -0.8790 0.5525
1.4277 -0.7804 0.5612
1.6204 -0.7234 0.6122
1.8532 -0.6545 0.6782
2.1442 -0.5683 0.7657
2.5241 -0.4559 0.8856
3.0488 -0.3007 1.0581
5.8990 -0.1057 2.0382
5.8870 0.3683 2.0382
5.7837 0.8320 2.0195
5.6536 1.2837 2.0041
5.5224 1.7306 2.0010
5.3888 2.1779 2.0100
5.2511 2.6311 2.0315
5.0385 3.0539 2.0382
4.7763 3.4482 2.0382
4.4834 3.8203 2.0382
4.1617 4.1676 2.0382
3.8131 4.4882 2.0382
3.4401 4.7797 2.0382
3.0450 5.0404 2.0382
2.6303 5.2687 2.0382
2.1986 5.4630 2.0382
1.7527 5.6221 2.0382
1.2956 5.7449 2.0382
0.8299 5.8310 2.0382
0.3589 5.8794 2.0382
-0.1145 5.8899 2.0382
-0.5873 5.8624 2.0382
-1.0564 5.7972 2.0382
-1.5189 5.6946 2.0382
-1.9717 5.5552 2.0382
-2.4120 5.3800 2.0382
-2.8369 5.1700 2.0382
-3.2437 4.9266 2.0382
-3.6297 4.6513 2.0382
-3.9925 4.3459 2.0382
-4.3297 4.0122 2.0382
-4.6392 3.6525 2.0382
-4.9188 3.2691 2.0382
-5.1668 2.8643 2.0382
-5.3816 2.4409 2.0382
-5.5617 2.0014 2.0382
-5.7059 1.5488 2.0382
-5.8134 1.0860 2.0382
-5.8833 0.6159 2.0382
-5.9152 0.1416 2.0382
-5.9089 -0.3339 2.0382
-5.8644 -0.8073 2.0382
-5.7819 -1.2758 2.0382
-5.6620 -1.7362 2.0382
-5.5053 -2.1855 2.0382
-5.3131 -2.6209 2.0382
-5.0863 -3.0394 2.0382
-4.8266 -3.4383 2.0382
-4.5355 -3.8151 2.0382
-4.2151 -4.1673 2.0382
-3.8673 -4.4925 2.0382
-3.4944 -4.7887 2.0382
-3.0988 -5.0539 2.0382
-2.6832 -5.2864 2.0382
-2.2502 -5.4847 2.0382
-1.8026 -5.6474 2.0382
-1.3434 -5.7736 2.0382
-0.8756 -5.8623 2.0382
-0.4022 -5.9132 2.0382
0.0738 -5.9257 2.0382
0.5491 -5.8998 2.0382
1.0208 -5.8358 2.0382
1.4857 -5.7341 2.0382
0.7030 -2.0266 0.7382
2.3833 -5.4203 2.0382
2.3318 -4.3234 1.6912
1.9656 -3.0331 1.2447
1.7354 -2.2577 0.9809
1.5851 -1.7509 0.8137
1.4779 -1.3898 0.6992
1.3968 -1.1165 0.6164
1.3325 -0.8998 0.5544
1.3988 -0.7890 0.5539
1.5861 -0.7335 0.6029
1.8112 -0.6669 0.6660
2.0909 -0.5841 0.7494
2.4532 -0.4769 0.8629
2.9482 -0.3305 1.0246
5.8973 -0.1842 2.0382
5.8916 0.2899 2.0382
5.8053 0.7564 2.0233
5.6751 1.2094 2.0058
5.5443 1.6567 2.0007
5.4112 2.1036 2.0077
5.2742 2.5554 2.0271
5.0788 2.9866 2.0382
4.8219 3.3844 2.0382
4.5338 3.7606 2.0382
4.2168 4.1120 2.0382
3.8726 4.4371 2.0382
3.5035 4.7335 2.0382
3.1118 4.9995 2.0382
2.7001 5.2332 2.0382
2.2711 5.4332 2.0382
1.8274 5.5982 2.0382
1.3719 5.7272 2.0382
0.9075 5.8193 2.0382
0.4371 5.8740 2.0382
-0.0361 5.8907 2.0382
-0.5092 5.8696 2.0382
-0.9791 5.8106 2.0382
-1.4429 5.7141 2.0382
-1.8975 5.5808 2.0382
-2.3401 5.4115 2.0382
-2.7677 5.2071 2.0382
-3.1777 4.9692 2.0382
-3.5674 4.6990 2.0382
-3.9342 4.3984 2.0382
-4.2758 4.0693 2.0382
-4.5900 3.7138 2.0382
-4.8746 3.3341 2.0382
-5.1280 2.9327 2.0382
-5.3484 2.5121 2.0382
-5.5343 2.0751 2.0382
-5.6846 1.6245 2.0382
-5.7982 1.1631 2.0382
-5.8743 0.6940 2.0382
-5.9126 0.2202 2.0382
-5.9126 -0.2552 2.0382
-5.8744 -0.7292 2.0382
-5.7982 -1.1987 2.0382
-5.6844 -1.6607 2.0382
-5.5338 -2.1120 2.0382
-5.3473 -2.5499 2.0382
-5.1262 -2.9714 2.0382
-4.8718 -3.3737 2.0382
-4.5858 -3.7544 2.0382
-4.2701 -4.1108 2.0382
-3.9266 -4.4406 2.0382
-3.5577 -4.7417 2.0382
-3.1657 -5.0122 2.0382
-2.7532 -5.2503 2.0382
-2.3229 -5.4543 2.0382
-0.6794 -2.0347 0.7375
-1.4201 -5.7553 2.0382
-0.9535 -5.8503 2.0382
-0.4808 -5.9074 2.0382
-0.0050 -5.9263 2.0382
0.4706 -5.9068 2.0382
0.9431 -5.8491 2.0382
1.4094 -5.7535 2.0382
0.6759 -2.0357 0.7382
2.3111 -5.4517 2.0382
2.3045 -4.4122 1.7137
2.0163 -3.2040 1.3036
1.7666 -2.3625 1.0161
1.6063 -1.8225 0.8370
1.4935 -1.4424 0.7155
1.4089 -1.1572 0.6285
1.3423 -0.9326 0.5635
1.3852 -0.8058 0.5527
1.5528 -0.7434 0.5939
1.7707 -0.6789 0.6544
2.0399 -0.5992 0.7338
2.3858 -0.4969 0.8414
2.8538 -0.3584 0.9933
5.8946 -0.2627 2.0382
5.8952 0.2115 2.0382
5.8269 0.6805 2.0274
5.6967 1.1350 2.0079
5.5660 1.5829 2.0007
0.6685 -1.8476 0.7387
2.2474 -4.9323 2.0382
2.2823 -4.1004 1.7650
1.9194 -2.8774 1.3012
1.7065 -2.1600 1.0358
1.5650 -1.6833 0.8650
1.4631 -1.3397 0.7468
1.3852 -1.0774 0.6608
1.3231 -0.8681 0.5960
1.4277 -0.7805 0.6130
1.6205 -0.7235 0.6687
1.8533 -0.6546 0.7408
2.1444 -0.5685 0.8364
2.5244 -0.4561 0.9674
3.0492 -0.3008 1.1557
5.4013 -0.0970 2.0382
5.3905 0.3370 2.0382
5.3449 0.7688 2.0382
5.2648 1.1953 2.0382
5.1508 1.6140 2.0382
5.0037 2.0221 2.0382
4.8243 2.4171 2.0382
4.6139 2.7964 2.0382
4.3739 3.1576 2.0382
4.1057 3.4983 2.0382
3.8110 3.8165 2.0382
3.4919 4.1100 2.0382
3.1503 4.3770 2.0382
2.7885 4.6158 2.0382
2.4087 4.8248 2.0382
0.7398 1.8382 0.7489
0.5898 1.8920 0.7490
0.4360 1.9334 0.7490
0.2793 1.9624 0.7490
0.3286 5.3839 2.0382
-0.1049 5.3935 2.0382
-0.1976 1.9724 0.7488
-0.3554 1.9501 0.7487
-0.5108 1.9151 0.7485
-0.6629 1.8677 0.7483
-2.2087 4.9263 2.0382
-2.5978 4.7340 2.0382
-2.9702 4.5110 2.0382
-3.3236 4.2588 2.0382
-3.6558 3.9791 2.0382
-3.9645 3.6735 2.0382
-4.2477 3.3441 2.0382
-4.5036 2.9930 2.0382
-4.7306 2.6223 2.0382
-4.9271 2.2346 2.0382
-5.0919 1.8322 2.0382
-5.2239 1.4178 2.0382
-5.3222 0.9940 2.0382
-5.3861 0.5637 2.0382
-5.4152 0.1294 2.0382
-5.4093 -0.3058 2.0382
-5.3685 -0.7392 2.0382
-5.2929 -1.1680 2.0382
-5.1830 -1.5895 2.0382
-5.0396 -2.0007 2.0382
-4.8635 -2.3992 2.0382
-4.6559 -2.7823 2.0382
-4.4181 -3.1474 2.0382
-4.1516 -3.4923 2.0382
-3.8583 -3.8146 2.0382
-3.5399 -4.1123 2.0382
-3.1986 -4.3834 2.0382
-2.8365 -4.6261 2.0382
-2.4561 -4.8389 2.0382
-0.7459 -1.8181 0.7381
-0.5975 -1.8718 0.7380
-0.4453 -1.9135 0.7380
-0.2902 -1.9429 0.7380
-0.1333 -1.9599 0.7380
0.0244 -1.9642 0.7381
0.1820 -1.9559 0.7382
0.3384 -1.9351 0.7383
0.4927 -1.9018 0.7384
0.6438 -1.8563 0.7386
2.1816 -4.9619 2.0382
2.3692 -4.3930 1.8772
1.9657 -3.0335 1.3598
1.7355 -2.2579 1.0715
1.5851 -1.7511 0.8889
1.4780 -1.3900 0.7638
1.3968 -1.1166 0.6733
1.3325 -0.8999 0.6056
1.3988 -0.7891 0.6050
1.5862 -0.7336 0.6585
1.8114 -0.6670 0.7275
2.0911 -0.5842 0.8185
2.4535 -0.4770 0.9425
2.9486 -0.3306 1.1191
5.3998 -0.1688 2.0382
5.3947 0.2653 2.0382
5.3548 0.6976 2.0382
5.2804 1.1252 2.0382
5.1720 1.5453 2.0382
5.0303 1.9554 2.0382
4.8562 2.3528 2.0382
4.6508 2.7348 2.0382
4.4156 3.0991 2.0382
4.1519 3.4434 2.0382
3.8615 3.7655 2.0382
3.5463 4.0632 2.0382
3.2083 4.3347 2.0382
2.8497 4.5783 2.0382
2.4727 4.7923 2.0382
0.7642 1.8282 0.7489
0.6149 1.8839 0.7490
0.4617 1.9274 0.7490
0.3054 1.9584 0.7490
0.4002 5.3790 2.0382
-0.0331 5.3943 2.0382
-0.1713 1.9748 0.7489
-0.3294 1.9546 0.7487
-0.4853 1.9217 0.7486
-0.6380 1.8764 0.7484
-2.1429 4.9551 2.0382
-2.5345 4.7679 2.0382
-2.9098 4.5500 2.0382
-3.2666 4.3025 2.0382
-3.6024 4.0272 2.0382
-3.9151 3.7258 2.0382
-4.2027 3.4002 2.0382
-4.4632 3.0525 2.0382
-4.6951 2.6849 2.0382
-4.8968 2.2998 2.0382
-5.0669 1.8997 2.0382
-5.2044 1.4871 2.0382
-5.3083 1.0647 2.0382
-5.3779 0.6352 2.0382
-5.4128 0.2015 2.0382
-5.4127 -0.2338 2.0382
-5.3776 -0.6677 2.0382
-5.3078 -1.0975 2.0382
-5.2035 -1.5203 2.0382
-5.0656 -1.9335 2.0382
-4.8948 -2.3342 2.0382
-4.6924 -2.7200 2.0382
-4.4595 -3.0883 2.0382
-4.1976 -3.4367 2.0382
-3.9086 -3.7629 2.0382
-3.5942 -4.0648 2.0382
-3.2566 -4.3404 2.0382
-2.8978 -4.5879 2.0382
-2.5202 -4.8058 2.0382
-0.7700 -1.8080 0.7381
-0.6223 -1.8637 0.7380
-0.4707 -1.9075 0.7380
-0.3160 -1.9389 0.7380
-0.1594 -1.9579 0.7380
-0.0017 -1.9644 0.7380
0.1560 -1.9582 0.7381
0.3127 -1.9394 0.7383
0.4674 -1.9081 0.7384
0.6191 -1.8646 0.7386
0.7669 -1.8091 0.7388
2.5088 -4.8038 2.0382
2.0164 -3.2044 1.4241
1.7666 -2.3628 1.1100
1.6064 -1.8227 0.9143
1.4936 -1.4426 0.7816
1.4089 -1.1573 0.6865
1.3423 -0.9327 0.6156
1.3707 -0.7974 0.5974
1.5529 -0.7435 0.6487
1.7709 -0.6790 0.7148
2.0401 -0.5993 0.8016
2.3861 -0.4970 0.9190
2.8542 -0.3585 1.0850
5.3973 -0.2407 2.0382
5.3979 0.1935 2.0382
5.3638 0.6263 2.0382
5.2951 1.0548 2.0382
5.1923 1.4764 2.0382
0.6156 -1.7015 0.7391
0.7503 -1.6468 0.7393
2.4259 -4.3587 2.0382
1.9195 -2.8778 1.4137
1.7066 -2.1603 1.1253
1.5651 -1.6835 0.9398
1.4631 -1.3398 0.8113
1.3853 -1.0775 0.7179
1.3231 -0.8682 0.6475
1.4278 -0.7806 0.6659
1.6206 -0.7236 0.7265
1.8535 -0.6547 0.8048
2.1446 -0.5686 0.9086
2.5247 -0.4562 1.0509
3.0497 -0.3010 1.2555
4.9728 -0.0894 2.0382
4.9629 0.3102 2.0382
4.9210 0.7077 2.0382
4.8473 1.1004 2.0382
4.7424 1.4859 2.0382
4.6070 1.8617 2.0382
4.4419 2.2254 2.0382
4.2483 2.5747 2.0382
4.0272 2.9073 2.0382
3.7803 3.2210 2.0382
3.5091 3.5140 2.0382
3.2152 3.7843 2.0382
2.9007 4.0301 2.0382
2.5675 4.2500 2.0382
2.2178 4.4425 2.0382
0.6808 1.6916 0.7485
0.5428 1.7410 0.7486
0.4012 1.7792 0.7486
0.2570 1.8058 0.7486
0.1111 1.8207 0.7486
-0.0355 1.8238 0.7485
-0.1819 1.8150 0.7484
-0.3271 1.7945 0.7483
-0.4701 1.7623 0.7481
-0.6101 1.7187 0.7479
-0.7461 1.6639 0.7477
-2.3919 4.3584 2.0382
-2.7347 4.1531 2.0382
-3.0601 3.9209 2.0382
-3.3658 3.6632 2.0382
-3.6499 3.3819 2.0382
-3.9106 3.0785 2.0382
-4.1462 2.7552 2.0382
-4.3551 2.4139 2.0382
-4.5359 2.0569 2.0382
-4.6875 1.6865 2.0382
-4.8089 1.3050 2.0382
-4.8993 0.9149 2.0382
-4.9581 0.5187 2.0382
-4.9848 0.1190 2.0382
-4.9793 -0.2816 2.0382
-4.9416 -0.6806 2.0382
-4.8720 -1.0753 2.0382
-4.7708 -1.4632 2.0382
-4.6387 -1.8417 2.0382
-4.4766 -2.2085 2.0382
-4.2854 -2.5610 2.0382
-4.0665 -2.8971 2.0382
-3.8213 -3.2144 2.0382
-3.5512 -3.5111 2.0382
-3.2582 -3.7851 2.0382
-2.9440 -4.0346 2.0382
-2.6108 -4.2580 2.0382
-2.2606 -4.4538 2.0382
-0.6869 -1.6744 0.7385
-0.5503 -1.7239 0.7385
-0.4101 -1.7623 0.7384
-0.2673 -1.7894 0.7384
-0.1228 -1.8050 0.7384
0.0225 -1.8090 0.7385
0.1676 -1.8013 0.7386
0.3117 -1.7821 0.7387
0.4537 -1.7515 0.7388
0.5929 -1.7095 0.7390
0.7283 -1.6566 0.7392
2.3678 -4.3907 2.0382
1.9658 -3.0339 1.4774
1.7356 -2.2581 1.1641
1.5852 -1.7512 0.9657
1.4780 -1.3901 0.8297
1.3969 -1.1167 0.7315
1.3326 -0.9000 0.6579
1.3989 -0.7892 0.6573
1.5863 -0.7337 0.7154
1.8115 -0.6671 0.7903
2.0913 -0.5844 0.8892
2.4537 -0.4772 1.0239
2.9490 -0.3307 1.2158
4.9714 -0.1556 2.0382
4.9668 0.2441 2.0382
4.9301 0.6421 2.0382
4.8617 1.0358 2.0382
4.7619 1.4227 2.0382
4.6315 1.8003 2.0382
4.4713 2.1662 2.0382
4.2822 2.5179 2.0382
4.0657 2.8534 2.0382
3.8229 3.1705 2.0382
3.5556 3.4670 2.0382
3.2653 3.7412 2.0382
2.9541 3.9912 2.0382
2.6239 4.2155 2.0382
2.2767 4.4126 2.0382
0.7032 1.6823 0.7485
0.5659 1.7336 0.7485
0.4248 1.7736 0.7486
0.2810 1.8022 0.7486
0.1353 1.8190 0.7486
-0.0112 1.8241 0.7485
-0.1577 1.8173 0.7484
-0.3032 1.7987 0.7483
-0.4466 1.7684 0.7482
-0.5872 1.7267 0.7480
-0.7239 1.6738 0.7478
-2.3336 4.3897 2.0382
-2.6791 4.1890 2.0382
-3.0075 3.9611 2.0382
-3.3166 3.7076 2.0382
-3.6045 3.4300 2.0382
-3.8692 3.1302 2.0382
-4.1090 2.8100 2.0382
-4.3224 2.4716 2.0382
-4.5080 2.1170 2.0382
-4.6645 1.7486 2.0382
-4.7909 1.3687 2.0382
-4.8865 0.9799 2.0382
-4.9506 0.5846 2.0382
-4.9826 0.1853 2.0382
-4.9825 -0.2154 2.0382
-4.9501 -0.6148 2.0382
-4.8857 -1.0104 2.0382
-4.7897 -1.3995 2.0382
-4.6627 -1.7798 2.0382
-4.5054 -2.1487 2.0382
-4.3190 -2.5037 2.0382
-4.1046 -2.8427 2.0382
-3.8636 -3.1633 2.0382
-3.5976 -3.4635 2.0382
-3.3082 -3.7414 2.0382
-2.9974 -3.9950 2.0382
-2.6671 -4.2229 2.0382
-2.3196 -4.4234 2.0382
-0.7092 -1.6651 0.7385
-0.5732 -1.7164 0.7385
-0.4335 -1.7567 0.7384
-0.2911 -1.7857 0.7384
-0.1468 -1.8032 0.7384
-0.0016 -1.8091 0.7385
0.1436 -1.8034 0.7386
0.2879 -1.7861 0.7387
0.4304 -1.7573 0.7388
0.5701 -1.7172 0.7390
0.7062 -1.6661 0.7392
2.3092 -4.4219 2.0382
2.0165 -3.2048 1.5473
1.7667 -2.3630 1.2060
1.6064 -1.8229 0.9933
1.4936 -1.4427 0.8492
1.4090 -1.1574 0.7458
1.3423 -0.9328 0.6687
1.3708 -0.7975 0.6489
1.5530 -0.7436 0.7047
1.7710 -0.6791 0.7765
2.0403 -0.5995 0.8708
2.3863 -0.4971 0.9984
2.8546 -0.3587 1.1786
4.9690 -0.2217 2.0382
4.9697 0.1780 2.0382
4.9384 0.5764 2.0382
4.8752 0.9710 2.0382
4.7806 1.3592 2.0382
0.5695 -1.5742 0.7394
0.6941 -1.5236 0.7396
2.2433 -4.0308 2.0382
1.9196 -2.8781 1.5288
1.7066 -2.1605 1.2170
1.5651 -1.6836 1.0163
1.4631 -1.3400 0.8773
1.3853 -1.0776 0.7762
1.3232 -0.8683 0.7001
1.4279 -0.7807 0.7201
1.6207 -0.7237 0.7856
1.8536 -0.6548 0.8703
2.1448 -0.5687 0.9825
2.5250 -0.4563 1.1364
3.0501 -0.3011 1.3577
4.5994 -0.0828 2.0382
4.5903 0.2868 2.0382
4.5516 0.6544 2.0382
4.4835 1.0177 2.0382
4.3865 1.3743 2.0382
4.2613 1.7219 2.0382
4.1087 2.0583 2.0382
3.9295 2.3814 2.0382
3.7251 2.6891 2.0382
3.4967 2.9793 2.0382
3.2459 3.2504 2.0382
2.9741 3.5004 2.0382
2.6831 3.7278 2.0382
2.3749 3.9312 2.0382
0.7529 1.5081 0.7480
0.6294 1.5639 0.7481
0.5018 1.6096 0.7482
0.3709 1.6449 0.7482
0.2376 1.6695 0.7482
0.1027 1.6832 0.7482
-0.0328 1.6861 0.7481
-0.1682 1.6780 0.7480
-0.3024 1.6590 0.7479
-0.4347 1.6293 0.7478
-0.5641 1.5890 0.7476
-0.6898 1.5384 0.7474
-2.2124 4.0312 2.0382
-2.5295 3.8412 2.0382
-2.8304 3.6263 2.0382
-3.1131 3.3880 2.0382
-3.3759 3.1277 2.0382
-3.6170 2.8471 2.0382
-3.8348 2.5481 2.0382
-4.0279 2.2324 2.0382
-4.1951 1.9022 2.0382
-4.3352 1.5596 2.0382
-4.4474 1.2067 2.0382
-4.5310 0.8459 2.0382
-4.5852 0.4795 2.0382
-4.6099 0.1099 2.0382
-4.6047 -0.2606 2.0382
-4.5698 -0.6295 2.0382
-4.5054 -0.9945 2.0382
-4.4117 -1.3532 2.0382
-4.2895 -1.7032 2.0382
-4.1396 -2.0423 2.0382
-3.9628 -2.3683 2.0382
-3.7604 -2.6791 2.0382
-3.5335 -2.9725 2.0382
-3.2838 -3.2468 2.0382
-3.0128 -3.5001 2.0382
-2.7223 -3.7308 2.0382
-2.4142 -3.9374 2.0382
-0.7579 -1.4933 0.7390
-0.6355 -1.5491 0.7389
-0.5091 -1.5949 0.7388
-0.3794 -1.6304 0.7388
-0.2473 -1.6555 0.7388
-0.1136 -1.6699 0.7388
0.0208 -1.6736 0.7389
0.1550 -1.6666 0.7389
0.2883 -1.6488 0.7391
0.4197 -1.6204 0.7392
0.5485 -1.5816 0.7394
0.6738 -1.5326 0.7396
2.1895 -4.0604 2.0382
1.9659 -3.0343 1.5977
1.7357 -2.2584 1.2589
1.5852 -1.7514 1.0443
1.4781 -1.3902 0.8972
1.3969 -1.1168 0.7910
1.3326 -0.9001 0.7114
1.3990 -0.7893 0.7108
1.5864 -0.7339 0.7736
1.8117 -0.6672 0.8546
2.0915 -0.5845 0.9615
2.4540 -0.4773 1.1072
2.9494 -0.3309 1.3147
4.5981 -0.1440 2.0382
4.5938 0.2257 2.0382
4.5600 0.5938 2.0382
4.4968 0.9579 2.0382
4.4046 1.3158 2.0382
4.2840 1.6651 2.0382
4.1358 2.0035 2.0382
3.9610 2.3290 2.0382
3.7607 2.6393 2.0382
3.5361 2.9326 2.0382
3.2889 3.2069 2.0382
3.0204 3.4605 2.0382
2.7325 3.6918 2.0382
2.4271 3.8993 2.0382
0.7729 1.4979 0.7480
0.6501 1.5554 0.7481
0.5231 1.6027 0.7482
0.3927 1.6398 0.7482
0.2598 1.6661 0.7482
0.1251 1.6817 0.7482
-0.0104 1.6863 0.7481
-0.1458 1.6801 0.7481
-0.2803 1.6629 0.7479
-0.4130 1.6349 0.7478
-0.5429 1.5964 0.7476
-0.6693 1.5474 0.7474
-2.1585 4.0601 2.0382
-2.4781 3.8744 2.0382
-2.7818 3.6636 2.0382
-3.0677 3.4290 2.0382
-3.3339 3.1723 2.0382
-3.5786 2.8949 2.0382
-3.8004 2.5988 2.0382
-3.9977 2.2857 2.0382
-4.1692 1.9578 2.0382
-4.3139 1.6171 2.0382
-4.4308 1.2657 2.0382
-4.5191 0.9061 2.0382
-4.5783 0.5405 2.0382
-4.6079 0.1712 2.0382
-4.6076 -0.1993 2.0382
-4.5777 -0.5686 2.0382
-4.5181 -0.9345 2.0382
-4.4292 -1.2943 2.0382
-4.3117 -1.6460 2.0382
-4.1663 -1.9870 2.0382
-3.9939 -2.3153 2.0382
-3.7956 -2.6287 2.0382
-3.5727 -2.9252 2.0382
-3.3267 -3.2028 2.0382
-3.0591 -3.4597 2.0382
-2.7717 -3.6942 2.0382
-2.4663 -3.9049 2.0382
-0.7777 -1.4831 0.7390
-0.6561 -1.5405 0.7389
-0.5303 -1.5880 0.7388
-0.4011 -1.6253 0.7388
-0.2693 -1.6521 0.7388
-0.1358 -1.6683 0.7388
-0.0015 -1.6738 0.7388
0.1329 -1.6685 0.7389
0.2664 -1.6525 0.7390
0.3982 -1.6258 0.7392
0.5274 -1.5887 0.7393
0.6533 -1.5414 0.7395
0.7750 -1.4842 0.7397
2.0167 -3.2052 1.6734
1.7668 -2.3633 1.3042
1.6065 -1.8231 1.0742
1.4937 -1.4429 0.9183
1.4090 -1.1575 0.8065
1.3423 -0.9329 0.7231
1.3709 -0.7976 0.7017
1.5531 -0.7437 0.7621
1.7712 -0.6792 0.8397
2.0404 -0.5996 0.9416
2.3866 -0.4973 1.0796
2.8550 -0.3588 1.2745
4.5959 -0.2052 2.0382
4.5966 0.1645 2.0382
4.5677 0.5331 2.0382
4.5093 0.8980 2.0382
4.4218 1.2571 2.0382
0.5289 -1.4620 0.7397
0.6446 -1.4150 0.7399
0.7562 -1.3588 0.7401
1.9197 -2.8785 1.6469
1.7067 -2.1607 1.3109
1.5652 -1.6838 1.0947
1.4632 -1.3401 0.9450
1.3853 -1.0777 0.8361
1.3232 -0.8684 0.7541
1.4280 -0.7809 0.7757
1.6209 -0.7238 0.8462
1.8538 -0.6550 0.9374
2.1451 -0.5689 1.0583
2.5253 -0.4565 1.2240
3.0505 -0.3013 1.4624
4.2706 -0.0771 2.0382
4.2622 0.2661 2.0382
4.2263 0.6075 2.0382
4.1631 0.9448 2.0382
4.0731 1.2760 2.0382
3.9569 1.5988 2.0382
3.8152 1.9112 2.0382
3.6489 2.2112 2.0382
3.4591 2.4969 2.0382
3.2470 2.7665 2.0382
3.0141 3.0182 2.0382
2.7617 3.2504 2.0382
2.4915 3.4616 2.0382
2.2054 3.6504 2.0382
0.6988 1.3998 0.7477
0.5842 1.4516 0.7478
0.4657 1.4940 0.7478
0.3442 1.5267 0.7479
0.2205 1.5495 0.7479
0.0953 1.5623 0.7478
-0.0305 1.5649 0.7478
-0.1561 1.5574 0.7477
-0.2807 1.5398 0.7476
-0.4035 1.5122 0.7475
-0.5236 1.4748 0.7473
-0.6403 1.4279 0.7471
-0.7529 1.3717 0.7469
-2.3488 3.5666 2.0382
-2.6282 3.3670 2.0382
-2.8907 3.1457 2.0382
-3.1346 2.9040 2.0382
-3.3584 2.6434 2.0382
-3.5606 2.3657 2.0382
-3.7398 2.0726 2.0382
-3.8950 1.7660 2.0382
-4.0251 1.4478 2.0382
-4.1292 1.1202 2.0382
-4.2067 0.7852 2.0382
-4.2570 0.4451 2.0382
-4.2799 0.1019 2.0382
-4.2751 -0.2420 2.0382
-4.2426 -0.5846 2.0382
-4.1827 -0.9234 2.0382
-4.0957 -1.2564 2.0382
-3.9823 -1.5813 2.0382
-3.8430 -1.8961 2.0382
-3.6789 -2.1987 2.0382
-3.4909 -2.4871 2.0382
-3.2803 -2.7596 2.0382
-3.0485 -3.0142 2.0382
-2.7969 -3.2493 2.0382
-2.5272 -3.4635 2.0382
-2.2412 -3.6552 2.0382
-0.7039 -1.3869 0.7393
-0.5903 -1.4387 0.7392
-0.4728 -1.4813 0.7392
-0.3524 -1.5143 0.7391
-0.2297 -1.5376 0.7391
-0.1056 -1.5510 0.7391
0.0193 -1.5544 0.7392
0.1440 -1.5479 0.7393
0.2677 -1.5313 0.7394
0.3898 -1.5050 0.7395
0.5094 -1.4689 0.7397
0.6257 -1.4234 0.7398
0.7380 -1.3687 0.7400
1.9661 -3.0347 1.7211
1.7358 -2.2587 1.3561
1.5853 -1.7516 1.1249
1.4781 -1.3904 0.9665
1.3970 -1.1169 0.8520
1.3326 -0.9002 0.7662
1.3991 -0.7894 0.7656
1.5865 -0.7340 0.8333
1.8118 -0.6674 0.9206
2.0917 -0.5846 1.0357
2.4543 -0.4775 1.1926
2.9499 -0.3310 1.4161
4.2693 -0.1339 2.0382
4.2655 0.2094 2.0382
4.2341 0.5512 2.0382
4.1755 0.8894 2.0382
4.0899 1.2217 2.0382
3.9779 1.5460 2.0382
3.8404 1.8603 2.0382
3.6781 2.1625 2.0382
3.4921 2.4507 2.0382
3.2836 2.7231 2.0382
3.0540 2.9778 2.0382
2.8047 3.2133 2.0382
2.5374 3.4281 2.0382
2.2537 3.6208 2.0382
0.7174 1.3903 0.7477
0.6034 1.4436 0.7478
0.4856 1.4876 0.7478
0.3645 1.5220 0.7479
0.2411 1.5464 0.7479
0.1161 1.5609 0.7479
-0.0097 1.5652 0.7478
-0.1354 1.5594 0.7477
-0.2602 1.5434 0.7476
-0.3833 1.5175 0.7475
-0.5039 1.4817 0.7473
-0.6213 1.4363 0.7472
-0.7346 1.3816 0.7470
-2.3011 3.5974 2.0382
-2.5831 3.4016 2.0382
-2.8485 3.1838 2.0382
-3.0956 2.9453 2.0382
-3.3228 2.6878 2.0382
-3.5286 2.4128 2.0382
-3.7118 2.1221 2.0382
-3.8710 1.8176 2.0382
-4.0053 1.5012 2.0382
-4.1138 1.1750 2.0382
-4.1957 0.8411 2.0382
-4.2506 0.5016 2.0382
-4.2780 0.1588 2.0382
-4.2777 -0.1852 2.0382
-4.2499 -0.5281 2.0382
-4.1945 -0.8677 2.0382
-4.1120 -1.2017 2.0382
-4.0028 -1.5282 2.0382
-3.8678 -1.8448 2.0382
-3.7077 -2.1495 2.0382
-3.5236 -2.4405 2.0382
-3.3167 -2.7157 2.0382
-3.0883 -2.9733 2.0382
-2.8398 -3.2118 2.0382
-2.5730 -3.4295 2.0382
-2.2896 -3.6251 2.0382
-0.7223 -1.3774 0.7393
-0.6094 -1.4307 0.7392
-0.4925 -1.4749 0.7392
-0.3725 -1.5095 0.7391
-0.2501 -1.5344 0.7391
-0.1262 -1.5495 0.7391
-0.0014 -1.5545 0.7392
0.1234 -1.5496 0.7393
0.2473 -1.5348 0.7393
0.3698 -1.5100 0.7395
0.4898 -1.4756 0.7396
0.6067 -1.4316 0.7398
0.7197 -1.3784 0.7400
2.0168 -3.2056 1.8026
1.7669 -2.3636 1.4049
1.6066 -1.8233 1.1571
1.4937 -1.4430 0.9891
1.4090 -1.1576 0.8687
1.3424 -0.9330 0.7789
1.3709 -0.7977 0.7559
1.5532 -0.7438 0.8209
1.7713 -0.6794 0.9045
2.0406 -0.5997 1.0142
2.3869 -0.4974 1.1629
2.8553 -0.3589 1.3729
4.2673 -0.1907 2.0382
4.2680 0.1526 2.0382
4.2412 0.4948 2.0382
4.1870 0.8337 2.0382
4.1059 1.1672 2.0382
0.4928 -1.3623 0.7399
0.6006 -1.3185 0.7401
0.7046 -1.2662 0.7403
1.9198 -2.8789 1.7682
1.7068 -2.1610 1.4074
1.5652 -1.6840 1.1753
1.4632 -1.3402 1.0146
1.3854 -1.0778 0.8976
1.3232 -0.8685 0.8096
1.4281 -0.7810 0.8328
1.6210 -0.7240 0.9084
1.8540 -0.6551 1.0064
2.1453 -0.5690 1.1362
2.5256 -0.4566 1.3141
3.0510 -0.3014 1.5701
3.9785 -0.0719 2.0382
3.9707 0.2478 2.0382
3.9373 0.5658 2.0382
3.8785 0.8801 2.0382
3.7946 1.1886 2.0382
3.6864 1.4894 2.0382
3.5544 1.7805 2.0382
3.3995 2.0600 2.0382
3.2227 2.3262 2.0382
3.0251 2.5773 2.0382
2.8081 2.8118 2.0382
2.5730 3.0282 2.0382
2.3213 3.2250 2.0382
0.7533 1.2469 0.7473
0.6508 1.3036 0.7474
0.5440 1.3518 0.7475
0.4337 1.3913 0.7475
0.3206 1.4218 0.7476
0.2053 1.4430 0.7476
0.0887 1.4549 0.7475
-0.0284 1.4574 0.7475
-0.1454 1.4504 0.7474
-0.2615 1.4340 0.7473
-0.3758 1.4083 0.7472
-0.4877 1.3735 0.7471
-0.5964 1.3298 0.7469
-0.7012 1.2774 0.7467
-2.1883 3.3225 2.0382
-2.4485 3.1366 2.0382
-2.6930 2.9304 2.0382
-2.9202 2.7052 2.0382
-3.1286 2.4624 2.0382
-3.3170 2.2037 2.0382
-3.4839 1.9306 2.0382
-3.6284 1.6449 2.0382
-3.7496 1.3486 2.0382
-3.8465 1.0434 2.0382
-3.9186 0.7313 2.0382
-3.9655 0.4145 2.0382
-3.9867 0.0948 2.0382
-3.9822 -0.2256 2.0382
-3.9519 -0.5446 2.0382
-3.8961 -0.8601 2.0382
-3.8151 -1.1703 2.0382
-3.7093 -1.4730 2.0382
-3.5796 -1.7662 2.0382
-3.4267 -2.0481 2.0382
-3.2516 -2.3167 2.0382
-3.0554 -2.5704 2.0382
-2.8395 -2.8076 2.0382
-2.6051 -3.0266 2.0382
-2.3539 -3.2260 2.0382
-0.7576 -1.2356 0.7397
-0.6559 -1.2923 0.7396
-0.5500 -1.3406 0.7395
-0.4406 -1.3802 0.7395
-0.3284 -1.4110 0.7394
-0.2141 -1.4328 0.7394
-0.0984 -1.4452 0.7394
0.0179 -1.4484 0.7395
0.1341 -1.4423 0.7396
0.2495 -1.4269 0.7396
0.3632 -1.4024 0.7398
0.4746 -1.3688 0.7399
0.5830 -1.3263 0.7401
0.6876 -1.2754 0.7403
2.1686 -3.3476 2.0382
1.7359 -2.2589 1.4560
1.5854 -1.7518 1.2077
1.4782 -1.3905 1.0376
1.3970 -1.1170 0.9147
1.3327 -0.9002 0.8226
1.3992 -0.7895 0.8219
1.5867 -0.7341 0.8946
1.8120 -0.6675 0.9883
2.0920 -0.5848 1.1119
2.4546 -0.4776 1.2803
2.9503 -0.3312 1.5204
3.9773 -0.1249 2.0382
3.9737 0.1950 2.0382
3.9445 0.5134 2.0382
3.8899 0.8284 2.0382
3.8102 1.1380 2.0382
3.7060 1.4402 2.0382
3.5778 1.7330 2.0382
3.4266 2.0146 2.0382
3.2534 2.2831 2.0382
3.0592 2.5369 2.0382
2.8453 2.7742 2.0382
2.6131 2.9937 2.0382
2.3640 3.1938 2.0382
0.7698 1.2368 0.7473
0.6681 1.2948 0.7474
0.5620 1.3444 0.7475
0.4522 1.3854 0.7475
0.3394 1.4174 0.7476
0.2245 1.4401 0.7476
0.1081 1.4536 0.7476
-0.0090 1.4576 0.7475
-0.1261 1.4522 0.7474
-0.2424 1.4373 0.7473
-0.3570 1.4132 0.7472
-0.4694 1.3799 0.7471
-0.5786 1.3376 0.7469
-0.6841 1.2867 0.7467
-2.1438 3.3513 2.0382
-2.4065 3.1688 2.0382
-2.6537 2.9659 2.0382
-2.8839 2.7437 2.0382
-3.0955 2.5037 2.0382
-3.2872 2.2475 2.0382
-3.4578 1.9767 2.0382
-3.6061 1.6930 2.0382
-3.7312 1.3983 2.0382
-3.8322 1.0944 2.0382
-3.9084 0.7834 2.0382
-3.9595 0.4672 2.0382
-3.9850 0.1478 2.0382
-3.9847 -0.1726 2.0382
-3.9587 -0.4920 2.0382
-3.9071 -0.8082 2.0382
-3.8302 -1.1194 2.0382
-3.7285 -1.4234 2.0382
-3.6027 -1.7184 2.0382
-3.4535 -2.0023 2.0382
-3.2820 -2.2732 2.0382
-3.0893 -2.5295 2.0382
-2.8765 -2.7695 2.0382
-2.6451 -2.9916 2.0382
-2.3966 -3.1944 2.0382
-0.7740 -1.2255 0.7397
-0.6730 -1.2835 0.7396
-0.5678 -1.3332 0.7395
-0.4589 -1.3743 0.7395
-0.3471 -1.4066 0.7394
-0.2331 -1.4298 0.7394
-0.1176 -1.4438 0.7394
-0.0013 -1.4486 0.7395
0.1149 -1.4440 0.7395
0.2305 -1.4301 0.7396
0.3445 -1.4071 0.7397
0.4564 -1.3749 0.7399
0.5653 -1.3340 0.7401
0.6706 -1.2844 0.7402
0.7716 -1.2266 0.7404
1.7670 -2.3639 1.5083
1.6066 -1.8235 1.2423
1.4938 -1.4431 1.0619
1.4091 -1.1577 0.9326
1.3424 -0.9331 0.8362
1.3710 -0.7979 0.8115
1.5534 -0.7440 0.8813
1.7715 -0.6795 0.9710
2.0408 -0.5999 1.0889
2.3871 -0.4975 1.2485
2.8558 -0.3591 1.4739
3.9754 -0.1778 2.0382
3.9761 0.1421 2.0382
3.9511 0.4609 2.0382
3.9007 0.7766 2.0382
3.8251 1.0873 2.0382
0.4604 -1.2730 0.7402
0.5612 -1.2320 0.7403
0.6583 -1.1831 0.7405
0.7512 -1.1266 0.7407
1.7069 -2.1612 1.5068
1.5653 -1.6842 1.2582
1.4633 -1.3404 1.0861
1.3854 -1.0779 0.9609
1.3233 -0.8686 0.8667
1.4282 -0.7811 0.8915
1.6211 -0.7241 0.9725
1.8541 -0.6552 1.0774
2.1455 -0.5691 1.2164
2.5259 -0.4568 1.4069
3.0515 -0.3016 1.6809
3.7168 -0.0673 2.0382
3.7095 0.2314 2.0382
3.6783 0.5285 2.0382
3.6234 0.8221 2.0382
3.5452 1.1104 2.0382
3.4440 1.3914 2.0382
3.3207 1.6633 2.0382
3.1760 1.9245 2.0382
3.0108 2.1732 2.0382
2.8263 2.4079 2.0382
2.6235 2.6270 2.0382
2.4039 2.8291 2.0382
2.1687 3.0130 2.0382
0.7036 1.1646 0.7470
0.6078 1.2175 0.7471
0.5081 1.2625 0.7472
0.4050 1.2994 0.7473
0.2994 1.3278 0.7473
0.1917 1.3477 0.7473
0.0828 1.3588 0.7473
-0.0266 1.3611 0.7472
-0.1358 1.3546 0.7472
-0.2442 1.3392 0.7471
-0.3510 1.3153 0.7470
-0.4555 1.2827 0.7468
-0.5570 1.2419 0.7467
-0.6549 1.1931 0.7465
-0.7486 1.1365 0.7463
-2.2875 2.9302 2.0382
-2.5159 2.7375 2.0382
-2.7282 2.5271 2.0382
-2.9229 2.3003 2.0382
-3.0988 2.0585 2.0382
-3.2547 1.8034 2.0382
-3.3897 1.5366 2.0382
-3.5028 1.2597 2.0382
-3.5933 0.9746 2.0382
-3.6606 0.6831 2.0382
-3.7044 0.3870 2.0382
-3.7242 0.0884 2.0382
-3.7199 -0.2109 2.0382
-3.6916 -0.5089 2.0382
-3.6394 -0.8037 2.0382
-3.5637 -1.0934 2.0382
-3.4649 -1.3761 2.0382
-3.3437 -1.6499 2.0382
-3.2008 -1.9132 2.0382
-3.0373 -2.1641 2.0382
-2.8540 -2.4011 2.0382
-2.6523 -2.6226 2.0382
-2.4334 -2.8271 2.0382
-2.1988 -3.0134 2.0382
-0.7079 -1.1546 0.7400
-0.6129 -1.2075 0.7399
-0.5139 -1.2527 0.7398
-0.4117 -1.2897 0.7397
-0.3069 -1.3185 0.7397
-0.2000 -1.3388 0.7397
-0.0920 -1.3505 0.7397
0.0167 -1.3535 0.7397
0.1253 -1.3478 0.7398
0.2331 -1.3334 0.7399
0.3393 -1.3104 0.7400
0.4434 -1.2790 0.7401
0.5447 -1.2394 0.7403
0.6425 -1.1917 0.7405
0.7362 -1.1364 0.7407
1.7359 -2.2592 1.5588
1.5854 -1.7520 1.2930
1.4782 -1.3907 1.1108
1.3970 -1.1171 0.9792
1.3327 -0.9003 0.8806
1.3993 -0.7897 0.8799
1.5868 -0.7342 0.9577
1.8121 -0.6676 1.0580
2.0922 -0.5849 1.1904
2.4549 -0.4778 1.3707
2.9507 -0.3313 1.6277
3.7156 -0.1168 2.0382
3.7124 0.1820 2.0382
3.6851 0.4795 2.0382
3.6341 0.7738 2.0382
3.5597 1.0631 2.0382
3.4623 1.3454 2.0382
3.3426 1.6190 2.0382
3.2014 1.8821 2.0382
3.0395 2.1330 2.0382
2.8581 2.3701 2.0382
2.6583 2.5918 2.0382
2.4413 2.7969 2.0382
2.2086 2.9838 2.0382
0.7190 1.1551 0.7470
0.6239 1.2093 0.7471
0.5248 1.2556 0.7472
0.4223 1.2939 0.7473
0.3170 1.3237 0.7473
0.2097 1.3450 0.7473
0.1009 1.3576 0.7473
-0.0085 1.3613 0.7472
-0.1178 1.3562 0.7472
-0.2264 1.3424 0.7471
-0.3335 1.3198 0.7470
-0.4384 1.2887 0.7468
-0.5405 1.2492 0.7467
-0.6390 1.2017 0.7465
-0.7334 1.1464 0.7463
-2.2483 2.9603 2.0382
-2.4792 2.7707 2.0382
-2.6942 2.5631 2.0382
-2.8919 2.3389 2.0382
-3.0710 2.0995 2.0382
-3.2303 1.8465 2.0382
-3.3688 1.5815 2.0382
-3.4856 1.3061 2.0382
-3.5799 1.0222 2.0382
-3.6511 0.7317 2.0382
-3.6988 0.4363 2.0382
-3.7225 0.1380 2.0382
-3.7223 -0.1613 2.0382
-3.6979 -0.4597 2.0382
-3.6497 -0.7552 2.0382
-3.5778 -1.0458 2.0382
-3.4828 -1.3298 2.0382
-3.3653 -1.6053 2.0382
-3.2259 -1.8704 2.0382
-3.0657 -2.1235 2.0382
-2.8857 -2.3629 2.0382
-2.6869 -2.5871 2.0382
-2.4708 -2.7945 2.0382
-2.2386 -2.9839 2.0382
-0.7232 -1.1451 0.7400
-0.6289 -1.1993 0.7399
-0.5306 -1.2457 0.7398
-0.4288 -1.2842 0.7397
-0.3244 -1.3143 0.7397
-0.2178 -1.3360 0.7397
-0.1099 -1.3492 0.7397
-0.0013 -1.3536 0.7397
0.1074 -1.3493 0.7398
0.2153 -1.3363 0.7399
0.3219 -1.3148 0.7400
0.4264 -1.2848 0.7401
0.5282 -1.2465 0.7403
0.6266 -1.2002 0.7405
0.7210 -1.1461 0.7406
1.7671 -2.3642 1.6148
1.6067 -1.8237 1.3300
1.4938 -1.4433 1.1368
1.4091 -1.1579 0.9984
1.3424 -0.9332 0.8951
1.3711 -0.7980 0.8688
1.5535 -0.7441 0.9435
1.7716 -0.6796 1.0395
2.0411 -0.6000 1.1657
2.3874 -0.4977 1.3366
2.8562 -0.3593 1.5779
3.7139 -0.1662 2.0382
3.7146 0.1326 2.0382
3.6913 0.4304 2.0382
3.6442 0.7254 2.0382
3.5736 1.0157 2.0382
0.4312 -1.1924 0.7404
0.5256 -1.1540 0.7405
0.6165 -1.1081 0.7407
0.7036 -1.0552 0.7409
1.7070 -2.1615 1.6093
1.5654 -1.6844 1.3438
1.4633 -1.3405 1.1600
1.3854 -1.0780 1.0263
1.3233 -0.8687 0.9256
1.4283 -0.7812 0.9521
1.6212 -0.7242 1.0387
1.8543 -0.6554 1.1506
2.1458 -0.5693 1.2991
2.5262 -0.4569 1.5025
3.0520 -0.3017 1.7953
3.4806 -0.0632 2.0382
3.4739 0.2166 2.0382
3.4447 0.4948 2.0382
3.3933 0.7698 2.0382
3.3200 1.0397 2.0382
3.2253 1.3029 2.0382
3.1099 1.5576 2.0382
2.9744 1.8022 2.0382
2.8197 2.0352 2.0382
2.6469 2.2550 2.0382
2.4570 2.4601 2.0382
2.2513 2.6495 2.0382
0.7441 1.0337 0.7467
0.6587 1.0903 0.7468
0.5690 1.1398 0.7469
0.4757 1.1820 0.7470
0.3792 1.2165 0.7470
0.2803 1.2431 0.7471
0.1795 1.2617 0.7471
0.0775 1.2721 0.7470
-0.0249 1.2742 0.7470
-0.1272 1.2681 0.7469
-0.2287 1.2538 0.7468
-0.3286 1.2314 0.7467
-0.4265 1.2009 0.7466
-0.5215 1.1627 0.7465
-0.6132 1.1170 0.7463
-0.7009 1.0640 0.7461
-2.1423 2.7440 2.0382
-2.3562 2.5635 2.0382
-2.5549 2.3664 2.0382
-2.7372 2.1540 2.0382
-2.9019 1.9276 2.0382
-3.0479 1.6887 2.0382
-3.1742 1.4388 2.0382
-3.2801 1.1795 2.0382
-3.3649 0.9125 2.0382
-3.4279 0.6395 2.0382
-3.4688 0.3623 2.0382
-3.4873 0.0827 2.0382
-3.4833 -0.1976 2.0382
-3.4567 -0.4766 2.0382
-3.4079 -0.7526 2.0382
-3.3369 -1.0239 2.0382
-3.2444 -1.2886 2.0382
-3.1309 -1.5450 2.0382
-2.9971 -1.7915 2.0382
-2.8440 -2.0265 2.0382
-2.6724 -2.2483 2.0382
-2.4835 -2.4557 2.0382
-2.2785 -2.6472 2.0382
-0.7478 -1.0249 0.7403
-0.6631 -1.0814 0.7402
-0.5741 -1.1310 0.7401
-0.4814 -1.1733 0.7400
-0.3857 -1.2080 0.7400
-0.2874 -1.2350 0.7399
-0.1874 -1.2540 0.7399
-0.0862 -1.2650 0.7399
0.0156 -1.2678 0.7400
0.1173 -1.2624 0.7400
0.2183 -1.2489 0.7401
0.3178 -1.2274 0.7402
0.4153 -1.1980 0.7404
0.5102 -1.1608 0.7405
0.6017 -1.1162 0.7407
0.6895 -1.0644 0.7409
0.7728 -1.0057 0.7411
1.5855 -1.7522 1.3809
1.4783 -1.3908 1.1863
1.3971 -1.1172 1.0458
1.3327 -0.9004 0.9404
1.3994 -0.7898 0.9397
1.5869 -0.7344 1.0228
1.8123 -0.6678 1.1300
2.0924 -0.5851 1.2713
2.4552 -0.4779 1.4639
2.9512 -0.3315 1.7384
3.4796 -0.1095 2.0382
3.4765 0.1703 2.0382
3.4511 0.4490 2.0382
3.4033 0.7246 2.0382
3.3336 0.9955 2.0382
3.2425 1.2599 2.0382
3.1304 1.5161 2.0382
2.9981 1.7625 2.0382
2.8466 1.9975 2.0382
2.6767 2.2195 2.0382
2.4895 2.4272 2.0382
2.2863 2.6193 2.0382
0.7578 1.0237 0.7467
0.6731 1.0814 0.7468
0.5842 1.1321 0.7469
0.4914 1.1755 0.7470
0.3954 1.2113 0.7470
0.2968 1.2393 0.7470
0.1963 1.2592 0.7471
0.0945 1.2709 0.7470
-0.0079 1.2745 0.7470
-0.1103 1.2697 0.7469
-0.2120 1.2567 0.7469
-0.3122 1.2356 0.7468
-0.4105 1.2065 0.7466
-0.5060 1.1696 0.7465
-0.5983 1.1251 0.7463
-0.6867 1.0733 0.7461
-0.7706 1.0145 0.7459
-2.3218 2.5946 2.0382
-2.5231 2.4001 2.0382
-2.7082 2.1902 2.0382
-2.8759 1.9660 2.0382
-3.0250 1.7290 2.0382
-3.1547 1.4808 2.0382
-3.2640 1.2230 2.0382
-3.3523 0.9571 2.0382
-3.4190 0.6850 2.0382
-3.4636 0.4084 2.0382
-3.4858 0.1291 2.0382
-3.4855 -0.1512 2.0382
-3.4627 -0.4306 2.0382
-3.4175 -0.7072 2.0382
-3.3502 -0.9794 2.0382
-3.2612 -1.2453 2.0382
-3.1511 -1.5032 2.0382
-3.0206 -1.7515 2.0382
-2.8706 -1.9884 2.0382
-2.7020 -2.2126 2.0382
-2.5159 -2.4225 2.0382
-2.3135 -2.6167 2.0382
-0.7614 -1.0149 0.7403
-0.6774 -1.0725 0.7402
-0.5891 -1.1233 0.7401
-0.4970 -1.1668 0.7400
-0.4017 -1.2028 0.7400
-0.3038 -1.2311 0.7399
-0.2041 -1.2514 0.7399
-0.1030 -1.2637 0.7399
-0.0012 -1.2679 0.7400
0.1005 -1.2639 0.7400
0.2016 -1.2517 0.7401
0.3015 -1.2315 0.7402
0.3993 -1.2034 0.7403
0.4947 -1.1675 0.7405
0.5868 -1.1241 0.7406
0.6752 -1.0735 0.7408
0.7593 -1.0159 0.7410
1.6068 -1.8239 1.4204
1.4939 -1.4435 1.2141
1.4092 -1.1580 1.0662
1.3425 -0.9333 0.9560
1.3712 -0.7981 0.9278
1.5536 -0.7442 1.0076
1.7718 -0.6798 1.1102
2.0413 -0.6002 1.2450
2.3877 -0.4978 1.4274
2.8566 -0.3594 1.6853
3.4779 -0.1558 2.0382
3.4786 0.1240 2.0382
3.4568 0.4030 2.0382
3.4128 0.6793 2.0382
3.3467 0.9511 2.0382
0.4047 -1.1191 0.7406
0.4932 -1.0831 0.7407
0.5786 -1.0401 0.7409
0.6603 -0.9903 0.7411
0.7377 -0.9342 0.7412
1.5343 -1.6510 1.4037
1.4634 -1.3407 1.2363
1.3855 -1.0782 1.0938
1.3233 -0.8687 0.9864
1.4285 -0.7814 1.0148
1.6214 -0.7244 1.1070
1.8545 -0.6555 1.2264
2.1460 -0.5695 1.3846
2.5266 -0.4571 1.6014
3.2514 -0.3216 2.0382
3.2662 -0.0594 2.0382
3.2598 0.2031 2.0382
3.2325 0.4642 2.0382
3.1843 0.7223 2.0382
3.1155 0.9756 2.0382
3.0267 1.2226 2.0382
2.9184 1.4616 2.0382
2.7912 1.6912 2.0382
2.6461 1.9098 2.0382
2.4839 2.1160 2.0382
2.3057 2.3086 2.0382
0.7736 0.9105 0.7464
0.6981 0.9698 0.7465
0.6180 1.0229 0.7466
0.5338 1.0693 0.7467
0.4462 1.1089 0.7468
0.3557 1.1413 0.7468
0.2629 1.1662 0.7468
0.1684 1.1837 0.7468
0.0727 1.1934 0.7468
-0.0234 1.1954 0.7468
-0.1194 1.1897 0.7467
-0.2146 1.1762 0.7466
-0.3084 1.1552 0.7465
-0.4001 1.1266 0.7464
-0.4893 1.0908 0.7463
-0.5753 1.0479 0.7461
-0.6576 0.9982 0.7459
-0.7356 0.9421 0.7457
-2.2111 2.4055 2.0382
-2.3975 2.2205 2.0382
-2.5686 2.0211 2.0382
-2.7231 1.8087 2.0382
-2.8601 1.5845 2.0382
-2.9786 1.3500 2.0382
-3.0779 1.1066 2.0382
-3.1574 0.8561 2.0382
-3.2166 0.5999 2.0382
-3.2549 0.3398 2.0382
-3.2722 0.0775 2.0382
-3.2684 -0.1855 2.0382
-3.2435 -0.4473 2.0382
-3.1976 -0.7063 2.0382
-3.1310 -0.9608 2.0382
-3.0442 -1.2092 2.0382
-2.9377 -1.4498 2.0382
-2.8122 -1.6810 2.0382
-2.6684 -1.9015 2.0382
-2.5074 -2.1096 2.0382
-2.3302 -2.3042 2.0382
-0.7769 -0.9026 0.7406
-0.7018 -0.9619 0.7405
-0.6223 -1.0150 0.7404
-0.5388 -1.0615 0.7403
-0.4518 -1.1012 0.7402
-0.3620 -1.1338 0.7402
-0.2698 -1.1591 0.7401
-0.1759 -1.1770 0.7401
-0.0809 -1.1873 0.7402
0.0147 -1.1899 0.7402
0.1101 -1.1848 0.7403
0.2048 -1.1722 0.7403
0.2983 -1.1520 0.7404
0.3898 -1.1244 0.7406
0.4788 -1.0895 0.7407
0.5647 -1.0476 0.7408
0.6470 -0.9990 0.7410
0.7252 -0.9439 0.7412
1.5277 -1.6884 1.4181
1.4783 -1.3910 1.2644
1.3971 -1.1174 1.1145
1.3328 -0.9005 1.0023
1.3995 -0.7899 1.0016
1.5871 -0.7345 1.0901
1.8125 -0.6679 1.2043
2.0926 -0.5852 1.3550
2.4555 -0.4781 1.5602
3.2469 -0.3648 2.0382
3.2652 -0.1028 2.0382
3.2623 0.1597 2.0382
3.2385 0.4212 2.0382
3.1937 0.6799 2.0382
3.1283 0.9341 2.0382
3.0428 1.1822 2.0382
2.9376 1.4227 2.0382
2.8135 1.6539 2.0382
2.6713 1.8744 2.0382
2.5119 2.0828 2.0382
2.3362 2.2779 2.0382
0.7857 0.9000 0.7463
0.7109 0.9604 0.7465
0.6315 1.0145 0.7466
0.5480 1.0621 0.7467
0.4610 1.1028 0.7467
0.3709 1.1364 0.7468
0.2784 1.1626 0.7468
0.1841 1.1813 0.7468
0.0886 1.1923 0.7468
-0.0075 1.1956 0.7468
-0.1035 1.1912 0.7467
