ply
format ascii 1.0
element vertex 2166
property float32 x
property float32 y
property float32 z
end_header
-12.2727 -1.5796 2.0385
-12.1062 -2.5597 2.0385
-11.8617 -3.5234 2.0385
-11.5406 -4.4642 2.0385
-11.1449 -5.3763 2.0385
-10.6773 -6.2536 2.0385
-10.1409 -7.0906 2.0385
-9.5389 -7.8818 2.0385
-8.8754 -8.6221 2.0385
-8.1546 -9.3068 2.0385
-7.3811 -9.9314 2.0385
-6.5600 -10.4919 2.0385
-5.6966 -10.9847 2.0385
-4.7963 -11.4065 2.0385
-3.8652 -11.7547 2.0385
-2.9091 -12.0271 2.0385
-1.9341 -12.2218 2.0385
-0.5844 -7.6154 1.2582
0.0288 -7.6209 1.2555
0.6432 -7.6264 1.2608
2.0264 -12.2068 2.0385
2.9998 -12.0048 2.0385
3.7817 -11.2147 1.9497
4.5174 -10.5199 1.8861
5.3473 -10.1233 1.8861
4.2596 -6.6996 1.3079
6.9545 -9.2112 1.9014
7.7190 -8.6766 1.9132
8.4393 -8.0754 1.9242
9.1088 -7.4113 1.9345
9.7214 -6.6885 1.9439
10.2712 -5.9120 1.9523
6.2554 7.4658 1.8876
5.6313 7.9375 1.8861
4.9760 8.3640 1.8861
4.2885 8.7364 1.8861
3.8620 9.7840 2.0385
3.0641 10.0624 2.0385
2.2464 10.2759 2.0385
1.4142 10.4231 2.0385
0.5729 10.5030 2.0385
-0.2721 10.5151 2.0385
-1.1154 10.4593 2.0385
-1.9514 10.3360 2.0385
-2.7749 10.1460 2.0385
-3.5804 9.8905 2.0385
-4.3629 9.5711 2.0385
-5.1171 9.1900 2.0385
-5.8384 8.7495 2.0385
-6.5219 8.2526 2.0385
-7.1634 7.7024 2.0385
-7.7586 7.1025 2.0385
-8.3037 6.4567 2.0385
-8.7953 5.7693 2.0385
-9.2300 5.0446 2.0385
-9.6052 4.2873 2.0385
-9.9184 3.5024 2.0385
-10.1675 2.6949 2.0385
-10.3511 1.8699 2.0385
-10.4678 1.0329 2.0385
-10.5169 0.1893 2.0385
-10.4982 -0.6556 2.0385
-10.4116 -1.4963 2.0385
-10.2579 -2.3273 2.0385
-10.0380 -3.1433 2.0385
-9.7533 -3.9390 2.0385
-9.4056 -4.7092 2.0385
-8.9972 -5.4491 2.0385
-8.5307 -6.1538 2.0385
-8.0091 -6.8187 2.0385
-7.4359 -7.4397 2.0385
-6.8146 -8.0126 2.0385
-6.1494 -8.5338 2.0385
-5.4445 -8.9999 2.0385
-4.7044 -9.4080 2.0385
-3.9340 -9.7553 2.0385
-3.1381 -10.0396 2.0385
-2.3220 -10.2591 2.0385
-1.4909 -10.4124 2.0385
-0.4717 -7.6163 1.4788
0.1411 -7.6218 1.4773
0.7566 -7.6273 1.4854
1.8752 -10.3501 2.0385
2.7001 -10.1662 2.0385
3.5075 -9.9166 2.0385
3.9787 -8.9015 1.8896
4.6718 -8.5376 1.8861
4.3827 -6.6740 1.5473
5.9776 -7.6794 1.8859
6.6087 -7.2117 1.8957
7.2007 -6.6899 1.9048
7.7486 -6.1172 1.9132
8.2475 -5.4973 1.9209
8.6929 -4.8345 1.9277
9.0808 -4.1337 1.9336
9.4073 -3.4000 1.9385
9.6696 -2.6392 1.9425
9.8650 -1.8572 1.9454
9.9917 -1.0603 1.9472
10.0484 -0.2549 1.9480
10.0347 0.5525 1.9476
9.9506 1.3553 1.9462
9.7971 2.1470 1.9437
9.5755 2.9212 1.9401
9.2881 3.6718 1.9355
8.9385 4.3933 1.9302
8.5011 5.0635 1.9176
8.0412 5.7111 1.9114
7.5297 6.3156 1.9046
6.9710 6.8726 1.8971
6.3698 7.3788 1.8891
5.7476 7.8537 1.8861
5.0986 8.2898 1.8861
4.4167 8.6723 1.8861
3.9827 9.6703 2.0268
3.2120 10.0162 2.0385
2.3975 10.2417 2.0385
1.5676 10.4011 2.0385
0.7275 10.4934 2.0385
-0.1172 10.5180 2.0385
-0.9612 10.4746 2.0385
-1.7990 10.3636 2.0385
-2.6251 10.1858 2.0385
-3.4344 9.9422 2.0385
-4.2214 9.6344 2.0385
-4.9812 9.2644 2.0385
-5.7089 8.8346 2.0385
-6.3997 8.3478 2.0385
-7.0492 7.8071 2.0385
-7.6532 7.2160 2.0385
-8.2077 6.5783 2.0385
-8.7093 5.8982 2.0385
-9.1547 5.1800 2.0385
-9.5410 4.4283 2.0385
-9.8657 3.6481 2.0385
-10.1268 2.8443 2.0385
-10.3224 2.0222 2.0385
-10.4514 1.1870 2.0385
-10.5130 0.3441 2.0385
-10.5067 -0.5009 2.0385
-10.4326 -1.3428 2.0385
-10.2911 -2.1760 2.0385
-10.0832 -2.9951 2.0385
-9.8102 -3.7949 2.0385
-9.4739 -4.5702 2.0385
-9.0764 -5.3160 2.0385
-8.6204 -6.0275 2.0385
-8.1087 -6.7000 2.0385
-7.5446 -7.3294 2.0385
-6.9319 -7.9114 2.0385
-6.2744 -8.4423 2.0385
-5.5764 -8.9188 2.0385
-4.8425 -9.3377 2.0385
-4.0772 -9.6963 2.0385
-3.2856 -9.9923 2.0385
-2.4729 -10.2238 2.0385
-1.6442 -10.3893 2.0385
-0.5844 -7.6153 1.4802
0.0288 -7.6208 1.4769
0.6432 -7.6263 1.4832
1.7226 -10.3766 2.0385
2.5501 -10.2048 2.0385
3.3610 -9.9674 2.0385
3.8401 -8.9425 1.8861
4.5456 -8.6055 1.8861
4.2396 -6.6681 1.5313
5.8642 -7.7670 1.8861
6.4958 -7.3016 1.8939
7.0954 -6.7895 1.9032
7.6517 -6.2258 1.9117
8.1600 -5.6142 1.9195
8.6155 -4.9590 1.9265
5.4277 6.4779 1.8861
4.8901 6.8927 1.8861
4.3210 7.2631 1.8861
3.9695 8.0866 2.0104
3.3537 8.4961 2.0385
2.6608 8.7379 2.0385
1.9507 8.9234 2.0385
1.2281 9.0511 2.0385
0.4975 9.1205 2.0385
-0.2363 9.1310 2.0385
-0.9685 9.0826 2.0385
-1.6946 8.9755 2.0385
-2.4096 8.8105 2.0385
-3.1091 8.5886 2.0385
-3.7886 8.3113 2.0385
-4.4436 7.9803 2.0385
-5.0699 7.5979 2.0385
-5.6635 7.1664 2.0385
-6.2205 6.6886 2.0385
-6.7374 6.1676 2.0385
-7.2107 5.6068 2.0385
-7.6376 5.0099 2.0385
-8.0151 4.3806 2.0385
-8.3409 3.7230 2.0385
-8.6129 3.0414 2.0385
-8.8292 2.3401 2.0385
-8.9886 1.6238 2.0385
-9.0899 0.8970 2.0385
-9.1326 0.1643 2.0385
-9.1163 -0.5693 2.0385
-9.0412 -1.2993 2.0385
-8.9077 -2.0210 2.0385
-8.7167 -2.7295 2.0385
-8.4695 -3.4205 2.0385
-8.1675 -4.0894 2.0385
-7.8129 -4.7318 2.0385
-7.4078 -5.3438 2.0385
-6.9549 -5.9212 2.0385
-6.4571 -6.4604 2.0385
-5.9176 -6.9579 2.0385
-5.3400 -7.4105 2.0385
-4.7278 -7.8153 2.0385
-4.0852 -8.1696 2.0385
-3.4161 -8.4712 2.0385
-2.7251 -8.7181 2.0385
-2.0164 -8.9087 2.0385
-1.2947 -9.0419 2.0385
-0.4717 -7.6162 1.7030
0.1411 -7.6217 1.7012
0.7566 -7.6271 1.7105
1.6284 -8.9877 2.0385
2.3447 -8.8280 2.0385
3.0458 -8.6113 2.0385
3.7273 -8.3390 2.0385
4.0569 -7.4138 1.8861
4.3608 -6.6405 1.7730
5.1911 -6.6690 1.8861
5.7097 -6.2307 1.8861
6.2015 -5.7616 1.8891
6.6693 -5.2651 1.8963
7.0947 -4.7289 1.9028
7.4742 -4.1567 1.9086
7.8043 -3.5526 1.9137
8.0820 -2.9210 1.9179
8.3049 -2.2668 1.9212
8.4710 -1.5948 1.9237
8.5786 -0.9103 1.9253
8.6269 -0.2188 1.9259
8.6153 0.4744 1.9256
8.5440 1.1637 1.9244
8.4137 1.8438 1.9223
8.2255 2.5094 1.9192
7.9813 3.1552 1.9153
7.6832 3.7764 1.9106
7.3340 4.3683 1.9051
6.9368 4.9267 1.8988
6.4920 5.4451 1.8910
6.0135 5.9286 1.8846
5.5225 6.3973 1.8861
4.9911 6.8200 1.8861
4.4275 7.1986 1.8861
3.9767 7.8085 1.9556
3.4784 8.4458 2.0385
2.7892 8.6978 2.0385
2.0819 8.8937 2.0385
1.3613 9.0321 2.0385
0.6318 9.1122 2.0385
-0.1018 9.1335 2.0385
-0.8347 9.0959 2.0385
-1.5622 8.9995 2.0385
-2.2796 8.8450 2.0385
-2.9823 8.6335 2.0385
-3.6658 8.3662 2.0385
-4.3256 8.0449 2.0385
-4.9574 7.6717 2.0385
-5.5573 7.2490 2.0385
-6.1213 6.7795 2.0385
-6.6458 6.2662 2.0385
-7.1274 5.7124 2.0385
-7.5630 5.1218 2.0385
-7.9497 4.4981 2.0385
-8.2852 3.8454 2.0385
-8.5671 3.1679 2.0385
-8.7938 2.4699 2.0385
-8.9637 1.7560 2.0385
-9.0757 1.0308 2.0385
-9.1292 0.2988 2.0385
-9.1237 -0.4350 2.0385
-9.0593 -1.1660 2.0385
-8.9365 -1.8895 2.0385
-8.7560 -2.6009 2.0385
-8.5189 -3.2954 2.0385
-8.2269 -3.9686 2.0385
-7.8817 -4.6163 2.0385
-7.4857 -5.2341 2.0385
-7.0414 -5.8181 2.0385
-6.5516 -6.3646 2.0385
-6.0195 -6.8700 2.0385
-5.4485 -7.3311 2.0385
-4.8424 -7.7448 2.0385
-4.2051 -8.1086 2.0385
-3.5405 -8.4200 2.0385
-2.8532 -8.6770 2.0385
-2.1474 -8.8781 2.0385
-1.4277 -9.0218 2.0385
-0.5844 -7.6152 1.7045
0.0288 -7.6206 1.7007
0.6432 -7.6261 1.7080
1.4959 -9.0108 2.0385
2.2144 -8.8616 2.0385
2.9186 -8.6552 2.0385
3.6041 -8.3930 2.0385
3.9472 -7.4728 1.8861
4.2204 -6.6379 1.7555
5.0923 -6.7447 1.8861
5.6173 -6.3141 1.8861
6.1115 -5.8480 1.8877
6.5866 -5.3591 1.8950
7.0201 -4.8300 1.9017
7.4082 -4.2641 1.9076
4.7893 5.7160 1.8861
4.3150 6.0820 1.8861
3.9640 6.6629 1.9609
3.5515 7.2351 2.0385
2.9592 7.4969 2.0385
2.3478 7.7102 2.0385
1.7213 7.8738 2.0385
1.0836 7.9866 2.0385
0.4390 8.0478 2.0385
-0.2085 8.0571 2.0385
-0.8546 8.0143 2.0385
-1.4953 7.9199 2.0385
-2.1262 7.7743 2.0385
-2.7435 7.5785 2.0385
-3.3430 7.3338 2.0385
-3.9209 7.0417 2.0385
-4.4736 6.7042 2.0385
-4.9973 6.3235 2.0385
-5.4889 5.9019 2.0385
-5.9449 5.4422 2.0385
-6.3626 4.9474 2.0385
-6.7393 4.4206 2.0385
-7.0724 3.8653 2.0385
-7.3599 3.2851 2.0385
-7.5999 2.6837 2.0385
-7.7908 2.0649 2.0385
-7.9314 1.4328 2.0385
-8.0208 0.7915 2.0385
-8.0585 0.1450 2.0385
-8.0441 -0.5024 2.0385
-7.9778 -1.1465 2.0385
-7.8600 -1.7833 2.0385
-7.6915 -2.4085 2.0385
-7.4733 -3.0182 2.0385
-7.2069 -3.6084 2.0385
-6.8940 -4.1753 2.0385
-6.5365 -4.7153 2.0385
-6.1369 -5.2248 2.0385
-5.6977 -5.7006 2.0385
-5.2216 -6.1396 2.0385
-4.7119 -6.5389 2.0385
-4.1718 -6.8961 2.0385
-3.6047 -7.2087 2.0385
-3.0143 -7.4749 2.0385
-2.4046 -7.6927 2.0385
-1.7792 -7.8609 2.0385
-1.1424 -7.9784 2.0385
-0.4982 -8.0443 2.0385
0.1492 -8.0584 2.0385
0.7956 -8.0204 2.0385
1.4369 -7.9306 2.0385
2.0689 -7.7897 2.0385
2.6876 -7.5985 2.0385
3.2889 -7.3582 2.0385
3.8144 -6.9706 2.0097
4.0933 -6.2333 1.8861
4.5805 -5.8846 1.8861
5.0382 -5.4979 1.8861
5.4633 -5.0757 1.8861
5.8531 -4.6207 1.8861
6.2150 -4.1425 1.8891
6.5449 -3.6399 1.8941
6.8317 -3.1099 1.8985
7.0730 -2.5564 1.9021
7.2665 -1.9833 1.9051
7.4106 -1.3951 1.9072
7.5040 -0.7963 1.9086
7.5459 -0.1914 1.9091
7.5359 0.4149 1.9089
7.4741 1.0180 1.9078
7.3611 1.6132 1.9059
7.1979 2.1959 1.9033
6.9860 2.7617 1.8999
6.7271 3.3065 1.8958
6.4237 3.8261 1.8910
6.0798 4.3181 1.8861
5.7135 4.7922 1.8861
5.3104 5.2354 1.8861
4.8730 5.6448 1.8861
4.4041 6.0178 1.8861
3.9700 6.4548 1.9166
3.6577 7.1820 2.0385
3.0693 7.4525 2.0385
2.4611 7.6748 2.0385
1.8371 7.8476 2.0385
1.2011 7.9698 2.0385
0.5575 8.0405 2.0385
-0.0898 8.0593 2.0385
-0.7365 8.0260 2.0385
-1.3784 7.9410 2.0385
-2.0115 7.8047 2.0385
-2.6315 7.6181 2.0385
-3.2346 7.3822 2.0385
-3.8168 7.0987 2.0385
-4.3744 6.7694 2.0385
-4.9037 6.3964 2.0385
-5.4013 5.9821 2.0385
-5.8641 5.5292 2.0385
-6.2891 5.0405 2.0385
-6.6734 4.5194 2.0385
-7.0147 3.9691 2.0385
-7.3107 3.3931 2.0385
-7.5595 2.7953 2.0385
-7.7595 2.1794 2.0385
-7.9094 1.5495 2.0385
-8.0083 0.9095 2.0385
-8.0555 0.2637 2.0385
-8.0506 -0.3838 2.0385
-7.9938 -1.0289 2.0385
-7.8854 -1.6673 2.0385
-7.7261 -2.2950 2.0385
-7.5170 -2.9078 2.0385
-7.2593 -3.5018 2.0385
-6.9547 -4.0733 2.0385
-6.6053 -4.6185 2.0385
-6.2132 -5.1338 2.0385
-5.7810 -5.6160 2.0385
-5.3115 -6.0620 2.0385
-4.8077 -6.4688 2.0385
-4.2729 -6.8339 2.0385
-3.7105 -7.1549 2.0385
-3.1241 -7.4297 2.0385
-2.5176 -7.6565 2.0385
-1.8948 -7.8339 2.0385
-1.2598 -7.9607 2.0385
-0.6167 -8.0361 2.0385
0.0305 -8.0597 2.0385
0.6774 -8.0312 2.0385
1.3199 -7.9509 2.0385
1.9539 -7.8193 2.0385
2.5754 -7.6372 2.0385
3.1802 -7.4058 2.0385
3.7644 -7.1266 2.0385
4.0065 -6.3010 1.8886
4.4934 -5.9514 1.8861
4.9566 -5.5715 1.8861
5.3879 -5.1556 1.8861
5.7844 -4.7064 1.8861
6.1501 -4.2314 1.8881
6.4876 -3.7342 1.8932
4.2788 5.1068 1.8861
3.9573 5.5780 1.9361
3.6816 6.1883 2.0385
3.1730 6.4639 2.0385
2.6438 6.6978 2.0385
2.0976 6.8884 2.0385
1.5378 7.0346 2.0385
0.9681 7.1353 2.0385
0.3922 7.1900 2.0385
-0.1863 7.1983 2.0385
-0.7635 7.1601 2.0385
-1.3359 7.0757 2.0385
-1.8996 6.9456 2.0385
-2.4510 6.7707 2.0385
-2.9867 6.5521 2.0385
-3.5030 6.2912 2.0385
-3.9968 5.9897 2.0385
-4.4647 5.6495 2.0385
-4.9038 5.2728 2.0385
-5.3113 4.8621 2.0385
-5.6845 4.4201 2.0385
-6.0210 3.9495 2.0385
-6.3186 3.4534 2.0385
-6.5754 2.9350 2.0385
-6.7898 2.3976 2.0385
-6.9604 1.8448 2.0385
-7.0860 1.2801 2.0385
-7.1659 0.7071 2.0385
-7.1995 0.1296 2.0385
-7.1867 -0.4488 2.0385
-7.1275 -1.0243 2.0385
-7.0222 -1.5932 2.0385
-6.8717 -2.1518 2.0385
-6.6768 -2.6965 2.0385
-6.4387 -3.2238 2.0385
-6.1592 -3.7303 2.0385
-5.8398 -4.2127 2.0385
-5.4828 -4.6679 2.0385
-5.0904 -5.0930 2.0385
-4.6651 -5.4852 2.0385
-4.2097 -5.8420 2.0385
-3.7271 -6.1611 2.0385
-3.2205 -6.4404 2.0385
-2.6931 -6.6781 2.0385
-2.1483 -6.8728 2.0385
-1.5896 -7.0230 2.0385
-1.0207 -7.1280 2.0385
-0.4451 -7.1869 2.0385
0.1333 -7.1995 2.0385
0.7108 -7.1655 2.0385
1.2837 -7.0853 2.0385
1.8484 -6.9594 2.0385
2.4011 -6.7886 2.0385
2.9383 -6.5739 2.0385
3.4566 -6.3168 2.0385
3.8322 -5.8357 1.9764
4.0923 -5.2574 1.8861
4.5011 -4.9119 1.8861
4.8809 -4.5347 1.8861
5.2292 -4.1282 1.8861
5.5438 -3.6951 1.8861
5.8225 -3.2381 1.8861
6.0651 -2.7609 1.8865
6.2779 -2.2690 1.8897
6.4485 -1.7601 1.8923
6.5756 -1.2379 1.8942
6.6579 -0.7065 1.8954
6.6949 -0.1698 1.8959
6.6861 0.3682 1.8957
6.6317 0.9033 1.8947
6.5322 1.4315 1.8931
6.3884 1.9489 1.8908
6.2015 2.4516 1.8878
5.9792 2.9388 1.8861
5.7239 3.4093 1.8861
5.4318 3.8578 1.8861
5.1045 4.2814 1.8861
4.7444 4.6774 1.8861
4.3536 5.0432 1.8861
3.9635 5.4158 1.8999
3.7724 6.1335 2.0385
3.2678 6.4165 2.0385
2.7422 6.6581 2.0385
2.1988 6.8568 2.0385
1.6413 7.0112 2.0385
1.0731 7.1203 2.0385
0.4980 7.1835 2.0385
-0.0802 7.2003 2.0385
-0.6580 7.1706 2.0385
-1.2315 7.0946 2.0385
-1.7971 6.9729 2.0385
-2.3511 6.8061 2.0385
-2.8898 6.5954 2.0385
-3.4100 6.3421 2.0385
-3.9081 6.0479 2.0385
-4.3810 5.7146 2.0385
-4.8256 5.3445 2.0385
-5.2391 4.9398 2.0385
-5.6188 4.5033 2.0385
-5.9621 4.0377 2.0385
-6.2670 3.5460 2.0385
-6.5315 3.0315 2.0385
-6.7538 2.4974 2.0385
-6.9324 1.9471 2.0385
-7.0664 1.3843 2.0385
-7.1547 0.8126 2.0385
-7.1968 0.2356 2.0385
-7.1925 -0.3429 2.0385
-7.1418 -0.9192 2.0385
-7.0449 -1.4896 2.0385
-6.9026 -2.0503 2.0385
-6.7158 -2.5978 2.0385
-6.4855 -3.1286 2.0385
-6.2134 -3.6391 2.0385
-5.9012 -4.1262 2.0385
-5.5509 -4.5866 2.0385
-5.1648 -5.0175 2.0385
-4.7453 -5.4159 2.0385
-4.2953 -5.7793 2.0385
-3.8174 -6.1055 2.0385
-3.3150 -6.3922 2.0385
-2.7911 -6.6377 2.0385
-2.2492 -6.8404 2.0385
-1.6929 -6.9989 2.0385
-1.1255 -7.1122 2.0385
-0.5509 -7.1796 2.0385
0.0272 -7.2007 2.0385
0.6052 -7.1752 2.0385
1.1792 -7.1035 2.0385
1.7457 -6.9859 2.0385
2.3009 -6.8232 2.0385
2.8412 -6.6165 2.0385
3.3632 -6.3670 2.0385
3.8229 -6.0127 2.0170
4.0176 -5.3213 1.8876
4.4283 -4.9777 1.8861
4.8136 -4.6061 1.8861
5.1679 -4.2048 1.8861
5.4887 -3.7764 1.8861
5.7742 -3.3235 1.8861
3.9497 4.7139 1.9295
3.7594 5.2990 2.0385
3.3219 5.5837 2.0385
2.8629 5.8323 2.0385
2.3855 6.0433 2.0385
1.8926 6.2153 2.0385
1.3875 6.3472 2.0385
0.8735 6.4381 2.0385
0.3539 6.4874 2.0385
-0.1681 6.4949 2.0385
-0.6889 6.4604 2.0385
-1.2053 6.3843 2.0385
-1.7140 6.2669 2.0385
-2.2115 6.1091 2.0385
-2.6948 5.9118 2.0385
-3.1607 5.6764 2.0385
-3.6062 5.4044 2.0385
-4.0284 5.0974 2.0385
-4.4246 4.7576 2.0385
-4.7923 4.3870 2.0385
-5.1290 3.9881 2.0385
-5.4326 3.5635 2.0385
-5.7011 3.1159 2.0385
-5.9329 2.6482 2.0385
-6.1263 2.1633 2.0385
-6.2802 1.6645 2.0385
-6.3936 1.1550 2.0385
-6.4657 0.6380 2.0385
-6.4960 0.1169 2.0385
-6.4844 -0.4050 2.0385
-6.4310 -0.9242 2.0385
-6.3360 -1.4375 2.0385
-6.2002 -1.9415 2.0385
-6.0243 -2.4330 2.0385
-5.8096 -2.9088 2.0385
-5.5573 -3.3657 2.0385
-5.2692 -3.8010 2.0385
-4.9470 -4.2118 2.0385
-4.5929 -4.5953 2.0385
-4.2092 -4.9492 2.0385
-3.7983 -5.2711 2.0385
-3.3629 -5.5590 2.0385
-2.9058 -5.8111 2.0385
-2.4299 -6.0256 2.0385
-1.9383 -6.2012 2.0385
-1.4343 -6.3368 2.0385
-0.9209 -6.4315 2.0385
-0.4016 -6.4846 2.0385
0.1202 -6.4960 2.0385
0.6413 -6.4653 2.0385
1.1583 -6.3930 2.0385
1.6678 -6.2794 2.0385
2.1665 -6.1252 2.0385
2.6512 -5.9315 2.0385
3.1188 -5.6996 2.0385
3.5663 -5.4308 2.0385
3.8439 -4.9382 1.9634
4.0613 -4.4319 1.8861
4.4040 -4.0916 1.8861
4.7182 -3.7248 1.8861
5.0020 -3.3340 1.8861
5.2535 -2.9217 1.8861
5.4711 -2.4905 1.8861
5.6534 -2.0433 1.8861
5.7992 -1.5829 1.8861
5.9076 -1.1122 1.8861
5.9736 -0.6339 1.8848
6.0066 -0.1523 1.8852
5.9988 0.3303 1.8850
5.9563 0.8113 1.8861
5.8720 1.2868 1.8861
5.7497 1.7541 1.8861
5.5904 2.2100 1.8861
5.3949 2.6516 1.8861
5.1646 3.0762 1.8861
4.9010 3.4808 1.8861
4.6057 3.8631 1.8861
4.2808 4.2203 1.8861
3.9556 4.5822 1.8992
3.8370 5.2430 2.0385
3.4037 5.5341 2.0385
2.9485 5.7895 2.0385
2.4742 6.0075 2.0385
1.9839 6.1867 2.0385
1.4809 6.3261 2.0385
0.9683 6.4245 2.0385
0.4494 6.4815 2.0385
-0.0724 6.4967 2.0385
-0.5937 6.4699 2.0385
-1.1112 6.4014 2.0385
-1.6215 6.2915 2.0385
-2.1213 6.1410 2.0385
-2.6075 5.9509 2.0385
-3.0768 5.7224 2.0385
-3.5262 5.4569 2.0385
-3.9529 5.1562 2.0385
-4.3541 4.8222 2.0385
-4.7272 4.4571 2.0385
-5.0697 4.0633 2.0385
-5.3795 3.6431 2.0385
-5.6546 3.1995 2.0385
-5.8932 2.7353 2.0385
-6.0938 2.2533 2.0385
-6.2550 1.7569 2.0385
-6.3759 1.2491 2.0385
-6.4556 0.7332 2.0385
-6.4936 0.2126 2.0385
-6.4897 -0.3094 2.0385
-6.4439 -0.8294 2.0385
-6.3565 -1.3440 2.0385
-6.2281 -1.8500 2.0385
-6.0595 -2.3440 2.0385
-5.8518 -2.8229 2.0385
-5.6063 -3.2835 2.0385
-5.3246 -3.7230 2.0385
-5.0085 -4.1384 2.0385
-4.6601 -4.5272 2.0385
-4.2816 -4.8866 2.0385
-3.8755 -5.2146 2.0385
-3.4444 -5.5089 2.0385
-2.9911 -5.7676 2.0385
-2.5184 -5.9891 2.0385
-2.0295 -6.1720 2.0385
-1.5274 -6.3150 2.0385
-1.0155 -6.4172 2.0385
-0.4971 -6.4780 2.0385
0.0245 -6.4970 2.0385
0.5460 -6.4741 2.0385
1.0640 -6.4093 2.0385
1.5751 -6.3032 2.0385
2.0760 -6.1565 2.0385
2.5636 -5.9699 2.0385
3.0345 -5.7449 2.0385
3.4859 -5.4827 2.0385
3.8361 -5.0809 1.9975
3.9956 -4.4913 1.8861
4.3433 -4.1560 1.8861
4.6629 -3.7939 1.8861
4.9524 -3.4073 1.8861
5.2099 -2.9988 1.8861
3.7952 4.5295 2.0385
3.4193 4.8196 2.0385
3.0214 5.0785 2.0385
2.6039 5.3047 2.0385
2.1697 5.4966 2.0385
1.7214 5.6531 2.0385
1.2620 5.7730 2.0385
0.7945 5.8557 2.0385
0.3219 5.9006 2.0385
-0.1529 5.9074 2.0385
-0.6266 5.8760 2.0385
-1.0963 5.8068 2.0385
-1.5589 5.7000 2.0385
-2.0115 5.5565 2.0385
-2.4510 5.3770 2.0385
-2.8748 5.1629 2.0385
-3.2800 4.9155 2.0385
-3.6640 4.6363 2.0385
-4.0244 4.3272 2.0385
-4.3588 3.9902 2.0385
-4.6650 3.6274 2.0385
-4.9412 3.2412 2.0385
-5.1854 2.8340 2.0385
-5.3962 2.4086 2.0385
-5.5721 1.9676 2.0385
-5.7121 1.5140 2.0385
-5.8152 1.0505 2.0385
-5.8808 0.5802 2.0385
-5.9084 0.1063 2.0385
-5.8978 -0.3684 2.0385
-5.8492 -0.8406 2.0385
-5.7629 -1.3075 2.0385
-5.6393 -1.7659 2.0385
-5.4794 -2.2129 2.0385
-5.2840 -2.6456 2.0385
-5.0546 -3.0613 2.0385
-4.7925 -3.4572 2.0385
-4.4995 -3.8307 2.0385
-4.1775 -4.1796 2.0385
-3.8284 -4.5015 2.0385
-3.4547 -4.7943 2.0385
-3.0587 -5.0561 2.0385
-2.6429 -5.2854 2.0385
-2.2101 -5.4805 2.0385
-1.7630 -5.6402 2.0385
-1.3045 -5.7635 2.0385
-0.8376 -5.8497 2.0385
-0.3653 -5.8980 2.0385
0.1094 -5.9083 2.0385
0.5833 -5.8805 2.0385
1.0535 -5.8147 2.0385
1.5169 -5.7113 2.0385
0.7151 -2.0218 0.7398
2.4114 -5.3949 2.0385
2.8367 -5.1840 2.0385
3.2437 -4.9395 2.0385
3.6298 -4.6632 2.0385
3.8509 -4.2024 1.9662
4.0056 -3.7214 1.8861
4.2914 -3.3879 1.8861
4.5495 -3.0324 1.8861
4.7783 -2.6574 1.8861
4.9762 -2.2652 1.8861
5.1420 -1.8585 1.8861
5.2746 -1.4397 1.8861
5.3731 -1.0116 1.8861
5.4370 -0.5770 1.8861
5.4658 -0.1386 1.8861
5.4593 0.3006 1.8861
5.4175 0.7379 1.8861
5.3408 1.1704 1.8861
5.2296 1.5954 1.8861
5.0846 2.0101 1.8861
4.9069 2.4118 1.8861
4.6974 2.7979 1.8861
4.4577 3.1660 1.8861
4.1891 3.5136 1.8861
3.9446 3.8889 1.9108
3.8615 4.4732 2.0385
3.4899 4.7687 2.0385
3.0958 5.0335 2.0385
2.6818 5.2658 2.0385
2.2504 5.4641 2.0385
1.8045 5.6271 2.0385
1.3469 5.7538 2.0385
0.8807 5.8434 2.0385
0.4087 5.8952 2.0385
-0.0658 5.9090 2.0385
-0.5400 5.8846 2.0385
-1.0107 5.8223 2.0385
-1.4748 5.7224 2.0385
-1.9294 5.5855 2.0385
-2.3716 5.4126 2.0385
-2.7984 5.2047 2.0385
-3.2072 4.9632 2.0385
-3.5953 4.6898 2.0385
-3.9602 4.3860 2.0385
-4.2995 4.0539 2.0385
-4.6111 3.6957 2.0385
-4.8929 3.3136 2.0385
-5.1431 2.9101 2.0385
-5.3601 2.4878 2.0385
-5.5425 2.0495 2.0385
-5.6892 1.5979 2.0385
-5.7991 1.1361 2.0385
-5.8716 0.6668 2.0385
-5.9062 0.1933 2.0385
-5.9026 -0.2814 2.0385
-5.8610 -0.7544 2.0385
-5.7815 -1.2224 2.0385
-5.6647 -1.6826 2.0385
-5.5113 -2.1319 2.0385
-5.3224 -2.5675 2.0385
-5.0991 -2.9865 2.0385
-4.8429 -3.3862 2.0385
-4.5554 -3.7641 2.0385
-4.2386 -4.1176 2.0385
-3.8943 -4.4446 2.0385
-3.5249 -4.7429 2.0385
-3.1328 -5.0105 2.0385
-2.7205 -5.2459 2.0385
-2.2906 -5.4473 2.0385
-1.8459 -5.6136 2.0385
-1.3893 -5.7437 2.0385
-0.9237 -5.8367 2.0385
-0.4521 -5.8920 2.0385
0.0223 -5.9093 2.0385
0.4966 -5.8884 2.0385
0.9678 -5.8295 2.0385
1.4326 -5.7330 2.0385
0.6852 -2.0320 0.7397
2.3317 -5.4299 2.0385
2.7600 -5.2252 2.0385
3.1706 -4.9867 2.0385
3.5607 -4.7161 2.0385
3.8444 -4.3213 1.9952
3.9504 -3.7801 1.8861
4.2411 -3.4507 1.8861
4.5044 -3.0991 1.8861
4.7386 -2.7275 1.8861
3.4747 4.1470 2.0385
3.1306 4.4126 2.0385
2.7662 4.6497 2.0385
2.3840 4.8567 2.0385
0.7278 1.8438 0.7469
0.5775 1.8966 0.7470
0.4234 1.9370 0.7470
0.2666 1.9649 0.7471
0.2947 5.4023 2.0385
-0.1400 5.4085 2.0385
-0.2103 1.9717 0.7471
-0.3678 1.9484 0.7471
-0.5230 1.9124 0.7470
-0.6748 1.8640 0.7469
-2.2441 4.9230 2.0385
-2.6320 4.7269 2.0385
-3.0030 4.5004 2.0385
-3.3546 4.2448 2.0385
-3.6845 3.9618 2.0385
-3.9907 3.6532 2.0385
-4.2711 3.3210 2.0385
-4.5239 2.9674 2.0385
-4.7475 2.5947 2.0385
-4.9405 2.2052 2.0385
-5.1016 1.8015 2.0385
-5.2297 1.3861 2.0385
-5.3241 0.9618 2.0385
-5.3842 0.5313 2.0385
-5.4094 0.0973 2.0385
-5.3998 -0.3372 2.0385
-5.3553 -0.7696 2.0385
-5.2762 -1.1970 2.0385
-5.1631 -1.6168 2.0385
-5.0166 -2.0260 2.0385
-4.8378 -2.4222 2.0385
-4.6277 -2.8028 2.0385
-4.3878 -3.1652 2.0385
-4.1195 -3.5073 2.0385
-3.8247 -3.8266 2.0385
-3.5051 -4.1213 2.0385
-3.1630 -4.3894 2.0385
-2.8004 -4.6292 2.0385
-2.4197 -4.8390 2.0385
-0.7347 -1.8218 0.7401
-0.5860 -1.8746 0.7400
-0.4335 -1.9155 0.7399
-0.2784 -1.9439 0.7399
-0.1214 -1.9599 0.7399
0.0363 -1.9633 0.7399
0.1938 -1.9541 0.7399
0.3501 -1.9324 0.7399
0.5042 -1.8982 0.7400
0.6550 -1.8518 0.7401
2.2077 -4.9394 2.0385
2.5971 -4.7462 2.0385
2.9698 -4.5224 2.0385
3.3232 -4.2694 2.0385
3.6552 -3.9888 2.0385
3.8544 -3.5809 1.9823
3.9290 -3.1018 1.8861
4.1653 -2.7764 1.8861
4.3748 -2.4330 1.8861
4.5560 -2.0740 1.8861
4.7078 -1.7015 1.8861
4.8292 -1.3181 1.8861
4.9194 -0.9262 1.8861
4.9779 -0.5282 1.8861
5.0042 -0.1269 1.8861
4.9982 0.2752 1.8861
4.9600 0.6756 1.8861
4.8898 1.0716 1.8861
4.7880 1.4607 1.8861
4.6553 1.8403 1.8861
4.4925 2.2081 1.8861
4.3007 2.5616 1.8861
4.0812 2.8986 1.8861
3.9341 3.2998 1.9347
3.8528 3.7984 2.0385
3.5354 4.0954 2.0385
3.1952 4.3660 2.0385
2.8344 4.6084 2.0385
2.4553 4.8211 2.0385
0.7549 1.8329 0.7469
0.6054 1.8878 0.7470
0.4519 1.9305 0.7470
0.2955 1.9607 0.7471
0.3742 5.3974 2.0385
-0.0603 5.4100 2.0385
-0.1812 1.9746 0.7471
-0.3391 1.9536 0.7471
-0.4948 1.9199 0.7470
-0.6473 1.8738 0.7469
-2.1713 4.9555 2.0385
-2.5621 4.7652 2.0385
-2.9364 4.5441 2.0385
-3.2917 4.2937 2.0385
-3.6258 4.0156 2.0385
-3.9364 3.7116 2.0385
-4.2217 3.3836 2.0385
-4.4797 3.0338 2.0385
-4.7088 2.6643 2.0385
-4.9075 2.2777 2.0385
-5.0745 1.8764 2.0385
-5.2088 1.4630 2.0385
-5.3094 1.0401 2.0385
-5.3757 0.6105 2.0385
-5.4074 0.1770 2.0385
-5.4042 -0.2577 2.0385
-5.3660 -0.6907 2.0385
-5.2933 -1.1192 2.0385
-5.1863 -1.5405 2.0385
-5.0459 -1.9519 2.0385
-4.8729 -2.3507 2.0385
-4.6685 -2.7343 2.0385
-4.4339 -3.1003 2.0385
-4.1707 -3.4462 2.0385
-3.8806 -3.7699 2.0385
-3.5655 -4.0693 2.0385
-3.2273 -4.3423 2.0385
-2.8683 -4.5874 2.0385
-2.4907 -4.8029 2.0385
-0.7614 -1.8108 0.7401
-0.6135 -1.8659 0.7400
-0.4617 -1.9089 0.7400
-0.3070 -1.9396 0.7399
-0.1502 -1.9579 0.7399
0.0074 -1.9637 0.7399
0.1650 -1.9568 0.7399
0.3216 -1.9373 0.7399
0.4761 -1.9054 0.7400
0.6276 -1.8612 0.7401
0.7751 -1.8051 0.7402
2.5270 -4.7839 2.0385
2.9028 -4.5656 2.0385
3.2600 -4.3179 2.0385
3.5961 -4.0422 2.0385
3.8487 -3.6828 2.0070
3.8870 -3.1626 1.8880
4.1240 -2.8374 1.8861
4.3385 -2.4972 1.8861
3.1988 3.8177 2.0385
2.8820 4.0622 2.0385
2.5466 4.2804 2.0385
2.1947 4.4711 2.0385
0.6698 1.6968 0.7466
0.5315 1.7453 0.7467
0.3897 1.7825 0.7468
0.2453 1.8081 0.7468
0.0994 1.8221 0.7468
-0.0472 1.8242 0.7468
-0.1935 1.8144 0.7468
-0.3385 1.7930 0.7468
-0.4813 1.7599 0.7467
-0.6210 1.7153 0.7466
-0.7566 1.6597 0.7465
-2.4230 4.3516 2.0385
-2.7645 4.1430 2.0385
-3.0882 3.9077 2.0385
-3.3919 3.6472 2.0385
-3.6738 3.3631 2.0385
-3.9319 3.0573 2.0385
-4.1647 2.7318 2.0385
-4.3705 2.3887 2.0385
-4.5482 2.0301 2.0385
-4.6965 1.6584 2.0385
-4.8144 1.2760 2.0385
-4.9013 0.8854 2.0385
-4.9566 0.4891 2.0385
-4.9799 0.0896 2.0385
-4.9710 -0.3104 2.0385
-4.9300 -0.7085 2.0385
-4.8572 -1.1020 2.0385
-4.7531 -1.4884 2.0385
-4.6183 -1.8651 2.0385
-4.4536 -2.2299 2.0385
-4.2603 -2.5802 2.0385
-4.0394 -2.9138 2.0385
-3.7924 -3.2287 2.0385
-3.5210 -3.5228 2.0385
-3.2268 -3.7941 2.0385
-2.9118 -4.0408 2.0385
-2.5780 -4.2616 2.0385
-2.2276 -4.4548 2.0385
-0.6766 -1.6777 0.7404
-0.5396 -1.7264 0.7403
-0.3993 -1.7640 0.7402
-0.2563 -1.7903 0.7402
-0.1118 -1.8050 0.7402
0.0335 -1.8081 0.7401
0.1785 -1.7996 0.7402
0.3224 -1.7796 0.7402
0.4643 -1.7481 0.7403
0.6032 -1.7054 0.7403
0.7382 -1.6517 0.7404
2.3909 -4.3693 2.0385
2.7340 -4.1632 2.0385
3.0593 -3.9304 2.0385
3.3650 -3.6720 2.0385
3.6489 -3.3901 2.0385
3.8548 -3.0432 2.0100
3.8785 -2.5851 1.9077
4.0274 -2.2398 1.8861
4.1942 -1.9093 1.8861
4.3339 -1.5664 1.8861
4.4457 -1.2134 1.8861
4.5288 -0.8526 1.8861
4.5826 -0.4863 1.8861
4.6068 -0.1168 1.8861
4.6013 0.2534 1.8861
4.5662 0.6219 1.8861
4.5015 0.9865 1.8861
4.4078 1.3447 1.8861
4.2856 1.6942 1.8861
4.1358 2.0327 1.8861
3.9592 2.3581 1.8861
3.9225 2.7859 1.9691
3.8161 3.2007 2.0385
3.5468 3.4968 2.0385
3.2547 3.7702 2.0385
2.9415 4.0193 2.0385
2.6093 4.2425 2.0385
2.2603 4.4383 2.0385
0.6947 1.6867 0.7466
0.5571 1.7373 0.7467
0.4159 1.7765 0.7468
0.2719 1.8043 0.7468
0.1262 1.8204 0.7468
-0.0203 1.8247 0.7468
-0.1667 1.8171 0.7468
-0.3121 1.7978 0.7468
-0.4553 1.7668 0.7467
-0.5956 1.7243 0.7466
-0.7321 1.6707 0.7465
-2.3587 4.3868 2.0385
-2.7032 4.1833 2.0385
-3.0303 3.9528 2.0385
-3.3379 3.6967 2.0385
-3.6239 3.4169 2.0385
-3.8865 3.1149 2.0385
-4.1240 2.7929 2.0385
-4.3349 2.4528 2.0385
-4.5178 2.0969 2.0385
-4.6715 1.7274 2.0385
-4.7951 1.3468 2.0385
-4.8878 0.9575 2.0385
-4.9489 0.5621 2.0385
-4.9780 0.1630 2.0385
-4.9750 -0.2372 2.0385
-4.9399 -0.6358 2.0385
-4.8729 -1.0303 2.0385
-4.7745 -1.4182 2.0385
-4.6452 -1.7969 2.0385
-4.4860 -2.1640 2.0385
-4.2978 -2.5172 2.0385
-4.0818 -2.8541 2.0385
-3.8395 -3.1726 2.0385
-3.5725 -3.4705 2.0385
-3.2823 -3.7461 2.0385
-2.9710 -3.9975 2.0385
-2.6405 -4.2231 2.0385
-2.2930 -4.4215 2.0385
-0.7012 -1.6676 0.7404
-0.5650 -1.7183 0.7403
-0.4252 -1.7580 0.7402
-0.2827 -1.7863 0.7402
-0.1384 -1.8032 0.7402
0.0068 -1.8084 0.7401
0.1520 -1.8021 0.7402
0.2962 -1.7841 0.7402
0.4385 -1.7547 0.7403
0.5780 -1.7140 0.7403
0.7138 -1.6623 0.7404
2.3263 -4.4040 2.0385
2.6723 -4.2031 2.0385
3.0011 -3.9750 2.0385
3.3105 -3.7212 2.0385
3.5986 -3.4434 2.0385
3.8499 -3.1324 2.0313
3.8745 -2.6657 1.9248
3.9940 -2.2989 1.8861
2.9584 3.5308 2.0385
2.6654 3.7569 2.0385
2.3552 3.9588 2.0385
0.7431 1.5138 0.7463
0.6192 1.5688 0.7464
0.4914 1.6136 0.7465
0.3603 1.6480 0.7465
0.2268 1.6717 0.7466
0.0919 1.6846 0.7466
-0.0436 1.6865 0.7466
-0.1789 1.6775 0.7466
-0.3130 1.6577 0.7465
-0.4450 1.6271 0.7465
-0.5741 1.5859 0.7464
-0.6995 1.5345 0.7463
-2.2409 4.0245 2.0385
-2.5568 3.8317 2.0385
-2.8561 3.6140 2.0385
-3.1370 3.3731 2.0385
-3.3977 3.1103 2.0385
-3.6364 2.8276 2.0385
-3.8517 2.5265 2.0385
-4.0421 2.2092 2.0385
-4.2064 1.8775 2.0385
-4.3435 1.5338 2.0385
-4.4526 1.1802 2.0385
-4.5330 0.8189 2.0385
-4.5841 0.4524 2.0385
-4.6056 0.0828 2.0385
-4.5974 -0.2872 2.0385
-4.5595 -0.6553 2.0385
-4.4922 -1.0192 2.0385
-4.3959 -1.3765 2.0385
-4.2712 -1.7250 2.0385
-4.1189 -2.0623 2.0385
-3.9401 -2.3863 2.0385
-3.7358 -2.6949 2.0385
-3.5074 -2.9861 2.0385
-3.2564 -3.2580 2.0385
-2.9843 -3.5089 2.0385
-2.6930 -3.7372 2.0385
-2.3843 -3.9413 2.0385
-0.7486 -1.4971 0.7407
-0.6259 -1.5521 0.7406
-0.4992 -1.5972 0.7405
-0.3694 -1.6320 0.7405
-0.2372 -1.6563 0.7404
-0.1034 -1.6699 0.7404
0.0310 -1.6728 0.7404
0.1652 -1.6650 0.7404
0.2983 -1.6464 0.7404
0.4295 -1.6173 0.7405
0.5580 -1.5777 0.7406
0.6830 -1.5280 0.7407
2.2112 -4.0409 2.0385
2.5285 -3.8504 2.0385
2.8294 -3.6350 2.0385
3.1121 -3.3961 2.0385
3.3747 -3.1353 2.0385
3.6155 -2.8543 2.0385
3.8330 -2.5548 2.0385
3.8730 -2.1539 1.9612
3.8953 -1.7732 1.8940
4.0082 -1.4487 1.8861
4.1116 -1.1222 1.8861
4.1884 -0.7885 1.8861
4.2382 -0.4497 1.8861
4.2606 -0.1080 1.8861
4.2555 0.2343 1.8861
4.2230 0.5752 1.8861
4.1632 0.9123 1.8861
4.0835 1.2458 1.8893
3.9635 1.5668 1.8861
3.9203 1.9269 1.9331
3.9095 2.3286 2.0137
3.7555 2.6673 2.0385
3.5293 2.9602 2.0385
3.2803 3.2340 2.0385
3.0101 3.4869 2.0385
2.7204 3.7172 2.0385
2.4132 3.9236 2.0385
0.7653 1.5027 0.7463
0.6423 1.5595 0.7464
0.5151 1.6062 0.7464
0.3845 1.6425 0.7465
0.2514 1.6682 0.7466
0.1167 1.6830 0.7466
-0.0188 1.6870 0.7466
-0.1542 1.6800 0.7466
-0.2885 1.6621 0.7465
-0.4210 1.6335 0.7465
-0.5507 1.5942 0.7464
-0.6768 1.5447 0.7463
-2.1814 4.0571 2.0385
-2.5001 3.8689 2.0385
-2.8026 3.6557 2.0385
-3.0870 3.4189 2.0385
-3.3515 3.1601 2.0385
-3.5944 2.8808 2.0385
-3.8140 2.5830 2.0385
-4.0091 2.2684 2.0385
-4.1783 1.9393 2.0385
-4.3204 1.5976 2.0385
-4.4348 1.2456 2.0385
-4.5204 0.8856 2.0385
-4.5769 0.5198 2.0385
-4.6039 0.1507 2.0385
-4.6011 -0.2193 2.0385
-4.5687 -0.5880 2.0385
-4.5067 -0.9529 2.0385
-4.4157 -1.3116 2.0385
-4.2961 -1.6621 2.0385
-4.1488 -2.0014 2.0385
-3.9748 -2.3280 2.0385
-3.7751 -2.6396 2.0385
-3.5510 -2.9341 2.0385
-3.3040 -3.2097 2.0385
-3.0357 -3.4646 2.0385
-2.7477 -3.6971 2.0385
-2.4421 -3.9058 2.0385
-0.7706 -1.4859 0.7407
-0.6487 -1.5428 0.7406
-0.5227 -1.5897 0.7405
-0.3934 -1.6264 0.7405
-0.2615 -1.6526 0.7404
-0.1280 -1.6682 0.7404
0.0063 -1.6731 0.7404
0.1406 -1.6672 0.7404
0.2740 -1.6506 0.7404
0.4057 -1.6234 0.7405
0.5347 -1.5857 0.7406
0.6604 -1.5379 0.7407
0.7818 -1.4801 0.7408
2.4715 -3.8872 2.0385
2.7756 -3.6762 2.0385
3.0617 -3.4416 2.0385
3.3281 -3.1847 2.0385
3.5731 -2.9072 2.0385
3.7949 -2.6110 2.0385
3.8695 -2.2272 1.9758
2.7467 3.2782 2.0385
2.4747 3.4882 2.0385
2.1867 3.6755 2.0385
0.6897 1.4051 0.7461
0.5748 1.4562 0.7462
0.4561 1.4978 0.7462
0.3344 1.5297 0.7463
0.2105 1.5516 0.7463
0.0853 1.5636 0.7464
-0.0405 1.5654 0.7464
-0.1660 1.5571 0.7463
-0.2905 1.5386 0.7463
-0.4130 1.5102 0.7463
-0.5329 1.4721 0.7462
-0.6493 1.4244 0.7461
-0.7614 1.3674 0.7460
-2.3739 3.5575 2.0385
-2.6518 3.3555 2.0385
-2.9126 3.1318 2.0385
-3.1546 2.8879 2.0385
-3.3763 2.6253 2.0385
-3.5761 2.3458 2.0385
-3.7529 2.0511 2.0385
-3.9055 1.7432 2.0385
-4.0328 1.4241 2.0385
-4.1341 1.0957 2.0385
-4.2087 0.7603 2.0385
-4.2562 0.4200 2.0385
-4.2761 0.0770 2.0385
-4.2685 -0.2666 2.0385
-4.2333 -0.6084 2.0385
-4.1708 -0.9463 2.0385
-4.0814 -1.2780 2.0385
-3.9656 -1.6016 2.0385
-3.8243 -1.9147 2.0385
-3.6582 -2.2156 2.0385
-3.4685 -2.5021 2.0385
-3.2565 -2.7725 2.0385
-3.0234 -3.0249 2.0385
-2.7708 -3.2579 2.0385
-2.5003 -3.4698 2.0385
-2.2137 -3.6594 2.0385
-0.6952 -1.3903 0.7409
-0.5813 -1.4415 0.7408
-0.4637 -1.4834 0.7407
-0.3431 -1.5157 0.7407
-0.2203 -1.5382 0.7406
-0.0961 -1.5509 0.7406
0.0288 -1.5536 0.7406
0.1534 -1.5463 0.7406
0.2770 -1.5291 0.7407
0.3989 -1.5020 0.7407
0.5183 -1.4653 0.7408
0.6343 -1.4191 0.7409
0.7463 -1.3638 0.7410
2.3476 -3.5749 2.0385
2.6270 -3.3749 2.0385
2.8895 -3.1531 2.0385
3.1333 -2.9110 2.0385
3.3568 -2.6501 2.0385
3.5588 -2.3720 2.0385
3.7377 -2.0787 2.0385
3.8654 -1.7596 2.0243
3.8798 -1.4023 1.9663
3.8914 -1.0621 1.9226
3.9057 -0.7353 1.8943
3.9350 -0.4176 1.8861
3.9558 -0.1003 1.8861
3.9511 0.2175 1.8861
3.9250 0.5346 1.8881
3.9136 0.8577 1.9096
3.9099 1.1928 1.9484
3.9038 1.5432 2.0008
3.8383 1.8865 2.0385
3.6744 2.1886 2.0385
3.4869 2.4765 2.0385
3.2768 2.7484 2.0385
3.0456 3.0026 2.0385
2.7947 3.2374 2.0385
2.5258 3.4513 2.0385
2.2406 3.6429 2.0385
0.7103 1.3948 0.7461
0.5962 1.4475 0.7461
0.4781 1.4909 0.7462
0.3569 1.5245 0.7463
0.2334 1.5484 0.7463
0.1083 1.5621 0.7464
-0.0174 1.5658 0.7464
-0.1431 1.5593 0.7463
-0.2678 1.5428 0.7463
-0.3908 1.5162 0.7463
-0.5112 1.4798 0.7462
-0.6282 1.4338 0.7461
-0.7412 1.3786 0.7460
-2.3212 3.5921 2.0385
-2.6021 3.3942 2.0385
-2.8662 3.1743 2.0385
-3.1117 2.9340 2.0385
-3.3372 2.6747 2.0385
-3.5412 2.3982 2.0385
-3.7223 2.1062 2.0385
-3.8794 1.8006 2.0385
-4.0114 1.4833 2.0385
-4.1175 1.1565 2.0385
-4.1971 0.8222 2.0385
-4.2495 0.4826 2.0385
-4.2745 0.1399 2.0385
-4.2720 -0.2037 2.0385
-4.2418 -0.5460 2.0385
-4.1843 -0.8847 2.0385
-4.0998 -1.2178 2.0385
-3.9888 -1.5430 2.0385
-3.8521 -1.8582 2.0385
-3.6904 -2.1615 2.0385
-3.5050 -2.4507 2.0385
-3.2970 -2.7242 2.0385
-3.0676 -2.9801 2.0385
-2.8185 -3.2167 2.0385
-2.5512 -3.4326 2.0385
-2.2674 -3.6264 2.0385
-0.7157 -1.3800 0.7409
-0.6025 -1.4328 0.7408
-0.4855 -1.4764 0.7408
-0.3653 -1.5105 0.7407
-0.2429 -1.5348 0.7407
-0.1189 -1.5493 0.7406
0.0059 -1.5539 0.7406
0.1306 -1.5484 0.7406
0.2545 -1.5330 0.7407
0.3768 -1.5077 0.7407
0.4966 -1.4727 0.7408
0.6133 -1.4282 0.7409
0.7261 -1.3746 0.7410
2.2947 -3.6091 2.0385
2.5770 -3.4132 2.0385
2.8427 -3.1954 2.0385
3.0901 -2.9568 2.0385
3.3175 -2.6992 2.0385
3.5234 -2.4242 2.0385
3.7067 -2.1335 2.0385
2.5587 3.0538 2.0385
2.3053 3.2494 2.0385
0.7453 1.2527 0.7458
0.6424 1.3086 0.7459
0.5353 1.3562 0.7460
0.4248 1.3949 0.7460
0.3114 1.4246 0.7461
0.1961 1.4451 0.7461
0.0794 1.4562 0.7462
-0.0377 1.4578 0.7462
-0.1546 1.4501 0.7461
-0.2705 1.4329 0.7461
-0.3847 1.4065 0.7461
-0.4963 1.3709 0.7460
-0.6047 1.3265 0.7459
-0.7091 1.2735 0.7458
-2.2114 3.3140 2.0385
-2.4703 3.1258 2.0385
-2.7132 2.9174 2.0385
-2.9387 2.6902 2.0385
-3.1452 2.4456 2.0385
-3.3313 2.1852 2.0385
-3.4960 1.9107 2.0385
-3.6381 1.6239 2.0385
-3.7567 1.3266 2.0385
-3.8511 1.0207 2.0385
-3.9206 0.7083 2.0385
-3.9648 0.3912 2.0385
-3.9834 0.0717 2.0385
-3.9763 -0.2483 2.0385
-3.9436 -0.5667 2.0385
-3.8853 -0.8815 2.0385
-3.8020 -1.1906 2.0385
-3.6942 -1.4919 2.0385
-3.5625 -1.7837 2.0385
-3.4078 -2.0639 2.0385
-3.2311 -2.3308 2.0385
-3.0336 -2.5827 2.0385
-2.8164 -2.8179 2.0385
-2.5811 -3.0349 2.0385
-2.3292 -3.2323 2.0385
-0.7498 -1.2395 0.7412
-0.6478 -1.2955 0.7411
-0.5416 -1.3431 0.7410
-0.4320 -1.3822 0.7409
-0.3197 -1.4123 0.7409
-0.2052 -1.4333 0.7408
-0.0895 -1.4451 0.7408
0.0268 -1.4476 0.7408
0.1429 -1.4408 0.7408
0.2581 -1.4248 0.7409
0.3717 -1.3995 0.7409
0.4829 -1.3653 0.7410
0.5910 -1.3223 0.7410
0.6953 -1.2707 0.7411
2.1869 -3.3302 2.0385
2.4472 -3.1439 2.0385
2.6917 -2.9373 2.0385
2.9188 -2.7117 2.0385
3.1271 -2.4687 2.0385
3.3151 -2.2097 2.0385
3.4818 -1.9364 2.0385
3.6260 -1.6506 2.0385
3.7469 -1.3542 2.0385
3.8435 -1.0491 2.0385
3.8771 -0.7299 2.0186
3.8841 -0.4122 1.9985
3.8888 -0.0986 1.9904
3.8913 0.2143 1.9940
3.8917 0.5301 2.0096
3.8899 0.8525 2.0375
3.8107 1.1625 2.0385
3.7051 1.4647 2.0385
3.5755 1.7574 2.0385
3.4229 2.0388 2.0385
3.2482 2.3070 2.0385
3.0525 2.5603 2.0385
2.8371 2.7971 2.0385
2.6034 3.0158 2.0385
2.3529 3.2151 2.0385
0.7636 1.2415 0.7458
0.6616 1.2990 0.7459
0.5552 1.3481 0.7460
0.4452 1.3884 0.7460
0.3324 1.4198 0.7461
0.2173 1.4420 0.7461
0.1009 1.4548 0.7462
-0.0162 1.4582 0.7462
-0.1333 1.4522 0.7462
-0.2494 1.4368 0.7461
-0.3639 1.4120 0.7461
-0.4761 1.3781 0.7460
-0.5851 1.3353 0.7459
-0.6903 1.2839 0.7458
-2.1623 3.3462 2.0385
-2.4240 3.1618 2.0385
-2.6700 2.9570 2.0385
-2.8987 2.7332 2.0385
-3.1088 2.4916 2.0385
-3.2988 2.2340 2.0385
-3.4675 1.9620 2.0385
-3.6138 1.6773 2.0385
-3.7368 1.3818 2.0385
-3.8356 1.0773 2.0385
-3.9098 0.7659 2.0385
-3.9586 0.4496 2.0385
-3.9819 0.1303 2.0385
-3.9795 -0.1897 2.0385
-3.9515 -0.5086 2.0385
-3.8979 -0.8242 2.0385
-3.8191 -1.1344 2.0385
-3.7158 -1.4374 2.0385
-3.5884 -1.7310 2.0385
-3.4378 -2.0135 2.0385
-3.2651 -2.2830 2.0385
-3.0713 -2.5377 2.0385
-2.8576 -2.7761 2.0385
-2.6256 -2.9965 2.0385
-2.3765 -3.1976 2.0385
-0.7680 -1.2283 0.7412
-0.6668 -1.2858 0.7411
-0.5614 -1.3351 0.7410
-0.4523 -1.3757 0.7409
-0.3404 -1.4074 0.7409
-0.2263 -1.4301 0.7408
-0.1108 -1.4436 0.7408
0.0055 -1.4479 0.7408
0.1217 -1.4428 0.7408
0.2371 -1.4284 0.7408
0.3511 -1.4048 0.7409
0.4627 -1.3722 0.7410
0.5715 -1.3308 0.7410
0.6765 -1.2808 0.7411
0.7773 -1.2225 0.7412
2.4006 -3.1796 2.0385
2.6481 -2.9766 2.0385
2.8785 -2.7544 2.0385
3.0904 -2.5145 2.0385
3.2822 -2.2582 2.0385
3.4529 -1.9875 2.0385
2.3903 2.8528 2.0385
0.7876 1.1102 0.7455
0.6961 1.1700 0.7456
0.6000 1.2222 0.7457
0.5000 1.2666 0.7458
0.3967 1.3028 0.7459
0.2909 1.3305 0.7459
0.1831 1.3496 0.7460
0.0742 1.3600 0.7460
-0.0352 1.3616 0.7460
-0.1444 1.3543 0.7460
-0.2527 1.3383 0.7459
-0.3593 1.3136 0.7459
-0.4635 1.2804 0.7458
-0.5648 1.2390 0.7458
-0.6623 1.1895 0.7457
-0.7556 1.1323 0.7456
-2.3077 2.9201 2.0385
-2.5347 2.7254 2.0385
-2.7453 2.5131 2.0385
-2.9381 2.2846 2.0385
-3.1121 2.0414 2.0385
-3.2659 1.7849 2.0385
-3.3987 1.5170 2.0385
-3.5095 1.2393 2.0385
-3.5976 0.9535 2.0385
-3.6626 0.6616 2.0385
-3.7039 0.3655 2.0385
-3.7212 0.0670 2.0385
-3.7146 -0.2320 2.0385
-3.6840 -0.5294 2.0385
-3.6296 -0.8235 2.0385
-3.5518 -1.1122 2.0385
-3.4510 -1.3937 2.0385
-3.3280 -1.6663 2.0385
-3.1835 -1.9281 2.0385
-3.0184 -2.1774 2.0385
-2.8339 -2.4127 2.0385
-2.6311 -2.6324 2.0385
-2.4112 -2.8351 2.0385
-2.1759 -3.0196 2.0385
-0.7006 -1.1581 0.7413
-0.6053 -1.2105 0.7412
-0.5061 -1.2550 0.7412
-0.4037 -1.2915 0.7411
-0.2987 -1.3196 0.7410
-0.1918 -1.3393 0.7410
-0.0836 -1.3503 0.7410
0.0250 -1.3527 0.7410
0.1335 -1.3463 0.7410
0.2412 -1.3313 0.7410
0.3473 -1.3077 0.7411
0.4512 -1.2757 0.7411
0.5522 -1.2355 0.7412
0.6497 -1.1873 0.7413
0.7430 -1.1315 0.7414
2.2861 -2.9370 2.0385
2.5145 -2.7440 2.0385
2.7267 -2.5333 2.0385
2.9212 -2.3062 2.0385
3.0969 -2.0642 2.0385
3.2527 -1.8089 2.0385
3.3874 -1.5420 2.0385
3.5002 -1.2651 2.0385
3.5905 -0.9800 2.0385
3.6576 -0.6886 2.0385
3.7011 -0.3927 2.0385
3.7206 -0.0944 2.0385
3.7162 0.2046 2.0385
3.6878 0.5023 2.0385
3.6356 0.7967 2.0385
3.5599 1.0860 2.0385
3.4612 1.3683 2.0385
3.3402 1.6417 2.0385
3.1976 1.9046 2.0385
3.0344 2.1551 2.0385
2.8516 2.3918 2.0385
2.6504 2.6130 2.0385
2.4321 2.8173 2.0385
2.1980 3.0035 2.0385
0.7132 1.1596 0.7456
0.6179 1.2133 0.7457
0.5186 1.2591 0.7458
0.4158 1.2968 0.7459
0.3104 1.3261 0.7459
0.2030 1.3468 0.7460
0.0942 1.3588 0.7460
-0.0152 1.3619 0.7460
-0.1245 1.3563 0.7460
-0.2329 1.3419 0.7459
-0.3399 1.3188 0.7459
-0.4446 1.2871 0.7458
-0.5465 1.2472 0.7458
-0.6447 1.1991 0.7457
-0.7388 1.1433 0.7456
-2.2644 2.9537 2.0385
-2.4942 2.7624 2.0385
-2.7079 2.5533 2.0385
-2.9042 2.3276 2.0385
-3.0817 2.0870 2.0385
-3.2393 1.8329 2.0385
-3.3759 1.5669 2.0385
-3.4908 1.2908 2.0385
-3.5832 1.0064 2.0385
-3.6524 0.7155 2.0385
-3.6981 0.4200 2.0385
-3.7199 0.1218 2.0385
-3.7176 -0.1772 2.0385
-3.6914 -0.4751 2.0385
-3.6413 -0.7699 2.0385
-3.5678 -1.0598 2.0385
-3.4712 -1.3428 2.0385
-3.3522 -1.6171 2.0385
-3.2116 -1.8810 2.0385
-3.0502 -2.1327 2.0385
-2.8691 -2.3707 2.0385
-2.6696 -2.5934 2.0385
-2.4527 -2.7993 2.0385
-2.2201 -2.9872 2.0385
-0.7176 -1.1477 0.7414
-0.6231 -1.2014 0.7413
-0.5245 -1.2474 0.7412
-0.4227 -1.2854 0.7411
-0.3181 -1.3151 0.7411
-0.2115 -1.3363 0.7410
-0.1035 -1.3489 0.7410
0.0051 -1.3529 0.7410
0.1137 -1.3481 0.7410
0.2216 -1.3347 0.7410
0.3280 -1.3127 0.7411
0.4324 -1.2822 0.7411
0.5340 -1.2435 0.7412
0.6321 -1.1967 0.7413
0.7263 -1.1423 0.7414
2.2426 -2.9703 2.0385
2.4738 -2.7807 2.0385
2.6891 -2.5731 2.0385
2.8870 -2.3490 2.0385
3.0662 -2.1096 2.0385
3.2257 -1.8567 2.0385
2.2384 2.6715 2.0385
0.7374 1.0394 0.7454
0.6517 1.0954 0.7455
0.5617 1.1443 0.7456
0.4681 1.1859 0.7457
0.3714 1.2197 0.7457
0.2723 1.2457 0.7458
0.1714 1.2636 0.7458
0.0695 1.2733 0.7458
-0.0330 1.2747 0.7458
-0.1352 1.2680 0.7458
-0.2366 1.2530 0.7458
-0.3364 1.2299 0.7457
-0.4340 1.1988 0.7457
-0.5288 1.1600 0.7456
-0.6201 1.1137 0.7455
-0.7074 1.0601 0.7454
-2.1610 2.7344 2.0385
-2.3735 2.5521 2.0385
-2.5708 2.3534 2.0385
-2.7514 2.1394 2.0385
-2.9142 1.9116 2.0385
-3.0583 1.6715 2.0385
-3.1826 1.4206 2.0385
-3.2864 1.1605 2.0385
-3.3689 0.8929 2.0385
-3.4298 0.6196 2.0385
-3.4684 0.3423 2.0385
-3.4847 0.0627 2.0385
-3.4785 -0.2172 2.0385
-3.4498 -0.4958 2.0385
-3.3989 -0.7711 2.0385
-3.3260 -1.0415 2.0385
-3.2317 -1.3051 2.0385
-3.1165 -1.5604 2.0385
-2.9811 -1.8055 2.0385
-2.8266 -2.0390 2.0385
-2.6538 -2.2593 2.0385
-2.4638 -2.4651 2.0385
-2.2580 -2.6549 2.0385
-0.7412 -1.0287 0.7416
-0.6562 -1.0847 0.7415
-0.5669 -1.1337 0.7414
-0.4740 -1.1755 0.7413
-0.3781 -1.2096 0.7412
-0.2798 -1.2360 0.7412
-0.1796 -1.2544 0.7412
-0.0783 -1.2648 0.7411
0.0234 -1.2670 0.7411
0.1251 -1.2610 0.7412
0.2259 -1.2469 0.7412
0.3253 -1.2248 0.7412
0.4226 -1.1949 0.7413
0.5172 -1.1572 0.7414
0.6085 -1.1121 0.7414
0.6959 -1.0598 0.7415
0.7789 -1.0006 0.7416
2.3547 -2.5695 2.0385
2.5534 -2.3722 2.0385
2.7356 -2.1596 2.0385
2.9001 -1.9330 2.0385
3.0459 -1.6940 2.0385
3.1721 -1.4440 2.0385
3.2777 -1.1847 2.0385
3.3623 -0.9177 2.0385
3.4251 -0.6448 2.0385
3.4658 -0.3678 2.0385
3.4841 -0.0884 2.0385
3.4800 0.1916 2.0385
3.4534 0.4704 2.0385
3.4045 0.7461 2.0385
3.3336 1.0170 2.0385
3.2412 1.2813 2.0385
3.1279 1.5374 2.0385
2.9944 1.7835 2.0385
2.8415 2.0181 2.0385
2.6703 2.2397 2.0385
2.4819 2.4469 2.0385
2.2775 2.6382 2.0385
0.7526 1.0284 0.7454
0.6677 1.0857 0.7455
0.5785 1.1359 0.7456
0.4855 1.1788 0.7457
0.3893 1.2141 0.7457
0.2906 1.2415 0.7458
0.1900 1.2609 0.7458
0.0882 1.2721 0.7458
-0.0142 1.2751 0.7458
-0.1165 1.2698 0.7458
-0.2181 1.2563 0.7458
-0.3182 1.2347 0.7457
-0.4163 1.2051 0.7457
-0.5116 1.1677 0.7456
-0.6036 1.1227 0.7455
-0.6917 1.0705 0.7454
-0.7753 1.0113 0.7453
-2.3357 2.5868 2.0385
-2.5358 2.3910 2.0385
-2.7196 2.1797 2.0385
-2.8858 1.9543 2.0385
-3.0334 1.7163 2.0385
-3.1613 1.4673 2.0385
-3.2689 1.2088 2.0385
-3.3554 0.9424 2.0385
-3.4203 0.6700 2.0385
-3.4630 0.3933 2.0385
-3.4834 0.1140 2.0385
-3.4813 -0.1660 2.0385
-3.4568 -0.4449 2.0385
-3.4099 -0.7210 2.0385
-3.3410 -0.9924 2.0385
-3.2505 -1.2574 2.0385
-3.1391 -1.5143 2.0385
-3.0074 -1.7614 2.0385
-2.8563 -1.9972 2.0385
-2.6868 -2.2200 2.0385
-2.4999 -2.4285 2.0385
-2.2968 -2.6214 2.0385
-0.7563 -1.0177 0.7416
-0.6721 -1.0749 0.7415
-0.5836 -1.1253 0.7414
-0.4913 -1.1684 0.7413
-0.3959 -1.2040 0.7413
-0.2979 -1.2318 0.7412
-0.1981 -1.2516 0.7412
-0.0970 -1.2635 0.7412
0.0048 -1.2672 0.7411
0.1065 -1.2627 0.7412
0.2075 -1.2501 0.7412
0.3072 -1.2295 0.7412
0.4050 -1.2009 0.7413
0.5001 -1.1647 0.7413
0.5921 -1.1209 0.7414
0.6802 -1.0699 0.7415
0.7640 -1.0119 0.7416
2.3166 -2.6039 2.0385
2.5181 -2.4096 2.0385
2.7035 -2.1996 2.0385
2.8713 -1.9755 2.0385
3.0206 -1.7386 2.0385
0.7678 0.9164 0.7452
0.6919 0.9752 0.7453
0.6114 1.0277 0.7454
0.5270 1.0736 0.7455
0.4392 1.1126 0.7455
0.3485 1.1443 0.7456
0.2555 1.1687 0.7456
0.1608 1.1854 0.7457
0.0652 1.1946 0.7457
-0.0309 1.1959 0.7457
-0.1269 1.1896 0.7457
-0.2219 1.1755 0.7456
-0.3156 1.1538 0.7456
-0.4071 1.1247 0.7455
-0.4961 1.0883 0.7455
-0.5818 1.0448 0.7454
-0.6637 0.9946 0.7453
-0.7413 0.9380 0.7452
-2.2272 2.3948 2.0385
-2.4123 2.2083 2.0385
-2.5818 2.0075 2.0385
-2.7346 1.7938 2.0385
-2.8698 1.5685 2.0385
-2.9864 1.3330 2.0385
-3.0838 1.0890 2.0385
-3.1613 0.8379 2.0385
-3.2183 0.5814 2.0385
-3.2546 0.3212 2.0385
-3.2699 0.0589 2.0385
-3.2641 -0.2038 2.0385
-3.2372 -0.4652 2.0385
-3.1894 -0.7236 2.0385
-3.1210 -0.9773 2.0385
-3.0325 -1.2247 2.0385
-2.9244 -1.4642 2.0385
-2.7974 -1.6942 2.0385
-2.6523 -1.9133 2.0385
-2.4902 -2.1201 2.0385
-2.3119 -2.3131 2.0385
-0.7710 -0.9066 0.7418
-0.6957 -0.9654 0.7417
-0.6158 -1.0180 0.7416
-0.5321 -1.0640 0.7415
-0.4449 -1.1032 0.7414
-0.3549 -1.1353 0.7414
-0.2626 -1.1600 0.7413
-0.1686 -1.1773 0.7413
-0.0735 -1.1870 0.7413
0.0220 -1.1891 0.7413
0.1174 -1.1835 0.7413
0.2120 -1.1703 0.7413
0.3053 -1.1496 0.7414
0.3966 -1.1214 0.7414
0.4854 -1.0860 0.7415
0.5711 -1.0437 0.7416
0.6531 -0.9946 0.7417
0.7310 -0.9391 0.7418
2.2095 -2.4111 2.0385
2.3960 -2.2260 2.0385
2.5669 -2.0265 2.0385
2.7213 -1.8139 2.0385
2.8582 -1.5895 2.0385
2.9765 -1.3550 2.0385
3.0757 -1.1116 2.0385
3.1550 -0.8611 2.0385
3.2140 -0.6051 2.0385
3.2522 -0.3451 2.0385
3.2694 -0.0829 2.0385
3.2655 0.1798 2.0385
3.2405 0.4414 2.0385
3.1946 0.7001 2.0385
3.1281 0.9543 2.0385
3.0414 1.2023 2.0385
2.9351 1.4426 2.0385
2.8098 1.6736 2.0385
2.6664 1.8937 2.0385
2.5057 2.1017 2.0385
2.3289 2.2961 2.0385
0.7812 0.9049 0.7452
0.7061 0.9649 0.7453
0.6265 1.0186 0.7454
0.5427 1.0657 0.7454
0.4555 1.1059 0.7455
0.3653 1.1390 0.7456
0.2727 1.1648 0.7456
0.1783 1.1829 0.7457
0.0827 1.1935 0.7457
-0.0133 1.1963 0.7457
-0.1093 1.1913 0.7457
-0.2046 1.1787 0.7456
-0.2985 1.1584 0.7456
-0.3905 1.1306 0.7456
-0.4800 1.0955 0.7455
-0.5663 1.0533 0.7454
-0.6490 1.0043 0.7453
-0.7274 0.9489 0.7452
-2.1917 2.4274 2.0385
-2.3795 2.2436 2.0385
-2.5519 2.0453 2.0385
-2.7079 1.8339 2.0385
-2.8464 1.6105 2.0385
-2.9665 1.3768 2.0385
-3.0674 1.1343 2.0385
-3.1486 0.8844 2.0385
-3.2094 0.6287 2.0385
-3.2495 0.3691 2.0385
-3.2687 0.1070 2.0385
-3.2667 -0.1557 2.0385
-3.2437 -0.4175 2.0385
-3.1997 -0.6765 2.0385
-3.1350 -0.9312 2.0385
-3.0502 -1.1799 2.0385
-2.9456 -1.4209 2.0385
-2.8220 -1.6528 2.0385
-2.6802 -1.8740 2.0385
-2.5211 -2.0832 2.0385
-2.3458 -2.2788 2.0385
-2.1552 -2.4598 2.0385
-0.7098 -0.9551 0.7417
-0.6308 -1.0089 0.7416
-0.5477 -1.0561 0.7415
-0.4611 -1.0966 0.7415
-0.3715 -1.1299 0.7414
-0.2796 -1.1560 0.7413
-0.1859 -1.1747 0.7413
-0.0910 -1.1858 0.7413
0.0045 -1.1893 0.7413
0.1000 -1.1851 0.7413
0.1948 -1.1733 0.7413
0.2883 -1.1539 0.7414
0.3801 -1.1271 0.7414
0.4694 -1.0931 0.7415
0.5557 -1.0520 0.7415
0.6384 -1.0041 0.7416
0.7170 -0.9497 0.7417
2.1738 -2.4434 2.0385
2.3629 -2.2610 2.0385
2.5368 -2.0640 2.0385
2.6943 -1.8537 2.0385
2.8344 -1.6315 2.0385
0.7216 0.8613 0.7451
0.6502 0.9165 0.7452
0.5746 0.9659 0.7453
0.4953 1.0090 0.7453
0.4127 1.0456 0.7454
0.3275 1.0754 0.7455
0.2401 1.0983 0.7455
0.1512 1.1141 0.7455
0.0612 1.1227 0.7455
-0.0291 1.1240 0.7455
-0.1192 1.1180 0.7455
-0.2086 1.1048 0.7455
-0.2966 1.0844 0.7455
-0.3826 1.0570 0.7454
-0.4662 1.0228 0.7454
-0.5468 0.9820 0.7453
-0.6238 0.9348 0.7452
-0.6967 0.8816 0.7451
-0.7651 0.8227 0.7450
-2.2675 2.0758 2.0385
-2.4268 1.8870 2.0385
-2.5705 1.6861 2.0385
-2.6975 1.4743 2.0385
-2.8072 1.2530 2.0385
-2.8987 1.0236 2.0385
-2.9715 0.7876 2.0385
-3.0252 0.5465 2.0385
-3.0593 0.3019 2.0385
-3.0736 0.0553 2.0385
-3.0682 -0.1916 2.0385
-3.0429 -0.4373 2.0385
-2.9980 -0.6802 2.0385
-2.9337 -0.9186 2.0385
-2.8505 -1.1512 2.0385
-2.7488 -1.3763 2.0385
-2.6295 -1.5925 2.0385
-2.4932 -1.7985 2.0385
-2.3407 -1.9928 2.0385
-2.1732 -2.1743 2.0385
-0.7249 -0.8523 0.7419
-0.6540 -0.9076 0.7418
-0.5790 -0.9571 0.7417
-0.5002 -1.0003 0.7416
-0.4183 -1.0372 0.7416
-0.3336 -1.0673 0.7415
-0.2468 -1.0906 0.7415
-0.1585 -1.1069 0.7414
-0.0691 -1.1160 0.7414
0.0207 -1.1179 0.7414
0.1104 -1.1127 0.7414
0.1993 -1.1003 0.7415
0.2870 -1.0807 0.7415
0.3729 -1.0543 0.7415
0.4564 -1.0210 0.7416
0.5369 -0.9812 0.7417
0.6140 -0.9350 0.7418
0.6872 -0.8828 0.7419
0.7560 -0.8249 0.7420
2.2522 -2.0924 2.0385
2.4129 -1.9048 2.0385
2.5580 -1.7050 2.0385
2.6866 -1.4941 2.0385
2.7979 -1.2736 2.0385
2.8911 -1.0449 2.0385
2.9657 -0.8094 2.0385
3.0211 -0.5688 2.0385
3.0570 -0.3244 2.0385
3.0732 -0.0779 2.0385
3.0695 0.1690 2.0385
3.0460 0.4149 2.0385
3.0029 0.6581 2.0385
2.9404 0.8970 2.0385
2.8589 1.1302 2.0385
2.7589 1.3560 2.0385
2.6411 1.5731 2.0385
2.5063 1.7801 2.0385
2.3553 1.9755 2.0385
2.1891 2.1582 2.0385
0.7342 0.8505 0.7450
0.6637 0.9068 0.7452
0.5888 0.9573 0.7452
0.5101 1.0016 0.7453
0.4281 1.0394 0.7454
0.3433 1.0705 0.7455
0.2563 1.0947 0.7455
0.1676 1.1117 0.7455
0.0778 1.1216 0.7455
-0.0125 1.1243 0.7455
-0.1027 1.1196 0.7455
-0.1923 1.1077 0.7455
-0.2806 1.0887 0.7455
-0.3670 1.0625 0.7454
-0.4511 1.0296 0.7454
-0.5323 0.9899 0.7453
-0.6099 0.9439 0.7452
-0.6837 0.8918 0.7451
-0.7529 0.8339 0.7450
-2.2367 2.1089 2.0385
-2.3988 1.9226 2.0385
-2.5454 1.7238 2.0385
-2.6755 1.5139 2.0385
-2.7884 1.2942 2.0385
-2.8833 1.0662 2.0385
-2.9596 0.8313 2.0385
-3.0168 0.5910 2.0385
-3.0545 0.3469 2.0385
-3.0725 0.1006 2.0385
-3.0707 -0.1464 2.0385
-3.0490 -0.3924 2.0385
-3.0076 -0.6359 2.0385
-2.9469 -0.8753 2.0385
-2.8671 -1.1091 2.0385
-2.7688 -1.3357 2.0385
-2.6527 -1.5536 2.0385
-2.5194 -1.7616 2.0385
-2.3698 -1.9581 2.0385
-2.2050 -2.1421 2.0385
-0.7373 -0.8415 0.7419
-0.6673 -0.8979 0.7418
-0.5930 -0.9484 0.7417
-0.5149 -0.9929 0.7416
-0.4335 -1.0309 0.7416
-0.3493 -1.0623 0.7415
-0.2629 -1.0869 0.7415
-0.1748 -1.1044 0.7414
-0.0855 -1.1148 0.7414
0.0042 -1.1181 0.7414
0.0940 -1.1142 0.7414
0.1831 -1.1031 0.7414
0.2711 -1.0849 0.7415
0.3573 -1.0596 0.7415
0.4413 -1.0276 0.7416
0.5224 -0.9890 0.7417
0.6002 -0.9440 0.7417
0.6741 -0.8928 0.7418
0.7437 -0.8360 0.7419
2.2211 -2.1253 2.0385
2.3846 -1.9402 2.0385
2.5326 -1.7425 2.0385
2.6643 -1.5335 2.0385
0.6792 0.8106 0.7450
0.6120 0.8627 0.7451
0.5409 0.9091 0.7452
0.4662 0.9497 0.7452
0.3885 0.9841 0.7453
0.3082 1.0122 0.7453
0.2260 1.0338 0.7454
0.1423 1.0486 0.7454
0.0576 1.0567 0.7454
-0.0274 1.0579 0.7454
-0.1122 1.0522 0.7454
-0.1963 1.0398 0.7454
-0.2791 1.0206 0.7454
-0.3602 0.9949 0.7453
-0.4388 0.9627 0.7452
-0.5146 0.9242 0.7452
-0.5871 0.8799 0.7451
-0.6558 0.8298 0.7450
-0.7202 0.7744 0.7449
-2.1345 1.9540 2.0385
-2.2845 1.7764 2.0385
-2.4197 1.5872 2.0385
-2.5393 1.3878 2.0385
-2.6426 1.1795 2.0385
-2.7287 0.9636 2.0385
-2.7973 0.7414 2.0385
-2.8478 0.5145 2.0385
-2.8799 0.2842 2.0385
-2.8934 0.0521 2.0385
-2.8882 -0.1804 2.0385
-2.8644 -0.4117 2.0385
-2.8221 -0.6403 2.0385
-2.7616 -0.8648 2.0385
-2.6833 -1.0837 2.0385
