ply
format ascii 1.0
element vertex 2179
property float32 x
property float32 y
property float32 z
end_header
0.3880 -1.9252 0.7399
0.5418 -1.8878 0.7400
0.6922 -1.8383 0.7401
2.3002 -4.8765 2.0315
2.6855 -4.6755 2.0315
3.0533 -4.4440 2.0315
3.4013 -4.1836 2.0315
3.7272 -3.8961 2.0315
3.8611 -3.4341 1.9469
3.9815 -3.0035 1.8791
4.2104 -2.6732 1.8791
4.4121 -2.3254 1.8791
4.5850 -1.9625 1.8791
4.7282 -1.5868 1.8791
4.8406 -1.2009 1.8791
4.9216 -0.8071 1.8791
4.9706 -0.4081 1.8791
4.9873 -0.0065 1.8791
4.9716 0.3952 1.8791
4.9237 0.7943 1.8791
4.8437 1.1883 1.8791
4.7323 1.5745 1.8791
4.5901 1.9506 1.8791
4.4181 2.3139 1.8791
4.2174 2.6622 1.8791
3.9893 2.9932 1.8791
3.9271 3.4745 1.9756
3.7373 3.8864 2.0315
3.4122 4.1748 2.0315
3.0648 4.4360 2.0315
2.6976 4.6685 2.0315
2.3129 4.8706 2.0315
0.7034 1.8534 0.7469
0.5519 1.9042 0.7470
0.3968 1.9427 0.7471
0.2390 1.9684 0.7471
0.2168 5.3875 2.0315
-0.2178 5.3874 2.0315
-0.2394 1.9684 0.7471
-0.3971 1.9426 0.7471
-0.5522 1.9041 0.7470
-0.7037 1.8532 0.7469
-2.3138 4.8701 2.0315
-2.6985 4.6679 2.0315
-3.0657 4.4354 2.0315
-3.4130 4.1741 2.0315
-3.7381 3.8857 2.0315
-4.0389 3.5720 2.0315
-4.3134 3.2351 2.0315
-4.5600 2.8772 2.0315
-4.7769 2.5006 2.0315
-4.9628 2.1078 2.0315
-5.1164 1.7012 2.0315
-5.2368 1.2837 2.0315
-5.3232 0.8577 2.0315
-5.3749 0.4262 2.0315
-5.3918 -0.0081 2.0315
-5.3736 -0.4423 2.0315
-5.3206 -0.8736 2.0315
-5.2329 -1.2993 2.0315
-5.1113 -1.7165 2.0315
-4.9564 -2.1226 2.0315
-4.7694 -2.5149 2.0315
-4.5513 -2.8908 2.0315
-4.3037 -3.2480 2.0315
-4.0282 -3.5841 2.0315
-3.7264 -3.8969 2.0315
-3.4005 -4.1843 2.0315
-3.0524 -4.4446 2.0315
-2.6846 -4.6760 2.0315
-2.2993 -4.8770 2.0315
-0.6918 -1.8384 0.7401
-0.5414 -1.8879 0.7400
-0.3876 -1.9252 0.7399
-0.2313 -1.9501 0.7399
-0.0735 -1.9623 0.7399
0.0848 -1.9619 0.7399
0.2426 -1.9487 0.7399
0.3987 -1.9230 0.7399
0.5524 -1.8848 0.7400
0.7025 -1.8344 0.7401
2.3274 -4.8636 2.0315
2.7116 -4.6604 2.0315
3.0781 -4.4268 2.0315
3.4246 -4.1646 2.0315
3.7489 -3.8752 2.0315
3.8631 -3.3974 1.9383
3.9982 -2.9813 1.8791
4.2253 -2.6496 1.8791
4.4250 -2.3007 1.8791
4.5959 -1.9368 1.8791
4.7369 -1.5604 1.8791
4.8472 -1.1738 1.8791
4.9260 -0.7796 1.8791
4.9728 -0.3804 1.8791
4.9873 0.0214 1.8791
4.9694 0.4230 1.8791
4.9191 0.8218 1.8791
4.8370 1.2154 1.8791
4.7234 1.6010 1.8791
4.5791 1.9762 1.8791
4.4051 2.3385 1.8791
-0.2330 -1.7934 0.7402
-0.0878 -1.8063 0.7402
0.0579 -1.8075 0.7402
0.2033 -1.7970 0.7402
0.3474 -1.7749 0.7402
0.4893 -1.7413 0.7403
0.6280 -1.6965 0.7404
0.7627 -1.6406 0.7405
2.4482 -4.3179 2.0315
2.7880 -4.1067 2.0315
3.1096 -3.8688 2.0315
3.4111 -3.6058 2.0315
3.6905 -3.3194 2.0315
3.8588 -2.9450 1.9867
3.8848 -2.4968 1.8901
4.0497 -2.1634 1.8791
4.2108 -1.8302 1.8791
4.3445 -1.4851 1.8791
4.4500 -1.1304 1.8791
4.5265 -0.7683 1.8791
4.5737 -0.4013 1.8791
4.5912 -0.0316 1.8791
4.5788 0.3383 1.8791
4.5367 0.7059 1.8791
4.4651 1.0690 1.8791
4.3645 1.4252 1.8791
4.2356 1.7720 1.8791
4.0791 2.1074 1.8791
3.9312 2.4509 1.8960
3.9174 2.9052 1.9961
3.7358 3.2683 2.0315
3.4605 3.5585 2.0315
3.1626 3.8257 2.0315
2.8442 4.0679 2.0315
2.5074 4.2838 2.0315
0.7916 1.6433 0.7465
0.6568 1.7019 0.7466
0.5176 1.7495 0.7467
0.3751 1.7856 0.7468
0.2301 1.8102 0.7468
0.0835 1.8229 0.7468
-0.0635 1.8237 0.7468
-0.2102 1.8126 0.7468
-0.3555 1.7897 0.7468
-0.4984 1.7551 0.7467
-0.6381 1.7090 0.7466
-0.7735 1.6519 0.7465
-2.4602 4.3111 2.0315
-2.7994 4.0989 2.0315
-3.1204 3.8602 2.0315
-3.4212 3.5963 2.0315
-3.6997 3.3091 2.0315
-3.9542 3.0004 2.0315
-4.1830 2.6722 2.0315
-4.3846 2.3266 2.0315
-4.5578 1.9659 2.0315
-4.7013 1.5924 2.0315
-4.8143 1.2086 2.0315
-4.8960 0.8170 2.0315
-4.9459 0.4200 2.0315
-4.9636 0.0203 2.0315
-4.9491 -0.3795 2.0315
-4.9025 -0.7769 2.0315
-4.8240 -1.1692 2.0315
-4.7142 -1.5539 2.0315
-4.5737 -1.9285 2.0315
-4.4035 -2.2906 2.0315
-4.2047 -2.6378 2.0315
-3.9786 -2.9679 2.0315
-3.7267 -3.2787 2.0315
-3.4505 -3.5682 2.0315
-3.1519 -3.8345 2.0315
-2.8329 -4.0759 2.0315
-2.4954 -4.2908 2.0315
-0.7806 -1.6321 0.7405
-0.6466 -1.6895 0.7404
-0.5083 -1.7359 0.7403
-0.3669 -1.7710 0.7402
-0.2230 -1.7947 0.7402
-0.0778 -1.8068 0.7402
0.0680 -1.8072 0.7402
0.2133 -1.7959 0.7402
0.3573 -1.7730 0.7402
0.4990 -1.7386 0.7403
0.6375 -1.6929 0.7404
0.7718 -1.6363 0.7405
2.4722 -4.3042 2.0315
2.8109 -4.0911 2.0315
3.1312 -3.8514 2.0315
3.4312 -3.5867 2.0315
3.7090 -3.2987 2.0315
3.8606 -2.9124 1.9792
3.8895 -2.4694 1.8856
4.0617 -2.1407 1.8791
4.2209 -1.8066 1.8791
4.3527 -1.4608 1.8791
4.4562 -1.1055 1.8791
4.5308 -0.7430 1.8791
4.5759 -0.3757 1.8791
4.5913 -0.0060 1.8791
4.5769 0.3638 1.8791
4.5327 0.7313 1.8791
4.4591 1.0939 1.8791
4.3565 1.4495 1.8791
4.2256 1.7957 1.8791
4.0672 2.1302 1.8791
3.9304 2.4811 1.9023
3.9163 2.9385 2.0039
3.7175 3.2891 2.0315
3.4405 3.5778 2.0315
3.1412 3.8433 2.0315
2.8215 4.0838 2.0315
2.4834 4.2978 2.0315
0.7824 1.6477 0.7465
0.6473 1.7056 0.7466
0.5079 1.7524 0.7467
0.3651 1.7877 0.7468
0.2200 1.8114 0.7468
0.0734 1.8233 0.7468
-0.0737 1.8233 0.7468
-0.2203 1.8114 0.7468
-0.3655 1.7876 0.7468
-0.5082 1.7522 0.7467
-0.6476 1.7054 0.7466
-2.1301 4.4834 2.0315
-2.4843 4.2972 2.0315
-2.8223 4.0832 2.0315
-3.1420 3.8427 2.0315
-3.4412 3.5771 2.0315
-3.7182 3.2884 2.0315
-3.9709 2.9782 2.0315
-4.1979 2.6488 2.0315
-4.3976 2.3020 2.0315
-4.5687 1.9404 2.0315
-4.7101 1.5661 2.0315
-4.8209 1.1817 2.0315
-4.9005 0.7896 2.0315
-4.9481 0.3924 2.0315
-4.9637 -0.0074 2.0315
-4.9469 -0.4072 2.0315
-4.8981 -0.8043 2.0315
-4.8174 -1.1961 2.0315
-4.7054 -1.5802 2.0315
-4.5629 -1.9540 2.0315
-4.3907 -2.3152 2.0315
-4.1899 -2.6613 2.0315
-3.9620 -2.9901 2.0315
-3.7083 -3.2994 2.0315
-3.4305 -3.5874 2.0315
-3.1305 -3.8520 2.0315
-2.8101 -4.0916 2.0315
-2.4714 -4.3047 2.0315
-0.7715 -1.6365 0.7405
-0.6371 -1.6930 0.7404
-0.4986 -1.7387 0.7403
-0.3570 -1.7730 0.7402
-0.2130 -1.7959 0.7402
-0.0677 -1.8072 0.7402
0.0781 -1.8068 0.7402
0.2234 -1.7947 0.7402
0.3672 -1.7709 0.7402
0.5087 -1.7358 0.7403
0.6469 -1.6894 0.7404
0.7810 -1.6320 0.7405
2.4963 -4.2903 2.0315
2.8337 -4.0753 2.0315
3.1527 -3.8339 2.0315
3.4512 -3.5675 2.0315
3.7273 -3.2780 2.0315
3.8623 -2.8799 1.9718
3.8942 -2.4420 1.8812
4.0736 -2.1180 1.8791
4.2309 -1.7830 1.8791
4.3608 -1.4365 1.8791
4.4623 -1.0806 1.8791
4.5349 -0.7177 1.8791
4.5779 -0.3501 1.8791
4.5913 0.0197 1.8791
4.5748 0.3894 1.8791
4.5285 0.7566 1.8791
4.4529 1.1188 1.8791
4.3483 1.4738 1.8791
4.2155 1.8192 1.8791
4.0553 2.1528 1.8791
-0.2156 -1.6592 0.7404
-0.0813 -1.6711 0.7404
0.0536 -1.6722 0.7404
0.1881 -1.6625 0.7404
0.3214 -1.6421 0.7405
0.4526 -1.6110 0.7405
0.5810 -1.5695 0.7406
0.7056 -1.5178 0.7407
2.2642 -3.9934 2.0315
2.5784 -3.7981 2.0315
2.8759 -3.5781 2.0315
3.1548 -3.3349 2.0315
3.4131 -3.0699 2.0315
3.6493 -2.7851 2.0315
3.8559 -2.4784 2.0284
3.8757 -2.0704 1.9445
3.9009 -1.6955 1.8823
4.0180 -1.3735 1.8791
4.1155 -1.0454 1.8791
4.1864 -0.7106 1.8791
4.2300 -0.3711 1.8791
4.2461 -0.0292 1.8791
4.2347 0.3128 1.8791
4.1957 0.6529 1.8791
4.1295 0.9887 1.8791
4.0365 1.3180 1.8791
3.9316 1.6449 1.8860
3.9167 2.0235 1.9509
3.8955 2.4287 2.0315
3.6873 2.7346 2.0315
3.4551 3.0226 2.0315
3.2004 3.2911 2.0315
2.9249 3.5382 2.0315
2.6305 3.7622 2.0315
2.3189 3.9619 2.0315
0.7319 1.5193 0.7463
0.6072 1.5735 0.7464
0.4786 1.6175 0.7465
0.3468 1.6509 0.7465
0.2127 1.6736 0.7466
0.0772 1.6853 0.7466
-0.0587 1.6860 0.7466
-0.1943 1.6758 0.7466
-0.3286 1.6546 0.7465
-0.4608 1.6226 0.7465
-0.5899 1.5801 0.7464
-0.7152 1.5272 0.7463
-2.2753 3.9871 2.0315
-2.5890 3.7909 2.0315
-2.8859 3.5701 2.0315
-3.1641 3.3260 2.0315
-3.4217 3.0604 2.0315
-3.6570 2.7749 2.0315
-3.8686 2.4713 2.0315
-4.0551 2.1517 2.0315
-4.2152 1.8182 2.0315
-4.3480 1.4728 2.0315
-4.4525 1.1178 2.0315
-4.5280 0.7556 2.0315
-4.5742 0.3884 2.0315
-4.5906 0.0188 2.0315
-4.5772 -0.3510 2.0315
-4.5340 -0.7185 2.0315
-4.4615 -1.0813 2.0315
-4.3599 -1.4372 2.0315
-4.2300 -1.7836 2.0315
-4.0726 -2.1185 2.0315
-3.8887 -2.4396 2.0315
-3.6796 -2.7448 2.0315
-3.4466 -3.0323 2.0315
-3.1912 -3.3000 2.0315
-2.9150 -3.5463 2.0315
-2.6200 -3.7695 2.0315
-2.3079 -3.9683 2.0315
-0.7222 -1.5099 0.7407
-0.5982 -1.5630 0.7406
-0.4703 -1.6059 0.7405
-0.3394 -1.6384 0.7405
-0.2063 -1.6604 0.7404
-0.0719 -1.6715 0.7404
0.0629 -1.6719 0.7404
0.1974 -1.6615 0.7404
0.3306 -1.6402 0.7405
0.4616 -1.6084 0.7405
0.5897 -1.5662 0.7406
0.7140 -1.5138 0.7407
2.2864 -3.9807 2.0315
2.5996 -3.7836 2.0315
2.8959 -3.5620 2.0315
3.1734 -3.3172 2.0315
3.4302 -3.0508 2.0315
3.6648 -2.7646 2.0315
3.8574 -2.4490 2.0220
3.8769 -2.0433 1.9394
3.9041 -1.6710 1.8793
4.0256 -1.3510 1.8791
4.1213 -1.0224 1.8791
4.1903 -0.6872 1.8791
4.2320 -0.3475 1.8791
4.2462 -0.0055 1.8791
4.2329 0.3365 1.8791
4.1920 0.6763 1.8791
4.1240 1.0117 1.8791
4.0291 1.3406 1.8791
3.9288 1.6695 1.8891
3.9160 2.0509 1.9562
3.8819 2.4504 2.0315
3.6719 2.7551 2.0315
3.4381 3.0419 2.0315
3.1820 3.3089 2.0315
2.9051 3.5544 2.0315
2.6094 3.7769 2.0315
2.2968 3.9748 2.0315
0.7234 1.5234 0.7463
0.5984 1.5769 0.7464
0.4695 1.6201 0.7465
0.3376 1.6528 0.7465
0.2034 1.6747 0.7466
0.0678 1.6857 0.7466
-0.0682 1.6857 0.7466
-0.2037 1.6747 0.7466
-0.3379 1.6527 0.7465
-0.4699 1.6200 0.7465
-0.5987 1.5767 0.7464
-0.7237 1.5232 0.7463
-2.2976 3.9743 2.0315
-2.6102 3.7764 2.0315
-2.9058 3.5539 2.0315
-3.1826 3.3083 2.0315
-3.4387 3.0412 2.0315
-3.6725 2.7544 2.0315
-3.8824 2.4497 2.0315
-4.0671 2.1290 2.0315
-4.2253 1.7946 2.0315
-4.3561 1.4484 2.0315
-4.4586 1.0929 2.0315
-4.5322 0.7303 2.0315
-4.5763 0.3629 2.0315
-4.5906 -0.0069 2.0315
-4.5752 -0.3765 2.0315
-4.5300 -0.7438 2.0315
-4.4553 -1.1062 2.0315
-4.3518 -1.4613 2.0315
-4.2199 -1.8072 2.0315
-4.0607 -2.1412 2.0315
-3.8750 -2.4613 2.0315
-3.6642 -2.7654 2.0315
-3.4296 -3.0515 2.0315
-3.1727 -3.3178 2.0315
-2.8952 -3.5625 2.0315
-2.5989 -3.7841 2.0315
-2.2857 -3.9812 2.0315
-0.7137 -1.5139 0.7407
-0.5894 -1.5663 0.7406
-0.4613 -1.6085 0.7405
-0.3302 -1.6403 0.7405
-0.1970 -1.6615 0.7404
-0.0626 -1.6719 0.7404
0.0723 -1.6715 0.7404
0.2067 -1.6603 0.7404
0.3397 -1.6384 0.7405
0.4706 -1.6058 0.7405
0.5985 -1.5629 0.7406
0.7225 -1.5098 0.7407
2.3086 -3.9679 2.0315
2.6207 -3.7690 2.0315
2.9158 -3.5457 2.0315
3.1918 -3.2994 2.0315
3.4472 -3.0316 2.0315
3.6802 -2.7441 2.0315
3.8589 -2.4198 2.0157
3.8781 -2.0163 1.9343
3.9130 -1.6490 1.8791
4.0331 -1.3285 1.8791
4.1270 -0.9994 1.8791
4.1940 -0.6638 1.8791
4.2339 -0.3238 1.8791
4.2462 0.0182 1.8791
4.2309 0.3601 1.8791
4.1882 0.6997 1.8791
4.1182 1.0348 1.8791
4.0215 1.3631 1.8791
3.9259 1.6941 1.8922
3.9153 2.0785 1.9616
-0.2002 -1.5410 0.7406
-0.0755 -1.5520 0.7406
0.0498 -1.5531 0.7406
0.1747 -1.5441 0.7406
0.2985 -1.5250 0.7407
0.4204 -1.4962 0.7407
0.5396 -1.4576 0.7408
0.6553 -1.4096 0.7409
0.7668 -1.3524 0.7410
2.3940 -3.5264 2.0315
2.6702 -3.3221 2.0315
2.9291 -3.0963 2.0315
3.1689 -2.8503 2.0315
3.3882 -2.5858 2.0315
3.5855 -2.3046 2.0315
3.7594 -2.0083 2.0315
3.8675 -1.6810 2.0100
3.8814 -1.3268 1.9551
3.8924 -0.9888 1.9142
3.9056 -0.6628 1.8882
3.9274 -0.3445 1.8791
3.9424 -0.0271 1.8791
3.9318 0.2905 1.8791
3.9173 0.6094 1.8896
3.9117 0.9365 1.9171
3.9074 1.2759 1.9592
3.9007 1.6319 2.0153
3.7867 1.9564 2.0315
3.6169 2.2550 2.0315
3.4235 2.5389 2.0315
3.2079 2.8064 2.0315
2.9715 3.0556 2.0315
2.7157 3.2851 2.0315
2.4423 3.4931 2.0315
0.7906 1.3507 0.7460
0.6793 1.4102 0.7461
0.5636 1.4605 0.7462
0.4442 1.5013 0.7462
0.3219 1.5323 0.7463
0.1974 1.5534 0.7463
0.0717 1.5643 0.7464
-0.0545 1.5650 0.7464
-0.1804 1.5554 0.7463
-0.3050 1.5358 0.7463
-0.4277 1.5061 0.7462
-0.5476 1.4666 0.7462
-0.6638 1.4176 0.7461
-2.1125 3.7019 2.0315
-2.4038 3.5197 2.0315
-2.6795 3.3147 2.0315
-2.9377 3.0881 2.0315
-3.1769 2.8415 2.0315
-3.3954 2.5764 2.0315
-3.5919 2.2945 2.0315
-3.7650 1.9978 2.0315
-3.9137 1.6881 2.0315
-4.0369 1.3674 2.0315
-4.1339 1.0378 2.0315
-4.2041 0.7015 2.0315
-4.2469 0.3607 2.0315
-4.2622 0.0174 2.0315
-4.2497 -0.3259 2.0315
-4.2097 -0.6671 2.0315
-4.1423 -1.0040 2.0315
-4.0480 -1.3343 2.0315
-3.9274 -1.6560 2.0315
-3.7812 -1.9669 2.0315
-3.6105 -2.2651 2.0315
-3.4164 -2.5485 2.0315
-3.2000 -2.8154 2.0315
-2.9629 -3.0639 2.0315
-2.7065 -3.2926 2.0315
-2.4325 -3.4999 2.0315
-0.7816 -1.3439 0.7410
-0.6707 -1.4023 0.7409
-0.5555 -1.4516 0.7408
-0.4368 -1.4915 0.7407
-0.3152 -1.5217 0.7407
-0.1916 -1.5420 0.7406
-0.0668 -1.5524 0.7406
0.0584 -1.5528 0.7406
0.1833 -1.5431 0.7406
0.3070 -1.5234 0.7407
0.4287 -1.4938 0.7407
0.5477 -1.4546 0.7408
0.6631 -1.4059 0.7409
0.7743 -1.3481 0.7410
2.4136 -3.5129 2.0315
2.6887 -3.3071 2.0315
2.9463 -3.0798 2.0315
3.1848 -2.8326 2.0315
3.4026 -2.5669 2.0315
3.5983 -2.2845 2.0315
3.7706 -1.9873 2.0315
3.8686 -1.6558 2.0057
3.8822 -1.3029 1.9518
3.8931 -0.9658 1.9118
3.9070 -0.6407 1.8871
3.9293 -0.3225 1.8791
3.9425 -0.0052 1.8791
3.9301 0.3125 1.8791
3.9164 0.6319 1.8908
3.9115 0.9596 1.9196
3.9071 1.3000 1.9626
3.9001 1.6574 2.0198
3.7757 1.9775 2.0315
3.6042 2.2751 2.0315
3.4093 2.5580 2.0315
3.1922 2.8243 2.0315
2.9543 3.0722 2.0315
2.6973 3.3002 2.0315
2.4228 3.5067 2.0315
0.7831 1.3551 0.7460
0.6715 1.4140 0.7461
0.5555 1.4637 0.7462
0.4358 1.5038 0.7463
0.3133 1.5341 0.7463
0.1888 1.5545 0.7463
0.0630 1.5646 0.7464
-0.0633 1.5646 0.7464
-0.1891 1.5544 0.7463
-0.3136 1.5341 0.7463
-0.4361 1.5037 0.7462
-0.5558 1.4635 0.7462
-0.6717 1.4139 0.7461
-2.1332 3.6900 2.0315
-2.4234 3.5062 2.0315
-2.6980 3.2996 2.0315
-2.9549 3.0716 2.0315
-3.1927 2.8237 2.0315
-3.4098 2.5574 2.0315
-3.6046 2.2744 2.0315
-3.7761 1.9767 2.0315
-3.9231 1.6662 2.0315
-4.0445 1.3448 2.0315
-4.1397 1.0147 2.0315
-4.2079 0.6780 2.0315
-4.2489 0.3369 2.0315
-4.2622 -0.0064 2.0315
-4.2479 -0.3496 2.0315
-4.2059 -0.6906 2.0315
-4.1366 -1.0271 2.0315
-4.0405 -1.3569 2.0315
-3.9181 -1.6779 2.0315
-3.7702 -1.9880 2.0315
-3.5978 -2.2852 2.0315
-3.4021 -2.5675 2.0315
-3.1843 -2.8332 2.0315
-2.9457 -3.0804 2.0315
-2.6881 -3.3077 2.0315
-2.4130 -3.5134 2.0315
-0.7741 -1.3482 0.7410
-0.6629 -1.4060 0.7409
-0.5474 -1.4546 0.7408
-0.4284 -1.4939 0.7407
-0.3067 -1.5234 0.7407
-0.1830 -1.5431 0.7406
-0.0581 -1.5528 0.7406
0.0671 -1.5524 0.7406
0.1919 -1.5420 0.7406
0.3155 -1.5216 0.7407
0.4371 -1.4914 0.7407
0.5558 -1.4515 0.7408
0.6710 -1.4022 0.7409
0.7819 -1.3438 0.7410
2.4332 -3.4994 2.0315
2.7072 -3.2921 2.0315
2.9635 -3.0633 2.0315
3.2006 -2.8147 2.0315
3.4169 -2.5478 2.0315
3.6110 -2.2643 2.0315
3.7816 -1.9662 2.0315
3.8696 -1.6307 2.0015
3.8831 -1.2791 1.9486
3.8938 -0.9430 1.9095
3.9083 -0.6185 1.8860
3.9310 -0.3007 1.8791
3.9424 0.0169 1.8791
3.9283 0.3344 1.8791
3.9153 0.6540 1.8920
3.9113 0.9828 1.9222
3.9067 1.3241 1.9661
3.8996 1.6829 2.0243
3.7646 1.9985 2.0315
-0.1866 -1.4358 0.7408
-0.0703 -1.4462 0.7408
0.0464 -1.4471 0.7408
0.1628 -1.4387 0.7408
0.2781 -1.4210 0.7409
0.3917 -1.3941 0.7409
0.5027 -1.3581 0.7410
0.6106 -1.3134 0.7411
0.7145 -1.2601 0.7412
2.2301 -3.2850 2.0315
2.4874 -3.0947 2.0315
2.7286 -2.8843 2.0315
2.9520 -2.6552 2.0315
3.1563 -2.4088 2.0315
3.3400 -2.1468 2.0315
3.5021 -1.8708 2.0315
3.6414 -1.5827 2.0315
3.7570 -1.2843 2.0315
3.8482 -0.9775 2.0315
3.8776 -0.6582 2.0124
3.8841 -0.3408 1.9950
3.8884 -0.0268 1.9896
3.8904 0.2874 1.9960
3.8903 0.6054 2.0144
3.8613 0.9245 2.0315
3.7743 1.2324 2.0315
3.6628 1.5324 2.0315
3.5275 1.8224 2.0315
3.3693 2.1006 2.0315
3.1891 2.3651 2.0315
2.9883 2.6143 2.0315
2.7680 2.8465 2.0315
2.5298 3.0602 2.0315
2.2751 3.2540 2.0315
0.7363 1.2580 0.7458
0.6327 1.3134 0.7459
0.5249 1.3602 0.7460
0.4137 1.3982 0.7461
0.2998 1.4271 0.7461
0.1839 1.4467 0.7461
0.0668 1.4568 0.7462
-0.0508 1.4574 0.7462
-0.1680 1.4486 0.7461
-0.2841 1.4303 0.7461
-0.3983 1.4027 0.7461
-0.5100 1.3659 0.7460
-0.6182 1.3202 0.7459
-0.7225 1.2660 0.7458
-2.2393 3.2788 2.0315
-2.4961 3.0878 2.0315
-2.7366 2.8767 2.0315
-2.9594 2.6470 2.0315
-3.1630 2.4000 2.0315
-3.3460 2.1375 2.0315
-3.5073 1.8610 2.0315
-3.6458 1.5725 2.0315
-3.7606 1.2738 2.0315
-3.8510 0.9668 2.0315
-3.9163 0.6535 2.0315
-3.9562 0.3360 2.0315
-3.9704 0.0163 2.0315
-3.9588 -0.3036 2.0315
-3.9215 -0.6214 2.0315
-3.8587 -0.9352 2.0315
-3.7709 -1.2430 2.0315
-3.6585 -1.5426 2.0315
-3.5224 -1.8323 2.0315
-3.3634 -2.1100 2.0315
-3.1825 -2.3740 2.0315
-2.9810 -2.6226 2.0315
-2.7601 -2.8542 2.0315
-2.5212 -3.0672 2.0315
-2.2660 -3.2603 2.0315
-0.7282 -1.2522 0.7412
-0.6249 -1.3066 0.7411
-0.5176 -1.3525 0.7410
-0.4070 -1.3897 0.7409
-0.2937 -1.4179 0.7409
-0.1786 -1.4369 0.7408
-0.0623 -1.4465 0.7408
0.0545 -1.4469 0.7408
0.1708 -1.4378 0.7408
0.2861 -1.4194 0.7409
0.3995 -1.3919 0.7409
0.5103 -1.3553 0.7410
0.6179 -1.3100 0.7411
0.7215 -1.2561 0.7412
2.2484 -3.2725 2.0315
2.5047 -3.0808 2.0315
2.7447 -2.8690 2.0315
2.9668 -2.6387 2.0315
3.1697 -2.3912 2.0315
3.3520 -2.1281 2.0315
3.5125 -1.8512 2.0315
3.6502 -1.5623 2.0315
3.7641 -1.2633 2.0315
3.8536 -0.9560 2.0315
3.8782 -0.6360 2.0108
3.8845 -0.3190 1.9942
3.8886 -0.0050 1.9896
3.8905 0.3093 1.9969
3.8902 0.6276 2.0162
3.8561 0.9460 2.0315
3.7674 1.2535 2.0315
3.6542 1.5529 2.0315
3.5173 1.8421 2.0315
3.3575 2.1194 2.0315
3.1759 2.3829 2.0315
2.9736 2.6310 2.0315
2.7521 2.8619 2.0315
2.5127 3.0743 2.0315
2.2569 3.2666 2.0315
0.7293 1.2621 0.7458
0.6254 1.3169 0.7459
0.5173 1.3631 0.7460
0.4059 1.4005 0.7461
0.2918 1.4287 0.7461
0.1758 1.4477 0.7461
0.0586 1.4572 0.7462
-0.0589 1.4571 0.7462
-0.1761 1.4476 0.7461
-0.2921 1.4287 0.7461
-0.4062 1.4004 0.7461
-0.5176 1.3630 0.7460
-0.6256 1.3168 0.7459
-0.7295 1.2619 0.7458
-2.2576 3.2662 2.0315
-2.5133 3.0738 2.0315
-2.7527 2.8614 2.0315
-2.9742 2.6304 2.0315
-3.1763 2.3823 2.0315
-3.3579 2.1187 2.0315
-3.5176 1.8414 2.0315
-3.6545 1.5521 2.0315
-3.7676 1.2528 2.0315
-3.8563 0.9453 2.0315
-3.9199 0.6316 2.0315
-3.9580 0.3139 2.0315
-3.9705 -0.0059 2.0315
-3.9571 -0.3257 2.0315
-3.9180 -0.6433 2.0315
-3.8535 -0.9568 2.0315
-3.7639 -1.2640 2.0315
-3.6498 -1.5630 2.0315
-3.5121 -1.8519 2.0315
-3.3515 -2.1288 2.0315
-3.1692 -2.3918 2.0315
-2.9663 -2.6392 2.0315
-2.7441 -2.8696 2.0315
-2.5041 -3.0813 2.0315
-2.2478 -3.2729 2.0315
-0.7212 -1.2562 0.7412
-0.6176 -1.3101 0.7411
-0.5101 -1.3554 0.7410
-0.3992 -1.3920 0.7409
-0.2858 -1.4195 0.7409
-0.1705 -1.4378 0.7408
-0.0542 -1.4469 0.7408
0.0625 -1.4465 0.7408
0.1788 -1.4368 0.7408
0.2940 -1.4178 0.7409
0.4073 -1.3896 0.7409
0.5179 -1.3525 0.7410
0.6252 -1.3065 0.7411
0.7285 -1.2521 0.7412
2.2667 -3.2599 2.0315
2.5219 -3.0667 2.0315
2.7606 -2.8537 2.0315
2.9815 -2.6220 2.0315
3.1830 -2.3734 2.0315
3.3638 -2.1094 2.0315
3.5228 -1.8316 2.0315
3.6588 -1.5419 2.0315
3.7711 -1.2422 2.0315
3.8589 -0.9345 2.0315
3.8787 -0.6139 2.0092
3.8849 -0.2971 1.9935
3.8888 0.0167 1.9897
3.8905 0.3312 1.9978
3.8901 0.6499 2.0180
3.8508 0.9676 2.0315
3.7603 1.2745 2.0315
3.6455 1.5732 2.0315
3.5069 1.8618 2.0315
-0.1743 -1.3417 0.7410
-0.0657 -1.3513 0.7410
0.0433 -1.3522 0.7410
0.1521 -1.3444 0.7410
0.2599 -1.3278 0.7410
0.3660 -1.3026 0.7411
0.4698 -1.2690 0.7411
0.5705 -1.2272 0.7412
0.6676 -1.1774 0.7413
0.7603 -1.1200 0.7414
2.3237 -2.8910 2.0315
2.5490 -2.6945 2.0315
2.7577 -2.4804 2.0315
2.9485 -2.2503 2.0315
3.1202 -2.0055 2.0315
3.2716 -1.7477 2.0315
3.4017 -1.4785 2.0315
3.5097 -1.1998 2.0315
3.5950 -0.9132 2.0315
3.6568 -0.6207 2.0315
3.6949 -0.3242 2.0315
3.7090 -0.0255 2.0315
3.6990 0.2733 2.0315
3.6650 0.5703 2.0315
3.6072 0.8636 2.0315
3.5259 1.1513 2.0315
3.4217 1.4315 2.0315
3.2953 1.7025 2.0315
3.1475 1.9624 2.0315
2.9792 2.2095 2.0315
2.7916 2.4422 2.0315
2.5859 2.6591 2.0315
2.3633 2.8588 2.0315
0.7800 1.1156 0.7455
0.6877 1.1749 0.7456
0.5909 1.2267 0.7457
0.4903 1.2704 0.7458
0.3864 1.3059 0.7459
0.2800 1.3328 0.7459
0.1717 1.3511 0.7460
0.0624 1.3606 0.7460
-0.0474 1.3612 0.7460
-0.1569 1.3529 0.7460
-0.2653 1.3358 0.7459
-0.3720 1.3100 0.7459
-0.4763 1.2757 0.7458
-0.5774 1.2331 0.7457
-0.6748 1.1824 0.7457
-0.7677 1.1241 0.7455
-2.3318 2.8845 2.0315
-2.5565 2.6874 2.0315
-2.7646 2.4727 2.0315
-2.9548 2.2420 2.0315
-3.1258 1.9968 2.0315
-3.2764 1.7385 2.0315
-3.4058 1.4690 2.0315
-3.5131 1.1900 2.0315
-3.5975 0.9032 2.0315
-3.6585 0.6105 2.0315
-3.6958 0.3139 2.0315
-3.7091 0.0152 2.0315
-3.6983 -0.2836 2.0315
-3.6634 -0.5805 2.0315
-3.6048 -0.8737 2.0315
-3.5227 -1.1612 2.0315
-3.4177 -1.4411 2.0315
-3.2906 -1.7117 2.0315
-3.1420 -1.9711 2.0315
-2.9731 -2.2178 2.0315
-2.7848 -2.4500 2.0315
-2.5784 -2.6663 2.0315
-2.3553 -2.8653 2.0315
-0.7726 -1.1116 0.7414
-0.6805 -1.1700 0.7413
-0.5839 -1.2209 0.7412
-0.4837 -1.2638 0.7411
-0.3803 -1.2985 0.7411
-0.2744 -1.3249 0.7410
-0.1668 -1.3426 0.7410
-0.0582 -1.3517 0.7410
0.0509 -1.3519 0.7410
0.1596 -1.3435 0.7410
0.2673 -1.3263 0.7410
0.3733 -1.3006 0.7411
0.4768 -1.2664 0.7411
0.5774 -1.2240 0.7412
0.6741 -1.1737 0.7413
0.7666 -1.1157 0.7414
2.3398 -2.8780 2.0315
2.5640 -2.6802 2.0315
2.7715 -2.4650 2.0315
2.9611 -2.2338 2.0315
3.1313 -1.9880 2.0315
3.2813 -1.7294 2.0315
3.4099 -1.4595 2.0315
3.5164 -1.1801 2.0315
3.6000 -0.8931 2.0315
3.6602 -0.6002 2.0315
3.6967 -0.3035 2.0315
3.7091 -0.0048 2.0315
3.6975 0.2939 2.0315
3.6618 0.5908 2.0315
3.6023 0.8837 2.0315
3.5194 1.1710 2.0315
3.4137 1.4507 2.0315
3.2858 1.7209 2.0315
3.1365 1.9799 2.0315
2.9669 2.2261 2.0315
2.7779 2.4578 2.0315
2.5710 2.6735 2.0315
2.3473 2.8719 2.0315
0.7738 1.1199 0.7455
0.6811 1.1788 0.7457
0.5841 1.2300 0.7457
0.4832 1.2731 0.7458
0.3791 1.3080 0.7459
0.2725 1.3344 0.7459
0.1642 1.3521 0.7460
0.0548 1.3609 0.7460
-0.0550 1.3609 0.7460
-0.1644 1.3520 0.7460
-0.2728 1.3343 0.7459
-0.3793 1.3079 0.7459
-0.4834 1.2730 0.7458
-0.5843 1.2298 0.7457
-0.6814 1.1786 0.7456
-0.7740 1.1198 0.7455
-2.3478 2.8714 2.0315
-2.5715 2.6730 2.0315
-2.7784 2.4572 2.0315
-2.9673 2.2255 2.0315
-3.1369 1.9793 2.0315
-3.2861 1.7202 2.0315
-3.4140 1.4500 2.0315
-3.5197 1.1703 2.0315
-3.6025 0.8831 2.0315
-3.6619 0.5900 2.0315
-3.6975 0.2932 2.0315
-3.7091 -0.0055 2.0315
-3.6966 -0.3043 2.0315
-3.6601 -0.6010 2.0315
-3.5998 -0.8938 2.0315
-3.5161 -1.1808 2.0315
-3.4096 -1.4602 2.0315
-3.2809 -1.7300 2.0315
-3.1310 -1.9887 2.0315
-2.9606 -2.2343 2.0315
-2.7711 -2.4655 2.0315
-2.5635 -2.6807 2.0315
-2.3393 -2.8784 2.0315
-0.7664 -1.1159 0.7414
-0.6739 -1.1738 0.7413
-0.5771 -1.2241 0.7412
-0.4766 -1.2665 0.7411
-0.3730 -1.3006 0.7411
-0.2670 -1.3264 0.7410
-0.1593 -1.3435 0.7410
-0.0506 -1.3520 0.7410
0.0584 -1.3516 0.7410
0.1671 -1.3426 0.7410
0.2747 -1.3248 0.7410
0.3805 -1.2985 0.7411
0.4839 -1.2637 0.7412
0.5842 -1.2208 0.7412
0.6807 -1.1699 0.7413
0.7728 -1.1114 0.7414
2.3559 -2.8649 2.0315
2.5789 -2.6658 2.0315
2.7853 -2.4495 2.0315
2.9735 -2.2172 2.0315
3.1424 -1.9705 2.0315
3.2909 -1.7110 2.0315
3.4180 -1.4404 2.0315
3.5229 -1.1605 2.0315
3.6049 -0.8730 2.0315
3.6635 -0.5798 2.0315
3.6983 -0.2829 2.0315
3.7091 0.0159 2.0315
3.6958 0.3146 2.0315
3.6584 0.6112 2.0315
3.5973 0.9039 2.0315
3.5128 1.1906 2.0315
3.4055 1.4697 2.0315
3.2761 1.7392 2.0315
-0.1633 -1.2566 0.7412
-0.0616 -1.2657 0.7411
0.0406 -1.2665 0.7411
0.1425 -1.2592 0.7412
0.2434 -1.2436 0.7412
0.3428 -1.2201 0.7412
0.4400 -1.1886 0.7413
0.5343 -1.1494 0.7414
0.6252 -1.1028 0.7415
0.7121 -1.0490 0.7416
2.1760 -2.7073 2.0315
2.3870 -2.5232 2.0315
2.5824 -2.3228 2.0315
2.7611 -2.1072 2.0315
2.9219 -1.8780 2.0315
3.0636 -1.6366 2.0315
3.1855 -1.3845 2.0315
3.2866 -1.1235 2.0315
3.3664 -0.8552 2.0315
3.4244 -0.5813 2.0315
3.4601 -0.3036 2.0315
3.4733 -0.0239 2.0315
3.4639 0.2559 2.0315
3.4321 0.5340 2.0315
3.3779 0.8087 2.0315
3.3018 1.0781 2.0315
3.2042 1.3406 2.0315
3.0859 1.5943 2.0315
2.9474 1.8376 2.0315
2.7899 2.0690 2.0315
2.6142 2.2870 2.0315
2.4215 2.4901 2.0315
2.2131 2.6770 2.0315
0.7303 1.0445 0.7454
0.6439 1.1000 0.7455
0.5533 1.1485 0.7456
0.4590 1.1894 0.7457
0.3618 1.2226 0.7457
0.2621 1.2479 0.7458
0.1608 1.2650 0.7458
0.0584 1.2738 0.7458
-0.0444 1.2744 0.7458
-0.1469 1.2667 0.7458
-0.2484 1.2507 0.7458
-0.3483 1.2265 0.7457
-0.4459 1.1944 0.7457
-0.5406 1.1545 0.7456
-0.6318 1.1071 0.7455
-0.7188 1.0524 0.7454
-2.1836 2.7012 2.0315
-2.3940 2.5165 2.0315
-2.5889 2.3156 2.0315
-2.7670 2.0995 2.0315
-2.9271 1.8699 2.0315
-3.0682 1.6280 2.0315
-3.1893 1.3757 2.0315
-3.2898 1.1143 2.0315
-3.3688 0.8458 2.0315
-3.4260 0.5717 2.0315
-3.4609 0.2939 2.0315
-3.4733 0.0142 2.0315
-3.4632 -0.2656 2.0315
-3.4306 -0.5436 2.0315
-3.3756 -0.8181 2.0315
-3.2988 -1.0873 2.0315
-3.2005 -1.3495 2.0315
-3.0814 -1.6029 2.0315
-2.9423 -1.8458 2.0315
-2.7841 -2.0768 2.0315
-2.6078 -2.2943 2.0315
-2.4145 -2.4969 2.0315
-2.2056 -2.6832 2.0315
-0.7236 -1.0411 0.7416
-0.6373 -1.0959 0.7415
-0.5469 -1.1435 0.7414
-0.4530 -1.1837 0.7413
-0.3562 -1.2162 0.7412
-0.2571 -1.2409 0.7412
-0.1563 -1.2575 0.7412
-0.0545 -1.2660 0.7411
0.0477 -1.2663 0.7411
0.1495 -1.2584 0.7412
0.2504 -1.2423 0.7412
0.3496 -1.2181 0.7412
0.4466 -1.1861 0.7413
0.5408 -1.1464 0.7414
0.6314 -1.0993 0.7415
0.7180 -1.0450 0.7416
2.1911 -2.6951 2.0315
2.4010 -2.5098 2.0315
2.5954 -2.3083 2.0315
2.7728 -2.0918 2.0315
2.9323 -1.8617 2.0315
3.0727 -1.6195 2.0315
3.1932 -1.3667 2.0315
3.2929 -1.1051 2.0315
3.3712 -0.8363 2.0315
3.4276 -0.5621 2.0315
3.4617 -0.2842 2.0315
3.4734 -0.0045 2.0315
3.4624 0.2753 2.0315
3.4290 0.5532 2.0315
3.3733 0.8276 2.0315
3.2957 1.0966 2.0315
3.1967 1.3584 2.0315
3.0769 1.6115 2.0315
2.9371 1.8541 2.0315
2.7783 2.0846 2.0315
2.6013 2.3016 2.0315
2.4075 2.5036 2.0315
2.1981 2.6894 2.0315
0.7244 1.0485 0.7454
0.6377 1.1036 0.7455
0.5468 1.1516 0.7456
0.4524 1.1920 0.7457
0.3549 1.2246 0.7457
0.2552 1.2493 0.7458
0.1537 1.2658 0.7458
0.0513 1.2741 0.7458
-0.0515 1.2741 0.7458
-0.1540 1.2658 0.7458
-0.2554 1.2492 0.7458
-0.3552 1.2245 0.7457
-0.4526 1.1919 0.7457
-0.5471 1.1514 0.7456
-0.6379 1.1035 0.7455
-0.7246 1.0484 0.7454
-2.1986 2.6889 2.0315
-2.4080 2.5031 2.0315
-2.6018 2.3011 2.0315
-2.7787 2.0840 2.0315
-2.9375 1.8535 2.0315
-3.0772 1.6109 2.0315
-3.1970 1.3578 2.0315
-3.2959 1.0959 2.0315
-3.3735 0.8269 2.0315
-3.4291 0.5525 2.0315
-3.4625 0.2746 2.0315
-3.4734 -0.0052 2.0315
-3.4617 -0.2849 2.0315
-3.4275 -0.5628 2.0315
-3.3710 -0.8370 2.0315
-3.2926 -1.1058 2.0315
-3.1929 -1.3674 2.0315
-3.0724 -1.6201 2.0315
-2.9319 -1.8622 2.0315
-2.7724 -2.0923 2.0315
-2.5949 -2.3088 2.0315
-2.4005 -2.5103 2.0315
-2.1906 -2.6955 2.0315
-0.7178 -1.0451 0.7415
-0.6312 -1.0994 0.7414
-0.5405 -1.1465 0.7414
-0.4464 -1.1862 0.7413
-0.3494 -1.2182 0.7412
-0.2501 -1.2423 0.7412
-0.1492 -1.2584 0.7412
-0.0474 -1.2663 0.7411
0.0547 -1.2660 0.7411
0.1565 -1.2575 0.7412
0.2573 -1.2409 0.7412
0.3564 -1.2162 0.7412
0.4532 -1.1836 0.7413
0.5472 -1.1434 0.7414
0.6375 -1.0957 0.7415
0.7238 -1.0410 0.7416
2.2061 -2.6828 2.0315
2.4150 -2.4964 2.0315
2.6082 -2.2938 2.0315
2.7845 -2.0763 2.0315
2.9427 -1.8452 2.0315
3.0817 -1.6023 2.0315
3.2007 -1.3489 2.0315
3.2990 -1.0867 2.0315
3.3758 -0.8175 2.0315
3.4307 -0.5429 2.0315
3.4632 -0.2649 2.0315
3.4733 0.0149 2.0315
3.4608 0.2946 2.0315
3.4259 0.5724 2.0315
3.3686 0.8464 2.0315
3.2895 1.1150 2.0315
3.1891 1.3763 2.0315
3.0679 1.6286 2.0315
-0.1533 -1.1794 0.7413
-0.0578 -1.1879 0.7413
0.0381 -1.1887 0.7413
0.1337 -1.1818 0.7413
0.2285 -1.1672 0.7413
0.3217 -1.1451 0.7414
0.4129 -1.1155 0.7414
0.5015 -1.0788 0.7415
0.5868 -1.0350 0.7416
0.6683 -0.9845 0.7417
0.7456 -0.9276 0.7418
2.2398 -2.3677 2.0315
2.4232 -2.1796 2.0315
2.5909 -1.9773 2.0315
2.7417 -1.7622 2.0315
2.8748 -1.5357 2.0315
2.9891 -1.2992 2.0315
3.0840 -1.0543 2.0315
3.1589 -0.8024 2.0315
3.2133 -0.5454 2.0315
3.2468 -0.2849 2.0315
3.2592 -0.0224 2.0315
3.2504 0.2401 2.0315
3.2205 0.5011 2.0315
3.1697 0.7589 2.0315
3.0983 1.0117 2.0315
3.0067 1.2579 2.0315
2.8956 1.4960 2.0315
2.7657 1.7243 2.0315
2.6179 1.9415 2.0315
2.4530 2.1460 2.0315
2.2722 2.3366 2.0315
0.7617 0.9214 0.7452
0.6852 0.9799 0.7453
0.6041 1.0321 0.7454
0.5191 1.0775 0.7455
0.4306 1.1159 0.7455
0.3394 1.1470 0.7456
0.2459 1.1707 0.7456
0.1508 1.1868 0.7457
0.0548 1.1951 0.7457
-0.0417 1.1956 0.7457
-0.1378 1.1883 0.7457
-0.2331 1.1733 0.7456
-0.3268 1.1507 0.7456
-0.4184 1.1206 0.7455
-0.5072 1.0831 0.7455
-0.5927 1.0386 0.7454
-0.6744 0.9874 0.7453
-0.7516 0.9297 0.7452
-2.2464 2.3614 2.0315
-2.4293 2.1728 2.0315
-2.5964 1.9701 2.0315
-2.7466 1.7546 2.0315
-2.8790 1.5277 2.0315
-2.9927 1.2909 2.0315
-3.0870 1.0456 2.0315
-3.1612 0.7936 2.0315
-3.2148 0.5364 2.0315
-3.2476 0.2758 2.0315
-3.2592 0.0133 2.0315
-3.2497 -0.2492 2.0315
-3.2191 -0.5101 2.0315
-3.1675 -0.7677 2.0315
-3.0954 -1.0203 2.0315
-3.0032 -1.2663 2.0315
-2.8914 -1.5041 2.0315
-2.7609 -1.7320 2.0315
-2.6125 -1.9488 2.0315
-2.4470 -2.1529 2.0315
-2.2657 -2.3429 2.0315
-0.7557 -0.9193 0.7418
-0.6791 -0.9771 0.7417
-0.5981 -1.0285 0.7416
-0.5133 -1.0732 0.7415
-0.4252 -1.1109 0.7414
-0.3343 -1.1415 0.7414
-0.2413 -1.1646 0.7413
-0.1467 -1.1802 0.7413
-0.0511 -1.1882 0.7413
0.0447 -1.1885 0.7413
0.1403 -1.1810 0.7413
0.2350 -1.1659 0.7413
0.3281 -1.1433 0.7414
0.4192 -1.1132 0.7414
0.5075 -1.0759 0.7415
0.5926 -1.0317 0.7416
0.6738 -0.9807 0.7417
0.7507 -0.9234 0.7418
2.2530 -2.3551 2.0315
2.4354 -2.1660 2.0315
2.6019 -1.9628 2.0315
2.7515 -1.7469 2.0315
2.8833 -1.5196 2.0315
2.9963 -1.2825 2.0315
3.0899 -1.0370 2.0315
3.1634 -0.7848 2.0315
3.2163 -0.5275 2.0315
3.2483 -0.2667 2.0315
3.2592 -0.0042 2.0315
3.2490 0.2583 2.0315
3.2176 0.5191 2.0315
3.1654 0.7766 2.0315
3.0926 1.0290 2.0315
2.9996 1.2747 2.0315
2.8872 1.5121 2.0315
2.7561 1.7398 2.0315
2.6070 1.9561 2.0315
2.4410 2.1597 2.0315
2.2591 2.3493 2.0315
0.7566 0.9257 0.7452
0.6797 0.9838 0.7453
0.5983 1.0354 0.7454
0.5130 1.0804 0.7455
0.4244 1.1183 0.7455
0.3330 1.1489 0.7456
0.2394 1.1721 0.7456
0.1442 1.1876 0.7457
0.0481 1.1954 0.7457
-0.0483 1.1954 0.7457
-0.1444 1.1876 0.7457
-0.2396 1.1720 0.7456
-0.3332 1.1488 0.7456
-0.4246 1.1182 0.7455
-0.5132 1.0803 0.7455
-0.5985 1.0353 0.7454
-0.6799 0.9836 0.7453
-0.7568 0.9255 0.7452
-2.2596 2.3488 2.0315
-2.4414 2.1592 2.0315
-2.6074 1.9556 2.0315
-2.7564 1.7392 2.0315
-2.8875 1.5116 2.0315
-2.9999 1.2741 2.0315
-3.0928 1.0284 2.0315
-3.1655 0.7759 2.0315
-3.2177 0.5185 2.0315
-3.2490 0.2577 2.0315
-3.2592 -0.0049 2.0315
-3.2483 -0.2673 2.0315
-3.2162 -0.5281 2.0315
-3.1632 -0.7854 2.0315
-3.0897 -1.0376 2.0315
-2.9961 -1.2831 2.0315
-2.8830 -1.5202 2.0315
-2.7512 -1.7474 2.0315
-2.6015 -1.9633 2.0315
-2.4350 -2.1665 2.0315
-2.2526 -2.3556 2.0315
-0.7505 -0.9235 0.7418
-0.6736 -0.9808 0.7417
-0.5924 -1.0318 0.7416
-0.5073 -1.0760 0.7415
-0.4189 -1.1133 0.7414
-0.3279 -1.1433 0.7414
-0.2347 -1.1660 0.7413
-0.1401 -1.1810 0.7413
-0.0445 -1.1885 0.7413
0.0514 -1.1882 0.7413
0.1469 -1.1802 0.7413
0.2415 -1.1646 0.7413
0.3345 -1.1414 0.7414
0.4254 -1.1109 0.7414
0.5135 -1.0731 0.7415
0.5983 -1.0284 0.7416
0.6793 -0.9770 0.7417
0.7559 -0.9192 0.7418
2.2661 -2.3425 2.0315
2.4474 -2.1524 2.0315
2.6128 -1.9483 2.0315
2.7613 -1.7315 2.0315
2.8917 -1.5035 2.0315
3.0034 -1.2657 2.0315
3.0956 -1.0197 2.0315
3.1677 -0.7671 2.0315
3.2192 -0.5095 2.0315
3.2498 -0.2486 2.0315
3.2592 0.0140 2.0315
3.2475 0.2764 2.0315
3.2147 0.5371 2.0315
3.1610 0.7942 2.0315
3.0868 1.0462 2.0315
2.9925 1.2914 2.0315
2.8787 1.5283 2.0315
-0.1441 -1.1088 0.7414
-0.0543 -1.1168 0.7414
0.0358 -1.1175 0.7414
0.1257 -1.1110 0.7414
0.2148 -1.0974 0.7415
0.3025 -1.0765 0.7415
0.3882 -1.0488 0.7415
0.4715 -1.0142 0.7416
0.5517 -0.9730 0.7417
0.6283 -0.9255 0.7418
0.7009 -0.8720 0.7419
0.7690 -0.8129 0.7420
2.2778 -2.0488 2.0315
2.4354 -1.8587 2.0315
2.5772 -1.6565 2.0315
2.7022 -1.4436 2.0315
2.8097 -1.2212 2.0315
2.8989 -0.9910 2.0315
2.9693 -0.7543 2.0315
3.0204 -0.5127 2.0315
3.0519 -0.2678 2.0315
3.0636 -0.0211 2.0315
3.0553 0.2257 2.0315
3.0272 0.4710 2.0315
2.9794 0.7133 2.0315
2.9123 0.9510 2.0315
2.8263 1.1824 2.0315
2.7219 1.4062 2.0315
2.5998 1.6208 2.0315
2.4608 1.8250 2.0315
2.3058 2.0172 2.0315
0.7832 0.8054 0.7450
0.7159 0.8660 0.7451
0.6439 0.9210 0.7452
0.5677 0.9700 0.7453
0.4878 1.0127 0.7453
0.4047 1.0487 0.7454
0.3190 1.0780 0.7455
0.2311 1.1003 0.7455
0.1418 1.1153 0.7455
0.0515 1.1232 0.7455
-0.0391 1.1236 0.7455
-0.1295 1.1168 0.7455
-0.2190 1.1027 0.7455
-0.3071 1.0815 0.7455
-0.3932 1.0531 0.7454
-0.4767 1.0179 0.7453
-0.5571 0.9762 0.7453
-0.6338 0.9280 0.7452
-0.7064 0.8738 0.7451
-0.7743 0.8140 0.7450
-2.2835 2.0424 2.0315
-2.4406 1.8519 2.0315
-2.5818 1.6493 2.0315
-2.7063 1.4360 2.0315
-2.8131 1.2134 2.0315
-2.9017 0.9829 2.0315
-2.9714 0.7460 2.0315
-3.0219 0.5043 2.0315
-3.0527 0.2592 2.0315
-3.0636 0.0125 2.0315
-3.0547 -0.2342 2.0315
-3.0259 -0.4795 2.0315
-2.9774 -0.7216 2.0315
-2.9096 -0.9591 2.0315
-2.8230 -1.1903 2.0315
-2.7179 -1.4138 2.0315
-2.5952 -1.6281 2.0315
-2.4557 -1.8318 2.0315
-2.3002 -2.0236 2.0315
-0.7779 -0.8044 0.7420
-0.7104 -0.8643 0.7419
-0.6384 -0.9186 0.7418
-0.5623 -0.9669 0.7417
-0.4826 -1.0089 0.7416
-0.3997 -1.0444 0.7416
-0.3143 -1.0732 0.7415
-0.2268 -1.0949 0.7415
-0.1379 -1.1096 0.7414
-0.0481 -1.1171 0.7414
0.0420 -1.1173 0.7414
0.1319 -1.1103 0.7414
0.2209 -1.0961 0.7415
0.3085 -1.0748 0.7415
0.3941 -1.0466 0.7416
0.4771 -1.0115 0.7416
0.5571 -0.9699 0.7417
0.6335 -0.9220 0.7418
0.7058 -0.8681 0.7419
0.7735 -0.8086 0.7420
2.2892 -2.0360 2.0315
2.4458 -1.8450 2.0315
2.5864 -1.6421 2.0315
2.7103 -1.4284 2.0315
2.8165 -1.2055 2.0315
2.9044 -0.9748 2.0315
2.9735 -0.7377 2.0315
3.0233 -0.4958 2.0315
3.0534 -0.2507 2.0315
3.0636 -0.0040 2.0315
3.0540 0.2428 2.0315
3.0245 0.4880 2.0315
2.9754 0.7300 2.0315
2.9070 0.9672 2.0315
2.8196 1.1982 2.0315
2.7140 1.4214 2.0315
2.5907 1.6353 2.0315
2.4505 1.8387 2.0315
2.2945 2.0301 2.0315
0.7787 0.8098 0.7450
0.7111 0.8700 0.7451
0.6388 0.9246 0.7452
0.5623 0.9731 0.7453
0.4822 1.0154 0.7454
0.3989 1.0510 0.7454
0.3129 1.0798 0.7455
0.2250 1.1015 0.7455
0.1355 1.1161 0.7455
0.0452 1.1234 0.7455
-0.0454 1.1234 0.7455
-0.1357 1.1161 0.7455
-0.2252 1.1015 0.7455
-0.3132 1.0797 0.7455
-0.3991 1.0509 0.7454
-0.4824 1.0153 0.7453
-0.5625 0.9730 0.7453
-0.6390 0.9244 0.7452
-0.7112 0.8699 0.7451
-2.1240 2.2078 2.0315
-2.2949 2.0296 2.0315
-2.4509 1.8382 2.0315
-2.5910 1.6348 2.0315
-2.7142 1.4209 2.0315
-2.8198 1.1977 2.0315
-2.9071 0.9666 2.0315
-2.9756 0.7294 2.0315
-3.0246 0.4874 2.0315
-3.0541 0.2422 2.0315
-3.0636 -0.0046 2.0315
-3.0533 -0.2513 2.0315
-3.0232 -0.4964 2.0315
-2.9734 -0.7383 2.0315
-2.9042 -0.9753 2.0315
-2.8163 -1.2061 2.0315
-2.7100 -1.4290 2.0315
-2.5861 -1.6426 2.0315
-2.4454 -1.8455 2.0315
-2.2888 -2.0365 2.0315
-0.7733 -0.8087 0.7420
-0.7056 -0.8682 0.7419
-0.6333 -0.9221 0.7418
-0.5569 -0.9700 0.7417
-0.4769 -1.0116 0.7416
-0.3939 -1.0467 0.7415
-0.3083 -1.0749 0.7415
-0.2207 -1.0962 0.7415
-0.1317 -1.1104 0.7414
-0.0418 -1.1173 0.7414
0.0483 -1.1171 0.7414
0.1381 -1.1096 0.7414
0.2270 -1.0949 0.7415
0.3145 -1.0731 0.7415
0.3999 -1.0444 0.7416
0.4828 -1.0089 0.7416
0.5625 -0.9668 0.7417
0.6386 -0.9185 0.7418
0.7106 -0.8642 0.7419
0.7780 -0.8042 0.7420
2.3006 -2.0232 2.0315
2.4560 -1.8313 2.0315
2.5955 -1.6276 2.0315
2.7182 -1.4133 2.0315
2.8232 -1.1897 2.0315
2.9098 -0.9585 2.0315
2.9776 -0.7211 2.0315
3.0260 -0.4789 2.0315
3.0547 -0.2336 2.0315
3.0636 0.0131 2.0315
3.0526 0.2598 2.0315
3.0218 0.5049 2.0315
2.9713 0.7466 2.0315
2.9015 0.9835 2.0315
2.8129 1.2139 2.0315
2.7060 1.4365 2.0315
-0.1357 -1.0440 0.7416
-0.0511 -1.0515 0.7415
0.0337 -1.0522 0.7415
0.1183 -1.0461 0.7416
0.2022 -1.0332 0.7416
0.2848 -1.0136 0.7416
0.3655 -0.9874 0.7417
0.4439 -0.9548 0.7417
0.5194 -0.9161 0.7418
0.5915 -0.8714 0.7419
0.6599 -0.8210 0.7420
0.7240 -0.7653 0.7421
0.7834 -0.7046 0.7422
2.2926 -1.7497 2.0315
2.4261 -1.5594 2.0315
2.5438 -1.3589 2.0315
2.6449 -1.1496 2.0315
2.7289 -0.9329 2.0315
2.7952 -0.7100 2.0315
2.8433 -0.4826 2.0315
2.8729 -0.2521 2.0315
2.8839 -0.0199 2.0315
2.8761 0.2125 2.0315
2.8497 0.4434 2.0315
2.8047 0.6715 2.0315
2.7415 0.8952 2.0315
2.6605 1.1131 2.0315
2.5622 1.3237 2.0315
2.4473 1.5258 2.0315
2.3165 1.7179 2.0315
2.1706 1.8989 2.0315
0.7372 0.7581 0.7449
0.6739 0.8151 0.7450
0.6061 0.8669 0.7451
0.5344 0.9130 0.7452
0.4592 0.9531 0.7452
0.3809 0.9871 0.7453
0.3002 1.0146 0.7453
0.2175 1.0356 0.7454
0.1334 1.0498 0.7454
0.0485 1.0571 0.7454
-0.0368 1.0576 0.7454
-0.1219 1.0512 0.7454
-0.2062 1.0379 0.7454
-0.2891 1.0179 0.7454
-0.3701 0.9912 0.7453
-0.4487 0.9581 0.7452
-0.5243 0.9188 0.7452
-0.5965 0.8735 0.7451
-0.6649 0.8225 0.7450
-0.7289 0.7662 0.7449
-2.1496 1.9226 2.0315
-2.2975 1.7433 2.0315
-2.4304 1.5526 2.0315
-2.5475 1.3518 2.0315
-2.6481 1.1422 2.0315
-2.7315 0.9252 2.0315
-2.7972 0.7022 2.0315
-2.8446 0.4747 2.0315
-2.8736 0.2440 2.0315
-2.8839 0.0118 2.0315
-2.8755 -0.2205 2.0315
-2.8484 -0.4514 2.0315
-2.8028 -0.6793 2.0315
-2.7390 -0.9028 2.0315
-2.6574 -1.1205 2.0315
-2.5585 -1.3309 2.0315
-2.4430 -1.5326 2.0315
-2.3117 -1.7244 2.0315
-2.1653 -1.9050 2.0315
-0.7323 -0.7573 0.7421
-0.6689 -0.8137 0.7420
-0.6011 -0.8648 0.7419
-0.5294 -0.9103 0.7418
-0.4543 -0.9499 0.7417
-0.3763 -0.9833 0.7417
-0.2959 -1.0104 0.7416
-0.2135 -1.0309 0.7416
-0.1298 -1.0447 0.7416
-0.0453 -1.0517 0.7415
0.0396 -1.0520 0.7415
0.1242 -1.0454 0.7416
0.2080 -1.0320 0.7416
0.2904 -1.0120 0.7416
0.3710 -0.9854 0.7417
0.4492 -0.9523 0.7417
0.5245 -0.9132 0.7418
0.5964 -0.8681 0.7419
0.6645 -0.8173 0.7420
0.7282 -0.7612 0.7421
2.1550 -1.9166 2.0315
2.3023 -1.7368 2.0315
2.4347 -1.5458 2.0315
2.5513 -1.3447 2.0315
2.6513 -1.1348 2.0315
2.7341 -0.9176 2.0315
2.7991 -0.6944 2.0315
2.8460 -0.4667 2.0315
2.8743 -0.2360 2.0315
2.8840 -0.0037 2.0315
2.8749 0.2285 2.0315
2.8472 0.4593 2.0315
2.8009 0.6872 2.0315
2.7365 0.9105 2.0315
2.6543 1.1279 2.0315
2.5548 1.3380 2.0315
2.4387 1.5395 2.0315
2.3068 1.7309 2.0315
2.1599 1.9110 2.0315
0.7330 0.7622 0.7449
0.6693 0.8189 0.7450
0.6012 0.8702 0.7451
0.5293 0.9159 0.7452
0.4538 0.9557 0.7452
0.3754 0.9892 0.7453
0.2945 1.0163 0.7454
0.2117 1.0368 0.7454
0.1276 1.0505 0.7454
0.0425 1.0574 0.7454
-0.0428 1.0574 0.7454
-0.1278 1.0505 0.7454
-0.2119 1.0367 0.7454
-0.2947 1.0162 0.7453
-0.3756 0.9891 0.7453
-0.4540 0.9556 0.7452
-0.5294 0.9158 0.7452
-0.6014 0.8701 0.7451
-0.6694 0.8187 0.7450
-0.7331 0.7621 0.7449
-2.1603 1.9106 2.0315
-2.3072 1.7304 2.0315
-2.4390 1.5390 2.0315
-2.5551 1.3375 2.0315
-2.6545 1.1274 2.0315
-2.7367 0.9100 2.0315
-2.8010 0.6866 2.0315
-2.8472 0.4588 2.0315
-2.8749 0.2280 2.0315
-2.8840 -0.0043 2.0315
-2.8743 -0.2366 2.0315
-2.8459 -0.4673 2.0315
-2.7990 -0.6950 2.0315
-2.7339 -0.9181 2.0315
-2.6511 -1.1353 2.0315
-2.5510 -1.3452 2.0315
-2.4344 -1.5462 2.0315
-2.3020 -1.7373 2.0315
-2.1546 -1.9170 2.0315
-0.7281 -0.7614 0.7421
-0.6643 -0.8174 0.7420
-0.5962 -0.8682 0.7419
-0.5243 -0.9133 0.7418
-0.4490 -0.9524 0.7417
-0.3708 -0.9854 0.7417
-0.2902 -1.0120 0.7416
-0.2078 -1.0321 0.7416
-0.1240 -1.0454 0.7416
-0.0394 -1.0520 0.7415
0.0455 -1.0517 0.7415
0.1300 -1.0447 0.7416
0.2137 -1.0308 0.7416
0.2961 -1.0103 0.7416
0.3765 -0.9833 0.7417
0.4545 -0.9498 0.7417
0.5296 -0.9102 0.7418
0.6013 -0.8647 0.7419
0.6690 -0.8136 0.7420
0.7325 -0.7572 0.7421
2.1656 -1.9045 2.0315
2.3120 -1.7239 2.0315
2.4433 -1.5321 2.0315
2.5588 -1.3304 2.0315
2.6576 -1.1200 2.0315
2.7392 -0.9023 2.0315
2.8030 -0.6788 2.0315
2.8485 -0.4508 2.0315
2.8756 -0.2199 2.0315
2.8839 0.0124 2.0315
2.8736 0.2446 2.0315
2.8445 0.4753 2.0315
2.7970 0.7028 2.0315
2.7313 0.9258 2.0315
2.6479 1.1427 2.0315
2.5473 1.3523 2.0315
-0.1279 -0.9841 0.7417
-0.0482 -0.9911 0.7417
0.0318 -0.9918 0.7417
0.1116 -0.9860 0.7417
0.1906 -0.9739 0.7417
0.2684 -0.9554 0.7417
0.3445 -0.9308 0.7418
0.4184 -0.9000 0.7418
0.4896 -0.8635 0.7419
0.5576 -0.8214 0.7420
0.6220 -0.7739 0.7421
0.6824 -0.7214 0.7422
0.7384 -0.6641 0.7423
2.1607 -1.6491 2.0315
2.2865 -1.4697 2.0315
2.3975 -1.2807 2.0315
2.4928 -1.0835 2.0315
2.5720 -0.8792 2.0315
2.6344 -0.6692 2.0315
2.6798 -0.4549 2.0315
2.7077 -0.2376 2.0315
2.7181 -0.0187 2.0315
2.7107 0.2003 2.0315
2.6858 0.4179 2.0315
2.6434 0.6329 2.0315
2.5839 0.8437 2.0315
2.5075 1.0491 2.0315
2.4149 1.2476 2.0315
2.3066 1.4381 2.0315
2.1832 1.6191 2.0315
0.7499 0.6561 0.7447
0.6947 0.7144 0.7448
0.6350 0.7682 0.7449
0.5712 0.8169 0.7450
0.5036 0.8603 0.7451
0.4327 0.8982 0.7451
0.3590 0.9302 0.7452
0.2829 0.9561 0.7452
0.2050 0.9759 0.7453
0.1257 0.9892 0.7453
0.0457 0.9962 0.7453
-0.0347 0.9966 0.7453
-0.1149 0.9906 0.7453
-0.1943 0.9781 0.7453
-0.2724 0.9592 0.7452
-0.3487 0.9341 0.7452
-0.4228 0.9029 0.7451
-0.4941 0.8658 0.7451
-0.5622 0.8231 0.7450
-0.6266 0.7751 0.7449
-0.6869 0.7220 0.7448
-0.7427 0.6643 0.7447
-2.1653 1.6430 2.0315
-2.2906 1.4633 2.0315
-2.4010 1.2741 2.0315
-2.4958 1.0765 2.0315
-2.5744 0.8720 2.0315
-2.6363 0.6619 2.0315
-2.6810 0.4474 2.0315
-2.7084 0.2300 2.0315
-2.7181 0.0111 2.0315
-2.7102 -0.2078 2.0315
-2.6846 -0.4254 2.0315
-2.6416 -0.6403 2.0315
-2.5815 -0.8509 2.0315
-2.5046 -1.0561 2.0315
-2.4114 -1.2543 2.0315
-2.3025 -1.4445 2.0315
-2.1787 -1.6252 2.0315
-0.7456 -0.6560 0.7423
-0.6903 -0.7138 0.7422
-0.6305 -0.7670 0.7421
-0.5666 -0.8152 0.7420
-0.4990 -0.8581 0.7419
-0.4283 -0.8954 0.7418
-0.3547 -0.9269 0.7418
-0.2789 -0.9524 0.7417
-0.2013 -0.9717 0.7417
-0.1224 -0.9848 0.7417
-0.0427 -0.9914 0.7417
0.0373 -0.9916 0.7417
0.1171 -0.9854 0.7417
0.1961 -0.9728 0.7417
0.2738 -0.9539 0.7417
0.3497 -0.9288 0.7418
0.4234 -0.8977 0.7418
0.4944 -0.8608 0.7419
0.5622 -0.8182 0.7420
0.6263 -0.7704 0.7421
0.6864 -0.7175 0.7422
0.7421 -0.6600 0.7423
2.1699 -1.6369 2.0315
2.2947 -1.4569 2.0315
2.4046 -1.2673 2.0315
2.4988 -1.0695 2.0315
2.5769 -0.8648 2.0315
2.6381 -0.6545 2.0315
2.6823 -0.4399 2.0315
2.7090 -0.2224 2.0315
2.7181 -0.0035 2.0315
2.7096 0.2154 2.0315
2.6834 0.4329 2.0315
2.6398 0.6476 2.0315
2.5791 0.8581 2.0315
2.5016 1.0631 2.0315
2.4079 1.2611 2.0315
2.2985 1.4509 2.0315
2.1742 1.6313 2.0315
0.7462 0.6602 0.7447
0.6907 0.7183 0.7448
0.6307 0.7717 0.7449
0.5666 0.8201 0.7450
0.4988 0.8632 0.7451
0.4277 0.9006 0.7451
0.3538 0.9322 0.7452
0.2776 0.9577 0.7452
0.1995 0.9770 0.7453
0.1202 0.9899 0.7453
0.0401 0.9964 0.7453
-0.0403 0.9964 0.7453
-0.1204 0.9899 0.7453
-0.1997 0.9770 0.7453
-0.2778 0.9577 0.7452
-0.3540 0.9321 0.7452
-0.4278 0.9005 0.7451
-0.4989 0.8630 0.7451
-0.5668 0.8200 0.7450
-0.6309 0.7716 0.7449
-0.6909 0.7182 0.7448
-0.7464 0.6601 0.7447
-2.1745 1.6309 2.0315
-2.2988 1.4505 2.0315
-2.4081 1.2606 2.0315
-2.5018 1.0626 2.0315
-2.5793 0.8576 2.0315
-2.6400 0.6471 2.0315
-2.6835 0.4324 2.0315
-2.7096 0.2149 2.0315
-2.7181 -0.0041 2.0315
-2.7090 -0.2230 2.0315
-2.6822 -0.4404 2.0315
-2.6380 -0.6550 2.0315
-2.5767 -0.8653 2.0315
-2.4986 -1.0700 2.0315
-2.4043 -1.2678 2.0315
-2.2944 -1.4573 2.0315
-2.1696 -1.6374 2.0315
-0.7420 -0.6602 0.7423
-0.6863 -0.7177 0.7422
-0.6262 -0.7705 0.7421
-0.5620 -0.8183 0.7420
-0.4942 -0.8608 0.7419
-0.4233 -0.8978 0.7418
-0.3495 -0.9289 0.7418
-0.2736 -0.9540 0.7417
-0.1959 -0.9728 0.7417
-0.1169 -0.9854 0.7417
-0.0371 -0.9916 0.7417
0.0429 -0.9914 0.7417
0.1226 -0.9847 0.7417
0.2015 -0.9717 0.7417
0.2791 -0.9524 0.7417
0.3549 -0.9268 0.7418
0.4284 -0.8953 0.7418
0.4992 -0.8580 0.7419
0.5668 -0.8151 0.7420
0.6306 -0.7669 0.7421
0.6904 -0.7137 0.7422
0.7458 -0.6559 0.7423
2.1790 -1.6248 2.0315
2.3028 -1.4440 2.0315
2.4116 -1.2539 2.0315
2.5048 -1.0556 2.0315
2.5817 -0.8504 2.0315
2.6418 -0.6397 2.0315
2.6847 -0.4249 2.0315
2.7102 -0.2073 2.0315
2.7181 0.0117 2.0315
2.7083 0.2305 2.0315
2.6810 0.4479 2.0315
2.6362 0.6624 2.0315
2.5743 0.8725 2.0315
2.4956 1.0770 2.0315
2.4008 1.2745 2.0315
-0.1207 -0.9285 0.7418
-0.0455 -0.9352 0.7418
0.0300 -0.9358 0.7418
0.1053 -0.9304 0.7418
0.1799 -0.9189 0.7418
0.2533 -0.9015 0.7418
0.3251 -0.8782 0.7419
0.3948 -0.8492 0.7419
0.4619 -0.8147 0.7420
0.5261 -0.7750 0.7421
0.5869 -0.7302 0.7421
0.6439 -0.6806 0.7422
0.6967 -0.6266 0.7423
0.7450 -0.5686 0.7424
2.1571 -1.3865 2.0315
2.2618 -1.2083 2.0315
2.3518 -1.0222 2.0315
2.4264 -0.8295 2.0315
2.4854 -0.6313 2.0315
2.5281 -0.4291 2.0315
2.5545 -0.2241 2.0315
2.5642 -0.0177 2.0315
2.5573 0.1889 2.0315
2.5338 0.3943 2.0315
2.4938 0.5971 2.0315
2.4376 0.7960 2.0315
2.3656 0.9897 2.0315
2.2782 1.1770 2.0315
2.1760 1.3567 2.0315
0.7548 0.5598 0.7445
0.7074 0.6189 0.7446
0.6554 0.6739 0.7447
0.5990 0.7246 0.7448
0.5388 0.7706 0.7449
0.4750 0.8116 0.7450
0.4082 0.8473 0.7450
0.3386 0.8774 0.7451
0.2669 0.9019 0.7451
0.1934 0.9205 0.7452
0.1186 0.9331 0.7452
0.0431 0.9397 0.7452
-0.0328 0.9401 0.7452
-0.1084 0.9344 0.7452
-0.1833 0.9226 0.7452
-0.2569 0.9048 0.7451
-0.3290 0.8811 0.7451
-0.3988 0.8517 0.7450
-0.4661 0.8167 0.7450
-0.5303 0.7765 0.7449
-0.5910 0.7311 0.7448
-0.6479 0.6811 0.7447
-0.7006 0.6266 0.7446
-0.7487 0.5681 0.7445
-2.1610 1.3805 2.0315
-2.2652 1.2020 2.0315
-2.3546 1.0156 2.0315
-2.4288 0.8227 2.0315
-2.4871 0.6244 2.0315
-2.5293 0.4221 2.0315
-2.5551 0.2170 2.0315
-2.5643 0.0105 2.0315
-2.5568 -0.1960 2.0315
-2.5327 -0.4013 2.0315
-2.4922 -0.6040 2.0315
-2.4354 -0.8028 2.0315
-2.3628 -0.9963 2.0315
-2.2749 -1.1834 2.0315
-2.1722 -1.3627 2.0315
-0.7512 -0.5604 0.7424
-0.7035 -0.6189 0.7423
-0.6513 -0.6735 0.7422
-0.5949 -0.7237 0.7421
-0.5346 -0.7691 0.7421
-0.4709 -0.8096 0.7420
-0.4041 -0.8448 0.7419
-0.3347 -0.8746 0.7419
-0.2632 -0.8986 0.7418
-0.1899 -0.9169 0.7418
-0.1155 -0.9292 0.7418
-0.0403 -0.9354 0.7418
0.0352 -0.9356 0.7418
0.1105 -0.9298 0.7418
0.1850 -0.9179 0.7418
0.2583 -0.9000 0.7418
0.3300 -0.8764 0.7419
0.3995 -0.8470 0.7419
0.4665 -0.8122 0.7420
0.5304 -0.7720 0.7421
0.5910 -0.7269 0.7421
0.6477 -0.6770 0.7422
0.7002 -0.6227 0.7423
0.7482 -0.5644 0.7424
2.1649 -1.3744 2.0315
2.2685 -1.1956 2.0315
2.3574 -1.0090 2.0315
2.4310 -0.8159 2.0315
2.4889 -0.6174 2.0315
2.5305 -0.4150 2.0315
2.5557 -0.2098 2.0315
2.5643 -0.0033 2.0315
2.5562 0.2032 2.0315
2.5316 0.4084 2.0315
2.4905 0.6110 2.0315
2.4332 0.8096 2.0315
2.3601 1.0029 2.0315
2.2716 1.1897 2.0315
2.1684 1.3688 2.0315
0.7517 0.5640 0.7445
0.7040 0.6228 0.7446
0.6516 0.6776 0.7447
0.5950 0.7280 0.7448
0.5345 0.7736 0.7449
0.4705 0.8142 0.7450
0.4034 0.8495 0.7450
0.3337 0.8793 0.7451
0.2618 0.9034 0.7451
0.1882 0.9216 0.7452
0.1134 0.9338 0.7452
0.0378 0.9399 0.7452
-0.0380 0.9399 0.7452
-0.1136 0.9338 0.7452
-0.1884 0.9215 0.7452
-0.2620 0.9033 0.7451
-0.3339 0.8793 0.7451
-0.4036 0.8494 0.7450
-0.4706 0.8141 0.7450
-0.5346 0.7735 0.7449
-0.5951 0.7278 0.7448
-0.6517 0.6775 0.7447
-0.7041 0.6227 0.7446
-0.7518 0.5639 0.7445
-2.1687 1.3684 2.0315
-2.2718 1.1893 2.0315
-2.3602 1.0024 2.0315
-2.4333 0.8091 2.0315
-2.4906 0.6105 2.0315
-2.5316 0.4079 2.0315
-2.5563 0.2027 2.0315
-2.5643 -0.0038 2.0315
-2.5557 -0.2104 2.0315
-2.5304 -0.4155 2.0315
-2.4887 -0.6179 2.0315
-2.4309 -0.8164 2.0315
-2.3572 -1.0095 2.0315
-2.2683 -1.1961 2.0315
-2.1646 -1.3748 2.0315
-0.7480 -0.5645 0.7424
-0.7000 -0.6229 0.7423
-0.6475 -0.6771 0.7422
-0.5908 -0.7270 0.7421
-0.5303 -0.7721 0.7421
-0.4663 -0.8122 0.7420
-0.3994 -0.8471 0.7419
-0.3298 -0.8764 0.7419
-0.2581 -0.9001 0.7418
-0.1848 -0.9179 0.7418
-0.1103 -0.9298 0.7418
-0.0350 -0.9356 0.7418
0.0404 -0.9354 0.7418
0.1156 -0.9291 0.7418
0.1901 -0.9168 0.7418
0.2633 -0.8986 0.7418
0.3349 -0.8745 0.7419
0.4043 -0.8448 0.7419
0.4710 -0.8095 0.7420
0.5347 -0.7690 0.7421
0.5950 -0.7236 0.7422
0.6514 -0.6734 0.7422
0.7036 -0.6188 0.7423
0.7513 -0.5602 0.7425
2.1725 -1.3623 2.0315
2.2752 -1.1829 2.0315
2.3630 -0.9958 2.0315
2.4356 -0.8023 2.0315
2.4923 -0.6035 2.0315
2.5328 -0.4009 2.0315
2.5568 -0.1956 2.0315
2.5643 0.0110 2.0315
2.5551 0.2175 2.0315
2.5292 0.4226 2.0315
2.4870 0.6249 2.0315
2.4286 0.8231 2.0315
2.3544 1.0161 2.0315
2.2649 1.2024 2.0315
-0.1139 -0.8767 0.7419
-0.0429 -0.8831 0.7419
0.0283 -0.8836 0.7419
0.0994 -0.8785 0.7419
0.1698 -0.8677 0.7419
0.2392 -0.8512 0.7419
0.3070 -0.8292 0.7420
0.3728 -0.8019 0.7420
0.4362 -0.7693 0.7421
0.4968 -0.7317 0.7421
0.5541 -0.6894 0.7422
0.6079 -0.6426 0.7423
0.6578 -0.5917 0.7424
0.7034 -0.5368 0.7425
0.7445 -0.4785 0.7426
0.7807 -0.4171 0.7427
2.2204 -0.9651 2.0315
2.2909 -0.7831 2.0315
2.3465 -0.5961 2.0315
2.3869 -0.4051 2.0315
2.4118 -0.2116 2.0315
2.4210 -0.0167 2.0315
2.4145 0.1784 2.0315
2.3923 0.3722 2.0315
2.3545 0.5637 2.0315
2.3015 0.7515 2.0315
2.2335 0.9344 2.0315
0.7880 0.4071 0.7442
0.7528 0.4693 0.7443
0.7126 0.5285 0.7445
0.6678 0.5843 0.7446
0.6187 0.6362 0.7447
0.5655 0.6841 0.7447
0.5086 0.7275 0.7448
0.4484 0.7661 0.7449
0.3853 0.7998 0.7450
0.3197 0.8283 0.7450
0.2519 0.8514 0.7450
0.1825 0.8690 0.7451
0.1120 0.8809 0.7451
0.0407 0.8871 0.7451
-0.0309 0.8875 0.7451
-0.1023 0.8821 0.7451
-0.1730 0.8709 0.7451
-0.2426 0.8541 0.7450
-0.3105 0.8318 0.7450
-0.3765 0.8040 0.7450
-0.4400 0.7710 0.7449
-0.5006 0.7330 0.7448
-0.5580 0.6902 0.7447
-0.6117 0.6430 0.7447
-0.6614 0.5915 0.7446
-0.7068 0.5363 0.7445
