ply
format ascii 1.0
element vertex 2186
property float32 x
property float32 y
property float32 z
end_header
3.2479 -4.9525 2.0382
3.6357 -4.6742 2.0382
3.7869 -4.1336 1.9298
4.0133 -3.7275 1.8858
4.2997 -3.3916 1.8858
4.5580 -3.0338 1.8858
4.7866 -2.6563 1.8858
4.9840 -2.2618 1.8858
5.1489 -1.8526 1.8858
5.2803 -1.4316 1.8858
5.3773 -1.0015 1.8858
4.0030 -0.4158 1.3879
3.9754 -0.0909 1.3716
5.4570 0.3156 1.8858
5.4126 0.7539 1.8858
5.3331 1.1872 1.8858
5.2190 1.6126 1.8858
5.0711 2.0273 1.8858
4.8903 2.4288 1.8858
4.6778 2.8143 1.8858
4.4351 3.1814 1.8858
4.1636 3.5277 1.8858
3.8835 3.8694 1.8947
3.8281 4.4846 2.0382
3.4539 4.7778 2.0382
3.0574 5.0399 2.0382
2.6411 5.2693 2.0382
2.2078 5.4644 2.0382
1.7602 5.6241 2.0382
1.3013 5.7473 2.0382
0.8339 5.8332 2.0382
0.3612 5.8813 2.0382
-0.1138 5.8913 2.0382
-0.5881 5.8630 2.0382
-1.0586 5.7967 2.0382
-1.5223 5.6929 2.0382
-1.9761 5.5521 2.0382
-2.4172 5.3752 2.0382
-2.8427 5.1635 2.0382
-3.2498 4.9183 2.0382
-3.6360 4.6411 2.0382
-3.9987 4.3337 2.0382
-4.3355 3.9981 2.0382
-4.6443 3.6364 2.0382
-4.9230 3.2510 2.0382
-5.1699 2.8444 2.0382
-5.3833 2.4192 2.0382
-5.5618 1.9781 2.0382
-5.7043 1.5239 2.0382
-5.8098 1.0597 2.0382
-5.8776 0.5884 2.0382
-5.9072 0.1131 2.0382
-5.8984 -0.3631 2.0382
-5.8513 -0.8372 2.0382
-5.7661 -1.3061 2.0382
-5.6434 -1.7666 2.0382
-5.4840 -2.2159 2.0382
-5.2888 -2.6509 2.0382
-5.0591 -3.0688 2.0382
-4.7964 -3.4669 2.0382
-4.5024 -3.8426 2.0382
-4.1790 -4.1934 2.0382
-3.8284 -4.5170 2.0382
-3.4527 -4.8113 2.0382
-3.0544 -5.0743 2.0382
-2.6361 -5.3044 2.0382
-2.2006 -5.4999 2.0382
-1.7508 -5.6597 2.0382
-1.2894 -5.7827 2.0382
-0.7197 -5.1525 1.7897
-0.3003 -5.1562 1.7768
0.1158 -5.1599 1.7755
0.5340 -5.1637 1.7858
0.9599 -5.1677 1.8082
1.5476 -5.7188 2.0382
0.7252 -2.0188 0.7380
2.4451 -5.3955 2.0382
2.8714 -5.1805 2.0382
3.2789 -4.9319 2.0382
3.6649 -4.6512 2.0382
3.7896 -4.0844 1.9181
4.0365 -3.7022 1.8858
4.3208 -3.3645 1.8858
4.5769 -3.0051 1.8858
4.8031 -2.6262 1.8858
4.9980 -2.2304 1.8858
5.1604 -1.8202 1.8858
5.2891 -1.3984 1.8858
5.3834 -0.9677 1.8858
3.9737 -0.3876 1.3769
3.9763 -0.0660 1.3718
5.4548 0.3498 1.8858
5.4077 0.7879 1.8858
5.3255 1.2207 1.8858
5.2087 1.6453 1.8858
5.0582 2.0591 1.8858
4.8749 2.4594 1.8858
4.6600 2.8436 1.8858
4.4150 3.2092 1.8858
4.1413 3.5538 1.8858
3.8772 3.9117 1.9036
3.7998 4.5085 2.0382
3.4238 4.7994 2.0382
3.0256 5.0590 2.0382
2.6079 5.2857 2.0382
2.1734 5.4781 2.0382
1.7248 5.6350 2.0382
1.2651 5.7553 2.0382
0.7973 5.8383 2.0382
0.3243 5.8834 2.0382
-0.1508 5.8904 2.0382
-0.6249 5.8592 2.0382
-1.0950 5.7900 2.0382
-1.5580 5.6832 2.0382
-2.0110 5.5396 2.0382
-2.4509 5.3600 2.0382
4.7878 1.4464 1.8858
4.6549 1.8270 1.8858
4.4917 2.1956 1.8858
4.2994 2.5499 1.8858
4.0793 2.8874 1.8858
3.8699 3.2370 1.9041
3.8493 3.7871 2.0382
3.5312 4.0843 2.0382
3.1902 4.3550 2.0382
2.8286 4.5973 2.0382
2.4488 4.8098 2.0382
0.7539 1.8327 0.7484
0.6039 1.8877 0.7486
0.4498 1.9304 0.7487
0.2929 1.9605 0.7488
0.3646 5.3834 2.0382
-0.0703 5.3953 2.0382
-0.1855 1.9736 0.7488
-0.3439 1.9521 0.7487
-0.5000 1.9179 0.7486
-0.6528 1.8712 0.7485
-2.1825 4.9359 2.0382
-2.5734 4.7444 2.0382
-2.9476 4.5222 2.0382
-3.3027 4.2705 2.0382
-3.6365 3.9910 2.0382
-3.9468 3.6857 2.0382
-4.2316 3.3562 2.0382
-4.4889 3.0049 2.0382
-4.7173 2.6340 2.0382
-4.9150 2.2458 2.0382
-5.0810 1.8429 2.0382
-5.2139 1.4279 2.0382
-5.3131 1.0035 2.0382
-5.3778 0.5724 2.0382
-5.4075 0.1374 2.0382
-5.4021 -0.2987 2.0382
-5.3616 -0.7330 2.0382
-5.2863 -1.1627 2.0382
-5.1765 -1.5850 2.0382
-5.0330 -1.9971 2.0382
-4.8568 -2.3965 2.0382
-4.6488 -2.7803 2.0382
-4.4106 -3.1462 2.0382
-4.1436 -3.4918 2.0382
-3.8496 -3.8147 2.0382
-3.5304 -4.1129 2.0382
-3.1881 -4.3844 2.0382
-2.8250 -4.6274 2.0382
-2.4435 -4.8404 2.0382
-0.7414 -1.8197 0.7386
-0.5924 -1.8733 0.7384
-0.4396 -1.9147 0.7383
-0.2839 -1.9438 0.7382
-0.1265 -1.9602 0.7382
0.0318 -1.9641 0.7382
0.1898 -1.9552 0.7382
0.3466 -1.9336 0.7383
0.5013 -1.8996 0.7384
0.6527 -1.8533 0.7385
2.2072 -4.9530 2.0382
2.5986 -4.7588 2.0382
2.9731 -4.5336 2.0382
3.3281 -4.2789 2.0382
3.6614 -3.9965 2.0382
3.7905 -3.5207 1.9457
3.9361 -3.1049 1.8858
4.1726 -2.7774 1.8858
4.3820 -2.4319 1.8858
4.5627 -2.0707 1.8858
4.7138 -1.6962 1.8858
4.8341 -1.3108 1.8858
4.9230 -0.9170 1.8858
3.9678 -0.4123 1.5026
3.9596 -0.0907 1.4922
4.9962 0.2888 1.8858
4.9557 0.6902 1.8858
4.8830 1.0869 1.8858
4.7786 1.4764 1.8858
4.6432 1.8562 1.8858
4.4777 2.2237 1.8858
4.2833 2.5768 1.8858
4.0610 2.9130 1.8858
3.8686 3.2775 1.9136
3.8254 3.8112 2.0382
3.5054 4.1064 2.0382
3.1628 4.3749 2.0382
2.7997 4.6150 2.0382
2.4185 4.8251 2.0382
0.7424 1.8374 0.7484
0.5920 1.8914 0.7486
0.4377 1.9332 0.7487
0.2805 1.9623 0.7488
0.3308 5.3856 2.0382
-0.1042 5.3947 2.0382
-0.1978 1.9724 0.7488
-0.3561 1.9499 0.7487
-0.5120 1.9147 0.7486
-0.6645 1.8670 0.7485
-2.2135 4.9221 2.0382
-2.6031 4.7282 2.0382
-2.9759 4.5036 2.0382
-3.3295 4.2497 2.0382
-3.6615 3.9682 2.0382
-3.9699 3.6608 2.0382
-4.2526 3.3296 2.0382
-4.5078 2.9767 2.0382
-4.7338 2.6043 2.0382
-4.9291 2.2149 2.0382
-5.0925 1.8110 2.0382
-5.2229 1.3952 2.0382
-5.3194 0.9701 2.0382
-5.3813 0.5386 2.0382
-5.4084 0.1034 2.0382
-5.4002 -0.3326 2.0382
-5.3570 -0.7667 2.0382
-5.2790 -1.1959 2.0382
-5.1665 -1.6175 2.0382
-5.0205 -2.0287 2.0382
-4.8417 -2.4269 2.0382
-4.6314 -2.8095 2.0382
-4.3908 -3.1739 2.0382
-4.1217 -3.5178 2.0382
-3.8256 -3.8389 2.0382
-3.5045 -4.1350 2.0382
-3.1606 -4.4044 2.0382
-2.7960 -4.6451 2.0382
-2.4131 -4.8557 2.0382
-0.7299 -1.8243 0.7386
-0.5806 -1.8769 0.7384
-0.4275 -1.9174 0.7383
-0.2717 -1.9455 0.7382
-0.1142 -1.9610 0.7382
0.0441 -1.9638 0.7382
0.2021 -1.9539 0.7382
0.3588 -1.9314 0.7383
0.5132 -1.8964 0.7384
0.6643 -1.8491 0.7385
2.2382 -4.9390 2.0382
2.6284 -4.7423 2.0382
3.0014 -4.5148 2.0382
3.3548 -4.2579 2.0382
3.6863 -3.9734 2.0382
3.7928 -3.4787 1.9357
3.9554 -3.0801 1.8858
4.1899 -2.7511 1.8858
4.3971 -2.4043 1.8858
4.5756 -2.0420 1.8858
4.7243 -1.6665 1.8858
4.8422 -1.2804 1.8858
4.9286 -0.8860 1.8858
3.9544 -0.3858 1.4966
3.9605 -0.0658 1.4923
4.9942 0.3202 1.8858
4.9512 0.7212 1.8858
4.8760 1.1175 1.8858
4.7692 1.5063 1.8858
4.6314 1.8853 1.8858
4.4636 2.2518 1.8858
4.2669 2.6036 1.8858
4.0426 2.9384 1.8858
3.8673 3.3184 1.9232
3.8013 3.8351 2.0382
3.4795 4.1282 2.0382
3.1352 4.3946 2.0382
2.7706 4.6324 2.0382
2.3881 4.8401 2.0382
0.7308 1.8420 0.7484
0.5801 1.8951 0.7486
0.4256 1.9359 0.7487
0.2682 1.9640 0.7488
0.2970 5.3876 2.0382
-0.1381 5.3940 2.0382
-0.2102 1.9711 0.7488
-0.3683 1.9476 0.7487
-0.5240 1.9115 0.7486
-0.6763 1.8628 0.7485
-2.2444 4.9081 2.0382
4.4079 1.3314 1.8858
4.2855 1.6819 1.8858
4.1353 2.0213 1.8858
3.9584 2.3475 1.8858
3.8584 2.7309 1.9374
3.8140 3.1903 2.0382
3.5441 3.4867 2.0382
3.2512 3.7604 2.0382
2.9373 4.0096 2.0382
2.6044 4.2328 2.0382
2.2547 4.4284 2.0382
0.6938 1.6865 0.7480
0.5557 1.7371 0.7482
0.4140 1.7764 0.7483
0.2695 1.8040 0.7483
0.1233 1.8200 0.7484
-0.0238 1.8240 0.7484
-0.1707 1.8161 0.7484
-0.3164 1.7964 0.7483
-0.4601 1.7649 0.7482
-0.6008 1.7219 0.7481
-0.7374 1.6677 0.7480
-2.3694 4.3682 2.0382
-2.7139 4.1635 2.0382
-3.0409 3.9318 2.0382
-3.3482 3.6745 2.0382
-3.6338 3.3932 2.0382
-3.8960 3.0900 2.0382
-4.1329 2.7664 2.0382
-4.3431 2.4249 2.0382
-4.5251 2.0675 2.0382
-4.6778 1.6966 2.0382
-4.8001 1.3145 2.0382
-4.8913 0.9237 2.0382
-4.9508 0.5268 2.0382
-4.9781 0.1263 2.0382
-4.9731 -0.2751 2.0382
-4.9358 -0.6749 2.0382
-4.8663 -1.0705 2.0382
-4.7652 -1.4592 2.0382
-4.6331 -1.8386 2.0382
-4.4707 -2.2061 2.0382
-4.2793 -2.5595 2.0382
-4.0600 -2.8962 2.0382
-3.8141 -3.2143 2.0382
-3.5434 -3.5115 2.0382
-3.2496 -3.7859 2.0382
-2.9345 -4.0358 2.0382
-2.6003 -4.2595 2.0382
-2.2491 -4.4555 2.0382
-0.6827 -1.6759 0.7390
-0.5455 -1.7252 0.7388
-0.4048 -1.7634 0.7387
-0.2615 -1.7901 0.7387
-0.1165 -1.8053 0.7386
0.0292 -1.8088 0.7386
0.1748 -1.8006 0.7386
0.3192 -1.7808 0.7387
0.4616 -1.7494 0.7388
0.6010 -1.7068 0.7389
0.7366 -1.6530 0.7390
2.3919 -4.3803 2.0382
2.7366 -4.1731 2.0382
3.0634 -3.9387 2.0382
3.3702 -3.6788 2.0382
3.6550 -3.3950 2.0382
3.7910 -2.9906 1.9732
3.8409 -2.5570 1.8858
4.0336 -2.2387 1.8858
4.2001 -1.9063 1.8858
4.3392 -1.5615 1.8858
4.4500 -1.2068 1.8858
4.5319 -0.8443 1.8858
3.9406 -0.4095 1.6211
3.9436 -0.0904 1.6143
4.5995 0.2658 1.8858
4.5623 0.6352 1.8858
4.4954 1.0005 1.8858
4.3994 1.3591 1.8858
4.2748 1.7088 1.8858
4.1225 2.0472 1.8858
3.9435 2.3723 1.8858
3.8573 2.7666 1.9455
3.7939 3.2142 2.0382
3.5221 3.5088 2.0382
3.2275 3.7807 2.0382
2.9120 4.0279 2.0382
2.5778 4.2490 2.0382
2.2268 4.4425 2.0382
0.6832 1.6908 0.7480
0.5448 1.7405 0.7482
0.4028 1.7789 0.7483
0.2582 1.8057 0.7483
0.1118 1.8207 0.7484
-0.0352 1.8238 0.7484
-0.1821 1.8150 0.7484
-0.3277 1.7943 0.7483
-0.4712 1.7620 0.7482
-0.6115 1.7181 0.7481
-0.7479 1.6630 0.7480
-2.3968 4.3533 2.0382
-2.7400 4.1465 2.0382
-3.0655 3.9127 2.0382
-3.3712 3.6534 2.0382
-3.6551 3.3704 2.0382
-3.9154 3.0654 2.0382
-4.1502 2.7404 2.0382
-4.3583 2.3976 2.0382
-4.5380 2.0391 2.0382
-4.6884 1.6672 2.0382
-4.8084 1.2843 2.0382
-4.8971 0.8930 2.0382
-4.9541 0.4957 2.0382
-4.9789 0.0951 2.0382
-4.9714 -0.3063 2.0382
-4.9315 -0.7059 2.0382
-4.8596 -1.1010 2.0382
-4.7560 -1.4891 2.0382
-4.6215 -1.8676 2.0382
-4.4569 -2.2342 2.0382
-4.2632 -2.5863 2.0382
-4.0417 -2.9217 2.0382
-3.7939 -3.2382 2.0382
-3.5213 -3.5337 2.0382
-3.2258 -3.8063 2.0382
-2.9092 -4.0542 2.0382
-2.5735 -4.2757 2.0382
-2.2211 -4.4695 2.0382
-0.6722 -1.6801 0.7389
-0.5347 -1.7286 0.7388
-0.3937 -1.7659 0.7387
-0.2502 -1.7917 0.7386
-0.1052 -1.8060 0.7386
0.0406 -1.8086 0.7386
0.1861 -1.7995 0.7386
0.3304 -1.7788 0.7387
0.4726 -1.7465 0.7388
0.6118 -1.7030 0.7389
0.7470 -1.6484 0.7390
2.4193 -4.3652 2.0382
2.7627 -4.1558 2.0382
3.0880 -3.9194 2.0382
3.3932 -3.6574 2.0382
3.6762 -3.3719 2.0382
3.7930 -2.9538 1.9646
3.8568 -2.5328 1.8858
4.0476 -2.2133 1.8858
4.2119 -1.8798 1.8858
4.3489 -1.5342 1.8858
4.4575 -1.1788 1.8858
4.5370 -0.8158 1.8858
3.9352 -0.3840 1.6178
3.9444 -0.0657 1.6145
4.5977 0.2946 1.8858
4.5581 0.6639 1.8858
4.4890 1.0287 1.8858
4.3907 1.3867 1.8858
4.2639 1.7355 1.8858
4.1095 2.0730 1.8858
3.9285 2.3970 1.8858
3.8561 2.8027 1.9538
3.7736 3.2379 2.0382
3.4999 3.5308 2.0382
3.2037 3.8009 2.0382
2.8867 4.0461 2.0382
2.5510 4.2651 2.0382
2.1989 4.4563 2.0382
0.6725 1.6951 0.7481
0.5338 1.7439 0.7482
0.3916 1.7814 0.7483
0.2468 1.8073 0.7484
0.1004 1.8214 0.7484
-0.0467 1.8235 0.7484
-0.1935 1.8138 0.7484
-0.3390 1.7922 0.7483
-0.4822 1.7590 0.7482
-0.6223 1.7142 0.7481
-0.7583 1.6583 0.7479
4.0768 1.2313 1.8858
3.9636 1.5555 1.8858
3.8561 1.8846 1.9013
3.8456 2.2805 1.9808
3.7546 2.6573 2.0382
3.5277 2.9507 2.0382
3.2781 3.2249 2.0382
3.0072 3.4781 2.0382
2.7169 3.7086 2.0382
2.4090 3.9151 2.0382
0.7649 1.5022 0.7475
0.6414 1.5592 0.7477
0.5138 1.6060 0.7478
0.3827 1.6423 0.7479
0.2492 1.6679 0.7480
0.1140 1.6826 0.7480
-0.0220 1.6863 0.7480
-0.1578 1.6790 0.7480
-0.2925 1.6608 0.7480
-0.4254 1.6317 0.7479
-0.5554 1.5920 0.7478
-0.6818 1.5418 0.7476
-2.1916 4.0404 2.0382
-2.5103 3.8510 2.0382
-2.8127 3.6366 2.0382
-3.0969 3.3986 2.0382
-3.3611 3.1384 2.0382
-3.6035 2.8579 2.0382
-3.8226 2.5586 2.0382
-4.0170 2.2427 2.0382
-4.1853 1.9121 2.0382
-4.3265 1.5690 2.0382
-4.4396 1.2156 2.0382
-4.5239 0.8542 2.0382
-4.5788 0.4871 2.0382
-4.6040 0.1167 2.0382
-4.5993 -0.2546 2.0382
-4.5647 -0.6243 2.0382
-4.5004 -0.9901 2.0382
-4.4069 -1.3496 2.0382
-4.2846 -1.7004 2.0382
-4.1345 -2.0403 2.0382
-3.9574 -2.3670 2.0382
-3.7545 -2.6785 2.0382
-3.5271 -2.9725 2.0382
-3.2768 -3.2474 2.0382
-3.0050 -3.5011 2.0382
-2.7136 -3.7322 2.0382
-2.4046 -3.9390 2.0382
-0.7545 -1.4948 0.7394
-0.6316 -1.5505 0.7393
-0.5047 -1.5961 0.7392
-0.3745 -1.6314 0.7391
-0.2419 -1.6562 0.7390
-0.1078 -1.6703 0.7390
0.0271 -1.6735 0.7390
0.1617 -1.6659 0.7390
0.2953 -1.6476 0.7390
0.4271 -1.6185 0.7391
0.5561 -1.5790 0.7392
0.6815 -1.5293 0.7394
2.2118 -4.0507 2.0382
2.5306 -3.8591 2.0382
2.8328 -3.6424 2.0382
3.1165 -3.4020 2.0382
3.3799 -3.1397 2.0382
3.6213 -2.8568 2.0382
3.7889 -2.5222 2.0116
3.8091 -2.1143 1.9257
3.8842 -1.7629 1.8858
4.0129 -1.4442 1.8858
4.1154 -1.1162 1.8858
4.1912 -0.7809 1.8858
3.9212 -0.4076 1.7442
3.9273 -0.0902 1.7383
4.2539 0.2457 1.8858
4.2195 0.5874 1.8858
4.1577 0.9252 1.8858
4.0689 1.2569 1.8858
3.9538 1.5804 1.8858
3.8554 1.9144 1.9068
3.8446 2.3126 1.9878
3.7377 2.6808 2.0382
3.5091 2.9728 2.0382
3.2577 3.2454 2.0382
2.9853 3.4968 2.0382
2.6935 3.7256 2.0382
2.3844 3.9301 2.0382
0.7554 1.5070 0.7475
0.6316 1.5632 0.7477
0.5037 1.6092 0.7478
0.3724 1.6446 0.7479
0.2387 1.6694 0.7480
0.1034 1.6832 0.7480
-0.0326 1.6861 0.7480
-0.1683 1.6780 0.7480
-0.3030 1.6589 0.7480
-0.4356 1.6290 0.7479
-0.5654 1.5884 0.7478
-0.6915 1.5375 0.7476
-2.2170 4.0265 2.0382
-2.5344 3.8352 2.0382
-2.8355 3.6189 2.0382
-3.1182 3.3791 2.0382
-3.3808 3.1173 2.0382
-3.6215 2.8352 2.0382
-3.8387 2.5346 2.0382
-4.0310 2.2174 2.0382
-4.1973 1.8858 2.0382
-4.3363 1.5418 2.0382
-4.4472 1.1877 2.0382
-4.5292 0.8257 2.0382
-4.5819 0.4583 2.0382
-4.6047 0.0878 2.0382
-4.5977 -0.2834 2.0382
-4.5608 -0.6530 2.0382
-4.4942 -1.0184 2.0382
-4.3984 -1.3773 2.0382
-4.2739 -1.7273 2.0382
-4.1216 -2.0663 2.0382
-3.9425 -2.3919 2.0382
-3.7376 -2.7020 2.0382
-3.5084 -2.9947 2.0382
-3.2563 -3.2679 2.0382
-2.9830 -3.5200 2.0382
-2.6902 -3.7492 2.0382
-2.3798 -3.9540 2.0382
-0.7451 -1.4994 0.7394
-0.6219 -1.5544 0.7393
-0.4947 -1.5992 0.7392
-0.3643 -1.6338 0.7391
-0.2315 -1.6577 0.7390
-0.0973 -1.6709 0.7390
0.0376 -1.6733 0.7390
0.1722 -1.6649 0.7390
0.3057 -1.6457 0.7390
0.4372 -1.6158 0.7391
0.5660 -1.5755 0.7392
0.6911 -1.5250 0.7394
2.2372 -4.0367 2.0382
2.5547 -3.8431 2.0382
2.8556 -3.6245 2.0382
3.1378 -3.3824 2.0382
3.3995 -3.1184 2.0382
3.6391 -2.8340 2.0382
3.7906 -2.4892 2.0042
3.8105 -2.0838 1.9198
3.8951 -1.7385 1.8858
4.0218 -1.4190 1.8858
4.1223 -1.0903 1.8858
4.1960 -0.7546 1.8858
3.9166 -0.3823 1.7411
3.9281 -0.0655 1.7385
4.2522 0.2724 1.8858
4.2156 0.6139 1.8858
4.1517 0.9513 1.8858
4.0609 1.2824 1.8858
3.9437 1.6051 1.8858
3.8546 1.9443 1.9125
3.8436 2.3450 1.9949
3.7208 2.7042 2.0382
3.4903 2.9947 2.0382
3.2373 3.2657 2.0382
2.9632 3.5155 2.0382
2.6701 3.7424 2.0382
2.3596 3.9449 2.0382
0.7460 1.5118 0.7476
0.6218 1.5671 0.7477
0.4936 1.6123 0.7478
0.3621 1.6470 0.7479
0.2282 1.6709 0.7480
0.0928 1.6839 0.7480
-0.0432 1.6859 0.7480
-0.1789 1.6769 0.7480
-0.3134 1.6569 0.7479
-0.4458 1.6262 0.7479
-0.5754 1.5848 0.7478
-0.7011 1.5331 0.7476
3.8457 1.1613 1.9159
3.8398 1.5067 1.9676
3.8313 1.8725 2.0345
3.6742 2.1787 2.0382
3.4862 2.4673 2.0382
3.2757 2.7397 2.0382
3.0439 2.9944 2.0382
2.7924 3.2295 2.0382
2.5228 3.4436 2.0382
2.2369 3.6353 2.0382
0.7100 1.3944 0.7472
0.5954 1.4472 0.7474
0.4769 1.4906 0.7475
0.3552 1.5243 0.7476
0.2313 1.5480 0.7477
0.1058 1.5617 0.7477
-0.0204 1.5651 0.7477
-0.1465 1.5584 0.7477
-0.2715 1.5415 0.7476
-0.3948 1.5145 0.7476
-0.5155 1.4776 0.7475
-0.6329 1.4311 0.7473
-0.7460 1.3753 0.7472
-2.3310 3.5758 2.0382
-2.6118 3.3767 2.0382
-2.8757 3.1557 2.0382
-3.1210 2.9141 2.0382
-3.3460 2.6535 2.0382
-3.5494 2.3757 2.0382
-3.7299 2.0823 2.0382
-3.8861 1.7753 2.0382
-4.0171 1.4567 2.0382
-4.1221 1.1285 2.0382
-4.2004 0.7930 2.0382
-4.2513 0.4521 2.0382
-4.2747 0.1082 2.0382
-4.2703 -0.2365 2.0382
-4.2381 -0.5797 2.0382
-4.1784 -0.9194 2.0382
-4.0915 -1.2531 2.0382
-3.9779 -1.5788 2.0382
-3.8385 -1.8944 2.0382
-3.6740 -2.1977 2.0382
-3.4856 -2.4868 2.0382
-3.2745 -2.7598 2.0382
-3.0420 -3.0149 2.0382
-2.7897 -3.2504 2.0382
-2.5192 -3.4649 2.0382
-2.2323 -3.6569 2.0382
-0.7007 -1.3882 0.7397
-0.5866 -1.4400 0.7396
-0.4687 -1.4824 0.7395
-0.3478 -1.5152 0.7394
-0.2247 -1.5382 0.7393
-0.1001 -1.5513 0.7393
0.0251 -1.5543 0.7393
0.1502 -1.5472 0.7393
0.2743 -1.5302 0.7394
0.3966 -1.5032 0.7394
0.5164 -1.4665 0.7395
0.6329 -1.4203 0.7397
0.7453 -1.3649 0.7398
2.3493 -3.5827 2.0382
2.6299 -3.3816 2.0382
2.8933 -3.1585 2.0382
3.1378 -2.9149 2.0382
3.3619 -2.6525 2.0382
3.5641 -2.3727 2.0382
3.7430 -2.0777 2.0382
3.8017 -1.7257 1.9881
3.8159 -1.3735 1.9315
3.8339 -1.0399 1.8923
3.8913 -0.7251 1.8858
3.9258 -0.4082 1.8808
3.9107 -0.0899 1.8644
3.9496 0.2281 1.8858
3.9177 0.5453 1.8858
3.8604 0.8587 1.8858
3.8453 1.1876 1.9195
3.8392 1.5345 1.9722
3.8265 1.9000 2.0382
3.6604 2.2017 2.0382
3.4706 2.4890 2.0382
3.2584 2.7602 2.0382
3.0250 3.0134 2.0382
2.7720 3.2469 2.0382
2.5011 3.4593 2.0382
2.2140 3.6492 2.0382
0.7012 1.3988 0.7473
0.5863 1.4509 0.7474
0.4675 1.4936 0.7475
0.3457 1.5265 0.7476
0.2215 1.5495 0.7477
0.0960 1.5623 0.7477
-0.0302 1.5650 0.7477
-0.1562 1.5574 0.7477
-0.2812 1.5397 0.7476
-0.4043 1.5120 0.7476
-0.5248 1.4743 0.7475
-0.6418 1.4271 0.7473
-0.7546 1.3706 0.7472
-2.3534 3.5611 2.0382
-2.6329 3.3603 2.0382
-2.8955 3.1376 2.0382
-3.1392 2.8944 2.0382
-3.3627 2.6325 2.0382
-3.5643 2.3533 2.0382
-3.7429 2.0588 2.0382
-3.8972 1.7509 2.0382
-4.0263 1.4315 2.0382
-4.1292 1.1027 2.0382
-4.2053 0.7666 2.0382
-4.2541 0.4254 2.0382
-4.2753 0.0814 2.0382
-4.2688 -0.2633 2.0382
-4.2344 -0.6064 2.0382
-4.1726 -0.9456 2.0382
-4.0836 -1.2788 2.0382
-3.9680 -1.6038 2.0382
-3.8265 -1.9185 2.0382
-3.6602 -2.2207 2.0382
-3.4700 -2.5086 2.0382
-3.2572 -2.7803 2.0382
-3.0231 -3.0339 2.0382
-2.7693 -3.2679 2.0382
-2.4975 -3.4807 2.0382
-2.2093 -3.6708 2.0382
-0.6920 -1.3926 0.7397
-0.5776 -1.4436 0.7396
-0.4594 -1.4853 0.7395
-0.3383 -1.5174 0.7394
-0.2150 -1.5396 0.7393
-0.0904 -1.5519 0.7393
0.0349 -1.5541 0.7393
0.1599 -1.5463 0.7393
0.2839 -1.5284 0.7394
0.4061 -1.5007 0.7394
0.5256 -1.4633 0.7395
0.6418 -1.4164 0.7397
0.7538 -1.3603 0.7398
2.3717 -3.5679 2.0382
2.6510 -3.3650 2.0382
2.9130 -3.1402 2.0382
3.1560 -2.8951 2.0382
3.3784 -2.6312 2.0382
3.5788 -2.3502 2.0382
3.7559 -2.0541 2.0382
3.8029 -1.6975 1.9832
3.8169 -1.3469 1.9277
3.8362 -1.0148 1.8902
3.8957 -0.7007 1.8858
3.9001 -0.3808 1.8673
3.9116 -0.0654 1.8645
3.9480 0.2528 1.8858
3.9141 0.5699 1.8858
3.8588 0.8840 1.8878
3.8449 1.2140 1.9231
3.8387 1.5622 1.9769
3.8144 1.9239 2.0382
3.6465 2.2246 2.0382
3.4549 2.5107 2.0382
3.2409 2.7806 2.0382
3.0060 3.0323 2.0382
2.7515 3.2642 2.0382
2.4793 3.4749 2.0382
2.1911 3.6630 2.0382
0.6924 1.4032 0.7473
0.5772 1.4546 0.7474
0.4581 1.4965 0.7475
0.3361 1.5286 0.7476
0.2118 1.5508 0.7477
0.0862 1.5629 0.7477
-0.0401 1.5648 0.7477
-0.1660 1.5564 0.7477
-0.2909 1.5379 0.7476
-0.4138 1.5094 0.7475
-0.5341 1.4710 0.7474
-0.6508 1.4230 0.7473
3.8113 1.1509 2.0382
3.7056 1.4539 2.0382
3.5758 1.7475 2.0382
3.4229 2.0296 2.0382
3.2478 2.2984 2.0382
3.0517 2.5523 2.0382
2.8358 2.7895 2.0382
2.6015 3.0086 2.0382
2.3504 3.2080 2.0382
0.7636 1.2409 0.7468
0.6612 1.2986 0.7470
0.5545 1.3478 0.7471
0.4441 1.3882 0.7472
0.3308 1.4195 0.7473
0.2154 1.4416 0.7474
0.0985 1.4544 0.7474
-0.0190 1.4576 0.7474
-0.1364 1.4513 0.7474
-0.2529 1.4355 0.7473
-0.3677 1.4104 0.7473
-0.4801 1.3761 0.7472
-0.5894 1.3328 0.7471
-0.6948 1.2808 0.7469
-2.1716 3.3313 2.0382
-2.4332 3.1457 2.0382
-2.6791 2.9398 2.0382
-2.9076 2.7147 2.0382
-3.1172 2.4719 2.0382
-3.3067 2.2131 2.0382
-3.4747 1.9397 2.0382
-3.6203 1.6537 2.0382
-3.7423 1.3569 2.0382
-3.8401 1.0512 2.0382
-3.9129 0.7386 2.0382
-3.9604 0.4211 2.0382
-3.9821 0.1007 2.0382
-3.9779 -0.2204 2.0382
-3.9479 -0.5402 2.0382
-3.8922 -0.8565 2.0382
-3.8112 -1.1674 2.0382
-3.7054 -1.4708 2.0382
-3.5755 -1.7647 2.0382
-3.4223 -2.0472 2.0382
-3.2468 -2.3165 2.0382
-3.0501 -2.5708 2.0382
-2.8336 -2.8084 2.0382
-2.5985 -3.0278 2.0382
-2.3465 -3.2275 2.0382
-0.7550 -1.2369 0.7401
-0.6529 -1.2936 0.7400
-0.5466 -1.3418 0.7399
-0.4367 -1.3813 0.7398
-0.3241 -1.4119 0.7397
-0.2094 -1.4333 0.7396
-0.0933 -1.4455 0.7396
0.0234 -1.4483 0.7396
0.1399 -1.4418 0.7396
0.2556 -1.4259 0.7396
0.3696 -1.4007 0.7397
0.4812 -1.3665 0.7398
0.5897 -1.3235 0.7399
0.6944 -1.2718 0.7401
2.1882 -3.3372 2.0382
2.4496 -3.1499 2.0382
2.6950 -2.9421 2.0382
2.9228 -2.7153 2.0382
3.1315 -2.4707 2.0382
3.3199 -2.2102 2.0382
3.4866 -1.9355 2.0382
3.6306 -1.6481 2.0382
3.7509 -1.3502 2.0382
3.8040 -1.0319 2.0155
3.8132 -0.7107 1.9839
3.8201 -0.3973 1.9647
3.8248 -0.0880 1.9574
3.8272 0.2208 1.9617
3.8276 0.5326 1.9778
3.8257 0.8511 2.0062
3.8039 1.1748 2.0382
3.6963 1.4772 2.0382
3.5648 1.7699 2.0382
3.4101 2.0510 2.0382
3.2333 2.3187 2.0382
3.0355 2.5713 2.0382
2.8182 2.8072 2.0382
2.5825 3.0248 2.0382
2.3301 3.2227 2.0382
0.7558 1.2457 0.7468
0.6530 1.3027 0.7470
0.5460 1.3512 0.7471
0.4354 1.3909 0.7472
0.3219 1.4216 0.7473
0.2063 1.4430 0.7474
0.0894 1.4549 0.7474
-0.0282 1.4574 0.7474
-0.1455 1.4504 0.7474
-0.2619 1.4339 0.7473
-0.3766 1.4080 0.7473
-0.4888 1.3730 0.7472
-0.5978 1.3290 0.7471
-0.7028 1.2764 0.7469
-2.1925 3.3176 2.0382
-2.4529 3.1304 2.0382
-2.6975 2.9229 2.0382
-2.9246 2.6964 2.0382
-3.1327 2.4523 2.0382
-3.3206 2.1923 2.0382
-3.4869 1.9179 2.0382
-3.6306 1.6310 2.0382
-3.7508 1.3334 2.0382
-3.8467 1.0271 2.0382
-3.9175 0.7140 2.0382
-3.9630 0.3962 2.0382
-3.9827 0.0757 2.0382
-3.9765 -0.2454 2.0382
-3.9445 -0.5650 2.0382
-3.8868 -0.8810 2.0382
-3.8039 -1.1913 2.0382
-3.6962 -1.4941 2.0382
-3.5644 -1.7871 2.0382
-3.4094 -2.0687 2.0382
-3.2322 -2.3369 2.0382
-3.0339 -2.5899 2.0382
-2.8159 -2.8261 2.0382
-2.5795 -3.0441 2.0382
-2.3263 -3.2422 2.0382
-0.7472 -1.2416 0.7401
-0.6448 -1.2976 0.7400
-0.5381 -1.3452 0.7399
-0.4281 -1.3840 0.7397
-0.3152 -1.4139 0.7397
-0.2004 -1.4346 0.7396
-0.0842 -1.4461 0.7396
0.0325 -1.4481 0.7396
0.1490 -1.4409 0.7396
0.2645 -1.4242 0.7396
0.3784 -1.3984 0.7397
0.4898 -1.3635 0.7398
0.5980 -1.3198 0.7399
0.7024 -1.2675 0.7401
2.2091 -3.3234 2.0382
2.4693 -3.1344 2.0382
2.7134 -2.9251 2.0382
2.9397 -2.6968 2.0382
3.1469 -2.4510 2.0382
3.3336 -2.1893 2.0382
3.4986 -1.9135 2.0382
3.6408 -1.6253 2.0382
3.7593 -1.3266 2.0382
3.8048 -1.0065 2.0126
3.8139 -0.6861 1.9819
3.8206 -0.3732 1.9637
3.8250 -0.0640 1.9573
3.8273 0.2449 1.9625
3.8275 0.5571 1.9796
3.8255 0.8763 2.0089
3.7964 1.1986 2.0382
3.6869 1.5003 2.0382
3.5535 1.7922 2.0382
3.3971 2.0723 2.0382
3.2186 2.3390 2.0382
3.0193 2.5903 2.0382
2.8004 2.8248 2.0382
2.5634 3.0409 2.0382
2.3098 3.2373 2.0382
0.7480 1.2504 0.7469
0.6449 1.3068 0.7470
0.5375 1.3546 0.7471
0.4267 1.3937 0.7472
0.3130 1.4236 0.7473
0.1973 1.4442 0.7474
0.0802 1.4555 0.7474
-0.0373 1.4572 0.7474
-0.1546 1.4494 0.7474
-0.2709 1.4322 0.7473
-0.3854 1.4056 0.7473
-0.4974 1.3699 0.7472
-0.6061 1.3252 0.7471
3.5605 1.0751 2.0382
3.4618 1.3582 2.0382
3.3406 1.6324 2.0382
3.1978 1.8960 2.0382
3.0342 2.1472 2.0382
2.8510 2.3843 2.0382
2.6493 2.6060 2.0382
2.4305 2.8107 2.0382
2.1959 2.9970 2.0382
0.7132 1.1589 0.7466
0.6176 1.2128 0.7468
0.5179 1.2587 0.7469
0.4148 1.2965 0.7470
0.3090 1.3258 0.7471
0.2012 1.3464 0.7471
0.0920 1.3583 0.7471
-0.0177 1.3613 0.7471
-0.1274 1.3554 0.7471
-0.2362 1.3407 0.7471
-0.3434 1.3172 0.7470
-0.4484 1.2852 0.7469
-0.5505 1.2447 0.7468
-0.6489 1.1962 0.7467
-0.7431 1.1399 0.7466
-2.2733 2.9388 2.0382
-2.5029 2.7464 2.0382
-2.7164 2.5361 2.0382
-2.9123 2.3093 2.0382
-3.0892 2.0674 2.0382
-3.2462 1.8120 2.0382
-3.3821 1.5449 2.0382
-3.4961 1.2676 2.0382
-3.5874 0.9819 2.0382
-3.6555 0.6899 2.0382
-3.6997 0.3932 2.0382
-3.7200 0.0940 2.0382
-3.7161 -0.2060 2.0382
-3.6880 -0.5047 2.0382
-3.6360 -0.8003 2.0382
-3.5603 -1.0907 2.0382
-3.4614 -1.3741 2.0382
-3.3400 -1.6486 2.0382
-3.1969 -1.9125 2.0382
-3.0329 -2.1640 2.0382
-2.8492 -2.4015 2.0382
-2.6469 -2.6235 2.0382
-2.4273 -2.8284 2.0382
-2.1919 -3.0149 2.0382
-0.7055 -1.1558 0.7404
-0.6101 -1.2087 0.7402
-0.5107 -1.2538 0.7401
-0.4081 -1.2907 0.7400
-0.3028 -1.3193 0.7399
-0.1956 -1.3394 0.7399
-0.0872 -1.3507 0.7398
0.0219 -1.3534 0.7398
0.1308 -1.3472 0.7398
0.2388 -1.3324 0.7399
0.3453 -1.3089 0.7400
0.4496 -1.2769 0.7400
0.5510 -1.2367 0.7401
0.6489 -1.1884 0.7403
0.7425 -1.1325 0.7404
2.2882 -2.9424 2.0382
2.5174 -2.7484 2.0382
2.7302 -2.5365 2.0382
2.9252 -2.3081 2.0382
3.1012 -2.0648 2.0382
3.2569 -1.8081 2.0382
3.3914 -1.5397 2.0382
3.5039 -1.2614 2.0382
3.5935 -0.9749 2.0382
3.6598 -0.6823 2.0382
3.7023 -0.3852 2.0382
3.7207 -0.0857 2.0382
3.7149 0.2142 2.0382
3.6849 0.5126 2.0382
3.6311 0.8077 2.0382
3.5537 1.0974 2.0382
3.4532 1.3798 2.0382
3.3303 1.6534 2.0382
3.1858 1.9160 2.0382
3.0207 2.1662 2.0382
2.8360 2.4022 2.0382
2.6329 2.6226 2.0382
2.4127 2.8258 2.0382
2.1770 3.0108 2.0382
0.7059 1.1634 0.7466
0.6099 1.2167 0.7468
0.5100 1.2620 0.7469
0.4066 1.2991 0.7470
0.3007 1.3277 0.7471
0.1927 1.3476 0.7471
0.0835 1.3588 0.7471
-0.0263 1.3611 0.7471
-0.1359 1.3546 0.7471
-0.2446 1.3392 0.7471
-0.3517 1.3150 0.7470
-0.4565 1.2823 0.7469
-0.5583 1.2413 0.7468
-0.6564 1.1921 0.7467
-0.7503 1.1352 0.7465
-2.2917 2.9245 2.0382
-2.5202 2.7307 2.0382
-2.7323 2.5190 2.0382
-2.9267 2.2910 2.0382
-3.1022 2.0480 2.0382
-3.2576 1.7916 2.0382
-3.3918 1.5236 2.0382
-3.5041 1.2455 2.0382
-3.5936 0.9594 2.0382
-3.6598 0.6669 2.0382
-3.7022 0.3700 2.0382
-3.7206 0.0706 2.0382
-3.7148 -0.2294 2.0382
-3.6848 -0.5279 2.0382
-3.6309 -0.8231 2.0382
-3.5534 -1.1130 2.0382
-3.4528 -1.3958 2.0382
-3.3296 -1.6696 2.0382
-3.1848 -1.9325 2.0382
-3.0193 -2.1830 2.0382
-2.8341 -2.4194 2.0382
-2.6304 -2.6400 2.0382
-2.4095 -2.8436 2.0382
-2.1730 -3.0287 2.0382
-0.6982 -1.1602 0.7404
-0.6025 -1.2125 0.7402
-0.5028 -1.2570 0.7401
-0.4000 -1.2933 0.7400
-0.2945 -1.3212 0.7399
-0.1872 -1.3406 0.7399
-0.0787 -1.3512 0.7398
0.0304 -1.3532 0.7398
0.1392 -1.3464 0.7399
0.2472 -1.3308 0.7399
0.3535 -1.3067 0.7400
0.4576 -1.2741 0.7400
0.5588 -1.2332 0.7402
0.6563 -1.1843 0.7403
0.7496 -1.1278 0.7404
2.3066 -2.9280 2.0382
2.5346 -2.7325 2.0382
2.7460 -2.5192 2.0382
2.9396 -2.2896 2.0382
3.1140 -2.0452 2.0382
3.2682 -1.7876 2.0382
3.4010 -1.5184 2.0382
3.5117 -1.2394 2.0382
3.5995 -0.9524 2.0382
3.6640 -0.6593 2.0382
3.7046 -0.3620 2.0382
3.7211 -0.0624 2.0382
3.7134 0.2375 2.0382
3.6816 0.5358 2.0382
3.6259 0.8304 2.0382
3.5467 1.1197 2.0382
3.4444 1.4015 2.0382
3.3198 1.6742 2.0382
3.1737 1.9360 2.0382
3.0070 2.1851 2.0382
2.8208 2.4199 2.0382
2.6163 2.6390 2.0382
2.3949 2.8409 2.0382
0.7903 1.1076 0.7465
0.6986 1.1678 0.7466
0.6023 1.2205 0.7468
0.5020 1.2651 0.7469
0.3985 1.3016 0.7470
0.2923 1.3295 0.7471
0.1842 1.3488 0.7471
0.0749 1.3593 0.7471
-0.0348 1.3609 0.7471
-0.1444 1.3537 0.7471
-0.2530 1.3376 0.7471
-0.3600 1.3128 0.7470
-0.4645 1.2794 0.7469
-0.5661 1.2377 0.7468
3.3343 1.0066 2.0382
3.2419 1.2718 2.0382
3.1284 1.5286 2.0382
2.9947 1.7754 2.0382
2.8415 2.0107 2.0382
2.6700 2.2328 2.0382
2.4811 2.4404 2.0382
2.2761 2.6321 2.0382
0.7529 1.0276 0.7463
0.6677 1.0850 0.7464
0.5782 1.1354 0.7465
0.4849 1.1784 0.7467
0.3883 1.2138 0.7468
0.2893 1.2412 0.7468
0.1883 1.2605 0.7469
0.0861 1.2716 0.7469
-0.0166 1.2744 0.7469
-0.1193 1.2689 0.7469
-0.2211 1.2552 0.7469
-0.3215 1.2332 0.7468
-0.4198 1.2032 0.7467
-0.5154 1.1654 0.7466
-0.6076 1.1199 0.7465
-0.6958 1.0672 0.7464
-2.1289 2.7522 2.0382
-2.3440 2.5719 2.0382
-2.5439 2.3750 2.0382
-2.7273 2.1625 2.0382
-2.8930 1.9360 2.0382
-3.0400 1.6968 2.0382
-3.1673 1.4466 2.0382
-3.2740 1.1869 2.0382
-3.3595 0.9194 2.0382
-3.4232 0.6459 2.0382
-3.4646 0.3681 2.0382
-3.4836 0.0879 2.0382
-3.4799 -0.1930 2.0382
-3.4536 -0.4728 2.0382
-3.4048 -0.7495 2.0382
-3.3339 -1.0214 2.0382
-3.2413 -1.2868 2.0382
-3.1276 -1.5438 2.0382
-2.9935 -1.7909 2.0382
-2.8400 -2.0264 2.0382
-2.6679 -2.2488 2.0382
-2.4784 -2.4566 2.0382
-2.2728 -2.6485 2.0382
-0.7459 -1.0260 0.7407
-0.6608 -1.0826 0.7406
-0.5714 -1.1321 0.7404
-0.4784 -1.1744 0.7403
-0.3822 -1.2090 0.7402
-0.2836 -1.2358 0.7401
-0.1832 -1.2545 0.7401
-0.0816 -1.2652 0.7401
0.0205 -1.2676 0.7401
0.1225 -1.2619 0.7401
0.2237 -1.2480 0.7401
0.3234 -1.2260 0.7402
0.4211 -1.1960 0.7403
0.5161 -1.1583 0.7404
0.6077 -1.1131 0.7405
0.6955 -1.0607 0.7406
0.7787 -1.0014 0.7408
2.3572 -2.5736 2.0382
2.5565 -2.3751 2.0382
2.7391 -2.1613 2.0382
2.9039 -1.9335 2.0382
3.0497 -1.6932 2.0382
3.1757 -1.4419 2.0382
3.2811 -1.1813 2.0382
3.3650 -0.9131 2.0382
3.4271 -0.6390 2.0382
3.4669 -0.3609 2.0382
3.4841 -0.0804 2.0382
3.4788 0.2005 2.0382
3.4508 0.4799 2.0382
3.4004 0.7562 2.0382
3.3279 1.0275 2.0382
3.2338 1.2921 2.0382
3.1187 1.5482 2.0382
2.9835 1.7942 2.0382
2.8288 2.0285 2.0382
2.6559 2.2495 2.0382
2.4657 2.4559 2.0382
2.2595 2.6463 2.0382
0.7465 1.0323 0.7463
0.6609 1.0892 0.7464
0.5711 1.1391 0.7466
0.4775 1.1815 0.7467
0.3807 1.2162 0.7468
0.2815 1.2430 0.7468
0.1804 1.2617 0.7469
0.0782 1.2721 0.7469
-0.0246 1.2743 0.7469
-0.1272 1.2681 0.7469
-0.2290 1.2537 0.7469
-0.3293 1.2311 0.7468
-0.4274 1.2005 0.7467
-0.5227 1.1621 0.7466
-0.6146 1.1161 0.7465
-0.7024 1.0628 0.7463
-2.1462 2.7387 2.0382
-2.3601 2.5572 2.0382
-2.5588 2.3589 2.0382
-2.7409 2.1454 2.0382
-2.9052 1.9178 2.0382
-3.0507 1.6777 2.0382
-3.1763 1.4267 2.0382
-3.2814 1.1663 2.0382
-3.3652 0.8983 2.0382
-3.4272 0.6244 2.0382
-3.4669 0.3464 2.0382
-3.4841 0.0660 2.0382
-3.4786 -0.2149 2.0382
-3.4506 -0.4944 2.0382
-3.4001 -0.7709 2.0382
-3.3274 -1.0423 2.0382
-3.2332 -1.3071 2.0382
-3.1179 -1.5635 2.0382
-2.9822 -1.8097 2.0382
-2.8272 -2.0442 2.0382
-2.6537 -2.2655 2.0382
-2.4630 -2.4722 2.0382
-2.2562 -2.6627 2.0382
-0.7394 -1.0306 0.7407
-0.6539 -1.0867 0.7405
-0.5643 -1.1357 0.7404
-0.4710 -1.1773 0.7403
-0.3746 -1.2113 0.7402
-0.2759 -1.2375 0.7401
-0.1753 -1.2557 0.7401
-0.0737 -1.2657 0.7401
0.0284 -1.2675 0.7401
0.1304 -1.2611 0.7401
0.2315 -1.2466 0.7401
0.3311 -1.2239 0.7402
0.4286 -1.1934 0.7403
0.5233 -1.1551 0.7404
0.6147 -1.1093 0.7405
0.7021 -1.0563 0.7406
0.7850 -0.9965 0.7408
2.3733 -2.5587 2.0382
2.5713 -2.3590 2.0382
2.7526 -2.1441 2.0382
2.9159 -1.9152 2.0382
3.0603 -1.6740 2.0382
3.1847 -1.4219 2.0382
3.2884 -1.1606 2.0382
3.3707 -0.8919 2.0382
3.4310 -0.6175 2.0382
3.4690 -0.3391 2.0382
3.4845 -0.0585 2.0382
3.4774 0.2223 2.0382
3.4476 0.5016 2.0382
3.3955 0.7776 2.0382
3.3213 1.0484 2.0382
3.2256 1.3124 2.0382
3.1089 1.5677 2.0382
2.9721 1.8129 2.0382
2.8160 2.0462 2.0382
2.6417 2.2661 2.0382
2.4502 2.4713 2.0382
2.2429 2.6604 2.0382
0.7400 1.0370 0.7463
0.6541 1.0934 0.7464
0.5639 1.1426 0.7466
0.4700 1.1844 0.7467
0.3731 1.2186 0.7468
0.2737 1.2447 0.7468
0.1725 1.2628 0.7469
0.0702 1.2726 0.7469
-0.0326 1.2741 0.7469
-0.1352 1.2673 0.7469
-0.2369 1.2523 0.7469
-0.3370 1.2290 0.7468
-0.4349 1.1978 0.7467
-0.5300 1.1588 0.7466
3.1288 0.9445 2.0382
3.0421 1.1933 2.0382
2.9357 1.4343 2.0382
2.8102 1.6660 2.0382
2.6665 1.8867 2.0382
2.5055 2.0952 2.0382
2.3283 2.2900 2.0382
0.7817 0.9039 0.7459
0.7064 0.9640 0.7461
0.6265 1.0179 0.7462
0.5425 1.0652 0.7464
0.4549 1.1056 0.7465
0.3643 1.1387 0.7466
0.2714 1.1644 0.7466
0.1767 1.1825 0.7467
0.0808 1.1930 0.7467
-0.0156 1.1956 0.7467
-0.1119 1.1904 0.7467
-0.2075 1.1775 0.7467
-0.3017 1.1569 0.7466
-0.3939 1.1288 0.7465
-0.4835 1.0933 0.7464
-0.5700 1.0507 0.7463
-0.6528 1.0012 0.7462
-0.7312 0.9453 0.7460
-2.1997 2.4134 2.0382
-2.3872 2.2286 2.0382
-2.5593 2.0292 2.0382
-2.7148 1.8166 2.0382
-2.8527 1.5922 2.0382
-2.9722 1.3574 2.0382
-3.0723 1.1137 2.0382
-3.1525 0.8627 2.0382
-3.2122 0.6060 2.0382
-3.2511 0.3453 2.0382
-3.2688 0.0824 2.0382
-3.2653 -0.1812 2.0382
-3.2406 -0.4437 2.0382
-3.1948 -0.7034 2.0382
-3.1283 -0.9585 2.0382
-3.0414 -1.2075 2.0382
-2.9347 -1.4488 2.0382
-2.8088 -1.6806 2.0382
-2.6647 -1.9015 2.0382
-2.5033 -2.1102 2.0382
-2.3255 -2.3052 2.0382
-0.7753 -0.9035 0.7410
-0.7000 -0.9629 0.7409
-0.6201 -1.0160 0.7407
-0.5363 -1.0626 0.7406
-0.4489 -1.1022 0.7405
-0.3587 -1.1347 0.7404
-0.2662 -1.1598 0.7404
-0.1720 -1.1775 0.7403
-0.0766 -1.1875 0.7403
0.0192 -1.1898 0.7403
0.1150 -1.1844 0.7403
0.2099 -1.1713 0.7403
0.3036 -1.1506 0.7404
0.3952 -1.1225 0.7405
0.4844 -1.0872 0.7405
0.5704 -1.0447 0.7407
0.6527 -0.9955 0.7408
0.7308 -0.9398 0.7409
2.2117 -2.4149 2.0382
2.3987 -2.2287 2.0382
2.5701 -2.0281 2.0382
2.7247 -1.8143 2.0382
2.8616 -1.5888 2.0382
2.9799 -1.3531 2.0382
3.0787 -1.1085 2.0382
3.1575 -0.8569 2.0382
3.2158 -0.5997 2.0382
3.2531 -0.3387 2.0382
3.2694 -0.0756 2.0382
3.2643 0.1880 2.0382
3.2381 0.4503 2.0382
3.1908 0.7095 2.0382
3.1228 0.9641 2.0382
3.0346 1.2124 2.0382
2.9266 1.4527 2.0382
2.7997 1.6836 2.0382
2.6546 1.9034 2.0382
2.4923 2.1109 2.0382
2.3138 2.3045 2.0382
0.7760 0.9088 0.7459
0.7003 0.9685 0.7461
0.6201 1.0219 0.7462
0.5358 1.0686 0.7464
0.4479 1.1084 0.7465
0.3572 1.1410 0.7466
0.2641 1.1661 0.7466
0.1693 1.1836 0.7467
0.0733 1.1934 0.7467
-0.0231 1.1955 0.7467
-0.1194 1.1897 0.7467
-0.2148 1.1762 0.7466
-0.3089 1.1550 0.7466
-0.4010 1.1263 0.7465
-0.4904 1.0902 0.7464
-0.5766 1.0471 0.7463
-0.6590 0.9971 0.7462
-0.7372 0.9406 0.7460
-2.2148 2.3996 2.0382
-2.4012 2.2136 2.0382
-2.5720 2.0131 2.0382
-2.7262 1.7996 2.0382
-2.8627 1.5743 2.0382
-2.9807 1.3387 2.0382
-3.0793 1.0944 2.0382
-3.1579 0.8429 2.0382
-3.2160 0.5858 2.0382
-3.2532 0.3249 2.0382
-3.2693 0.0619 2.0382
-3.2642 -0.2017 2.0382
-3.2378 -0.4641 2.0382
-3.1904 -0.7234 2.0382
-3.1222 -0.9782 2.0382
-3.0338 -1.2266 2.0382
-2.9255 -1.4671 2.0382
-2.7983 -1.6982 2.0382
-2.6528 -1.9182 2.0382
-2.4900 -2.1259 2.0382
-2.3110 -2.3197 2.0382
-0.7696 -0.9084 0.7410
-0.6939 -0.9673 0.7409
-0.6137 -1.0199 0.7407
-0.5296 -1.0659 0.7406
-0.4420 -1.1050 0.7405
-0.3516 -1.1369 0.7404
-0.2589 -1.1615 0.7403
-0.1646 -1.1785 0.7403
-0.0692 -1.1879 0.7403
0.0267 -1.1896 0.7403
0.1224 -1.1836 0.7403
0.2173 -1.1700 0.7403
0.3108 -1.1487 0.7404
0.4023 -1.1200 0.7405
0.4912 -1.0841 0.7406
0.5769 -1.0411 0.7407
0.6589 -0.9914 0.7408
0.7367 -0.9352 0.7410
2.2268 -2.4009 2.0382
2.4127 -2.2136 2.0382
2.5828 -2.0119 2.0382
2.7360 -1.7972 2.0382
2.8715 -1.5708 2.0382
2.9883 -1.3343 2.0382
3.0856 -1.0892 2.0382
3.1628 -0.8370 2.0382
3.2195 -0.5795 2.0382
3.2552 -0.3183 2.0382
3.2697 -0.0550 2.0382
3.2630 0.2085 2.0382
3.2351 0.4706 2.0382
3.1862 0.7296 2.0382
3.1167 0.9837 2.0382
3.0268 1.2314 2.0382
2.9174 1.4711 2.0382
2.7890 1.7011 2.0382
2.6425 1.9200 2.0382
2.4790 2.1264 2.0382
2.2993 2.3190 2.0382
0.7703 0.9136 0.7459
0.6942 0.9729 0.7461
0.6136 1.0257 0.7462
0.5290 1.0720 0.7464
0.4410 1.1112 0.7465
0.3500 1.1432 0.7466
0.2568 1.1677 0.7466
0.1618 1.1847 0.7467
0.0658 1.1939 0.7467
-0.0306 1.1953 0.7467
-0.1268 1.1889 0.7467
-0.2222 1.1748 0.7466
-0.3162 1.1530 0.7466
-0.4080 1.1237 0.7465
-0.4972 1.0871 0.7464
2.9411 0.8877 2.0382
2.8597 1.1216 2.0382
2.7596 1.3482 2.0382
2.6417 1.5660 2.0382
2.5066 1.7735 2.0382
2.3553 1.9694 2.0382
2.1887 2.1526 2.0382
0.7347 0.8495 0.7458
0.6639 0.9060 0.7459
0.5888 0.9567 0.7461
0.5098 1.0011 0.7462
0.4275 1.0390 0.7463
0.3424 1.0701 0.7464
0.2551 1.0943 0.7464
0.1661 1.1113 0.7465
0.0760 1.1211 0.7465
-0.0146 1.1236 0.7465
-0.1052 1.1188 0.7465
-0.1950 1.1066 0.7465
-0.2835 1.0873 0.7464
-0.3702 1.0608 0.7463
-0.4544 1.0275 0.7462
-0.5357 0.9874 0.7461
-0.6135 0.9409 0.7460
-0.6873 0.8884 0.7459
-0.7565 0.8300 0.7457
-2.2441 2.0948 2.0382
-2.4059 1.9074 2.0382
-2.5520 1.7076 2.0382
-2.6816 1.4966 2.0382
-2.7939 1.2758 2.0382
-2.8880 1.0468 2.0382
-2.9633 0.8108 2.0382
-3.0195 0.5696 2.0382
-3.0560 0.3245 2.0382
-3.0727 0.0773 2.0382
-3.0694 -0.1705 2.0382
-3.0461 -0.4172 2.0382
-3.0031 -0.6612 2.0382
-2.9405 -0.9011 2.0382
-2.8588 -1.1351 2.0382
-2.7584 -1.3618 2.0382
-2.6402 -1.5797 2.0382
-2.5047 -1.7874 2.0382
-2.3529 -1.9835 2.0382
-2.1858 -2.1668 2.0382
-0.7289 -0.8495 0.7412
-0.6581 -0.9053 0.7410
-0.5830 -0.9552 0.7409
-0.5042 -0.9990 0.7408
-0.4221 -1.0363 0.7407
-0.3373 -1.0668 0.7406
-0.2503 -1.0905 0.7405
-0.1617 -1.1070 0.7405
-0.0720 -1.1164 0.7405
0.0181 -1.1186 0.7405
0.1081 -1.1135 0.7405
0.1974 -1.1012 0.7405
0.2854 -1.0818 0.7406
0.3716 -1.0554 0.7406
0.4554 -1.0221 0.7407
0.5362 -0.9822 0.7408
0.6136 -0.9359 0.7410
0.6870 -0.8836 0.7411
0.7560 -0.8255 0.7413
2.2547 -2.0949 2.0382
2.4157 -1.9064 2.0382
2.5611 -1.7055 2.0382
2.6898 -1.4935 2.0382
2.8009 -1.2719 2.0382
2.8939 -1.0421 2.0382
2.9680 -0.8055 2.0382
3.0227 -0.5638 2.0382
3.0579 -0.3185 2.0382
3.0731 -0.0711 2.0382
3.0684 0.1766 2.0382
3.0438 0.4231 2.0382
2.9994 0.6669 2.0382
2.9355 0.9062 2.0382
2.8525 1.1396 2.0382
2.7511 1.3655 2.0382
2.6318 1.5825 2.0382
2.4954 1.7892 2.0382
2.3428 1.9842 2.0382
2.1751 2.1663 2.0382
0.7293 0.8541 0.7458
0.6582 0.9102 0.7459
0.5828 0.9604 0.7461
0.5035 1.0043 0.7462
0.4210 1.0417 0.7463
0.3357 1.0723 0.7464
0.2482 1.0959 0.7464
0.1591 1.1124 0.7465
0.0689 1.1216 0.7465
-0.0217 1.1235 0.7465
-0.1122 1.1181 0.7465
-0.2019 1.1054 0.7465
-0.2903 1.0854 0.7464
-0.3768 1.0585 0.7463
-0.4609 1.0246 0.7462
-0.5419 0.9840 0.7461
-0.6194 0.9371 0.7460
-0.6928 0.8840 0.7459
-0.7617 0.8252 0.7457
-2.2572 2.0807 2.0382
-2.4178 1.8923 2.0382
-2.5627 1.6915 2.0382
-2.6910 1.4797 2.0382
-2.8019 1.2583 2.0382
-2.8945 1.0286 2.0382
-2.9684 0.7922 2.0382
-3.0230 0.5506 2.0382
-3.0580 0.3053 2.0382
-3.0731 0.0580 2.0382
-3.0683 -0.1897 2.0382
-3.0435 -0.4363 2.0382
-2.9989 -0.6801 2.0382
-2.9348 -0.9196 2.0382
-2.8516 -1.1531 2.0382
-2.7499 -1.3791 2.0382
-2.6302 -1.5963 2.0382
-2.4935 -1.8031 2.0382
-2.3404 -1.9983 2.0382
-2.1722 -2.1805 2.0382
-0.7236 -0.8540 0.7412
-0.6524 -0.9094 0.7410
-0.5770 -0.9589 0.7409
-0.4979 -1.0021 0.7408
-0.4156 -1.0389 0.7407
-0.3306 -1.0689 0.7406
-0.2434 -1.0920 0.7405
-0.1547 -1.1080 0.7405
-0.0650 -1.1169 0.7405
0.0251 -1.1185 0.7405
0.1151 -1.1128 0.7405
0.2043 -1.1000 0.7405
0.2922 -1.0800 0.7406
0.3782 -1.0530 0.7406
0.4618 -1.0192 0.7407
0.5424 -0.9788 0.7408
0.6195 -0.9321 0.7410
0.6926 -0.8793 0.7411
0.7612 -0.8208 0.7413
2.2677 -2.0807 2.0382
2.4276 -1.8912 2.0382
2.5717 -1.6893 2.0382
2.6991 -1.4766 2.0382
2.8088 -1.2543 2.0382
2.9003 -1.0239 2.0382
2.9729 -0.7869 2.0382
3.0262 -0.5448 2.0382
3.0598 -0.2993 2.0382
3.0735 -0.0518 2.0382
3.0672 0.1959 2.0382
3.0410 0.4422 2.0382
2.9951 0.6857 2.0382
2.9297 0.9246 2.0382
2.8453 1.1574 2.0382
2.7424 1.3827 2.0382
2.6217 1.5990 2.0382
2.4841 1.8048 2.0382
2.3303 1.9988 2.0382
0.7907 0.7974 0.7456
0.7240 0.8587 0.7458
0.6525 0.9143 0.7459
0.5767 0.9640 0.7461
0.4972 1.0074 0.7462
0.4144 1.0443 0.7463
0.3289 1.0744 0.7464
0.2413 1.0974 0.7464
0.1521 1.1133 0.7465
0.0619 1.1220 0.7465
-0.0288 1.1233 0.7465
-0.1192 1.1173 0.7465
-0.2089 1.1041 0.7465
-0.2971 1.0836 0.7464
-0.3835 1.0561 0.7463
-0.4673 1.0217 0.7462
2.7687 0.8356 2.0382
2.6920 1.0558 2.0382
2.5979 1.2691 2.0382
2.4868 1.4741 2.0382
2.3597 1.6694 2.0382
2.2173 1.8539 2.0382
0.7536 0.7411 0.7455
0.6915 0.7995 0.7456
0.6249 0.8527 0.7458
0.5542 0.9004 0.7459
0.4799 0.9422 0.7460
0.4024 0.9779 0.7461
0.3223 1.0072 0.7462
0.2401 1.0299 0.7463
0.1563 1.0460 0.7463
0.0715 1.0552 0.7463
-0.0138 1.0575 0.7463
-0.0990 1.0529 0.7463
-0.1835 1.0415 0.7463
-0.2668 1.0233 0.7462
-0.3484 0.9984 0.7462
-0.4277 0.9670 0.7461
-0.5042 0.9293 0.7460
-0.5774 0.8856 0.7459
-0.6469 0.8361 0.7457
-0.7121 0.7812 0.7456
-0.7726 0.7212 0.7454
-2.2649 1.7955 2.0382
-2.4025 1.6074 2.0382
-2.5245 1.4088 2.0382
-2.6301 1.2010 2.0382
-2.7187 0.9853 2.0382
-2.7896 0.7632 2.0382
-2.8424 0.5361 2.0382
-2.8768 0.3054 2.0382
-2.8925 0.0727 2.0382
-2.8893 -0.1606 2.0382
-2.8674 -0.3928 2.0382
-2.8269 -0.6226 2.0382
-2.7680 -0.8483 2.0382
-2.6910 -1.0686 2.0382
-2.5966 -1.2820 2.0382
-2.4852 -1.4871 2.0382
-2.3577 -1.6826 2.0382
-2.2148 -1.8672 2.0382
-0.7485 -0.7420 0.7415
-0.6862 -0.7998 0.7413
-0.6196 -0.8523 0.7412
-0.5489 -0.8994 0.7411
-0.4747 -0.9406 0.7409
-0.3974 -0.9757 0.7408
-0.3175 -1.0044 0.7408
-0.2356 -1.0267 0.7407
-0.1522 -1.0423 0.7407
-0.0678 -1.0512 0.7406
0.0170 -1.0532 0.7406
0.1018 -1.0484 0.7407
0.1858 -1.0369 0.7407
0.2687 -1.0186 0.7407
0.3498 -0.9937 0.7408
0.4287 -0.9624 0.7409
0.5048 -0.9248 0.7410
0.5777 -0.8812 0.7411
0.6468 -0.8319 0.7412
0.7118 -0.7772 0.7414
0.7721 -0.7175 0.7415
2.2740 -1.7946 2.0382
2.4108 -1.6055 2.0382
2.5319 -1.4060 2.0382
2.6366 -1.1974 2.0382
2.7241 -0.9810 2.0382
2.7938 -0.7584 2.0382
2.8454 -0.5308 2.0382
2.8785 -0.2999 2.0382
2.8929 -0.0671 2.0382
2.8885 0.1662 2.0382
2.8653 0.3982 2.0382
2.8235 0.6277 2.0382
2.7634 0.8530 2.0382
2.6853 1.0727 2.0382
2.5898 1.2853 2.0382
2.4775 1.4896 2.0382
2.3491 1.6842 2.0382
2.2055 1.8678 2.0382
0.7489 0.7458 0.7455
0.6865 0.8039 0.7456
0.6195 0.8567 0.7458
0.5485 0.9039 0.7459
0.4739 0.9452 0.7460
0.3962 0.9804 0.7461
0.3160 1.0092 0.7462
0.2336 1.0314 0.7463
0.1497 1.0469 0.7463
0.0649 1.0556 0.7463
-0.0204 1.0574 0.7463
-0.1056 1.0523 0.7463
-0.1900 1.0403 0.7463
-0.2733 1.0216 0.7462
-0.3547 0.9962 0.7462
-0.4338 0.9643 0.7461
-0.5101 0.9261 0.7460
-0.5830 0.8820 0.7459
-0.6521 0.8320 0.7457
-0.7170 0.7767 0.7456
-0.7771 0.7163 0.7454
-2.2761 1.7813 2.0382
-2.4125 1.5923 2.0382
-2.5333 1.3929 2.0382
-2.6376 1.1844 2.0382
-2.7248 0.9682 2.0382
-2.7944 0.7457 2.0382
-2.8458 0.5182 2.0382
-2.8787 0.2873 2.0382
-2.8929 0.0545 2.0382
-2.8883 -0.1787 2.0382
-2.8649 -0.4108 2.0382
-2.8230 -0.6403 2.0382
-2.7626 -0.8657 2.0382
-2.6843 -1.0855 2.0382
-2.5885 -1.2983 2.0382
-2.4759 -1.5027 2.0382
-2.3471 -1.6974 2.0382
-2.2031 -1.8811 2.0382
-0.7438 -0.7467 0.7415
-0.6812 -0.8041 0.7413
-0.6142 -0.8562 0.7412
-0.5432 -0.9028 0.7410
-0.4687 -0.9435 0.7409
-0.3912 -0.9781 0.7408
-0.3112 -1.0064 0.7408
-0.2292 -1.0282 0.7407
-0.1457 -1.0432 0.7407
-0.0612 -1.0516 0.7406
0.0236 -1.0531 0.7406
0.1083 -1.0478 0.7407
0.1923 -1.0357 0.7407
0.2751 -1.0169 0.7407
0.3561 -0.9915 0.7408
0.4348 -0.9597 0.7409
0.5106 -0.9216 0.7410
0.5832 -0.8776 0.7411
0.6520 -0.8279 0.7412
0.7167 -0.7728 0.7414
0.7766 -0.7126 0.7416
2.2852 -1.7803 2.0382
2.4208 -1.5903 2.0382
2.5407 -1.3900 2.0382
2.6440 -1.1808 2.0382
2.7302 -0.9639 2.0382
2.7985 -0.7408 2.0382
2.8487 -0.5129 2.0382
2.8803 -0.2818 2.0382
2.8932 -0.0489 2.0382
2.8874 0.1843 2.0382
2.8627 0.4162 2.0382
2.8195 0.6454 2.0382
2.7579 0.8703 2.0382
2.6785 1.0895 2.0382
2.5817 1.3016 2.0382
2.4681 1.5052 2.0382
2.3385 1.6989 2.0382
2.1938 1.8816 2.0382
0.7442 0.7505 0.7455
0.6814 0.8082 0.7457
0.6141 0.8605 0.7458
0.5428 0.9073 0.7459
0.4680 0.9482 0.7460
0.3901 0.9829 0.7461
0.3096 1.0112 0.7462
0.2271 1.0329 0.7463
0.1431 1.0478 0.7463
0.0582 1.0560 0.7463
-0.0271 1.0572 0.7463
-0.1122 1.0516 0.7463
-0.1966 1.0391 0.7463
-0.2797 1.0199 0.7462
-0.3609 0.9939 0.7462
-0.4398 0.9616 0.7461
2.6095 0.7875 2.0382
2.5373 0.9950 2.0382
2.4485 1.1960 2.0382
2.3439 1.3892 2.0382
2.2241 1.5734 2.0382
0.7641 0.6388 0.7452
0.7102 0.6984 0.7454
0.6517 0.7534 0.7455
0.5889 0.8036 0.7456
0.5222 0.8485 0.7458
0.4522 0.8879 0.7459
0.3792 0.9215 0.7460
0.3037 0.9491 0.7460
0.2262 0.9705 0.7461
0.1473 0.9856 0.7461
0.0674 0.9943 0.7462
-0.0130 0.9965 0.7462
-0.0933 0.9922 0.7462
-0.1729 0.9814 0.7461
-0.2515 0.9643 0.7461
-0.3283 0.9408 0.7460
-0.4031 0.9113 0.7459
-0.4752 0.8757 0.7458
-0.5442 0.8345 0.7457
-0.6096 0.7879 0.7456
-0.6710 0.7361 0.7455
-0.7281 0.6796 0.7453
-2.1347 1.6923 2.0382
-2.2644 1.5149 2.0382
-2.3794 1.3277 2.0382
-2.4789 1.1318 2.0382
-2.5624 0.9286 2.0382
-2.6292 0.7192 2.0382
-2.6790 0.5051 2.0382
-2.7114 0.2877 2.0382
-2.7261 0.0684 2.0382
-2.7232 -0.1514 2.0382
-2.7025 -0.3703 2.0382
-2.6643 -0.5868 2.0382
-2.6087 -0.7996 2.0382
-2.5362 -1.0072 2.0382
-2.4472 -1.2084 2.0382
-2.3422 -1.4017 2.0382
-2.2220 -1.5859 2.0382
-0.7596 -0.6405 0.7418
-0.7055 -0.6995 0.7416
-0.6469 -0.7539 0.7414
-0.5840 -0.8035 0.7413
-0.5174 -0.8478 0.7412
-0.4474 -0.8866 0.7411
-0.3746 -0.9197 0.7410
-0.2993 -0.9469 0.7409
-0.2221 -0.9678 0.7409
-0.1435 -0.9825 0.7408
-0.0639 -0.9909 0.7408
0.0160 -0.9928 0.7408
0.0959 -0.9883 0.7408
0.1752 -0.9774 0.7408
0.2533 -0.9602 0.7409
0.3298 -0.9367 0.7410
0.4041 -0.9072 0.7410
0.4759 -0.8717 0.7411
0.5445 -0.8307 0.7412
0.6097 -0.7842 0.7414
0.6709 -0.7327 0.7415
0.7278 -0.6763 0.7417
0.7800 -0.6156 0.7418
2.2721 -1.5132 2.0382
2.3862 -1.3252 2.0382
2.4849 -1.1286 2.0382
2.5674 -0.9247 2.0382
2.6331 -0.7148 2.0382
2.6818 -0.5004 2.0382
2.7130 -0.2827 2.0382
2.7265 -0.0633 2.0382
2.7224 0.1565 2.0382
2.7005 0.3752 2.0382
2.6612 0.5915 2.0382
2.6045 0.8038 2.0382
2.5309 1.0109 2.0382
2.4409 1.2114 2.0382
2.3351 1.4039 2.0382
2.2141 1.5873 2.0382
0.7600 0.6436 0.7452
0.7058 0.7028 0.7454
0.6469 0.7575 0.7455
0.5838 0.8072 0.7457
0.5169 0.8517 0.7458
0.4466 0.8907 0.7459
0.3734 0.9238 0.7460
0.2977 0.9510 0.7460
0.2201 0.9719 0.7461
0.1411 0.9865 0.7461
0.0611 0.9947 0.7462
-0.0193 0.9964 0.7462
-0.0995 0.9916 0.7462
-0.1791 0.9803 0.7461
-0.2575 0.9627 0.7461
-0.3342 0.9387 0.7460
-0.4088 0.9087 0.7459
-0.4807 0.8727 0.7458
-0.5494 0.8311 0.7457
-0.6145 0.7841 0.7456
-0.6756 0.7319 0.7455
-0.7324 0.6750 0.7453
-2.1453 1.6788 2.0382
-2.2739 1.5007 2.0382
-2.3877 1.3127 2.0382
-2.4860 1.1163 2.0382
-2.5682 0.9125 2.0382
-2.6337 0.7027 2.0382
-2.6821 0.4883 2.0382
-2.7132 0.2707 2.0382
-2.7265 0.0513 2.0382
-2.7222 -0.1685 2.0382
-2.7002 -0.3873 2.0382
-2.6606 -0.6036 2.0382
-2.6037 -0.8160 2.0382
-2.5299 -1.0232 2.0382
-2.4396 -1.2237 2.0382
-2.3334 -1.4164 2.0382
-2.2120 -1.5998 2.0382
-0.7556 -0.6452 0.7417
-0.7011 -0.7039 0.7416
-0.6421 -0.7580 0.7414
-0.5789 -0.8071 0.7413
-0.5121 -0.8510 0.7412
-0.4419 -0.8894 0.7411
-0.3688 -0.9221 0.7410
-0.2934 -0.9487 0.7409
-0.2160 -0.9692 0.7409
-0.1373 -0.9834 0.7408
-0.0577 -0.9913 0.7408
0.0223 -0.9927 0.7408
0.1021 -0.9877 0.7408
0.1813 -0.9763 0.7408
0.2593 -0.9586 0.7409
0.3356 -0.9346 0.7410
0.4098 -0.9046 0.7410
0.4813 -0.8688 0.7411
0.5498 -0.8272 0.7413
0.6146 -0.7804 0.7414
0.6755 -0.7284 0.7415
0.7320 -0.6718 0.7417
0.7838 -0.6107 0.7418
2.2815 -1.4989 2.0382
2.3945 -1.3102 2.0382
2.4919 -1.1129 2.0382
2.5731 -0.9085 2.0382
2.6375 -0.6983 2.0382
2.6848 -0.4835 2.0382
2.7147 -0.2657 2.0382
2.7269 -0.0462 2.0382
2.7213 0.1736 2.0382
2.6981 0.3922 2.0382
2.6574 0.6082 2.0382
2.5994 0.8202 2.0382
2.5245 1.0268 2.0382
2.4333 1.2267 2.0382
2.3262 1.4185 2.0382
2.2041 1.6012 2.0382
0.7560 0.6484 0.7452
0.7014 0.7073 0.7454
0.6422 0.7616 0.7455
0.5787 0.8109 0.7457
0.5115 0.8550 0.7458
0.4410 0.8935 0.7459
0.3676 0.9262 0.7460
0.2918 0.9528 0.7460
0.2140 0.9733 0.7461
0.1349 0.9874 0.7461
0.0549 0.9951 0.7462
-0.0255 0.9963 0.7462
-0.1057 0.9909 0.7462
-0.1852 0.9792 0.7461
-0.2636 0.9610 0.7461
-0.3401 0.9366 0.7460
-0.4145 0.9061 0.7459
2.4619 0.7428 2.0382
2.3937 0.9386 2.0382
2.3100 1.1283 2.0382
2.2113 1.3106 2.0382
0.7669 0.5425 0.7449
0.7208 0.6026 0.7451
0.6699 0.6588 0.7453
0.6147 0.7107 0.7454
0.5555 0.7580 0.7455
0.4926 0.8003 0.7456
0.4266 0.8375 0.7457
0.3577 0.8692 0.7458
0.2865 0.8952 0.7459
0.2134 0.9154 0.7459
0.1389 0.9297 0.7460
0.0635 0.9379 0.7460
-0.0123 0.9399 0.7460
-0.0880 0.9359 0.7460
-0.1631 0.9257 0.7460
-0.2372 0.9095 0.7459
-0.3097 0.8874 0.7459
-0.3802 0.8595 0.7458
-0.4482 0.8261 0.7457
-0.5133 0.7872 0.7456
-0.5750 0.7432 0.7455
-0.6330 0.6944 0.7453
-0.6868 0.6411 0.7452
-0.7362 0.5836 0.7451
-2.1363 1.4291 2.0382
-2.2448 1.2525 2.0382
-2.3387 1.0677 2.0382
-2.4174 0.8759 2.0382
-2.4805 0.6784 2.0382
-2.5274 0.4765 2.0382
-2.5580 0.2713 2.0382
-2.5719 0.0644 2.0382
-2.5691 -0.1429 2.0382
-2.5496 -0.3495 2.0382
-2.5135 -0.5537 2.0382
-2.4611 -0.7545 2.0382
-2.3926 -0.9503 2.0382
-2.3086 -1.1400 2.0382
-2.2096 -1.3224 2.0382
-0.7631 -0.5447 0.7420
-0.7167 -0.6043 0.7418
-0.6657 -0.6600 0.7417
-0.6103 -0.7114 0.7416
-0.5510 -0.7581 0.7414
-0.4882 -0.8000 0.7413
-0.4222 -0.8366 0.7412
-0.3534 -0.8678 0.7411
-0.2824 -0.8934 0.7411
-0.2096 -0.9132 0.7410
-0.1354 -0.9271 0.7410
-0.0603 -0.9350 0.7410
0.0151 -0.9368 0.7410
0.0905 -0.9326 0.7410
0.1653 -0.9223 0.7410
0.2390 -0.9060 0.7410
0.3111 -0.8839 0.7411
0.3813 -0.8560 0.7412
0.4490 -0.8226 0.7413
0.5138 -0.7838 0.7414
0.5753 -0.7399 0.7415
0.6330 -0.6913 0.7416
0.6867 -0.6381 0.7418
0.7359 -0.5808 0.7419
0.7804 -0.5198 0.7421
2.2511 -1.2502 2.0382
2.3442 -1.0648 2.0382
2.4220 -0.8724 2.0382
2.4841 -0.6745 2.0382
2.5300 -0.4722 2.0382
2.5594 -0.2668 2.0382
2.5722 -0.0598 2.0382
2.5683 0.1475 2.0382
2.5478 0.3539 2.0382
2.5106 0.5579 2.0382
2.4572 0.7582 2.0382
2.3878 0.9536 2.0382
2.3029 1.1428 2.0382
2.2030 1.3244 2.0382
0.7635 0.5473 0.7450
0.7170 0.6071 0.7451
0.6658 0.6630 0.7453
0.6102 0.7145 0.7454
0.5507 0.7614 0.7455
0.4876 0.8034 0.7456
0.4213 0.8402 0.7457
0.3522 0.8714 0.7458
0.2809 0.8970 0.7459
0.2077 0.9168 0.7460
0.1331 0.9305 0.7460
0.0577 0.9382 0.7460
-0.0182 0.9398 0.7460
-0.0939 0.9353 0.7460
-0.1689 0.9247 0.7460
-0.2429 0.9080 0.7459
-0.3153 0.8855 0.7459
-0.3856 0.8571 0.7458
-0.4534 0.8232 0.7457
-0.5182 0.7839 0.7456
-0.5797 0.7396 0.7455
-0.6373 0.6904 0.7453
-0.6908 0.6367 0.7452
-0.7398 0.5789 0.7450
-2.1453 1.4157 2.0382
-2.2526 1.2384 2.0382
-2.3454 1.0530 2.0382
-2.4229 0.8607 2.0382
-2.4847 0.6628 2.0382
-2.5304 0.4606 2.0382
