ply
format ascii 1.0
element vertex 2157
property float32 x
property float32 y
property float32 z
end_header
17.4488 -8.0622 2.0640
18.1302 -6.6689 2.0744
18.6818 -5.2129 2.0827
19.0966 -3.7075 2.0889
19.3695 -2.1668 2.0929
19.5017 -0.6056 2.0951
19.4837 0.9615 2.0947
19.1955 2.5031 2.0787
18.6916 3.9845 2.0522
18.2586 5.4562 2.0463
17.6955 6.8784 2.0387
17.0087 8.2391 2.0294
16.2059 9.5269 2.0186
15.2960 10.7318 2.0065
14.2887 11.8450 1.9930
13.1944 12.8589 1.9784
12.0242 13.7672 1.9628
10.7893 14.5650 1.9464
9.5010 15.2488 1.9293
8.1709 15.8162 1.9116
6.8101 16.2661 1.8936
4.2121 12.8765 1.4548
4.1028 17.0771 1.8859
2.9385 18.7534 2.0383
1.4237 18.9288 2.0383
-0.1003 18.9820 2.0383
-1.6237 18.9127 2.0383
-3.1366 18.7213 2.0383
-4.6292 18.4091 2.0383
-6.0919 17.9781 2.0383
-7.5154 17.4311 2.0383
-8.8904 16.7716 2.0383
-10.2079 16.0039 2.0383
-11.4596 15.1328 2.0383
-12.6373 14.1642 2.0383
-13.7335 13.1041 2.0383
-14.7411 11.9594 2.0383
-15.6535 10.7375 2.0383
-16.4649 9.4464 2.0383
-17.1700 8.0942 2.0383
-17.7643 6.6899 2.0383
-18.2440 5.2424 2.0383
-18.6059 3.7610 2.0383
-18.8478 2.2554 2.0383
-18.9680 0.7352 2.0383
-18.9658 -0.7897 2.0383
-18.8412 -2.3096 2.0383
-18.5950 -3.8145 2.0383
-18.2288 -5.2948 2.0383
-17.7450 -6.7409 2.0383
-17.1466 -8.1436 2.0383
-16.4376 -9.4937 2.0383
-15.6225 -10.7825 2.0383
-14.7066 -12.0017 2.0383
-13.6958 -13.1435 2.0383
-12.5966 -14.2004 2.0383
-11.4161 -15.1657 2.0383
-10.1619 -16.0331 2.0383
-8.8421 -16.7971 2.0383
-7.4653 -17.4527 2.0383
-6.0402 -17.9956 2.0383
-4.5763 -18.4224 2.0383
-3.0827 -18.7302 2.0383
-0.6317 -7.6152 0.8205
-0.0184 -7.6207 0.8183
0.5956 -7.6262 0.8214
2.9924 -18.7449 2.0383
4.1519 -17.0652 1.8859
5.5083 -16.6769 1.8859
6.8848 -16.3126 1.9013
8.2637 -15.8837 1.9226
4.2464 -6.7719 0.8583
10.9281 -14.6641 1.9638
12.1895 -13.8757 1.9833
13.3875 -12.9721 2.0017
14.5096 -11.9579 2.0190
15.5440 -10.8393 2.0349
16.4791 -9.6238 2.0492
4.7541 -13.0322 1.8859
5.7849 -12.6085 1.8859
6.8279 -12.1921 1.8998
7.8492 -11.7011 1.9155
8.8326 -11.1207 1.9307
9.7693 -10.4534 1.9452
10.6506 -9.7027 1.9587
11.4681 -8.8730 1.9713
12.2138 -7.9698 1.9827
12.8800 -6.9995 1.9929
13.4597 -5.9694 2.0017
13.9467 -4.8877 2.0091
14.3358 -3.7634 2.0150
14.6225 -2.6060 2.0193
14.8037 -1.4257 2.0219
14.8774 -0.2329 2.0228
14.8427 0.9617 2.0221
14.7098 2.1489 2.0210
14.4179 3.3062 2.0110
13.9560 4.4055 1.9896
13.5168 5.4950 1.9837
12.9850 6.5386 1.9765
12.3660 7.5280 1.9682
11.6660 8.4558 1.9588
10.8917 9.3155 1.9485
10.0506 10.1012 1.9372
9.1504 10.8081 1.9252
8.1990 11.4321 1.9126
7.2048 11.9701 1.8994
6.1760 12.4199 1.8857
5.1598 12.8770 1.8859
4.1095 13.2496 1.8859
3.2777 14.6306 2.0383
2.0928 14.8465 2.0383
0.8943 14.9666 2.0383
-0.3100 14.9901 2.0383
-1.5122 14.9168 2.0383
-2.7047 14.7473 2.0383
-3.8798 14.4826 2.0383
-5.0298 14.1244 2.0383
-6.1473 13.6751 2.0383
-7.2252 13.1376 2.0383
-8.2564 12.5152 2.0383
-9.2343 11.8121 2.0383
-10.1527 11.0327 2.0383
-11.0055 10.1822 2.0383
-11.7873 9.2659 2.0383
-12.4931 8.2898 2.0383
-13.1182 7.2602 2.0383
-13.6586 6.1838 2.0383
-14.1109 5.0675 2.0383
-14.4722 3.9185 2.0383
-14.7400 2.7442 2.0383
-14.9127 1.5521 2.0383
-14.9892 0.3501 2.0383
-14.9689 -0.8542 2.0383
-14.8520 -2.0530 2.0383
-14.6393 -3.2386 2.0383
-14.3321 -4.4032 2.0383
-13.9324 -5.5395 2.0383
-13.4428 -6.6399 2.0383
-12.8665 -7.6976 2.0383
-12.2071 -8.7055 2.0383
-11.4689 -9.6573 2.0383
-10.6567 -10.5467 2.0383
-9.7757 -11.3681 2.0383
-8.8316 -12.1161 2.0383
-7.8306 -12.7859 2.0383
-6.7790 -13.3732 2.0383
-5.6836 -13.8742 2.0383
-4.5516 -14.2857 2.0383
-3.3902 -14.6049 2.0383
-2.2069 -14.8300 2.0383
-0.5139 -7.6161 1.0378
0.0989 -7.6216 1.0363
0.7140 -7.6271 1.0414
2.5912 -14.7677 2.0383
3.7358 -14.3873 2.0208
4.5530 -13.1038 1.8859
5.5901 -12.6961 1.8859
6.6287 -12.2758 1.8967
7.6563 -11.8021 1.9126
8.6476 -11.2387 1.9279
9.5939 -10.5878 1.9425
10.4865 -9.8528 1.9562
11.3169 -9.0378 1.9690
12.0769 -8.1482 1.9806
12.7589 -7.1902 1.9911
13.3557 -6.1709 2.0002
13.8609 -5.0985 2.0078
14.2691 -3.9816 2.0140
14.5757 -2.8298 2.0186
14.7773 -1.6531 2.0215
14.8717 -0.4618 2.0228
14.8578 0.7333 2.0224
14.7464 1.9229 2.0218
14.4859 3.0879 2.0136
14.0588 4.2012 1.9948
13.6082 5.2897 1.9849
13.0937 6.3427 1.9780
12.4910 7.3430 1.9699
11.8060 8.2832 1.9607
11.0454 9.1564 1.9505
10.2166 9.9567 1.9394
9.3270 10.6790 1.9276
8.3848 11.3191 1.9151
7.3982 11.8738 1.9020
6.3754 12.3406 1.8884
5.3573 12.7961 1.8859
4.1947 12.8233 1.8342
3.5025 14.5784 2.0383
2.3210 14.8125 2.0383
1.1245 14.9511 2.0383
-0.0792 14.9931 2.0383
-1.2825 14.9383 2.0383
-2.4774 14.7872 2.0383
-3.6564 14.5406 2.0383
-4.8118 14.2002 2.0383
-5.9361 13.7681 2.0383
-7.0221 13.2472 2.0383
-8.0628 12.6408 2.0383
-9.0515 11.9528 2.0383
-9.9817 11.1877 2.0383
-10.8475 10.3503 2.0383
-11.6433 9.4462 2.0383
-12.3640 8.4811 2.0383
-13.0049 7.4613 2.0383
-13.5619 6.3933 2.0383
-14.0313 5.2841 2.0383
-14.4102 4.1407 2.0383
-14.6960 2.9707 2.0383
-14.8871 1.7814 2.0383
-14.9820 0.5807 2.0383
-14.9803 -0.6238 2.0383
-14.8819 -1.8242 2.0383
-14.6874 -3.0129 2.0383
-14.3982 -4.1821 2.0383
-14.0160 -5.3244 2.0383
-13.5434 -6.4322 2.0383
-12.9834 -7.4986 2.0383
-12.3396 -8.5166 2.0383
-11.6161 -9.4796 2.0383
-10.8177 -10.3815 2.0383
-9.9495 -11.2163 2.0383
-9.0171 -11.9788 2.0383
-8.0264 -12.6639 2.0383
-6.9840 -13.2673 2.0383
-5.8965 -13.7851 2.0383
-4.7709 -14.2139 2.0383
-3.6146 -14.5510 2.0383
-2.4349 -14.7942 2.0383
-0.6317 -7.6151 1.0388
-0.0184 -7.6206 1.0360
0.5956 -7.6261 1.0399
2.3636 -14.8058 2.0383
3.5444 -14.5683 2.0383
4.3508 -13.1723 1.8859
5.3941 -12.7806 1.8859
6.4285 -12.3562 1.8936
4.2456 -6.7706 1.0865
8.4609 -11.3535 1.9250
9.4165 -10.7191 1.9397
10.3201 -9.9999 1.9536
11.1630 -9.1999 1.9666
11.9372 -8.3241 1.9785
12.6347 -7.3787 1.9892
3.9233 -10.7548 1.8859
4.7740 -10.4052 1.8859
5.5938 -9.9884 1.8859
6.4003 -9.5411 1.8927
7.1916 -9.0546 1.9049
7.9432 -8.4995 1.9165
8.6486 -7.8789 1.9273
9.3012 -7.1965 1.9374
9.8951 -6.4568 1.9465
10.4247 -5.6652 1.9546
10.8847 -4.8274 1.9616
11.2706 -3.9498 1.9674
11.5785 -3.0396 1.9721
11.8053 -2.1039 1.9754
11.9486 -1.1507 1.9775
12.0070 -0.1880 1.9783
11.9798 0.7762 1.9777
11.8674 1.7337 1.9758
11.6711 2.6763 1.9726
11.3943 3.5969 1.9684
10.9970 4.4707 1.9556
10.5417 5.3083 1.9444
10.0472 6.1164 1.9377
9.4869 6.8764 1.9302
8.8660 7.5830 1.9219
8.1901 8.2313 1.9129
7.4651 8.8175 1.9033
6.6971 9.3378 1.8930
5.9037 9.8084 1.8859
5.0973 10.2506 1.8859
4.2581 10.6267 1.8859
3.6654 11.8178 2.0383
2.7049 12.0739 2.0383
1.7270 12.2520 2.0383
0.7380 12.3511 2.0383
-0.2558 12.3705 2.0383
-1.2480 12.3101 2.0383
-2.2321 12.1702 2.0383
-3.2018 11.9517 2.0383
-4.1508 11.6562 2.0383
-5.0730 11.2854 2.0383
-5.9625 10.8418 2.0383
-6.8136 10.3282 2.0383
-7.6206 9.7479 2.0383
-8.3785 9.1047 2.0383
-9.0823 8.4028 2.0383
-9.7275 7.6467 2.0383
-10.3099 6.8412 2.0383
-10.8258 5.9915 2.0383
-11.2718 5.1032 2.0383
-11.6450 4.1820 2.0383
-11.9431 3.2337 2.0383
-12.1642 2.2646 2.0383
-12.3067 1.2809 2.0383
-12.3698 0.2889 2.0383
-12.3531 -0.7050 2.0383
-12.2566 -1.6943 2.0383
-12.0811 -2.6726 2.0383
-11.8276 -3.6337 2.0383
-11.4977 -4.5714 2.0383
-11.0937 -5.4796 2.0383
-10.6180 -6.3524 2.0383
-10.0738 -7.1842 2.0383
-9.4647 -7.9697 2.0383
-8.7944 -8.7037 2.0383
-8.0674 -9.3815 2.0383
-7.2883 -9.9988 2.0383
-6.4622 -10.5516 2.0383
-5.5943 -11.0362 2.0383
-4.6904 -11.4497 2.0383
-3.7562 -11.7892 2.0383
-2.7978 -12.0527 2.0383
-1.8213 -12.2384 2.0383
-0.5139 -7.6160 1.2575
0.0989 -7.6215 1.2557
0.7140 -7.6270 1.2620
2.1384 -12.1870 2.0383
3.1097 -11.9760 2.0383
3.7932 -10.9172 1.9040
4.6133 -10.4774 1.8859
5.4394 -10.0733 1.8859
4.3465 -6.7001 1.3157
7.0429 -9.1532 1.9026
7.8027 -8.6110 1.9143
8.5173 -8.0027 1.9253
9.1806 -7.3317 1.9355
9.7862 -6.6027 1.9448
10.3285 -5.8206 1.9531
10.8022 -4.9911 1.9603
11.2026 -4.1207 1.9664
11.5257 -3.2161 1.9713
11.7682 -2.2847 1.9749
11.9277 -1.3343 1.9772
12.0024 -0.3727 1.9782
11.9916 0.5918 1.9779
11.8955 1.5512 1.9762
11.7151 2.4973 1.9733
11.4560 3.4234 1.9697
11.0814 4.3075 1.9586
10.6285 5.1485 1.9455
10.1471 5.9651 1.9391
9.5990 6.7348 1.9317
8.9894 7.4520 1.9236
8.3235 8.1119 1.9147
7.6075 8.7102 1.9051
6.8472 9.2434 1.8950
6.0491 9.7085 1.8844
5.2545 10.1710 1.8859
4.4211 10.5599 1.8859
3.8468 11.7600 2.0383
2.8904 12.0308 2.0383
1.9154 12.2240 2.0383
0.9280 12.3383 2.0383
-0.0654 12.3730 2.0383
-1.0584 12.3278 2.0383
-2.0445 12.2031 2.0383
-3.0174 11.9996 2.0383
-3.9709 11.7187 2.0383
-4.8988 11.3621 2.0383
-5.7950 10.9322 2.0383
-6.6538 10.4318 2.0383
-7.4697 9.8640 2.0383
-8.2374 9.2326 2.0383
-8.9519 8.5416 2.0383
-9.6086 7.7955 2.0383
-10.2034 6.9990 2.0383
-10.7323 6.1574 2.0383
-11.1919 5.2761 2.0383
-11.5793 4.3607 2.0383
-11.8920 3.4172 2.0383
-12.1279 2.4516 2.0383
-12.2855 1.4701 2.0383
-12.3639 0.4793 2.0383
-12.3625 -0.5148 2.0383
-12.2812 -1.5054 2.0383
-12.1208 -2.4864 2.0383
-11.8821 -3.4513 2.0383
-11.5667 -4.3939 2.0383
-11.1767 -5.3082 2.0383
-10.7145 -6.1883 2.0383
-10.1832 -7.0283 2.0383
-9.5862 -7.8231 2.0383
-8.9273 -8.5673 2.0383
-8.2108 -9.2562 2.0383
-7.4413 -9.8854 2.0383
-6.6238 -10.4509 2.0383
-5.7635 -10.9488 2.0383
-4.8661 -11.3761 2.0383
-3.9372 -11.7300 2.0383
-2.9829 -12.0082 2.0383
-2.0094 -12.2089 2.0383
-0.6317 -7.6150 1.2588
-0.0184 -7.6205 1.2554
0.5956 -7.6259 1.2601
1.9505 -12.2185 2.0383
2.9250 -12.0224 2.0383
3.7735 -11.4246 1.9821
4.4515 -10.5472 1.8859
5.2837 -10.1558 1.8859
4.2056 -6.7068 1.3041
6.8928 -9.2493 1.9003
7.6604 -8.7201 1.9121
8.3843 -8.1241 1.9233
9.0578 -7.4649 1.9336
9.6749 -6.7466 1.9431
10.2298 -5.9742 1.9516
3.6046 -9.8810 2.0383
4.0582 -8.8451 1.8859
3.9426 -7.0401 1.5637
5.4213 -8.0817 1.8859
6.0560 -7.6249 1.8870
6.6825 -7.1505 1.8967
7.2694 -6.6224 1.9057
7.8115 -6.0438 1.9140
8.3040 -5.4186 1.9216
8.7426 -4.7511 1.9283
9.1231 -4.0461 1.9341
9.4419 -3.3090 1.9389
9.6962 -2.5454 1.9428
9.8833 -1.7614 1.9455
10.0016 -0.9632 1.9472
10.0499 -0.1573 1.9479
10.0276 0.6497 1.9474
9.9351 1.4514 1.9458
9.7733 2.2411 1.9432
9.5437 3.0127 1.9395
9.2486 3.7599 1.9348
8.8906 4.4768 1.9291
8.4482 5.1430 1.9167
7.9820 5.7856 1.9105
7.4647 6.3845 1.9036
6.9008 6.9355 1.8961
6.2949 7.4353 1.8880
5.6716 7.9080 1.8859
5.0185 8.3378 1.8859
4.3331 8.7137 1.8859
3.9121 9.7634 2.0383
3.1158 10.0459 2.0383
2.2994 10.2636 2.0383
1.4681 10.4150 2.0383
0.6273 10.4993 2.0383
-0.2175 10.5157 2.0383
-1.0609 10.4644 2.0383
-1.8974 10.3454 2.0383
-2.7217 10.1598 2.0383
-3.5284 9.9085 2.0383
-4.3124 9.5933 2.0383
-5.0685 9.2162 2.0383
-5.7920 8.7796 2.0383
-6.4780 8.2863 2.0383
-7.1223 7.7396 2.0383
-7.7205 7.1429 2.0383
-8.2690 6.5002 2.0383
-8.7641 5.8154 2.0383
-9.2026 5.0932 2.0383
-9.5817 4.3381 2.0383
-9.8990 3.5549 2.0383
-10.1524 2.7489 2.0383
-10.3403 1.9251 2.0383
-10.4615 1.0888 2.0383
-10.5151 0.2456 2.0383
-10.5009 -0.5993 2.0383
-10.4189 -1.4402 2.0383
-10.2697 -2.2719 2.0383
-10.0542 -3.0889 2.0383
-9.7738 -3.8857 2.0383
-9.4303 -4.6580 2.0383
-9.0260 -5.4000 2.0383
-8.5634 -6.1070 2.0383
-8.0456 -6.7747 2.0383
-7.4758 -7.3987 2.0383
-6.8578 -7.9749 2.0383
-6.1955 -8.4996 2.0383
-5.4933 -8.9695 2.0383
-4.7555 -9.3815 2.0383
-3.9872 -9.7330 2.0383
-3.1930 -10.0216 2.0383
-2.3783 -10.2456 2.0383
-1.5482 -10.4034 2.0383
-0.5139 -7.6159 1.4793
0.0989 -7.6214 1.4771
0.7139 -7.6269 1.4845
1.8177 -10.3597 2.0383
2.6434 -10.1804 2.0383
3.4521 -9.9354 2.0383
3.9216 -8.9065 1.8859
4.6238 -8.5630 1.8859
4.3269 -6.6699 1.5408
5.9319 -7.7093 1.8851
6.5654 -7.2456 1.8949
7.1603 -6.7276 1.9040
7.7113 -6.1584 1.9125
8.2137 -5.5418 1.9202
8.6629 -4.8820 1.9271
9.0549 -4.1838 1.9331
9.3858 -3.4524 1.9381
9.6526 -2.6934 1.9421
9.8528 -1.9129 1.9451
9.9844 -1.1169 1.9470
10.0461 -0.3120 1.9478
10.0373 0.4954 1.9476
9.9582 1.2986 1.9462
9.8096 2.0911 1.9438
9.5928 2.8666 1.9403
9.3101 3.6189 1.9358
8.9654 4.3428 1.9306
8.5313 5.0153 1.9179
8.0754 5.6658 1.9117
7.5675 6.2733 1.9050
7.0122 6.8338 1.8975
6.4139 7.3437 1.8896
5.7926 7.8198 1.8859
5.1463 8.2595 1.8859
4.4667 8.6460 1.8859
3.9861 9.5209 2.0003
3.2701 9.9968 2.0383
2.4571 10.2270 2.0383
1.6282 10.3912 2.0383
0.7889 10.4884 2.0383
-0.0556 10.5178 2.0383
-0.8997 10.4794 2.0383
-1.7380 10.3734 2.0383
-2.5650 10.2004 2.0383
-3.3755 9.9616 2.0383
-4.1643 9.6585 2.0383
-4.9261 9.2931 2.0383
-5.6562 8.8677 2.0383
-6.3497 8.3851 2.0383
-7.0023 7.8483 2.0383
-7.6097 7.2609 2.0383
-8.1680 6.6266 2.0383
-8.6735 5.9496 2.0383
-9.1231 5.2342 2.0383
-9.5138 4.4850 2.0383
-9.8431 3.7068 2.0383
-10.1089 2.9048 2.0383
-10.3095 2.0840 2.0383
-10.4435 1.2497 2.0383
-10.5101 0.4074 2.0383
-10.5089 -0.4376 2.0383
-10.4398 -1.2797 2.0383
-10.3034 -2.1136 2.0383
-10.1005 -2.9338 2.0383
-9.8324 -3.7351 2.0383
-9.5009 -4.5123 2.0383
-9.1080 -5.2604 2.0383
-8.6564 -5.9745 2.0383
-8.1489 -6.6501 2.0383
-7.5888 -7.2828 2.0383
-6.9797 -7.8684 2.0383
-6.3256 -8.4033 2.0383
-5.6307 -8.8839 2.0383
-4.8994 -9.3072 2.0383
-4.1365 -9.6704 2.0383
-3.3469 -9.9713 2.0383
-2.5357 -10.2078 2.0383
-1.7081 -10.3784 2.0383
-0.6317 -7.6149 1.4808
-0.0184 -7.6203 1.4768
0.5956 -7.6258 1.4824
1.6581 -10.3865 2.0383
2.4864 -10.2199 2.0383
3.2988 -9.9873 2.0383
3.8136 -9.0367 1.9007
4.4915 -8.6331 1.8859
4.1805 -6.6668 1.5250
5.8151 -7.8031 1.8859
6.4469 -7.3387 1.8931
7.0496 -6.8309 1.9023
7.6094 -6.2712 1.9109
8.1215 -5.6634 1.9188
8.5812 -5.0115 1.9258
3.1301 -8.5804 2.0383
3.7968 -8.2753 2.0319
3.9149 -6.9905 1.7881
4.7077 -7.0179 1.8859
5.2558 -6.6174 1.8859
5.7700 -6.1741 1.8859
6.2601 -5.7030 1.8899
6.7229 -5.2016 1.8970
7.1429 -4.6609 1.9034
7.5164 -4.0847 1.9091
7.8402 -3.4772 1.9141
8.1114 -2.8427 1.9182
8.3275 -2.1861 1.9214
8.4866 -1.5125 1.9238
8.5871 -0.8270 1.9253
8.6281 -0.1351 1.9258
8.6093 0.5578 1.9254
8.5308 1.2462 1.9240
8.3935 1.9247 1.9218
8.1985 2.5880 1.9187
7.9477 3.2310 1.9147
7.6434 3.8489 1.9099
7.2883 4.4369 1.9042
6.8856 4.9909 1.8979
6.4363 5.5048 1.8901
5.9605 5.9905 1.8859
5.4604 6.4496 1.8859
4.9251 6.8671 1.8859
4.3580 7.2403 1.8859
3.9720 7.9877 1.9909
3.3972 8.4782 2.0383
2.7057 8.7236 2.0383
1.9967 8.9126 2.0383
1.2749 9.0441 2.0383
0.5448 9.1173 2.0383
-0.1888 9.1316 2.0383
-0.9212 9.0870 2.0383
-1.6477 8.9837 2.0383
-2.3635 8.8224 2.0383
-3.0640 8.6043 2.0383
-3.7448 8.3306 2.0383
-4.4014 8.0031 2.0383
-5.0296 7.6240 2.0383
-5.6253 7.1956 2.0383
-6.1848 6.7209 2.0383
-6.7043 6.2027 2.0383
-7.1806 5.6446 2.0383
-7.6105 5.0500 2.0383
-7.9913 4.4228 2.0383
-8.3205 3.7671 2.0383
-8.5960 3.0870 2.0383
-8.8161 2.3870 2.0383
-8.9792 1.6717 2.0383
-9.0845 0.9455 2.0383
-9.1310 0.2133 2.0383
-9.1187 -0.5204 2.0383
-9.0475 -1.2507 2.0383
-8.9179 -1.9729 2.0383
-8.7308 -2.6823 2.0383
-8.4873 -3.3745 2.0383
-8.1890 -4.0449 2.0383
-7.8379 -4.6892 2.0383
-7.4362 -5.3032 2.0383
-6.9865 -5.8830 2.0383
-6.4918 -6.4248 2.0383
-5.9551 -6.9253 2.0383
-5.3800 -7.3808 2.0383
-4.7702 -7.7889 2.0383
-4.1296 -8.1467 2.0383
-3.4623 -8.4518 2.0383
-2.7727 -8.7027 2.0383
-2.0652 -8.8970 2.0383
-1.3444 -9.0340 2.0383
-0.5139 -7.6158 1.7035
0.0989 -7.6213 1.7010
0.7139 -7.6268 1.7095
1.5785 -8.9961 2.0383
2.2955 -8.8404 2.0383
2.9977 -8.6276 2.0383
3.6806 -8.3591 2.0383
4.0152 -7.4358 1.8859
4.3072 -6.6395 1.7662
5.1534 -6.6975 1.8859
5.6743 -6.2622 1.8859
6.1669 -5.7943 1.8885
6.6374 -5.3008 1.8957
7.0659 -4.7673 1.9023
7.4486 -4.1976 1.9081
7.7822 -3.5957 1.9132
8.0637 -2.9661 1.9175
8.2905 -2.3133 1.9209
8.4606 -1.6426 1.9234
8.5724 -0.9589 1.9250
8.6249 -0.2678 1.9258
8.6175 0.4253 1.9255
8.5504 1.1150 1.9244
8.4243 1.7958 1.9223
8.2402 2.4624 1.9193
8.0000 3.1097 1.9155
7.7057 3.7327 1.9108
7.3601 4.3268 1.9054
6.9663 4.8876 1.8992
6.5243 5.4085 1.8913
6.0487 5.8949 1.8849
5.5590 6.3648 1.8859
5.0302 6.7905 1.8859
4.4689 7.1724 1.8859
3.9795 7.7029 1.9349
3.5273 8.4250 2.0383
2.8396 8.6809 2.0383
2.1336 8.8808 2.0383
1.4139 9.0234 2.0383
0.6850 9.1078 2.0383
-0.0483 9.1334 2.0383
-0.7813 9.1001 2.0383
-1.5092 9.0080 2.0383
-2.2274 8.8578 2.0383
-2.9312 8.6504 2.0383
-3.6161 8.3872 2.0383
-4.2777 8.0699 2.0383
-4.9117 7.7005 2.0383
-5.5139 7.2814 2.0383
-6.0806 6.8153 2.0383
-6.6080 6.3052 2.0383
-7.0928 5.7544 2.0383
-7.5319 5.1665 2.0383
-7.9223 4.5452 2.0383
-8.2615 3.8946 2.0383
-8.5475 3.2189 2.0383
-8.7783 2.5224 2.0383
-8.9525 1.8097 2.0383
-9.0688 1.0852 2.0383
-9.1267 0.3538 2.0383
-9.1256 -0.3800 2.0383
-9.0657 -1.1113 2.0383
-8.9472 -1.8354 2.0383
-8.7710 -2.5477 2.0383
-8.5382 -3.2435 2.0383
-8.2503 -3.9184 2.0383
-7.9092 -4.5680 2.0383
-7.5170 -5.1881 2.0383
-7.0763 -5.7748 2.0383
-6.5899 -6.3241 2.0383
-6.0610 -6.8327 2.0383
-5.4930 -7.2972 2.0383
-4.8895 -7.7145 2.0383
-4.2545 -8.0821 2.0383
-3.5920 -8.3976 2.0383
-2.9063 -8.6588 2.0383
-2.2019 -8.8641 2.0383
-1.4833 -9.0123 2.0383
-0.6317 -7.6147 1.7052
-0.0184 -7.6202 1.7006
0.5956 -7.6257 1.7070
1.4398 -9.0193 2.0383
2.1592 -8.8746 2.0383
2.8646 -8.6727 2.0383
3.5515 -8.4148 2.0383
3.9003 -7.4968 1.8859
4.1617 -6.6368 1.7483
5.0497 -6.7760 1.8859
5.5773 -6.3488 1.8859
6.0723 -5.8839 1.8870
6.5505 -5.3985 1.8944
6.9873 -4.8724 1.9011
7.3790 -4.3094 1.9071
2.7620 -7.5712 2.0383
3.3608 -7.3251 2.0383
3.8217 -6.8240 1.9782
4.1540 -6.1925 1.8859
4.6377 -5.8391 1.8859
5.0914 -5.4480 1.8859
5.5123 -5.0217 1.8859
5.8976 -4.5630 1.8859
6.2569 -4.0828 1.8896
6.5817 -3.5767 1.8946
6.8630 -3.0438 1.8988
7.0985 -2.4877 1.9024
7.2861 -1.9127 1.9052
7.4241 -1.3231 1.9073
7.5113 -0.7234 1.9085
7.5469 -0.1181 1.9090
7.5307 0.4879 1.9086
7.4627 1.0902 1.9075
7.3436 1.6840 1.9055
7.1745 2.2648 1.9028
6.9568 2.8282 1.8994
6.6926 3.3700 1.8952
6.3840 3.8863 1.8903
6.0375 4.3762 1.8859
5.6668 4.8467 1.8859
5.2594 5.2859 1.8859
4.8182 5.6911 1.8859
4.3458 6.0594 1.8859
3.9661 6.5892 1.9451
3.5885 7.2163 2.0383
2.9976 7.4811 2.0383
2.3875 7.6976 2.0383
1.7619 7.8643 2.0383
1.1249 7.9804 2.0383
0.4807 8.0449 2.0383
-0.1666 8.0576 2.0383
-0.8129 8.0182 2.0383
-1.4539 7.9271 2.0383
-2.0855 7.7848 2.0383
-2.7036 7.5923 2.0383
-3.3043 7.3508 2.0383
-3.8837 7.0618 2.0383
-4.4380 6.7273 2.0383
-4.9637 6.3493 2.0383
-5.4573 5.9304 2.0383
-5.9158 5.4732 2.0383
-6.3360 4.9807 2.0383
-6.7154 4.4560 2.0383
-7.0514 3.9026 2.0383
-7.3419 3.3240 2.0383
-7.5850 2.7239 2.0383
-7.7792 2.1063 2.0383
-7.9231 1.4751 2.0383
-8.0160 0.8343 2.0383
-8.0571 0.1882 2.0383
-8.0462 -0.4592 2.0383
-7.9834 -1.1036 2.0383
-7.8690 -1.7408 2.0383
-7.7039 -2.3669 2.0383
-7.4891 -2.9776 2.0383
-7.2259 -3.5691 2.0383
-6.9161 -4.1376 2.0383
-6.5616 -4.6794 2.0383
-6.1648 -5.1911 2.0383
-5.7282 -5.6692 2.0383
-5.2547 -6.1107 2.0383
-4.7472 -6.5127 2.0383
-4.2091 -6.8728 2.0383
-3.6439 -7.1885 2.0383
-3.0551 -7.4579 2.0383
-2.4466 -7.6789 2.0383
-1.8223 -7.8506 2.0383
-1.1863 -7.9715 2.0383
-0.5426 -8.0410 2.0383
0.1046 -8.0586 2.0383
0.7511 -8.0242 2.0383
1.3928 -7.9380 2.0383
2.0255 -7.8006 2.0383
2.6451 -7.6128 2.0383
3.2477 -7.3760 2.0383
3.8100 -7.0559 2.0281
4.0582 -6.2557 1.8859
4.5472 -5.9098 1.8859
5.0069 -5.5257 1.8859
5.4343 -5.1059 1.8859
5.8266 -4.6533 1.8859
6.1900 -4.1763 1.8886
6.5227 -3.6759 1.8937
6.8126 -3.1477 1.8981
7.0570 -2.5958 1.9018
7.2539 -2.0241 1.9047
7.4015 -1.4370 1.9069
7.4985 -0.8388 1.9084
7.5441 -0.2343 1.9090
7.5378 0.3720 1.9088
7.4797 0.9753 1.9078
7.3703 1.5711 1.9060
7.2107 2.1548 1.9034
7.0022 2.7218 1.9001
6.7467 3.2681 1.8960
6.4464 3.7896 1.8913
6.1039 4.2826 1.8859
5.7407 4.7589 1.8859
5.3402 5.2044 1.8859
4.9052 5.6162 1.8859
4.4385 5.9918 1.8859
3.9730 6.3766 1.9002
3.6991 7.1602 2.0383
3.1124 7.4340 2.0383
2.5056 7.6599 2.0383
1.8827 7.8363 2.0383
1.2476 7.9621 2.0383
0.6045 8.0366 2.0383
-0.0426 8.0592 2.0383
-0.6894 8.0297 2.0383
-1.3317 7.9485 2.0383
-1.9654 7.8160 2.0383
-2.5865 7.6330 2.0383
-3.1908 7.4007 2.0383
-3.7746 7.1207 2.0383
-4.3340 6.7948 2.0383
-4.8654 6.4250 2.0383
-5.3654 6.0137 2.0383
-5.8308 5.5636 2.0383
-6.2586 5.0776 2.0383
-6.6460 4.5588 2.0383
-6.9905 4.0106 2.0383
-7.2899 3.4366 2.0383
-7.5422 2.8403 2.0383
-7.7458 2.2258 2.0383
-7.8995 1.5968 2.0383
-8.0022 0.9576 2.0383
-8.0532 0.3121 2.0383
-8.0523 -0.3353 2.0383
-7.9994 -0.9806 2.0383
-7.8949 -1.6195 2.0383
-7.7394 -2.2480 2.0383
-7.5340 -2.8620 2.0383
-7.2799 -3.4575 2.0383
-6.9789 -4.0307 2.0383
-6.6329 -4.5779 2.0383
-6.2440 -5.0955 2.0383
-5.8148 -5.5803 2.0383
-5.3481 -6.0291 2.0383
-4.8469 -6.4389 2.0383
-4.3144 -6.8072 2.0383
-3.7541 -7.1315 2.0383
-3.1695 -7.4099 2.0383
-2.5645 -7.6404 2.0383
-1.9429 -7.8216 2.0383
-1.3088 -7.9523 2.0383
-0.6663 -8.0317 2.0383
-0.0194 -8.0593 2.0383
0.6276 -8.0348 2.0383
1.2705 -7.9585 2.0383
1.9052 -7.8308 2.0383
2.5276 -7.6526 2.0383
3.1338 -7.4251 2.0383
3.7197 -7.1495 2.0383
3.9614 -6.3174 1.8859
4.4558 -5.9790 1.8859
4.9213 -5.6021 1.8859
5.3551 -5.1890 1.8859
5.7544 -4.7424 1.8859
6.1215 -4.2687 1.8875
6.4622 -3.7740 1.8927
2.4676 -6.7642 2.0383
3.0026 -6.5443 2.0383
3.5182 -6.2822 2.0383
3.8382 -5.7217 1.9505
4.1433 -5.2167 1.8859
4.5487 -4.8673 1.8859
4.9247 -4.4865 1.8859
5.2690 -4.0767 1.8859
5.5792 -3.6406 1.8859
5.8534 -3.1810 1.8859
6.0927 -2.7021 1.8868
6.3004 -2.2080 1.8900
6.4658 -1.6974 1.8925
6.5875 -1.1740 1.8943
6.6644 -0.6418 1.8954
6.6958 -0.1048 1.8958
6.6815 0.4329 1.8955
6.6217 0.9673 1.8944
6.5168 1.4944 1.8927
6.3677 2.0101 1.8903
6.1758 2.5107 1.8873
5.9501 2.9962 1.8859
5.6904 3.4642 1.8859
5.3940 3.9097 1.8859
5.0628 4.3301 1.8859
4.6989 4.7225 1.8859
4.3046 5.0845 1.8859
3.9591 5.5203 1.9231
3.7131 6.1690 2.0383
3.2060 6.4471 2.0383
2.6781 6.6837 2.0383
2.1330 6.8771 2.0383
1.5741 7.0261 2.0383
1.0050 7.1298 2.0383
0.4295 7.1875 2.0383
-0.1489 7.1987 2.0383
-0.7262 7.1636 2.0383
-1.2989 7.0822 2.0383
-1.8632 6.9550 2.0383
-2.4155 6.7830 2.0383
-2.9521 6.5673 2.0383
-3.4698 6.3091 2.0383
-3.9650 6.0102 2.0383
-4.4346 5.6726 2.0383
-4.8757 5.2983 2.0383
-5.2852 4.8898 2.0383
-5.6607 4.4498 2.0383
-5.9996 3.9811 2.0383
-6.2998 3.4866 2.0383
-6.5593 2.9697 2.0383
-6.7765 2.4336 2.0383
-6.9500 1.8818 2.0383
-7.0786 1.3178 2.0383
-7.1616 0.7454 2.0383
-7.1983 0.1681 2.0383
-7.1886 -0.4102 2.0383
-7.1324 -0.9859 2.0383
-7.0303 -1.5553 2.0383
-6.8828 -2.1146 2.0383
-6.6908 -2.6602 2.0383
-6.4557 -3.1887 2.0383
-6.1789 -3.6966 2.0383
-5.8622 -4.1807 2.0383
-5.5077 -4.6377 2.0383
-5.1177 -5.0649 2.0383
-4.6946 -5.4593 2.0383
-4.2412 -5.8186 2.0383
-3.7605 -6.1402 2.0383
-3.2555 -6.4223 2.0383
-2.7295 -6.6629 2.0383
-2.1858 -6.8605 2.0383
-1.6281 -7.0138 2.0383
-1.0598 -7.1218 2.0383
-0.4848 -7.1839 2.0383
0.0935 -7.1997 2.0383
0.6711 -7.1689 2.0383
1.2444 -7.0919 2.0383
1.8096 -6.9692 2.0383
2.3632 -6.8014 2.0383
2.9015 -6.5898 2.0383
3.4211 -6.3355 2.0383
3.8287 -5.9020 1.9916
4.0626 -5.2799 1.8859
4.4733 -4.9367 1.8859
4.8551 -4.5617 1.8859
5.2056 -4.1573 1.8859
5.5225 -3.7260 1.8859
5.8038 -3.2707 1.8859
6.0482 -2.7945 1.8861
6.2639 -2.3040 1.8894
6.4375 -1.7963 1.8920
6.5676 -1.2751 1.8940
6.6532 -0.7442 1.8952
6.6933 -0.2079 1.8957
6.6878 0.3301 1.8956
6.6367 0.8654 1.8947
6.5403 1.3942 1.8931
6.3996 1.9124 1.8908
6.2158 2.4162 1.8879
5.9955 2.9043 1.8859
5.7431 3.3762 1.8859
5.4535 3.8263 1.8859
5.1288 4.2517 1.8859
4.7710 4.6496 1.8859
4.3824 5.0176 1.8859
3.9732 5.3636 1.8896
3.8076 6.1111 2.0383
3.3048 6.3970 2.0383
2.7807 6.6417 2.0383
2.2386 6.8434 2.0383
1.6820 7.0011 2.0383
1.1146 7.1135 2.0383
0.5400 7.1800 2.0383
-0.0381 7.2002 2.0383
-0.6159 7.1739 2.0383
-1.1898 7.1013 2.0383
-1.7559 6.9829 2.0383
-2.3108 6.8194 2.0383
-2.8507 6.6119 2.0383
-3.3723 6.3617 2.0383
-3.8720 6.0705 2.0383
-4.3468 5.7401 2.0383
-4.7935 5.3727 2.0383
-5.2093 4.9706 2.0383
-5.5915 4.5364 2.0383
-5.9376 4.0729 2.0383
-6.2454 3.5832 2.0383
-6.5129 3.0703 2.0383
-6.7383 2.5376 2.0383
-6.9202 1.9885 2.0383
-7.0575 1.4266 2.0383
-7.1493 0.8555 2.0383
-7.1949 0.2789 2.0383
-7.1940 -0.2996 2.0383
-7.1468 -0.8761 2.0383
-7.0534 -1.4469 2.0383
-6.9145 -2.0084 2.0383
-6.7310 -2.5569 2.0383
-6.5040 -3.0890 2.0383
-6.2351 -3.6011 2.0383
-5.9259 -4.0902 2.0383
-5.5785 -4.5524 2.0383
-5.1950 -4.9855 2.0383
-4.7781 -5.3864 2.0383
-4.3303 -5.7526 2.0383
-3.8546 -6.0816 2.0383
-3.3539 -6.3714 2.0383
-2.8317 -6.6201 2.0383
-2.2912 -6.8260 2.0383
-1.7359 -6.9879 2.0383
-1.1693 -7.1047 2.0383
-0.5953 -7.1756 2.0383
-0.0174 -7.2002 2.0383
0.5607 -7.1784 2.0383
1.1351 -7.1102 2.0383
1.7021 -6.9962 2.0383
2.2582 -6.8370 2.0383
2.7997 -6.6336 2.0383
3.3232 -6.3875 2.0383
3.8187 -6.0898 2.0349
3.9808 -5.3417 1.8859
4.3968 -5.0050 1.8859
4.7843 -4.6359 1.8859
5.1410 -4.2369 1.8859
5.4645 -3.8106 1.8859
5.7528 -3.3596 1.8859
2.2265 -6.1033 2.0383
2.7092 -5.9048 2.0383
3.1744 -5.6683 2.0383
3.6192 -5.3952 2.0383
3.8488 -4.8459 1.9416
4.1042 -4.3917 1.8859
4.4435 -4.0481 1.8859
4.7541 -3.6783 1.8859
5.0340 -3.2848 1.8859
5.2815 -2.8701 1.8859
5.4948 -2.4369 1.8859
5.6727 -1.9880 1.8859
5.8139 -1.5263 1.8859
5.9177 -1.0546 1.8859
5.9794 -0.5758 1.8847
6.0074 -0.0940 1.8851
5.9947 0.3884 1.8848
5.9478 0.8689 1.8859
5.8589 1.3435 1.8859
5.7321 1.8095 1.8859
5.5684 2.2637 1.8859
5.3687 2.7034 1.8859
5.1344 3.1257 1.8859
4.8669 3.5277 1.8859
4.5681 3.9070 1.8859
4.2397 4.2611 1.8859
3.9512 4.6670 1.9186
3.7863 5.2793 2.0383
3.3503 5.5662 2.0383
2.8927 5.8171 2.0383
2.4164 6.0306 2.0383
1.9246 6.2051 2.0383
1.4203 6.3395 2.0383
0.9068 6.4331 2.0383
0.3875 6.4851 2.0383
-0.1343 6.4953 2.0383
-0.6553 6.4636 2.0383
-1.1720 6.3901 2.0383
-1.6811 6.2754 2.0383
-2.1794 6.1202 2.0383
-2.6637 5.9255 2.0383
-3.1307 5.6926 2.0383
-3.5775 5.4229 2.0383
-4.0013 5.1182 2.0383
-4.3992 4.7805 2.0383
-4.7688 4.4120 2.0383
-5.1075 4.0150 2.0383
-5.4133 3.5920 2.0383
-5.6842 3.1459 2.0383
-5.9184 2.6795 2.0383
-6.1144 2.1958 2.0383
-6.2709 1.6979 2.0383
-6.3869 1.1891 2.0383
-6.4618 0.6725 2.0383
-6.4949 0.1517 2.0383
-6.4861 -0.3701 2.0383
-6.4355 -0.8896 2.0383
-6.3433 -1.4033 2.0383
-6.2102 -1.9079 2.0383
-6.0370 -2.4003 2.0383
-5.8249 -2.8771 2.0383
-5.5751 -3.3354 2.0383
-5.2894 -3.7721 2.0383
-4.9695 -4.1846 2.0383
-4.6176 -4.5700 2.0383
-4.2359 -4.9259 2.0383
-3.8268 -5.2500 2.0383
-3.3930 -5.5402 2.0383
-2.9374 -5.7947 2.0383
-2.4628 -6.0118 2.0383
-1.9722 -6.1901 2.0383
-1.4690 -6.3284 2.0383
-0.9563 -6.4259 2.0383
-0.4374 -6.4819 2.0383
0.0843 -6.4961 2.0383
0.6055 -6.4684 2.0383
1.1228 -6.3989 2.0383
1.6328 -6.2882 2.0383
2.1323 -6.1368 2.0383
2.6180 -5.9458 2.0383
3.0868 -5.7165 2.0383
3.5357 -5.4503 2.0383
3.8409 -4.9918 1.9762
4.0362 -4.4543 1.8859
4.3807 -4.1160 1.8859
4.6969 -3.7511 1.8859
4.9829 -3.3619 1.8859
5.2367 -2.9511 1.8859
5.4566 -2.5212 1.8859
5.6414 -2.0751 1.8859
5.7898 -1.6156 1.8859
5.9008 -1.1456 1.8859
5.9694 -0.6678 1.8846
6.0052 -0.1865 1.8851
6.0003 0.2961 1.8849
5.9605 0.7772 1.8859
5.8789 1.2532 1.8859
5.7593 1.7210 1.8859
5.6026 2.1778 1.8859
5.4097 2.6205 1.8859
5.1819 3.0463 1.8859
4.9206 3.4524 1.8859
4.6276 3.8362 1.8859
4.3048 4.1953 1.8859
3.9637 4.5383 1.8905
3.8671 5.2204 2.0383
3.4356 5.5140 2.0383
2.9819 5.7719 2.0383
2.5089 5.9927 2.0383
2.0198 6.1747 2.0383
1.5177 6.3169 2.0383
1.0057 6.4184 2.0383
0.4873 6.4784 2.0383
-0.0343 6.4966 2.0383
-0.5557 6.4729 2.0383
-1.0735 6.4074 2.0383
-1.5843 6.3005 2.0383
-2.0850 6.1530 2.0383
-2.5722 5.9658 2.0383
-3.0427 5.7401 2.0383
-3.4937 5.4773 2.0383
-3.9221 5.1792 2.0383
-4.3251 4.8477 2.0383
-4.7003 4.4849 2.0383
-5.0451 4.0931 2.0383
-5.3574 3.6749 2.0383
-5.6351 3.2330 2.0383
-5.8764 2.7703 2.0383
-6.0798 2.2896 2.0383
-6.2440 1.7942 2.0383
-6.3679 1.2872 2.0383
-6.4507 0.7719 2.0383
-6.4918 0.2516 2.0383
-6.4911 -0.2703 2.0383
-6.4484 -0.7904 2.0383
-6.3642 -1.3055 2.0383
-6.2388 -1.8121 2.0383
-6.0732 -2.3071 2.0383
-5.8685 -2.7871 2.0383
-5.6258 -3.2492 2.0383
-5.3468 -3.6903 2.0383
-5.0333 -4.1076 2.0383
-4.6874 -4.4984 2.0383
-4.3112 -4.8601 2.0383
-3.9072 -5.1905 2.0383
-3.4779 -5.4874 2.0383
-3.0262 -5.7488 2.0383
-2.5550 -5.9732 2.0383
-2.0673 -6.1590 2.0383
-1.5662 -6.3051 2.0383
-1.0551 -6.4104 2.0383
-0.5371 -6.4744 2.0383
-0.0157 -6.4967 2.0383
0.5059 -6.4770 2.0383
1.0242 -6.4154 2.0383
1.5358 -6.3125 2.0383
2.0376 -6.1689 2.0383
2.5262 -5.9854 2.0383
2.9985 -5.7633 2.0383
3.4514 -5.5040 2.0383
3.8327 -5.1429 2.0124
3.9671 -4.5158 1.8859
4.3168 -4.1829 1.8859
4.6386 -3.8229 1.8859
4.9305 -3.4382 1.8859
5.1906 -3.0313 1.8859
0.7349 -2.0147 0.7398
2.4641 -5.3707 2.0383
2.8873 -5.1556 2.0383
3.2918 -4.9072 2.0383
3.6750 -4.6271 2.0383
3.8552 -4.1251 1.9477
4.0415 -3.6819 1.8859
4.3240 -3.3456 1.8859
4.5786 -2.9877 1.8859
4.8037 -2.6105 1.8859
4.9977 -2.2165 1.8859
5.1595 -1.8082 1.8859
5.2880 -1.3882 1.8859
5.3824 -0.9592 1.8859
5.4420 -0.5241 1.8859
5.4665 -0.0856 1.8859
5.4557 0.3535 1.8859
5.4098 0.7903 1.8859
5.3289 1.2220 1.8859
5.2136 1.6458 1.8859
5.0647 2.0590 1.8859
4.8830 2.4589 1.8859
4.6699 2.8429 1.8859
4.4267 3.2086 1.8859
4.1548 3.5535 1.8859
3.9422 3.9620 1.9280
3.8181 4.5098 2.0383
3.4438 4.8017 2.0383
3.0472 5.0627 2.0383
2.6310 5.2909 2.0383
2.1978 5.4850 2.0383
1.7505 5.6437 2.0383
1.2918 5.7661 2.0383
0.8248 5.8511 2.0383
0.3524 5.8985 2.0383
-0.1222 5.9077 2.0383
-0.5960 5.8789 2.0383
-1.0660 5.8120 2.0383
-1.5290 5.7077 2.0383
-1.9823 5.5666 2.0383
-2.4227 5.3895 2.0383
-2.8475 5.1776 2.0383
-3.2539 4.9324 2.0383
-3.6393 4.6552 2.0383
-4.0013 4.3481 2.0383
-4.3374 4.0129 2.0383
-4.6455 3.6518 2.0383
-4.9236 3.2671 2.0383
-5.1700 2.8613 2.0383
-5.3830 2.4371 2.0383
-5.5612 1.9972 2.0383
-5.7036 1.5443 2.0383
-5.8092 1.0815 2.0383
-5.8772 0.6117 2.0383
-5.9074 0.1380 2.0383
-5.8994 -0.3368 2.0383
-5.8533 -0.8091 2.0383
-5.7695 -1.2764 2.0383
-5.6484 -1.7354 2.0383
-5.4909 -2.1832 2.0383
-5.2979 -2.6169 2.0383
-5.0708 -3.0337 2.0383
-4.8109 -3.4309 2.0383
-4.5200 -3.8060 2.0383
-4.1999 -4.1566 2.0383
-3.8527 -4.4803 2.0383
-3.4806 -4.7751 2.0383
-3.0861 -5.0391 2.0383
-2.6717 -5.2705 2.0383
-2.2400 -5.4680 2.0383
-1.7938 -5.6301 2.0383
-1.3361 -5.7559 2.0383
-0.8698 -5.8446 2.0383
-0.3978 -5.8956 2.0383
0.0767 -5.9085 2.0383
0.5507 -5.8833 2.0383
1.0212 -5.8201 2.0383
1.4851 -5.7193 2.0383
0.7038 -2.0257 0.7398
2.3812 -5.4080 2.0383
2.8076 -5.1994 2.0383
3.2159 -4.9572 2.0383
3.6034 -4.6831 2.0383
3.8484 -4.2472 1.9771
3.9844 -3.7436 1.8859
4.2720 -3.4117 1.8859
4.5321 -3.0578 1.8859
4.7629 -2.6841 1.8859
4.9630 -2.2931 1.8859
5.1311 -1.8874 1.8859
5.2660 -1.4694 1.8859
5.3670 -1.0420 1.8859
5.4333 -0.6078 1.8859
5.4646 -0.1697 1.8859
5.4605 0.2695 1.8859
5.4213 0.7069 1.8859
5.3470 1.1398 1.8859
5.2383 1.5654 1.8859
5.0957 1.9808 1.8859
4.9203 2.3834 1.8859
4.7131 2.7707 1.8859
4.4755 3.1401 1.8859
4.2090 3.4892 1.8859
3.9463 3.8458 1.9008
3.8870 4.4505 2.0383
3.5173 4.7481 2.0383
3.1248 5.0152 2.0383
2.7121 5.2498 2.0383
2.2820 5.4506 2.0383
1.8371 5.6161 2.0383
1.3804 5.7455 2.0383
0.9147 5.8378 2.0383
0.4432 5.8923 2.0383
-0.0312 5.9089 2.0383
-0.5054 5.8873 2.0383
-0.9764 5.8278 2.0383
-1.4410 5.7306 2.0383
-1.8964 5.5964 2.0383
-2.3395 5.4261 2.0383
-2.7675 5.2208 2.0383
-3.1776 4.9818 2.0383
-3.5673 4.7107 2.0383
-3.9339 4.4092 2.0383
-4.2751 4.0792 2.0383
-4.5887 3.7228 2.0383
-4.8728 3.3425 2.0383
-5.1253 2.9406 2.0383
-5.3448 2.5197 2.0383
-5.5298 2.0825 2.0383
-5.6792 1.6319 2.0383
-5.7918 1.1708 2.0383
-5.8671 0.7019 2.0383
-5.9045 0.2289 2.0383
-5.9039 -0.2458 2.0383
-5.8651 -0.7189 2.0383
-5.7884 -1.1874 2.0383
-5.6745 -1.6482 2.0383
-5.5238 -2.0984 2.0383
-5.3376 -2.5350 2.0383
-5.1169 -2.9553 2.0383
-4.8631 -3.3565 2.0383
-4.5780 -3.7360 2.0383
-4.2634 -4.0914 2.0383
-3.9212 -4.4205 2.0383
-3.5537 -4.7209 2.0383
-3.1633 -4.9910 2.0383
-2.7525 -5.2288 2.0383
-2.3239 -5.4328 2.0383
-0.6824 -2.0329 0.7397
-1.4245 -5.7347 2.0383
-0.9596 -5.8305 2.0383
-0.4885 -5.8887 2.0383
-0.0142 -5.9090 2.0383
0.4601 -5.8910 2.0383
0.9315 -5.8350 2.0383
1.3969 -5.7415 2.0383
0.6726 -2.0362 0.7397
2.2976 -5.4440 2.0383
2.7272 -5.2420 2.0383
3.1392 -5.0061 2.0383
3.5309 -4.7380 2.0383
3.8415 -4.3729 2.0078
3.9263 -3.8045 1.8859
4.2190 -3.4771 1.8859
4.4845 -3.1272 1.8859
4.7211 -2.7571 1.8859
0.6732 -1.8453 0.7401
2.2560 -4.9171 2.0383
2.6434 -4.7202 2.0383
3.0138 -4.4928 2.0383
3.3647 -4.2363 2.0383
3.6939 -3.9526 2.0383
3.8580 -3.5146 1.9663
3.9589 -3.0630 1.8859
4.1920 -2.7354 1.8859
4.3980 -2.3901 1.8859
4.5757 -2.0293 1.8859
4.7238 -1.6555 1.8859
4.8415 -1.2710 1.8859
4.9278 -0.8782 1.8859
4.9824 -0.4798 1.8859
5.0049 -0.0783 1.8859
4.9950 0.3236 1.8859
4.9529 0.7236 1.8859
4.8789 1.1188 1.8859
4.7733 1.5068 1.8859
4.6370 1.8851 1.8859
4.4707 2.2512 1.8859
4.2756 2.6028 1.8859
4.0528 2.9376 1.8859
3.9320 3.3630 1.9494
3.8158 3.8350 2.0383
3.4957 4.1289 2.0383
3.1530 4.3962 2.0383
2.7899 4.6351 2.0383
2.4088 4.8441 2.0383
0.7373 1.8401 0.7469
0.5873 1.8935 0.7470
0.4335 1.9348 0.7470
0.2768 1.9635 0.7471
0.3227 5.4004 2.0383
-0.1118 5.4088 2.0383
-0.2000 1.9728 0.7471
-0.3577 1.9503 0.7471
-0.5130 1.9151 0.7470
-0.6650 1.8675 0.7469
-2.2181 4.9344 2.0383
-2.6070 4.7404 2.0383
-2.9791 4.5158 2.0383
-3.3320 4.2621 2.0383
-3.6634 3.9809 2.0383
-3.9711 3.6740 2.0383
-4.2532 3.3434 2.0383
-4.5078 2.9912 2.0383
-4.7334 2.6197 2.0383
-4.9284 2.2313 2.0383
-5.0916 1.8285 2.0383
-5.2220 1.4139 2.0383
-5.3186 0.9902 2.0383
-5.3809 0.5601 2.0383
-5.4085 0.1263 2.0383
-5.4012 -0.3082 2.0383
-5.3590 -0.7408 2.0383
-5.2823 -1.1686 2.0383
-5.1714 -1.5888 2.0383
-5.0272 -1.9988 2.0383
-4.8505 -2.3959 2.0383
-4.6426 -2.7775 2.0383
-4.4046 -3.1412 2.0383
-4.1383 -3.4846 2.0383
-3.8452 -3.8056 2.0383
-3.5273 -4.1019 2.0383
-3.1867 -4.3718 2.0383
-2.8255 -4.6135 2.0383
-2.4460 -4.8254 2.0383
-0.7447 -1.8178 0.7401
-0.5963 -1.8714 0.7400
-0.4441 -1.9130 0.7400
-0.2891 -1.9424 0.7399
-0.1322 -1.9592 0.7399
0.0255 -1.9635 0.7399
0.1830 -1.9552 0.7399
0.3394 -1.9343 0.7399
0.4936 -1.9009 0.7400
0.6447 -1.8554 0.7401
2.1801 -4.9513 2.0383
2.5705 -4.7603 2.0383
2.9443 -4.5386 2.0383
3.2991 -4.2876 2.0383
3.6326 -4.0090 2.0383
3.8522 -3.6195 1.9916
3.9113 -3.1236 1.8859
4.1494 -2.7996 1.8859
4.3607 -2.4575 1.8859
4.5439 -2.0995 1.8859
4.6978 -1.7280 1.8859
4.8213 -1.3453 1.8859
4.9138 -0.9540 1.8859
4.9745 -0.5565 1.8859
5.0031 -0.1554 1.8859
4.9994 0.2467 1.8859
4.9635 0.6472 1.8859
4.8955 1.0436 1.8859
4.7959 1.4332 1.8859
4.6654 1.8135 1.8859
4.5048 2.1821 1.8859
4.3151 2.5367 1.8859
4.1017 2.8778 1.8879
3.9353 3.2623 1.9260
3.8744 3.7758 2.0383
3.5588 4.0747 2.0383
3.2202 4.3472 2.0383
2.8609 4.5916 2.0383
2.4831 4.8065 2.0383
0.7655 1.8284 0.7469
0.6164 1.8842 0.7470
0.4632 1.9278 0.7470
0.3069 1.9589 0.7471
0.4058 5.3948 2.0383
-0.0286 5.4099 2.0383
-0.1696 1.9757 0.7471
-0.3276 1.9556 0.7471
-0.4835 1.9228 0.7470
-0.6362 1.8776 0.7469
-2.1419 4.9679 2.0383
-2.5338 4.7800 2.0383
-2.9093 4.5611 2.0383
-3.2660 4.3129 2.0383
-3.6017 4.0368 2.0383
-3.9141 3.7347 2.0383
-4.2012 3.4085 2.0383
-4.4613 3.0602 2.0383
-4.6925 2.6922 2.0383
-4.8935 2.3069 2.0383
-5.0629 1.9067 2.0383
-5.1996 1.4941 2.0383
-5.3027 1.0719 2.0383
-5.3717 0.6428 2.0383
-5.4059 0.2095 2.0383
-5.4053 -0.2251 2.0383
-5.3698 -0.6582 2.0383
-5.2996 -1.0871 2.0383
-5.1953 -1.5090 2.0383
-5.0574 -1.9212 2.0383
-4.8868 -2.3209 2.0383
-4.6848 -2.7057 2.0383
-4.4525 -3.0730 2.0383
-4.1914 -3.4205 2.0383
-3.9033 -3.7459 2.0383
-3.5900 -4.0472 2.0383
-3.2536 -4.3223 2.0383
-2.8962 -4.5695 2.0383
-2.5200 -4.7872 2.0383
-0.7726 -1.8061 0.7401
-0.6250 -1.8621 0.7400
-0.4735 -1.9060 0.7400
-0.3189 -1.9377 0.7399
-0.1623 -1.9570 0.7399
-0.0047 -1.9637 0.7399
0.1529 -1.9577 0.7399
0.3096 -1.9392 0.7399
0.4643 -1.9083 0.7400
0.6160 -1.8651 0.7400
0.7639 -1.8099 0.7402
2.4969 -4.7993 2.0383
2.8741 -4.5834 2.0383
3.2327 -4.3379 2.0383
3.5705 -4.0644 2.0383
3.8463 -3.7269 2.0179
3.8801 -3.1977 1.8944
4.1058 -2.8631 1.8859
4.3224 -2.5243 1.8859
0.6199 -1.6994 0.7404
0.7544 -1.6444 0.7405
2.4335 -4.3454 2.0383
2.7745 -4.1360 2.0383
3.0975 -3.8999 2.0383
3.4006 -3.6387 2.0383
3.6817 -3.3540 2.0383
3.8579 -2.9849 1.9964
3.8835 -2.5341 1.8979
4.0488 -2.2003 1.8859
4.2123 -1.8682 1.8859
4.3487 -1.5240 1.8859
4.4570 -1.1700 1.8859
4.5365 -0.8085 1.8859
4.5868 -0.4417 1.8859
4.6075 -0.0721 1.8859
4.5984 0.2979 1.8859
4.5596 0.6661 1.8859
4.4914 1.0299 1.8859
4.3943 1.3871 1.8859
4.2688 1.7354 1.8859
4.1157 2.0724 1.8859
3.9430 2.4004 1.8893
3.9207 2.8418 1.9818
3.7849 3.2371 2.0383
3.5128 3.5305 2.0383
3.2181 3.8011 2.0383
2.9026 4.0471 2.0383
2.5684 4.2671 2.0383
2.2176 4.4595 2.0383
0.6785 1.6933 0.7466
0.5405 1.7425 0.7467
0.3989 1.7805 0.7468
0.2547 1.8068 0.7468
0.1088 1.8215 0.7468
-0.0377 1.8244 0.7468
-0.1840 1.8154 0.7468
-0.3292 1.7947 0.7468
-0.4721 1.7624 0.7467
-0.6120 1.7186 0.7466
-0.7479 1.6637 0.7465
-2.4000 4.3640 2.0383
-2.7426 4.1572 2.0383
-3.0674 3.9237 2.0383
-3.3725 3.6648 2.0383
-3.6558 3.3823 2.0383
-3.9155 3.0779 2.0383
-4.1499 2.7537 2.0383
-4.3575 2.4117 2.0383
-4.5371 2.0541 2.0383
-4.6873 1.6833 2.0383
-4.8073 1.3016 2.0383
-4.8963 0.9115 2.0383
-4.9536 0.5156 2.0383
-4.9790 0.1163 2.0383
-4.9723 -0.2838 2.0383
-4.9335 -0.6820 2.0383
-4.8628 -1.0758 2.0383
-4.7608 -1.4626 2.0383
-4.6280 -1.8401 2.0383
-4.4654 -2.2056 2.0383
-4.2739 -2.5569 2.0383
-4.0549 -2.8918 2.0383
-3.8097 -3.2079 2.0383
-3.5399 -3.5034 2.0383
-3.2472 -3.7762 2.0383
-2.9336 -4.0247 2.0383
-2.6011 -4.2472 2.0383
-2.2518 -4.4422 2.0383
-0.6858 -1.6740 0.7404
-0.5491 -1.7234 0.7403
-0.4090 -1.7618 0.7402
-0.2662 -1.7888 0.7402
-0.1218 -1.8044 0.7402
0.0235 -1.8083 0.7401
0.1686 -1.8006 0.7402
0.3126 -1.7814 0.7402
0.4546 -1.7507 0.7403
0.5937 -1.7087 0.7403
0.7290 -1.6557 0.7404
2.3664 -4.3823 2.0383
2.7105 -4.1782 2.0383
3.0371 -3.9472 2.0383
3.3442 -3.6906 2.0383
3.6296 -3.4103 2.0383
3.8529 -3.0770 2.0181
3.8769 -2.6158 1.9141
4.0144 -2.2623 1.8859
4.1831 -1.9328 1.8859
4.3247 -1.5907 1.8859
4.4385 -1.2385 1.8859
4.5236 -0.8782 1.8859
4.5795 -0.5123 1.8859
4.6058 -0.1430 1.8859
4.6024 0.2271 1.8859
4.5693 0.5958 1.8859
4.5068 0.9607 1.8859
4.4151 1.3193 1.8859
4.2950 1.6695 1.8859
4.1471 2.0089 1.8859
3.9724 2.3353 1.8859
3.9235 2.7528 1.9616
3.8342 3.1785 2.0383
3.5667 3.4760 2.0383
3.2762 3.7511 2.0383
2.9645 4.0020 2.0383
2.6337 4.2270 2.0383
2.2859 4.4248 2.0383
0.7045 1.6826 0.7466
0.5672 1.7340 0.7467
0.4262 1.7741 0.7467
0.2825 1.8027 0.7468
0.1369 1.8196 0.7468
-0.0096 1.8248 0.7468
-0.1561 1.8181 0.7468
-0.3015 1.7996 0.7468
-0.4449 1.7694 0.7467
-0.5855 1.7278 0.7467
-0.7222 1.6750 0.7466
-2.3326 4.4004 2.0383
-2.6783 4.1990 2.0383
-3.0067 3.9704 2.0383
-3.3157 3.7163 2.0383
-3.6033 3.4381 2.0383
-3.8676 3.1378 2.0383
-4.1070 2.8172 2.0383
-4.3199 2.4785 2.0383
-4.5049 2.1237 2.0383
-4.6608 1.7552 2.0383
-4.7867 1.3755 2.0383
-4.8816 0.9868 2.0383
-4.9451 0.5917 2.0383
-4.9766 0.1929 2.0383
-4.9761 -0.2072 2.0383
-4.9434 -0.6060 2.0383
-4.8788 -1.0008 2.0383
-4.7827 -1.3892 2.0383
-4.6558 -1.7686 2.0383
-4.4988 -2.1366 2.0383
-4.3128 -2.4909 2.0383
-4.0989 -2.8290 2.0383
-3.8586 -3.1489 2.0383
-3.5934 -3.4485 2.0383
-3.3050 -3.7258 2.0383
-2.9952 -3.9790 2.0383
-2.6662 -4.2066 2.0383
-2.3199 -4.4071 2.0383
-0.7115 -1.6633 0.7404
-0.5756 -1.7148 0.7403
-0.4360 -1.7553 0.7402
-0.2937 -1.7845 0.7402
-0.1495 -1.8023 0.7402
-0.0044 -1.8084 0.7401
0.1408 -1.8030 0.7402
0.2851 -1.7859 0.7402
0.4276 -1.7574 0.7402
0.5673 -1.7176 0.7403
0.7034 -1.6667 0.7404
2.2986 -4.4182 2.0383
2.6459 -4.2194 2.0383
2.9760 -3.9934 2.0383
3.2870 -3.7417 2.0383
3.5767 -3.4657 2.0383
3.8434 -3.1675 2.0383
3.8727 -2.7005 1.9323
3.9791 -2.3238 1.8859
0.5735 -1.5722 0.7406
0.6980 -1.5213 0.7407
2.2506 -4.0188 2.0383
2.5660 -3.8252 2.0383
2.8647 -3.6069 2.0383
3.1450 -3.3653 2.0383
3.4050 -3.1020 2.0383
3.6430 -2.8186 2.0383
3.8552 -2.5157 2.0371
3.8752 -2.1059 1.9518
3.9011 -1.7301 1.8885
4.0219 -1.4095 1.8859
4.1220 -1.0821 1.8859
4.1956 -0.7477 1.8859
4.2421 -0.4085 1.8859
4.2612 -0.0667 1.8859
4.2528 0.2756 1.8859
4.2169 0.6160 1.8859
4.1539 0.9525 1.8859
4.0640 1.2829 1.8859
3.9479 1.6050 1.8859
3.9191 1.9735 1.9418
3.9080 2.3790 2.0246
3.7294 2.7032 2.0383
3.5004 2.9938 2.0383
3.2488 3.2652 2.0383
2.9762 3.5154 2.0383
2.6844 3.7430 2.0383
2.3753 3.9464 2.0383
0.7509 1.5100 0.7463
0.6273 1.5656 0.7464
0.4997 1.6110 0.7464
0.3688 1.6461 0.7465
0.2355 1.6705 0.7466
0.1006 1.6841 0.7466
-0.0349 1.6867 0.7466
-0.1702 1.6784 0.7466
-0.3043 1.6593 0.7465
-0.4365 1.6294 0.7465
-0.5658 1.5889 0.7464
-0.6914 1.5382 0.7463
-2.2196 4.0360 2.0383
-2.5364 3.8448 2.0383
-2.8369 3.6288 2.0383
-3.1190 3.3894 2.0383
-3.3810 3.1281 2.0383
-3.6212 2.8466 2.0383
-3.8380 2.5467 2.0383
-4.0300 2.2304 2.0383
-4.1961 1.8998 2.0383
-4.3350 1.5568 2.0383
-4.4460 1.2038 2.0383
-4.5283 0.8430 2.0383
-4.5813 0.4768 2.0383
-4.6048 0.1075 2.0383
-4.5986 -0.2627 2.0383
-4.5627 -0.6307 2.0383
-4.4974 -0.9949 2.0383
-4.4030 -1.3527 2.0383
-4.2802 -1.7017 2.0383
-4.1298 -2.0399 2.0383
-3.9527 -2.3648 2.0383
-3.7501 -2.6744 2.0383
-3.5234 -2.9668 2.0383
-3.2738 -3.2401 2.0383
-3.0032 -3.4924 2.0383
-2.7132 -3.7222 2.0383
-2.4056 -3.9280 2.0383
-0.7568 -1.4930 0.7407
-0.6344 -1.5487 0.7406
-0.5080 -1.5944 0.7405
-0.3784 -1.6299 0.7405
-0.2463 -1.6549 0.7404
-0.1126 -1.6693 0.7404
0.0217 -1.6730 0.7404
0.1559 -1.6658 0.7404
0.2892 -1.6480 0.7404
0.4205 -1.6196 0.7405
0.5493 -1.5808 0.7406
0.6744 -1.5318 0.7407
2.1885 -4.0529 2.0383
2.5068 -3.8642 2.0383
2.8089 -3.6505 2.0383
3.0928 -3.4133 2.0383
3.3568 -3.1540 2.0383
3.5992 -2.8744 2.0383
3.8183 -2.5762 2.0383
3.8717 -2.1819 1.9667
3.8918 -1.7982 1.8972
3.9997 -1.4712 1.8859
4.1049 -1.1454 1.8859
4.1836 -0.8122 1.8859
4.2353 -0.4738 1.8859
4.2597 -0.1323 1.8859
4.2565 0.2101 1.8859
4.2259 0.5511 1.8859
4.1681 0.8885 1.8859
4.0833 1.2202 1.8859
3.9722 1.5440 1.8859
3.9209 1.8993 1.9280
3.9103 2.2988 2.0073
3.7706 2.6455 2.0383
3.5461 2.9396 2.0383
3.2987 3.2148 2.0383
3.0300 3.4692 2.0383
2.7417 3.7012 2.0383
2.4358 3.9094 2.0383
0.7740 1.4982 0.7462
0.6513 1.5557 0.7463
0.5244 1.6031 0.7464
0.3941 1.6402 0.7465
0.2612 1.6667 0.7465
0.1265 1.6823 0.7466
-0.0089 1.6870 0.7466
-0.1443 1.6809 0.7466
-0.2787 1.6638 0.7465
-0.4114 1.6359 0.7465
-0.5413 1.5975 0.7464
-0.6677 1.5487 0.7463
-2.1573 4.0697 2.0383
-2.4770 3.8834 2.0383
-2.7807 3.6720 2.0383
-3.0665 3.4370 2.0383
-3.3325 3.1797 2.0383
-3.5770 2.9020 2.0383
-3.7984 2.6055 2.0383
-3.9952 2.2922 2.0383
-4.1663 1.9641 2.0383
-4.3106 1.6233 2.0383
-4.4270 1.2721 2.0383
-4.5148 0.9126 2.0383
-4.5735 0.5473 2.0383
-4.6026 0.1784 2.0383
-4.6021 -0.1917 2.0383
-4.5719 -0.5604 2.0383
-4.5121 -0.9256 2.0383
-4.4233 -1.2848 2.0383
-4.3059 -1.6358 2.0383
-4.1607 -1.9761 2.0383
-3.9886 -2.3037 2.0383
-3.7908 -2.6164 2.0383
-3.5686 -2.9122 2.0383
-3.3233 -3.1893 2.0383
-3.0566 -3.4458 2.0383
-2.7701 -3.6800 2.0383
-2.4658 -3.8905 2.0383
-0.7797 -1.4812 0.7407
-0.6582 -1.5388 0.7406
-0.5325 -1.5865 0.7406
-0.4034 -1.6239 0.7405
-0.2717 -1.6510 0.7404
-0.1383 -1.6674 0.7404
-0.0040 -1.6731 0.7404
0.1303 -1.6680 0.7404
0.2638 -1.6523 0.7404
0.3956 -1.6259 0.7405
0.5248 -1.5890 0.7406
0.6508 -1.5419 0.7406
0.7726 -1.4849 0.7407
2.4470 -3.9023 2.0383
2.7524 -3.6933 2.0383
3.0399 -3.4605 2.0383
3.3079 -3.2053 2.0383
3.5545 -2.9294 2.0383
3.7782 -2.6346 2.0383
3.8680 -2.2589 1.9822
0.5326 -1.4601 0.7408
0.6482 -1.4128 0.7409
0.7596 -1.3564 0.7410
2.3824 -3.5515 2.0383
2.6598 -3.3488 2.0383
2.9200 -3.1245 2.0383
3.1614 -2.8800 2.0383
3.3824 -2.6170 2.0383
3.5815 -2.3370 2.0383
3.7576 -2.0420 2.0383
3.8673 -1.7151 2.0164
3.8813 -1.3602 1.9603
3.8926 -1.0219 1.9182
3.9082 -0.6965 1.8921
3.9386 -0.3793 1.8859
3.9564 -0.0619 1.8859
3.9486 0.2559 1.8859
3.9235 0.5732 1.8899
3.9132 0.8974 1.9136
3.9093 1.2340 1.9539
3.9029 1.5867 2.0081
3.8197 1.9234 2.0383
3.6529 2.2238 2.0383
3.4626 2.5098 2.0383
3.2500 2.7797 2.0383
3.0164 3.0316 2.0383
2.7633 3.2639 2.0383
2.4924 3.4752 2.0383
2.2054 3.6641 2.0383
0.6970 1.4016 0.7461
0.5823 1.4532 0.7462
0.4638 1.4954 0.7462
0.3423 1.5279 0.7463
0.2186 1.5505 0.7463
0.0934 1.5631 0.7464
-0.0324 1.5656 0.7464
-0.1579 1.5579 0.7463
-0.2825 1.5401 0.7463
-0.4052 1.5124 0.7463
-0.5252 1.4748 0.7462
-0.6418 1.4278 0.7461
-0.7542 1.3714 0.7460
-2.3550 3.5698 2.0383
-2.6339 3.3692 2.0383
-2.8959 3.1469 2.0383
-3.1391 2.9043 2.0383
-3.3621 2.6429 2.0383
-3.5634 2.3645 2.0383
-3.7417 2.0709 2.0383
-3.8959 1.7638 2.0383
-4.0249 1.4454 2.0383
-4.1279 1.1177 2.0383
-4.2043 0.7827 2.0383
-4.2536 0.4427 2.0383
-4.2754 0.0998 2.0383
-4.2696 -0.2437 2.0383
-4.2363 -0.5856 2.0383
-4.1756 -0.9237 2.0383
-4.0880 -1.2559 2.0383
-3.9740 -1.5800 2.0383
-3.8343 -1.8939 2.0383
-3.6699 -2.1956 2.0383
-3.4819 -2.4831 2.0383
-3.2713 -2.7546 2.0383
-3.0396 -3.0083 2.0383
-2.7884 -3.2426 2.0383
-2.5191 -3.4559 2.0383
-2.2335 -3.6470 2.0383
-0.7028 -1.3865 0.7409
-0.5892 -1.4383 0.7408
-0.4718 -1.4808 0.7407
-0.3514 -1.5138 0.7407
-0.2287 -1.5370 0.7406
-0.1046 -1.5503 0.7406
0.0202 -1.5537 0.7406
0.1448 -1.5471 0.7406
0.2686 -1.5306 0.7407
0.3906 -1.5042 0.7407
0.5101 -1.4681 0.7408
0.6264 -1.4226 0.7409
0.7386 -1.3679 0.7410
2.3275 -3.5878 2.0383
2.6079 -3.3894 2.0383
2.8716 -3.1691 2.0383
3.1167 -2.9284 2.0383
3.3417 -2.6687 2.0383
3.5451 -2.3919 2.0383
3.7257 -2.0996 2.0383
3.8642 -1.7855 2.0289
3.8789 -1.4268 1.9699
3.8906 -1.0856 1.9252
3.9041 -0.7578 1.8956
3.9323 -0.4398 1.8859
3.9549 -0.1228 1.8859
3.9520 0.1951 1.8859
3.9258 0.5119 1.8870
3.9138 0.8342 1.9073
3.9102 1.1685 1.9451
3.9043 1.5176 1.9965
3.8488 1.8644 2.0383
3.6867 2.1673 2.0383
3.5009 2.4562 2.0383
3.2924 2.7293 2.0383
3.0627 2.9848 2.0383
2.8132 3.2210 2.0383
2.5456 3.4364 2.0383
2.2615 3.6297 2.0383
0.7184 1.3906 0.7460
0.6046 1.4440 0.7461
0.4868 1.4880 0.7462
0.3658 1.5224 0.7463
0.2424 1.5470 0.7463
0.1174 1.5615 0.7464
-0.0083 1.5659 0.7464
-0.1339 1.5602 0.7463
-0.2587 1.5443 0.7463
-0.3818 1.5185 0.7463
-0.5024 1.4828 0.7462
-0.6198 1.4375 0.7461
-0.7331 1.3829 0.7460
-2.2998 3.6056 2.0383
-2.5818 3.4093 2.0383
-2.8471 3.1911 2.0383
-3.0941 2.9523 2.0383
-3.3211 2.6944 2.0383
-3.5266 2.4191 2.0383
-3.7094 2.1282 2.0383
-3.8683 1.8236 2.0383
-4.0022 1.5072 2.0383
-4.1103 1.1811 2.0383
-4.1918 0.8473 2.0383
-4.2463 0.5081 2.0383
-4.2734 0.1656 2.0383
-4.2729 -0.1779 2.0383
-4.2448 -0.5203 2.0383
-4.1893 -0.8594 2.0383
-4.1068 -1.1929 2.0383
-3.9978 -1.5187 2.0383
-3.8630 -1.8347 2.0383
-3.7033 -2.1389 2.0383
-3.5197 -2.4292 2.0383
-3.3133 -2.7039 2.0383
-3.0856 -2.9611 2.0383
-2.8379 -3.1993 2.0383
-2.5720 -3.4167 2.0383
-2.2894 -3.6122 2.0383
-0.7241 -1.3756 0.7409
-0.6113 -1.4291 0.7408
-0.4945 -1.4734 0.7408
-0.3746 -1.5082 0.7407
-0.2524 -1.5333 0.7407
-0.1285 -1.5486 0.7406
-0.0037 -1.5539 0.7406
0.1210 -1.5492 0.7406
0.2450 -1.5345 0.7407
0.3674 -1.5100 0.7407
0.4874 -1.4758 0.7408
0.6044 -1.4320 0.7408
0.7175 -1.3791 0.7409
2.2720 -3.6232 2.0383
2.5555 -3.4291 2.0383
2.8225 -3.2129 2.0383
3.0713 -2.9760 2.0383
3.3002 -2.7199 2.0383
3.5079 -2.4462 2.0383
3.6929 -2.1567 2.0383
0.4963 -1.3605 0.7410
0.6040 -1.3164 0.7411
0.7078 -1.2639 0.7412
2.2193 -3.3084 2.0383
2.4777 -3.1196 2.0383
2.7201 -2.9106 2.0383
2.9450 -2.6829 2.0383
3.1508 -2.4378 2.0383
3.3364 -2.1771 2.0383
3.5004 -1.9022 2.0383
3.6417 -1.6151 2.0383
3.7596 -1.3176 2.0383
3.8533 -1.0115 2.0383
3.8780 -0.6912 2.0155
3.8847 -0.3741 1.9968
3.8892 -0.0609 1.9902
3.8915 0.2521 1.9953
3.8916 0.5685 2.0123
3.8830 0.8904 2.0383
3.7990 1.1992 2.0383
3.6905 1.5003 2.0383
3.5582 1.7917 2.0383
3.4029 2.0716 2.0383
3.2256 2.3380 2.0383
3.0275 2.5894 2.0383
2.8099 2.8241 2.0383
2.5742 3.0405 2.0383
2.3218 3.2373 2.0383
0.7517 1.2488 0.7458
0.6491 1.3053 0.7459
0.5423 1.3534 0.7460
0.4319 1.3927 0.7460
0.3188 1.4229 0.7461
0.2035 1.4440 0.7461
0.0870 1.4557 0.7462
-0.0302 1.4580 0.7462
-0.1471 1.4509 0.7461
-0.2631 1.4343 0.7461
-0.3773 1.4085 0.7461
-0.4891 1.3735 0.7460
-0.5977 1.3297 0.7459
-0.7024 1.2773 0.7458
-2.1938 3.3254 2.0383
-2.4536 3.1386 2.0383
-2.6977 2.9315 2.0383
-2.9243 2.7055 2.0383
-3.1320 2.4620 2.0383
-3.3195 2.2027 2.0383
-3.4856 1.9291 2.0383
-3.6292 1.6431 2.0383
-3.7494 1.3465 2.0383
-3.8454 1.0412 2.0383
-3.9165 0.7291 2.0383
-3.9624 0.4124 2.0383
-3.9827 0.0930 2.0383
-3.9774 -0.2270 2.0383
-3.9463 -0.5455 2.0383
-3.8898 -0.8605 2.0383
-3.8082 -1.1700 2.0383
-3.7020 -1.4719 2.0383
-3.5719 -1.7643 2.0383
-3.4187 -2.0453 2.0383
-3.2435 -2.3131 2.0383
-3.0474 -2.5660 2.0383
-2.8316 -2.8024 2.0383
-2.5975 -3.0206 2.0383
-2.3466 -3.2194 2.0383
-0.7566 -1.2354 0.7412
-0.6549 -1.2919 0.7411
-0.5490 -1.3402 0.7410
-0.4396 -1.3798 0.7409
-0.3274 -1.4105 0.7409
-0.2131 -1.4322 0.7408
-0.0975 -1.4446 0.7408
0.0188 -1.4478 0.7408
0.1349 -1.4416 0.7408
0.2502 -1.4262 0.7409
0.3639 -1.4016 0.7409
0.4753 -1.3679 0.7410
0.5836 -1.3255 0.7410
0.6882 -1.2746 0.7411
2.1681 -3.3422 2.0383
2.4294 -3.1574 2.0383
2.6750 -2.9521 2.0383
2.9034 -2.7279 2.0383
3.1130 -2.4861 2.0383
3.3025 -2.2281 2.0383
