ply
format ascii 1.0
element vertex 2179
property float32 x
property float32 y
property float32 z
end_header
6.6680 0.5473 1.8949
6.5950 1.0797 1.8937
6.4773 1.6034 1.8918
6.3160 2.1144 1.8892
6.1125 2.6090 1.8860
5.8784 3.0889 1.8853
5.6089 3.5495 1.8853
5.3036 3.9868 1.8853
4.9643 4.3982 1.8853
4.5934 4.7809 1.8853
4.1932 5.1327 1.8853
3.9295 5.6875 1.9669
3.5834 6.1982 2.0377
3.0733 6.4645 2.0377
2.5436 6.6891 2.0377
1.9978 6.8707 2.0377
1.4393 7.0082 2.0377
0.8717 7.1005 2.0377
0.2985 7.1473 2.0377
-0.2766 7.1482 2.0377
-0.8499 7.1031 2.0377
-1.4178 7.0124 2.0377
-1.9767 6.8767 2.0377
-2.5230 6.6967 2.0377
-3.0534 6.4737 2.0377
-3.5643 6.2089 2.0377
-4.0525 5.9041 2.0377
-4.5149 5.5612 2.0377
-4.9486 5.1823 2.0377
-5.3507 4.7698 2.0377
-5.7187 4.3264 2.0377
-6.0501 3.8547 2.0377
-6.3429 3.3578 2.0377
-6.5950 2.8389 2.0377
-6.8048 2.3012 2.0377
-6.9709 1.7482 2.0377
-7.0922 1.1834 2.0377
-7.1679 0.6104 2.0377
-7.1973 0.0330 2.0377
-7.1803 -0.5452 2.0377
-7.1169 -1.1205 2.0377
-7.0074 -1.6890 2.0377
-6.8525 -2.2472 2.0377
-6.6531 -2.7913 2.0377
-6.4105 -3.3179 2.0377
-6.1261 -3.8234 2.0377
-5.8019 -4.3046 2.0377
-5.4398 -4.7582 2.0377
-5.0422 -5.1814 2.0377
-4.6116 -5.5712 2.0377
-4.1508 -5.9252 2.0377
-3.6629 -6.2409 2.0377
-3.1510 -6.5163 2.0377
-2.6184 -6.7495 2.0377
-2.0686 -6.9390 2.0377
-1.5053 -7.0835 2.0377
-0.9320 -7.1821 2.0377
-0.3527 -7.2341 2.0377
0.2290 -7.2391 2.0377
0.8092 -7.1971 2.0377
1.3840 -7.1085 2.0377
1.9498 -6.9737 2.0377
2.5028 -6.7937 2.0377
3.0394 -6.5697 2.0377
3.5560 -6.3031 2.0377
3.8190 -5.6548 1.9217
4.1784 -5.2273 1.8853
4.0602 -4.3176 1.6702
4.9576 -4.4883 1.8853
5.2998 -4.0744 1.8853
5.6074 -3.6344 1.8853
5.8786 -3.1712 1.8853
6.1167 -2.6902 1.8869
6.3203 -2.1930 1.8900
6.4811 -1.6799 1.8924
6.5978 -1.1547 1.8941
6.6696 -0.6213 1.8951
6.6957 -0.0838 1.8955
6.6761 0.4537 1.8951
6.6110 0.9872 1.8940
6.5011 1.5127 1.8922
6.3473 2.0262 1.8897
6.1510 2.5239 1.8866
5.9217 3.0063 1.8853
5.6586 3.4706 1.8853
5.3594 3.9122 1.8853
5.0260 4.3283 1.8853
4.6604 4.7162 1.8853
4.2652 5.0736 1.8853
3.9346 5.5272 1.9303
3.6703 6.1475 2.0377
3.1639 6.4209 2.0377
2.6374 6.6530 2.0377
2.0942 6.8422 2.0377
1.5377 6.9874 2.0377
0.9713 7.0877 2.0377
0.3989 7.1424 2.0377
-0.1761 7.1513 2.0377
-0.7500 7.1143 2.0377
-1.3191 7.0315 2.0377
-1.8798 6.9036 2.0377
-2.4286 6.7313 2.0377
-2.9620 6.5157 2.0377
-3.4765 6.2581 2.0377
-3.9690 5.9602 2.0377
-4.4361 5.6238 2.0377
-4.8750 5.2510 2.0377
-5.2829 4.8442 2.0377
-5.6570 4.4059 2.0377
-5.9949 3.9391 2.0377
-6.2946 3.4463 2.0377
-6.5539 2.9310 2.0377
-6.7712 2.3964 2.0377
-6.9451 1.8458 2.0377
-7.0743 1.2828 2.0377
-7.1580 0.7110 2.0377
-7.1955 0.1341 2.0377
-7.1866 -0.4443 2.0377
-7.1313 -1.0203 2.0377
-7.0298 -1.5904 2.0377
-6.8828 -2.1506 2.0377
-6.6911 -2.6974 2.0377
-6.4559 -3.2273 2.0377
-6.1787 -3.7370 2.0377
-5.8613 -4.2224 2.0377
-5.5057 -4.6811 2.0377
-5.1141 -5.1098 2.0377
-4.6891 -5.5056 2.0377
-4.2334 -5.8660 2.0377
-3.7500 -6.1886 2.0377
-3.2420 -6.4712 2.0377
-2.7128 -6.7119 2.0377
-2.1658 -6.9091 2.0377
-1.6045 -7.0616 2.0377
-1.0328 -7.1682 2.0377
-0.4542 -7.2284 2.0377
0.1274 -7.2416 2.0377
0.7081 -7.2078 2.0377
1.2841 -7.1273 2.0377
1.8518 -7.0005 2.0377
2.4073 -6.8283 2.0377
2.9469 -6.6119 2.0377
3.4673 -6.3527 2.0377
3.8105 -5.8167 1.9583
4.1048 -5.2857 1.8853
3.9678 -4.3399 1.6570
4.8944 -4.5578 1.8853
5.2424 -4.1487 1.8853
5.5563 -3.7130 1.8853
5.8339 -3.2537 1.8853
6.0768 -2.7751 1.8863
6.2877 -2.2812 1.8895
6.4561 -1.7706 1.8920
6.5807 -1.2472 1.8939
6.6603 -0.7150 1.8950
6.6945 -0.1779 1.8955
6.6828 0.3599 1.8952
6.6257 0.8944 1.8942
5.1031 -3.2070 1.8853
5.3420 -2.7859 1.8853
5.5461 -2.3471 1.8853
5.7141 -1.8936 1.8853
5.8451 -1.4281 1.8853
5.9335 -0.9531 1.8838
5.9907 -0.4736 1.8846
6.0072 0.0089 1.8847
5.9830 0.4908 1.8843
5.9246 0.9696 1.8853
5.8250 1.4416 1.8853
5.6879 1.9038 1.8853
5.5143 2.3534 1.8853
5.3053 2.7875 1.8853
5.0623 3.2033 1.8853
4.7869 3.5981 1.8853
4.4809 3.9695 1.8853
4.1462 4.3152 1.8853
3.9226 4.8012 1.9538
3.6747 5.3183 2.0377
3.2348 5.5949 2.0377
2.7744 5.8354 2.0377
2.2963 6.0383 2.0377
1.8036 6.2023 2.0377
1.2994 6.3265 2.0377
0.7869 6.4099 2.0377
0.2695 6.4522 2.0377
-0.2497 6.4529 2.0377
-0.7673 6.4122 2.0377
-1.2799 6.3303 2.0377
-1.7845 6.2077 2.0377
-2.2777 6.0452 2.0377
-2.7564 5.8437 2.0377
-3.2175 5.6046 2.0377
-3.6582 5.3293 2.0377
-4.0755 5.0196 2.0377
-4.4669 4.6775 2.0377
-4.8297 4.3050 2.0377
-5.1616 3.9046 2.0377
-5.4606 3.4788 2.0377
-5.7246 3.0302 2.0377
-5.9519 2.5617 2.0377
-6.1410 2.0764 2.0377
-6.2906 1.5773 2.0377
-6.3998 1.0676 2.0377
-6.4678 0.5505 2.0377
-6.4941 0.0294 2.0377
-6.4784 -0.4923 2.0377
-6.4209 -1.0112 2.0377
-6.3218 -1.5241 2.0377
-6.1818 -2.0276 2.0377
-6.0017 -2.5184 2.0377
-5.7826 -2.9932 2.0377
-5.5259 -3.4491 2.0377
-5.2332 -3.8830 2.0377
-4.9064 -4.2920 2.0377
-4.5476 -4.6735 2.0377
-4.1591 -5.0250 2.0377
-3.7435 -5.3440 2.0377
-3.3034 -5.6286 2.0377
-2.8416 -5.8769 2.0377
-2.3613 -6.0871 2.0377
-1.8655 -6.2579 2.0377
-1.3574 -6.3881 2.0377
-0.8405 -6.4770 2.0377
-0.3180 -6.5238 2.0377
0.2065 -6.5284 2.0377
0.7297 -6.4905 2.0377
1.2481 -6.4106 2.0377
1.7583 -6.2891 2.0377
2.2570 -6.1269 2.0377
2.7410 -5.9250 2.0377
3.2069 -5.6847 2.0377
3.6519 -5.4077 2.0377
3.8292 -4.7907 1.9157
4.0380 -4.2943 1.8418
4.4714 -4.0485 1.8853
4.7803 -3.6753 1.8853
5.0579 -3.2785 1.8853
5.3027 -2.8608 1.8853
5.5130 -2.4250 1.8853
5.6874 -1.9737 1.8853
5.8249 -1.5102 1.8853
5.9247 -1.0372 1.8853
5.9837 -0.5577 1.8845
6.0073 -0.0755 1.8848
5.9901 0.4068 1.8844
5.9381 0.8864 1.8853
5.8451 1.3597 1.8853
5.7145 1.8239 1.8853
5.5472 2.2759 1.8853
5.3443 2.7129 1.8853
5.1072 3.1321 1.8853
4.8373 3.5308 1.8853
4.5365 3.9065 1.8853
4.2067 4.2568 1.8853
3.9270 4.6710 1.9230
3.7492 5.2664 2.0377
3.3132 5.5491 2.0377
2.8562 5.7961 2.0377
2.3810 6.0057 2.0377
1.8906 6.1765 2.0377
1.3882 6.3077 2.0377
0.8769 6.3983 2.0377
0.3601 6.4478 2.0377
-0.1590 6.4558 2.0377
-0.6771 6.4223 2.0377
-1.1909 6.3476 2.0377
-1.6971 6.2320 2.0377
-2.1925 6.0764 2.0377
-2.6739 5.8817 2.0377
-3.1384 5.6490 2.0377
-3.5828 5.3799 2.0377
-4.0044 5.0761 2.0377
-4.4005 4.7395 2.0377
-4.7684 4.3722 2.0377
-5.1060 3.9765 2.0377
-5.4108 3.5549 2.0377
-5.6810 3.1101 2.0377
-5.9149 2.6449 2.0377
-6.1107 2.1623 2.0377
-6.2673 1.6653 2.0377
-6.3837 1.1572 2.0377
-6.4589 0.6412 2.0377
-6.4925 0.1206 2.0377
-6.4842 -0.4012 2.0377
-6.4340 -0.9209 2.0377
-6.3421 -1.4351 2.0377
-6.2092 -1.9404 2.0377
-6.0360 -2.4336 2.0377
-5.8236 -2.9116 2.0377
-5.5734 -3.3710 2.0377
-5.2868 -3.8089 2.0377
-4.9659 -4.2224 2.0377
-4.6125 -4.6090 2.0377
-4.2291 -4.9658 2.0377
-3.8180 -5.2907 2.0377
-3.3819 -5.5815 2.0377
-2.9237 -5.8363 2.0377
-2.4464 -6.0532 2.0377
-1.9531 -6.2309 2.0377
-1.4469 -6.3684 2.0377
-0.9313 -6.4645 2.0377
-0.4096 -6.5187 2.0377
0.1149 -6.5306 2.0377
0.6385 -6.5002 2.0377
1.1580 -6.4276 2.0377
1.6699 -6.3133 2.0377
2.1709 -6.1581 2.0377
2.6576 -5.9631 2.0377
3.1270 -5.7294 2.0377
3.5758 -5.4587 2.0377
3.8221 -4.9220 1.9464
3.9627 -4.3345 1.8349
4.4144 -4.1111 1.8853
4.7285 -3.7422 1.8853
5.0117 -3.3494 1.8853
5.2624 -2.9352 1.8853
5.4788 -2.5023 1.8853
5.6596 -2.0536 1.8853
5.8036 -1.5920 1.8853
5.9100 -1.1204 1.8853
5.9753 -0.6417 1.8844
6.0061 -0.1599 1.8848
5.9961 0.3227 1.8845
5.9454 0.8023 1.8837
4.6403 -2.9164 1.8853
4.8577 -2.5336 1.8853
5.0434 -2.1347 1.8853
5.1964 -1.7223 1.8853
5.3158 -1.2991 1.8853
5.4006 -0.8678 1.8853
5.4506 -0.4312 1.8853
5.4653 0.0078 1.8853
5.4447 0.4464 1.8853
5.3890 0.8817 1.8853
5.2986 1.3111 1.8853
5.1741 1.7316 1.8853
5.0164 2.1406 1.8853
4.8264 2.5356 1.8853
4.6055 2.9140 1.8853
4.3551 3.2733 1.8853
4.0843 3.6179 1.8887
3.9146 4.0738 1.9563
3.7223 4.5557 2.0377
3.3435 4.8388 2.0377
2.9434 5.0906 2.0377
2.5245 5.3095 2.0377
2.0895 5.4942 2.0377
1.6411 5.6435 2.0377
1.1824 5.7565 2.0377
0.7161 5.8325 2.0377
0.2452 5.8709 2.0377
-0.2272 5.8716 2.0377
-0.6982 5.8346 2.0377
-1.1647 5.7600 2.0377
-1.6238 5.6484 2.0377
-2.0725 5.5004 2.0377
-2.5081 5.3170 2.0377
-2.9277 5.0994 2.0377
-3.3285 4.8488 2.0377
-3.7082 4.5669 2.0377
-4.0642 4.2555 2.0377
-4.3942 3.9165 2.0377
-4.6960 3.5521 2.0377
-4.9679 3.1646 2.0377
-5.2079 2.7564 2.0377
-5.4145 2.3301 2.0377
-5.5863 1.8886 2.0377
-5.7222 1.4345 2.0377
-5.8213 0.9708 2.0377
-5.8829 0.5004 2.0377
-5.9066 0.0265 2.0377
-5.8922 -0.4480 2.0377
-5.8396 -0.9200 2.0377
-5.7493 -1.3864 2.0377
-5.6218 -1.8442 2.0377
-5.4578 -2.2904 2.0377
-5.2583 -2.7222 2.0377
-5.0247 -3.1366 2.0377
-4.7585 -3.5310 2.0377
-4.4612 -3.9028 2.0377
-4.1348 -4.2496 2.0377
-3.7815 -4.5690 2.0377
-3.4035 -4.8591 2.0377
-3.0033 -5.1177 2.0377
-2.5835 -5.3433 2.0377
-0.7760 -2.0005 0.7365
-1.6960 -5.6895 2.0377
-1.2341 -5.8079 2.0377
-0.7641 -5.8886 2.0377
-0.2891 -5.9312 2.0377
0.1877 -5.9353 2.0377
0.6634 -5.9009 2.0377
1.1347 -5.8283 2.0377
1.5985 -5.7179 2.0377
0.7417 -2.0134 0.7365
2.4919 -5.3870 2.0377
2.9156 -5.1687 2.0377
3.3203 -4.9169 2.0377
3.7032 -4.6335 2.0377
3.8351 -4.0788 1.9238
4.0656 -3.6814 1.8853
4.3466 -3.3421 1.8853
4.5992 -2.9815 1.8853
4.8219 -2.6017 1.8853
5.0133 -2.2055 1.8853
5.1721 -1.7952 1.8853
5.2974 -1.3737 1.8853
5.3883 -0.9436 1.8853
5.4444 -0.5078 1.8853
5.4653 -0.0690 1.8853
5.4509 0.3699 1.8853
5.4013 0.8060 1.8853
5.3169 1.2366 1.8853
5.1983 1.6589 1.8853
5.0463 2.0701 1.8853
4.8619 2.4677 1.8853
4.6463 2.8491 1.8853
4.4009 3.2120 1.8853
4.1274 3.5539 1.8853
3.9183 3.9646 1.9300
3.7862 4.5032 2.0377
3.4113 4.7915 2.0377
3.0147 5.0489 2.0377
2.5989 5.2737 2.0377
2.1665 5.4644 2.0377
1.7203 5.6200 2.0377
1.2632 5.7394 2.0377
0.7980 5.8219 2.0377
0.3277 5.8669 2.0377
-0.1447 5.8742 2.0377
-0.6161 5.8438 2.0377
-1.0836 5.7757 2.0377
-1.5442 5.6705 2.0377
-1.9950 5.5289 2.0377
-2.4331 5.3516 2.0377
-2.8556 5.1398 2.0377
-3.2600 4.8949 2.0377
-3.6435 4.6184 2.0377
-4.0038 4.3120 2.0377
-4.3385 3.9776 2.0377
-4.6454 3.6175 2.0377
-4.9226 3.2338 2.0377
-5.1683 2.8291 2.0377
-5.3808 2.4058 2.0377
-5.5588 1.9667 2.0377
-5.7011 1.5146 2.0377
-5.8067 1.0524 2.0377
-5.8749 0.5830 2.0377
-5.9052 0.1094 2.0377
-5.8974 -0.3652 2.0377
-5.8516 -0.8378 2.0377
-5.7678 -1.3054 2.0377
-5.6467 -1.7650 2.0377
-5.4890 -2.2134 2.0377
-5.2957 -2.6479 2.0377
-5.0680 -3.0656 2.0377
-4.8073 -3.4637 2.0377
-4.5153 -3.8396 2.0377
-4.1939 -4.1909 2.0377
-3.8451 -4.5153 2.0377
-3.4713 -4.8106 2.0377
-3.0748 -5.0748 2.0377
-2.6581 -5.3063 2.0377
-2.2241 -5.5035 2.0377
-1.7756 -5.6650 2.0377
-1.3154 -5.7899 2.0377
-0.8467 -5.8773 2.0377
-0.3723 -5.9265 2.0377
0.1044 -5.9374 2.0377
0.5805 -5.9097 2.0377
1.0528 -5.8437 2.0377
1.5182 -5.7399 2.0377
0.7133 -2.0236 0.7365
2.4162 -5.4216 2.0377
2.8429 -5.2093 2.0377
3.2511 -4.9632 2.0377
3.6380 -4.6852 2.0377
3.8291 -4.1887 1.9500
4.0138 -3.7383 1.8853
4.2995 -3.4030 1.8853
4.5572 -3.0459 1.8853
4.7852 -2.6693 1.8853
4.9822 -2.2758 1.8853
5.1467 -1.8678 1.8853
5.2779 -1.4480 1.8853
5.3749 -1.0192 1.8853
5.4371 -0.5842 1.8853
5.4642 -0.1457 1.8853
5.4559 0.2933 1.8853
5.4125 0.7301 1.8853
4.2476 -2.6698 1.8853
4.4466 -2.3195 1.8853
4.6168 -1.9544 1.8853
4.7570 -1.5769 1.8853
4.8664 -1.1895 1.8853
4.9443 -0.7947 1.8853
4.9901 -0.3950 1.8853
5.0038 0.0069 1.8853
4.9851 0.4084 1.8853
4.9343 0.8071 1.8853
4.8516 1.2002 1.8853
4.7378 1.5853 1.8853
4.5935 1.9599 1.8853
4.4197 2.3217 1.8853
4.2175 2.6682 1.8853
3.9883 2.9973 1.8853
3.9052 3.4590 1.9720
3.7341 3.8857 2.0377
3.4090 4.1720 2.0377
3.0622 4.4313 2.0377
2.6957 4.6620 2.0377
2.3121 4.8626 2.0377
0.7043 1.8518 0.7499
0.5533 1.9026 0.7501
0.3987 1.9411 0.7502
0.2415 1.9669 0.7503
0.2246 5.3770 2.0377
-0.2081 5.3776 2.0377
-0.2355 1.9676 0.7503
-0.3927 1.9422 0.7502
-0.5475 1.9043 0.7501
-0.6986 1.8539 0.7499
-2.2971 4.8695 2.0377
-2.6814 4.6701 2.0377
-3.0485 4.4405 2.0377
-3.3961 4.1823 2.0377
-3.7220 3.8970 2.0377
-4.0241 3.5864 2.0377
-4.3005 3.2526 2.0377
-4.5493 2.8977 2.0377
-4.7690 2.5238 2.0377
-4.9580 2.1334 2.0377
-5.1152 1.7290 2.0377
-5.2395 1.3132 2.0377
-5.3301 0.8886 2.0377
-5.3863 0.4579 2.0377
-5.4078 0.0240 2.0377
-5.3944 -0.4105 2.0377
-5.3462 -0.8425 2.0377
-5.2633 -1.2695 2.0377
-5.1464 -1.6886 2.0377
-4.9961 -2.0970 2.0377
-4.8134 -2.4921 2.0377
-4.5994 -2.8714 2.0377
-4.3556 -3.2324 2.0377
-4.0834 -3.5726 2.0377
-3.7846 -3.8899 2.0377
-3.4611 -4.1822 2.0377
-3.1151 -4.4475 2.0377
-2.7488 -4.6842 2.0377
-2.3645 -4.8906 2.0377
-0.7107 -1.8324 0.7371
-0.5614 -1.8833 0.7370
-0.4084 -1.9221 0.7368
-0.2528 -1.9486 0.7367
-0.0957 -1.9625 0.7367
0.0621 -1.9639 0.7367
0.2195 -1.9526 0.7367
0.3755 -1.9288 0.7368
0.5291 -1.8926 0.7369
0.6793 -1.8443 0.7371
2.2807 -4.9306 2.0377
2.6685 -4.7308 2.0377
3.0389 -4.5005 2.0377
3.3895 -4.2411 2.0377
3.7179 -3.9544 2.0377
3.8377 -3.4752 1.9442
3.9785 -3.0594 1.8853
4.2099 -2.7293 1.8853
4.4139 -2.3818 1.8853
4.5892 -2.0191 1.8853
4.7347 -1.6436 1.8853
4.8495 -1.2578 1.8853
4.9329 -0.8641 1.8853
4.9844 -0.4651 1.8853
5.0037 -0.0634 1.8853
4.9907 0.3384 1.8853
4.9454 0.7377 1.8853
4.8683 1.1320 1.8853
4.7599 1.5187 1.8853
4.6209 1.8953 1.8853
4.4521 2.2595 1.8853
4.2548 2.6088 1.8853
4.0302 2.9411 1.8853
3.9084 3.3651 1.9494
3.7885 3.8331 2.0377
3.4675 4.1239 2.0377
3.1243 4.3880 2.0377
2.7611 4.6238 2.0377
2.3803 4.8297 2.0377
0.7302 1.8417 0.7499
0.5800 1.8946 0.7500
0.4259 1.9352 0.7502
0.2691 1.9633 0.7503
0.3001 5.3733 2.0377
-0.1325 5.3800 2.0377
-0.2078 1.9708 0.7503
-0.3654 1.9476 0.7502
-0.5207 1.9118 0.7501
-0.6725 1.8636 0.7499
-2.2284 4.9011 2.0377
-2.6154 4.7071 2.0377
-2.9856 4.4827 2.0377
-3.3368 4.2294 2.0377
-3.6667 3.9487 2.0377
-3.9732 3.6424 2.0377
-4.2542 3.3125 2.0377
-4.5079 2.9611 2.0377
-4.7328 2.5904 2.0377
-4.9272 2.2027 2.0377
-5.0901 1.8006 2.0377
-5.2202 1.3865 2.0377
-5.3167 0.9633 2.0377
-5.3790 0.5335 2.0377
-5.4066 0.0999 2.0377
-5.3993 -0.3346 2.0377
-5.3571 -0.7673 2.0377
-5.2803 -1.1954 2.0377
-5.1693 -1.6160 2.0377
-5.0248 -2.0265 2.0377
-4.8476 -2.4241 2.0377
-4.6390 -2.8064 2.0377
-4.4003 -3.1707 2.0377
-4.1329 -3.5148 2.0377
-3.8386 -3.8362 2.0377
-3.5193 -4.1330 2.0377
-3.1771 -4.4032 2.0377
-2.8141 -4.6450 2.0377
-2.4328 -4.8568 2.0377
-0.7364 -1.8223 0.7372
-0.5877 -1.8753 0.7370
-0.4353 -1.9162 0.7368
-0.2802 -1.9449 0.7367
-0.1232 -1.9610 0.7367
0.0345 -1.9646 0.7367
0.1921 -1.9555 0.7367
0.3484 -1.9339 0.7368
0.5025 -1.8998 0.7369
0.6534 -1.8536 0.7371
2.2113 -4.9622 2.0377
2.6019 -4.7680 2.0377
2.9755 -4.5429 2.0377
3.3297 -4.2885 2.0377
3.6622 -4.0064 2.0377
3.8325 -3.5698 1.9667
3.9354 -3.1151 1.8853
4.1714 -2.7883 1.8853
4.3803 -2.4437 1.8853
4.5607 -2.0835 1.8853
4.7115 -1.7101 1.8853
4.8317 -1.3259 1.8853
4.9207 -0.9334 1.8853
4.9778 -0.5351 1.8853
5.0027 -0.1337 1.8853
4.9953 0.2683 1.8853
4.9557 0.6682 1.8853
3.9095 -2.4577 1.8853
4.0929 -2.1352 1.8853
4.2496 -1.7992 1.8853
4.3788 -1.4518 1.8853
4.4796 -1.0952 1.8853
4.5514 -0.7318 1.8853
4.5937 -0.3639 1.8853
4.6064 0.0061 1.8853
4.5894 0.3758 1.8853
4.5427 0.7428 1.8853
4.4667 1.1047 1.8853
4.3620 1.4593 1.8853
4.2293 1.8043 1.8853
4.0694 2.1374 1.8853
3.9103 2.4736 1.8984
3.8946 2.9266 1.9993
3.7157 3.2909 2.0377
3.4384 3.5778 2.0377
3.1392 3.8415 2.0377
2.8198 4.0803 2.0377
2.4824 4.2928 2.0377
0.7828 1.6462 0.7492
0.6481 1.7040 0.7494
0.5092 1.7508 0.7495
0.3669 1.7861 0.7497
0.2222 1.8099 0.7498
0.0761 1.8220 0.7498
-0.0705 1.8222 0.7498
-0.2167 1.8106 0.7498
-0.3614 1.7872 0.7497
-0.5038 1.7523 0.7496
-0.6429 1.7060 0.7494
-2.1154 4.4839 2.0377
-2.4692 4.3002 2.0377
-2.8072 4.0888 2.0377
-3.1272 3.8509 2.0377
-3.4273 3.5882 2.0377
-3.7054 3.3022 2.0377
-3.9598 2.9947 2.0377
-4.1888 2.6678 2.0377
-4.3910 2.3235 2.0377
-4.5649 1.9640 2.0377
-4.7095 1.5916 2.0377
-4.8238 1.2087 2.0377
-4.9071 0.8178 2.0377
-4.9588 0.4213 2.0377
-4.9784 0.0218 2.0377
-4.9660 -0.3781 2.0377
-4.9214 -0.7759 2.0377
-4.8450 -1.1689 2.0377
-4.7372 -1.5546 2.0377
-4.5988 -1.9305 2.0377
-4.4305 -2.2941 2.0377
-4.2334 -2.6432 2.0377
-4.0089 -2.9753 2.0377
-3.7583 -3.2884 2.0377
-3.4832 -3.5804 2.0377
-3.1854 -3.8494 2.0377
-2.8669 -4.0935 2.0377
-2.5297 -4.3112 2.0377
-2.1760 -4.5011 2.0377
-0.6545 -1.6876 0.7376
-0.5170 -1.7345 0.7375
-0.3761 -1.7703 0.7373
-0.2328 -1.7946 0.7373
-0.0881 -1.8075 0.7372
0.0572 -1.8087 0.7372
0.2021 -1.7984 0.7372
0.3458 -1.7764 0.7373
0.4873 -1.7431 0.7374
0.6256 -1.6985 0.7376
0.7600 -1.6431 0.7378
2.4559 -4.3541 2.0377
2.7968 -4.1422 2.0377
3.1195 -3.9035 2.0377
3.4218 -3.6397 2.0377
3.7019 -3.3525 2.0377
3.8374 -2.9511 1.9756
3.8749 -2.5124 1.8853
4.0627 -2.1926 1.8853
4.2242 -1.8588 1.8853
4.3582 -1.5132 1.8853
4.4640 -1.1581 1.8853
4.5410 -0.7957 1.8853
4.5885 -0.4284 1.8853
4.6063 -0.0586 1.8853
4.5945 0.3113 1.8853
4.5530 0.6789 1.8853
4.4821 1.0419 1.8853
4.3824 1.3980 1.8853
4.2545 1.7448 1.8853
4.0992 2.0801 1.8853
3.9210 2.4039 1.8869
3.8973 2.8439 1.9799
3.7618 3.2385 2.0377
3.4885 3.5293 2.0377
3.1930 3.7972 2.0377
2.8770 4.0404 2.0377
2.5426 4.2576 2.0377
2.1919 4.4473 2.0377
0.6720 1.6947 0.7494
0.5337 1.7434 0.7495
0.3920 1.7808 0.7497
0.2476 1.8066 0.7497
0.1017 1.8207 0.7498
-0.0449 1.8230 0.7498
-0.1912 1.8135 0.7498
-0.3363 1.7922 0.7497
-0.4791 1.7592 0.7496
-0.6189 1.7149 0.7494
-0.7545 1.6594 0.7492
-2.4084 4.3344 2.0377
-2.7493 4.1277 2.0377
-3.0727 3.8943 2.0377
-3.3764 3.6358 2.0377
-3.6585 3.3537 2.0377
-3.9172 3.0499 2.0377
-4.1507 2.7262 2.0377
-4.3577 2.3848 2.0377
-4.5366 2.0278 2.0377
-4.6864 1.6575 2.0377
-4.8061 1.2763 2.0377
-4.8948 0.8866 2.0377
-4.9520 0.4909 2.0377
-4.9773 0.0917 2.0377
-4.9705 -0.3083 2.0377
-4.9315 -0.7066 2.0377
-4.8606 -1.1006 2.0377
-4.7583 -1.4878 2.0377
-4.6252 -1.8656 2.0377
-4.4620 -2.2316 2.0377
-4.2699 -2.5833 2.0377
-4.0501 -2.9186 2.0377
-3.8039 -3.2352 2.0377
-3.5330 -3.5310 2.0377
-3.2390 -3.8041 2.0377
-2.9240 -4.0527 2.0377
-2.5899 -4.2751 2.0377
-2.2389 -4.4700 2.0377
-0.6782 -1.6783 0.7377
-0.5413 -1.7271 0.7375
-0.4009 -1.7648 0.7374
-0.2580 -1.7912 0.7373
-0.1135 -1.8061 0.7372
0.0318 -1.8094 0.7372
0.1769 -1.8010 0.7372
0.3208 -1.7811 0.7373
0.4627 -1.7497 0.7374
0.6017 -1.7071 0.7376
0.7368 -1.6535 0.7377
2.3946 -4.3883 2.0377
2.7385 -4.1812 2.0377
3.0645 -3.9471 2.0377
3.3705 -3.6876 2.0377
3.6546 -3.4043 2.0377
3.8329 -3.0343 1.9950
3.8602 -2.5806 1.8955
4.0318 -2.2495 1.8853
4.1979 -1.9180 1.8853
4.3368 -1.5743 1.8853
4.4476 -1.2207 1.8853
4.5296 -0.8594 1.8853
4.5823 -0.4928 1.8853
4.6054 -0.1233 1.8853
4.5987 0.2468 1.8853
4.5623 0.6150 1.8853
3.8382 -2.4130 2.0016
3.8572 -2.0125 1.9214
3.9298 -1.6640 1.8853
4.0493 -1.3428 1.8853
4.1426 -1.0130 1.8853
4.2091 -0.6770 1.8853
4.2484 -0.3368 1.8853
4.2602 0.0054 1.8853
4.2445 0.3473 1.8853
4.2015 0.6868 1.8853
4.1313 1.0216 1.8853
4.0346 1.3496 1.8853
3.9139 1.6695 1.8862
3.8944 2.0452 1.9505
3.8824 2.4557 2.0377
3.6715 2.7588 2.0377
3.4371 3.0439 2.0377
3.1807 3.3094 2.0377
2.9039 3.5533 2.0377
2.6085 3.7743 2.0377
2.2964 3.9709 2.0377
0.7238 1.5220 0.7488
0.5992 1.5754 0.7489
0.4708 1.6186 0.7491
0.3392 1.6513 0.7492
0.2055 1.6732 0.7493
0.0704 1.6844 0.7493
-0.0652 1.6846 0.7493
-0.2003 1.6739 0.7493
-0.3341 1.6523 0.7492
-0.4658 1.6200 0.7491
-0.5944 1.5772 0.7489
-0.7191 1.5242 0.7488
-2.2842 3.9778 2.0377
-2.5968 3.7822 2.0377
-2.8929 3.5621 2.0377
-3.1704 3.3190 2.0377
-3.4276 3.0543 2.0377
-3.6629 2.7699 2.0377
-3.8747 2.4675 2.0377
-4.0615 2.1489 2.0377
-4.2224 1.8164 2.0377
-4.3560 1.4719 2.0377
-4.4616 1.1177 2.0377
-4.5386 0.7561 2.0377
-4.5862 0.3894 2.0377
-4.6043 0.0199 2.0377
-4.5927 -0.3499 2.0377
-4.5513 -0.7178 2.0377
-4.4806 -1.0812 2.0377
-4.3808 -1.4378 2.0377
-4.2527 -1.7854 2.0377
-4.0970 -2.1217 2.0377
-3.9147 -2.4444 2.0377
-3.7070 -2.7515 2.0377
-3.4752 -3.0410 2.0377
-3.2207 -3.3109 2.0377
-2.9454 -3.5595 2.0377
-2.6508 -3.7852 2.0377
-2.3390 -3.9864 2.0377
-0.7289 -1.5079 0.7383
-0.6055 -1.5614 0.7381
-0.4783 -1.6048 0.7379
-0.3480 -1.6379 0.7378
-0.2154 -1.6604 0.7377
-0.0815 -1.6723 0.7377
0.0529 -1.6735 0.7377
0.1870 -1.6639 0.7377
0.3199 -1.6436 0.7378
0.4508 -1.6127 0.7379
0.5788 -1.5715 0.7380
0.7031 -1.5201 0.7382
2.2707 -4.0261 2.0377
2.5859 -3.8302 2.0377
2.8843 -3.6096 2.0377
3.1640 -3.3657 2.0377
3.4230 -3.1002 2.0377
3.6597 -2.8147 2.0377
3.8345 -2.4865 2.0175
3.8542 -2.0802 1.9341
3.9062 -1.7191 1.8853
4.0336 -1.4007 1.8868
4.1282 -1.0712 1.8853
4.1995 -0.7361 1.8853
4.2435 -0.3964 1.8853
4.2601 -0.0544 1.8853
4.2493 0.2877 1.8853
4.2110 0.6277 1.8853
4.1455 0.9635 1.8853
4.0602 1.2950 1.8884
3.9352 1.6136 1.8853
3.8961 1.9768 1.9372
3.8848 2.3815 2.0211
3.7101 2.7071 2.0377
3.4797 2.9955 2.0377
3.2270 3.2645 2.0377
2.9537 3.5123 2.0377
2.6614 3.7374 2.0377
2.3521 3.9384 2.0377
0.7451 1.5116 0.7487
0.6213 1.5668 0.7489
0.4935 1.6118 0.7491
0.3624 1.6463 0.7492
0.2290 1.6702 0.7493
0.0940 1.6832 0.7493
-0.0415 1.6853 0.7493
-0.1768 1.6765 0.7493
-0.3109 1.6568 0.7492
-0.4430 1.6264 0.7491
-0.5722 1.5854 0.7490
-0.6976 1.5342 0.7488
-2.2280 4.0094 2.0377
-2.5434 3.8182 2.0377
-2.8424 3.6023 2.0377
-3.1233 3.3630 2.0377
-3.3842 3.1021 2.0377
-3.6234 2.8210 2.0377
-3.8394 2.5215 2.0377
-4.0307 2.2057 2.0377
-4.1962 1.8754 2.0377
-4.3347 1.5329 2.0377
-4.4452 1.1802 2.0377
-4.5272 0.8197 2.0377
-4.5800 0.4537 2.0377
-4.6033 0.0846 2.0377
-4.5968 -0.2854 2.0377
-4.5607 -0.6537 2.0377
-4.4950 -1.0181 2.0377
-4.4003 -1.3761 2.0377
-4.2771 -1.7254 2.0377
-4.1261 -2.0638 2.0377
-3.9484 -2.3891 2.0377
-3.7450 -2.6991 2.0377
-3.5173 -2.9917 2.0377
-3.2668 -3.2652 2.0377
-2.9949 -3.5176 2.0377
-2.7036 -3.7474 2.0377
-2.3947 -3.9531 2.0377
-0.7500 -1.4976 0.7383
-0.6274 -1.5527 0.7381
-0.5008 -1.5979 0.7379
-0.3709 -1.6328 0.7378
-0.2387 -1.6572 0.7377
-0.1050 -1.6710 0.7377
0.0294 -1.6740 0.7377
0.1636 -1.6663 0.7377
0.2968 -1.6479 0.7378
0.4281 -1.6188 0.7379
0.5567 -1.5794 0.7380
0.6816 -1.5298 0.7382
2.2140 -4.0577 2.0377
2.5320 -3.8662 2.0377
2.8335 -3.6499 2.0377
3.1165 -3.4099 2.0377
3.3793 -3.1481 2.0377
3.6201 -2.8659 2.0377
3.8306 -2.5610 2.0341
3.8510 -2.1489 1.9474
3.8819 -1.7740 1.8853
4.0105 -1.4561 1.8853
4.1130 -1.1291 1.8853
4.1890 -0.7950 1.8853
4.2378 -0.4560 1.8853
4.2592 -0.1143 1.8853
4.2531 0.2280 1.8853
4.2196 0.5685 1.8853
3.6274 -2.2807 2.0377
3.7976 -1.9816 2.0377
3.8487 -1.6300 1.9889
3.8620 -1.2809 1.9368
3.8739 -0.9476 1.8989
3.9079 -0.6288 1.8853
3.9444 -0.3129 1.8853
3.9555 0.0049 1.8853
3.9410 0.3223 1.8853
3.9031 0.6378 1.8863
3.8902 0.9617 1.9119
3.8856 1.2995 1.9554
3.8787 1.6542 2.0131
3.7777 1.9838 2.0377
3.6052 2.2801 2.0377
3.4094 2.5616 2.0377
3.1918 2.8264 2.0377
2.9537 3.0730 2.0377
2.6967 3.2996 2.0377
2.4224 3.5048 2.0377
0.7830 1.3539 0.7482
0.6718 1.4126 0.7484
0.5562 1.4622 0.7485
0.4370 1.5023 0.7487
0.3149 1.5326 0.7488
0.1907 1.5530 0.7489
0.0653 1.5633 0.7489
-0.0605 1.5635 0.7489
-0.1859 1.5536 0.7489
-0.3102 1.5335 0.7488
-0.4323 1.5036 0.7487
-0.5517 1.4639 0.7486
-0.6675 1.4147 0.7484
-2.1213 3.6939 2.0377
-2.4116 3.5121 2.0377
-2.6865 3.3077 2.0377
-2.9442 3.0819 2.0377
-3.1830 2.8361 2.0377
-3.4014 2.5719 2.0377
-3.5980 2.2910 2.0377
-3.7715 1.9952 2.0377
-3.9207 1.6864 2.0377
-4.0447 1.3665 2.0377
-4.1427 1.0376 2.0377
-4.2141 0.7018 2.0377
-4.2582 0.3613 2.0377
-4.2749 0.0183 2.0377
-4.2640 -0.3251 2.0377
-4.2256 -0.6666 2.0377
-4.1598 -1.0040 2.0377
-4.0671 -1.3351 2.0377
-3.9481 -1.6578 2.0377
-3.8034 -1.9699 2.0377
-3.6341 -2.2695 2.0377
-3.4412 -2.5545 2.0377
-3.2260 -2.8232 2.0377
-2.9898 -3.0737 2.0377
-2.7341 -3.3044 2.0377
-2.4607 -3.5139 2.0377
-2.1712 -3.7007 2.0377
-0.6770 -1.4005 0.7386
-0.5624 -1.4501 0.7385
-0.4442 -1.4905 0.7383
-0.3232 -1.5212 0.7382
-0.2001 -1.5422 0.7381
-0.0757 -1.5532 0.7381
0.0492 -1.5543 0.7381
0.1737 -1.5454 0.7381
0.2971 -1.5265 0.7382
0.4187 -1.4978 0.7383
0.5375 -1.4595 0.7384
0.6529 -1.4118 0.7386
0.7642 -1.3551 0.7388
2.4004 -3.5556 2.0377
2.6775 -3.3509 2.0377
2.9371 -3.1246 2.0377
3.1775 -2.8781 2.0377
3.3974 -2.6132 2.0377
3.5952 -2.3315 2.0377
3.7696 -2.0348 2.0377
3.8461 -1.6929 1.9995
3.8599 -1.3406 1.9449
3.8710 -1.0047 1.9041
3.8989 -0.6837 1.8853
3.9398 -0.3683 1.8853
3.9554 -0.0508 1.8853
3.9453 0.2669 1.8853
3.9099 0.5826 1.8853
3.8907 0.9040 1.9056
3.8866 1.2394 1.9468
3.8801 1.5908 2.0019
3.8054 1.9306 2.0377
3.6370 2.2293 2.0377
3.4452 2.5136 2.0377
3.2314 2.7814 2.0377
2.9967 3.0313 2.0377
2.7429 3.2615 2.0377
2.4715 3.4706 2.0377
2.1843 3.6572 2.0377
0.6916 1.4030 0.7483
0.5767 1.4542 0.7485
0.4580 1.4960 0.7487
0.3364 1.5280 0.7488
0.2125 1.5502 0.7489
0.0873 1.5623 0.7489
-0.0385 1.5642 0.7489
-0.1641 1.5560 0.7489
-0.2886 1.5378 0.7488
-0.4112 1.5095 0.7487
-0.5311 1.4715 0.7486
-0.6475 1.4239 0.7484
-0.7598 1.3671 0.7482
-2.3619 3.5456 2.0377
-2.6396 3.3450 2.0377
-2.9005 3.1228 2.0377
-3.1427 2.8804 2.0377
-3.3648 2.6193 2.0377
-3.5653 2.3412 2.0377
-3.7429 2.0479 2.0377
-3.8964 1.7412 2.0377
-4.0249 1.4231 2.0377
-4.1275 1.0956 2.0377
-4.2035 0.7609 2.0377
-4.2525 0.4211 2.0377
-4.2740 0.0783 2.0377
-4.2679 -0.2652 2.0377
-4.2343 -0.6072 2.0377
-4.1732 -0.9455 2.0377
-4.0852 -1.2778 2.0377
-3.9707 -1.6021 2.0377
-3.8305 -1.9162 2.0377
-3.6654 -2.2181 2.0377
-3.4766 -2.5058 2.0377
-3.2651 -2.7775 2.0377
-3.0325 -3.0313 2.0377
-2.7801 -3.2656 2.0377
-2.5097 -3.4789 2.0377
-2.2228 -3.6697 2.0377
-0.6966 -1.3909 0.7387
-0.5827 -1.4421 0.7385
-0.4651 -1.4841 0.7383
-0.3445 -1.5165 0.7382
-0.2217 -1.5392 0.7381
-0.0975 -1.5520 0.7381
0.0273 -1.5548 0.7381
0.1520 -1.5476 0.7381
0.2757 -1.5305 0.7382
0.3976 -1.5036 0.7383
0.5170 -1.4669 0.7384
0.6331 -1.4208 0.7386
0.7451 -1.3656 0.7387
2.3504 -3.5891 2.0377
2.6303 -3.3883 2.0377
2.8930 -3.1656 2.0377
3.1370 -2.9226 2.0377
3.3605 -2.6607 2.0377
3.5622 -2.3818 2.0377
3.7408 -2.0876 2.0377
3.8434 -1.7565 2.0106
3.8577 -1.4009 1.9534
3.8692 -1.0624 1.9103
3.8895 -0.7384 1.8855
3.9345 -0.4236 1.8853
3.9545 -0.1064 1.8853
3.9489 0.2115 1.8853
3.9179 0.5278 1.8853
3.3786 -2.1245 2.0377
3.5372 -1.8460 2.0377
3.6729 -1.5557 2.0377
3.7848 -1.2555 2.0377
3.8492 -0.9418 2.0256
3.8577 -0.6209 1.9979
3.8638 -0.3067 1.9825
3.8677 0.0045 1.9789
3.8695 0.3162 1.9870
3.8691 0.6319 2.0071
3.8625 0.9546 2.0377
3.7722 1.2613 2.0377
3.6576 1.5598 2.0377
3.5195 1.8479 2.0377
3.3588 2.1240 2.0377
3.1765 2.3863 2.0377
2.9738 2.6332 2.0377
2.7520 2.8629 2.0377
2.5126 3.0740 2.0377
2.2570 3.2653 2.0377
0.7293 1.2609 0.7479
0.6257 1.3155 0.7480
0.5180 1.3617 0.7482
0.4069 1.3990 0.7483
0.2932 1.4272 0.7484
0.1776 1.4462 0.7485
0.0608 1.4558 0.7485
-0.0564 1.4560 0.7485
-0.1732 1.4468 0.7485
-0.2888 1.4281 0.7484
-0.4026 1.4002 0.7483
-0.5138 1.3632 0.7482
-0.6216 1.3174 0.7480
-0.7254 1.2631 0.7479
-2.2469 3.2721 2.0377
-2.5030 3.0816 2.0377
-2.7431 2.8712 2.0377
-2.9656 2.6422 2.0377
-3.1690 2.3960 2.0377
-3.3521 2.1342 2.0377
-3.5137 1.8586 2.0377
-3.6527 1.5709 2.0377
-3.7681 1.2728 2.0377
-3.8594 0.9664 2.0377
-3.9258 0.6536 2.0377
-3.9668 0.3364 2.0377
-3.9823 0.0168 2.0377
-3.9721 -0.3031 2.0377
-3.9362 -0.6212 2.0377
-3.8748 -0.9354 2.0377
-3.7884 -1.2439 2.0377
-3.6775 -1.5444 2.0377
-3.5427 -1.8351 2.0377
-3.3849 -2.1141 2.0377
-3.2052 -2.3795 2.0377
-3.0047 -2.6297 2.0377
-2.7846 -2.8630 2.0377
-2.5465 -3.0779 2.0377
-2.2918 -3.2729 2.0377
-0.7335 -1.2503 0.7391
-0.6308 -1.3050 0.7390
-0.5240 -1.3513 0.7388
-0.4139 -1.3889 0.7387
-0.3011 -1.4175 0.7386
-0.1864 -1.4371 0.7385
-0.0705 -1.4474 0.7385
0.0458 -1.4484 0.7385
0.1618 -1.4400 0.7385
0.2769 -1.4225 0.7385
0.3901 -1.3957 0.7386
0.5008 -1.3600 0.7388
0.6084 -1.3156 0.7389
0.7121 -1.2627 0.7391
2.2357 -3.3118 2.0377
2.4937 -3.1212 2.0377
2.7355 -2.9104 2.0377
2.9596 -2.6809 2.0377
3.1644 -2.4342 2.0377
3.3486 -2.1718 2.0377
3.5111 -1.8956 2.0377
3.6509 -1.6072 2.0377
3.7670 -1.3086 2.0377
3.8474 -0.9988 2.0317
3.8563 -0.6764 2.0018
3.8629 -0.3613 1.9843
3.8672 -0.0499 1.9787
3.8693 0.2615 1.9848
3.8693 0.5763 2.0027
3.8671 0.8983 2.0331
3.7898 1.2083 2.0377
3.6794 1.5083 2.0377
3.5453 1.7984 2.0377
3.3885 2.0767 2.0377
3.2098 2.3416 2.0377
3.0106 2.5912 2.0377
2.7921 2.8240 2.0377
2.5556 3.0385 2.0377
2.3028 3.2334 2.0377
0.7469 1.2505 0.7478
0.6441 1.3066 0.7480
0.5371 1.3542 0.7482
0.4266 1.3931 0.7483
0.3133 1.4230 0.7484
0.1979 1.4436 0.7485
0.0813 1.4548 0.7485
-0.0359 1.4567 0.7485
-0.1528 1.4491 0.7485
-0.2687 1.4320 0.7484
-0.3829 1.4058 0.7484
-0.4946 1.3703 0.7482
-0.6031 1.3261 0.7481
-0.7076 1.2732 0.7479
-2.2007 3.3033 2.0377
-2.4594 3.1164 2.0377
-2.7024 2.9093 2.0377
-2.9280 2.6835 2.0377
-3.1349 2.4402 2.0377
-3.3216 2.1810 2.0377
-3.4870 1.9077 2.0377
-3.6300 1.6219 2.0377
-3.7497 1.3256 2.0377
-3.8452 1.0205 2.0377
-3.9160 0.7086 2.0377
-3.9615 0.3920 2.0377
-3.9814 0.0727 2.0377
-3.9757 -0.2473 2.0377
-3.9443 -0.5658 2.0377
-3.8874 -0.8810 2.0377
-3.8053 -1.1905 2.0377
-3.6986 -1.4925 2.0377
-3.5679 -1.7851 2.0377
-3.4141 -2.0663 2.0377
-3.2382 -2.3342 2.0377
-3.0412 -2.5872 2.0377
-2.8244 -2.8235 2.0377
-2.5893 -3.0417 2.0377
-2.3374 -3.2403 2.0377
-0.7510 -1.2399 0.7392
-0.6490 -1.2961 0.7390
-0.5429 -1.3438 0.7388
-0.4333 -1.3829 0.7387
-0.3210 -1.4132 0.7386
-0.2066 -1.4343 0.7385
-0.0908 -1.4462 0.7385
0.0255 -1.4489 0.7385
0.1416 -1.4422 0.7385
0.2569 -1.4262 0.7385
0.3705 -1.4011 0.7386
0.4817 -1.3669 0.7387
0.5899 -1.3240 0.7389
0.6943 -1.2725 0.7391
2.1890 -3.3430 2.0377
2.4497 -3.1560 2.0377
2.6945 -2.9486 2.0377
2.9218 -2.7223 2.0377
3.1300 -2.4785 2.0377
3.3180 -2.2187 2.0377
3.4844 -1.9447 2.0377
3.6282 -1.6584 2.0377
3.7484 -1.3614 2.0377
3.8444 -1.0558 2.0377
3.8550 -0.7321 2.0061
3.8619 -0.4160 1.9865
3.8666 -0.1042 1.9788
3.8691 0.2070 1.9829
3.8695 0.5209 1.9987
3.1559 -1.9847 2.0377
3.3041 -1.7246 2.0377
3.4309 -1.4534 2.0377
3.5354 -1.1730 2.0377
3.6171 -0.8852 2.0377
3.6754 -0.5918 2.0377
3.7099 -0.2947 2.0377
3.7204 0.0041 2.0377
3.7069 0.3027 2.0377
3.6695 0.5992 2.0377
3.6085 0.8916 2.0377
3.5242 1.1782 2.0377
3.4172 1.4570 2.0377
3.2882 1.7262 2.0377
3.1381 1.9843 2.0377
2.9678 2.2293 2.0377
2.7784 2.4600 2.0377
2.5713 2.6746 2.0377
2.3476 2.8719 2.0377
0.7735 1.1189 0.7474
0.6811 1.1776 0.7476
0.5844 1.2286 0.7477
0.4838 1.2717 0.7479
0.3801 1.3065 0.7480
0.2739 1.3329 0.7481
0.1659 1.3506 0.7482
0.0568 1.3596 0.7482
-0.0526 1.3598 0.7482
-0.1617 1.3511 0.7482
-0.2698 1.3337 0.7481
-0.3761 1.3077 0.7480
-0.4799 1.2731 0.7479
-0.5806 1.2304 0.7477
-0.6775 1.1796 0.7476
-0.7700 1.1213 0.7474
-2.3387 2.8790 2.0377
-2.5629 2.6824 2.0377
-2.7708 2.4684 2.0377
-2.9608 2.2383 2.0377
-3.1318 1.9938 2.0377
-3.2827 1.7362 2.0377
-3.4125 1.4674 2.0377
-3.5204 1.1889 2.0377
-3.6055 0.9026 2.0377
-3.6675 0.6104 2.0377
-3.7058 0.3140 2.0377
-3.7202 0.0154 2.0377
-3.7106 -0.2834 2.0377
-3.6770 -0.5805 2.0377
-3.6196 -0.8741 2.0377
-3.5388 -1.1621 2.0377
-3.4351 -1.4428 2.0377
-3.3092 -1.7144 2.0377
-3.1618 -1.9749 2.0377
-2.9939 -2.2229 2.0377
-2.8065 -2.4565 2.0377
-2.6010 -2.6744 2.0377
-2.3785 -2.8751 2.0377
-0.7770 -1.1097 0.7396
-0.6854 -1.1684 0.7394
-0.5894 -1.2195 0.7393
-0.4896 -1.2627 0.7391
-0.3867 -1.2978 0.7390
-0.2814 -1.3246 0.7389
-0.1742 -1.3429 0.7388
-0.0659 -1.3525 0.7388
0.0428 -1.3534 0.7388
0.1512 -1.3456 0.7388
0.2587 -1.3292 0.7389
0.3645 -1.3043 0.7390
0.4680 -1.2709 0.7391
0.5685 -1.2293 0.7392
0.6653 -1.1799 0.7394
0.7579 -1.1228 0.7396
2.3292 -2.9155 2.0377
2.5551 -2.7187 2.0377
2.7644 -2.5043 2.0377
2.9557 -2.2739 2.0377
3.1279 -2.0289 2.0377
3.2797 -1.7708 2.0377
3.4103 -1.5015 2.0377
3.5188 -1.2226 2.0377
3.6045 -0.9359 2.0377
3.6669 -0.6434 2.0377
3.7056 -0.3468 2.0377
3.7203 -0.0482 2.0377
3.7110 0.2506 2.0377
3.6778 0.5476 2.0377
3.6208 0.8409 2.0377
3.5406 1.1286 2.0377
3.4375 1.4089 2.0377
3.3123 1.6800 2.0377
3.1658 1.9400 2.0377
2.9989 2.1875 2.0377
2.8128 2.4208 2.0377
2.6087 2.6383 2.0377
2.3878 2.8388 2.0377
0.7891 1.1079 0.7473
0.6976 1.1679 0.7475
0.6016 1.2202 0.7477
0.5016 1.2647 0.7479
0.3984 1.3010 0.7480
0.2926 1.3289 0.7481
0.1848 1.3482 0.7482
0.0759 1.3587 0.7482
-0.0335 1.3604 0.7482
-0.1427 1.3533 0.7482
-0.2510 1.3374 0.7481
-0.3576 1.3128 0.7480
-0.4619 1.2798 0.7479
-0.5632 1.2384 0.7478
-0.6609 1.1891 0.7476
-0.7542 1.1320 0.7474
-2.2979 2.9115 2.0377
-2.5249 2.7180 2.0377
-2.7357 2.5070 2.0377
-2.9289 2.2796 2.0377
-3.1034 2.0375 2.0377
-3.2579 1.7821 2.0377
-3.3914 1.5151 2.0377
-3.5031 1.2382 2.0377
-3.5923 0.9531 2.0377
-3.6584 0.6618 2.0377
-3.7008 0.3660 2.0377
-3.7194 0.0677 2.0377
-3.7140 -0.2312 2.0377
-3.6846 -0.5288 2.0377
-3.6313 -0.8231 2.0377
-3.5546 -1.1123 2.0377
-3.4549 -1.3944 2.0377
-3.3328 -1.6677 2.0377
-3.1891 -1.9303 2.0377
-3.0247 -2.1805 2.0377
-2.8406 -2.4168 2.0377
-2.6382 -2.6375 2.0377
-2.4185 -2.8413 2.0377
-2.1832 -3.0268 2.0377
-0.7017 -1.1586 0.7395
-0.6065 -1.2111 0.7393
-0.5073 -1.2557 0.7391
-0.4049 -1.2923 0.7390
-0.2999 -1.3205 0.7389
-0.1930 -1.3403 0.7388
-0.0849 -1.3514 0.7388
0.0238 -1.3539 0.7388
0.1323 -1.3476 0.7388
0.2400 -1.3327 0.7389
0.3462 -1.3092 0.7389
0.4501 -1.2773 0.7391
0.5512 -1.2372 0.7392
0.6487 -1.1891 0.7394
0.7421 -1.1333 0.7396
2.2881 -2.9480 2.0377
2.5168 -2.7543 2.0377
2.7291 -2.5430 2.0377
2.9236 -2.3153 2.0377
3.0992 -2.0727 2.0377
3.2547 -1.8168 2.0377
3.3891 -1.5493 2.0377
3.5015 -1.2719 2.0377
3.5912 -0.9865 2.0377
3.6577 -0.6948 2.0377
3.7005 -0.3988 2.0377
3.7195 -0.1004 2.0377
3.7144 0.1985 2.0377
3.6853 0.4959 2.0377
2.9550 -1.8586 2.0377
3.0938 -1.6150 2.0377
3.2126 -1.3611 2.0377
3.3105 -1.0986 2.0377
3.3870 -0.8291 2.0377
3.4417 -0.5543 2.0377
3.4740 -0.2762 2.0377
3.4839 0.0036 2.0377
3.4714 0.2832 2.0377
3.4364 0.5609 2.0377
3.3793 0.8348 2.0377
3.3004 1.1032 2.0377
3.2002 1.3643 2.0377
3.0794 1.6164 2.0377
2.9389 1.8581 2.0377
2.7794 2.0877 2.0377
2.6021 2.3037 2.0377
2.4081 2.5047 2.0377
2.1987 2.6896 2.0377
0.7242 1.0475 0.7471
0.6377 1.1024 0.7473
0.5471 1.1502 0.7475
0.4530 1.1905 0.7476
0.3558 1.2231 0.7477
0.2564 1.2478 0.7478
0.1553 1.2644 0.7479
0.0532 1.2729 0.7479
-0.0493 1.2730 0.7479
-0.1514 1.2649 0.7479
-0.2526 1.2486 0.7478
-0.3521 1.2242 0.7477
-0.4493 1.1919 0.7476
-0.5436 1.1519 0.7475
-0.6343 1.1044 0.7473
-0.7209 1.0497 0.7471
-2.1903 2.6962 2.0377
-2.4004 2.5120 2.0377
-2.5950 2.3116 2.0377
-2.7729 2.0961 2.0377
-2.9331 1.8670 2.0377
-3.0743 1.6258 2.0377
-3.1959 1.3740 2.0377
-3.2968 1.1132 2.0377
-3.3765 0.8451 2.0377
-3.4345 0.5714 2.0377
-3.4703 0.2938 2.0377
-3.4837 0.0143 2.0377
-3.4747 -0.2656 2.0377
-3.4432 -0.5438 2.0377
-3.3894 -0.8187 2.0377
-3.3137 -1.0884 2.0377
-3.2166 -1.3512 2.0377
-3.0986 -1.6054 2.0377
-2.9605 -1.8494 2.0377
-2.8033 -2.0815 2.0377
-2.6278 -2.3003 2.0377
-2.4353 -2.5043 2.0377
-2.2270 -2.6921 2.0377
-0.7277 -1.0394 0.7399
-0.6419 -1.0944 0.7397
-0.5520 -1.1422 0.7395
-0.4586 -1.1828 0.7394
-0.3622 -1.2157 0.7393
-0.2635 -1.2408 0.7392
-0.1632 -1.2579 0.7391
-0.0617 -1.2669 0.7391
0.0401 -1.2677 0.7391
0.1416 -1.2605 0.7391
0.2423 -1.2451 0.7392
0.3414 -1.2217 0.7392
0.4383 -1.1904 0.7394
0.5324 -1.1515 0.7395
0.6231 -1.1052 0.7396
0.7099 -1.0517 0.7398
2.1808 -2.7299 2.0377
2.3923 -2.5457 2.0377
2.5883 -2.3450 2.0377
2.7675 -2.1293 2.0377
2.9287 -1.8999 2.0377
3.0710 -1.6583 2.0377
3.1933 -1.4061 2.0377
3.2949 -1.1450 2.0377
3.3752 -0.8766 2.0377
3.4337 -0.6027 2.0377
3.4700 -0.3250 2.0377
3.4838 -0.0453 2.0377
3.4752 0.2344 2.0377
3.4441 0.5126 2.0377
3.3908 0.7873 2.0377
3.3157 1.0567 2.0377
3.2192 1.3192 2.0377
3.1020 1.5731 2.0377
2.9648 1.8167 2.0377
2.8086 2.0485 2.0377
2.6344 2.2670 2.0377
2.4432 2.4707 2.0377
2.2363 2.6585 2.0377
0.7388 1.0372 0.7471
0.6531 1.0933 0.7473
0.5632 1.1424 0.7474
0.4696 1.1840 0.7476
0.3730 1.2180 0.7477
0.2739 1.2441 0.7478
0.1731 1.2621 0.7479
0.0711 1.2720 0.7479
-0.0314 1.2736 0.7479
-0.1336 1.2669 0.7479
-0.2350 1.2520 0.7478
-0.3348 1.2291 0.7477
-0.4325 1.1981 0.7476
-0.5273 1.1594 0.7475
-0.6188 1.1132 0.7473
-0.7061 1.0598 0.7472
-2.1522 2.7267 2.0377
-2.3647 2.5454 2.0377
-2.5621 2.3477 2.0377
-2.7431 2.1348 2.0377
-2.9064 1.9080 2.0377
-3.0511 1.6688 2.0377
-3.1761 1.4187 2.0377
-3.2807 1.1594 2.0377
-3.3641 0.8924 2.0377
-3.4259 0.6195 2.0377
-3.4656 0.3425 2.0377
-3.4830 0.0632 2.0377
-3.4779 -0.2167 2.0377
-3.4503 -0.4954 2.0377
-3.4004 -0.7710 2.0377
-3.3285 -1.0417 2.0377
-3.2351 -1.3059 2.0377
-3.1207 -1.5617 2.0377
-2.9861 -1.8076 2.0377
-2.8321 -2.0419 2.0377
-2.6597 -2.2631 2.0377
-2.4701 -2.4698 2.0377
-2.2645 -2.6605 2.0377
-0.7423 -1.0291 0.7399
-0.6572 -1.0853 0.7397
-0.5680 -1.1344 0.7395
-0.4751 -1.1762 0.7394
-0.3792 -1.2105 0.7393
-0.2809 -1.2369 0.7392
-0.1808 -1.2554 0.7391
-0.0795 -1.2659 0.7391
0.0223 -1.2682 0.7391
0.1239 -1.2623 0.7391
0.2248 -1.2483 0.7392
0.3242 -1.2263 0.7392
0.4216 -1.1964 0.7393
0.5162 -1.1588 0.7395
0.6076 -1.1138 0.7396
0.6950 -1.0616 0.7398
0.7780 -1.0025 0.7400
2.3565 -2.5791 2.0377
2.5553 -2.3812 2.0377
2.7375 -2.1680 2.0377
2.9019 -1.9409 2.0377
3.0475 -1.7014 2.0377
3.1734 -1.4509 2.0377
3.2787 -1.1912 2.0377
3.3628 -0.9239 2.0377
3.4251 -0.6508 2.0377
3.4653 -0.3737 2.0377
3.4830 -0.0942 2.0377
3.4783 0.1857 2.0377
3.4511 0.4642 2.0377
2.7726 -1.7440 2.0377
2.9029 -1.5155 2.0377
3.0143 -1.2773 2.0377
3.1063 -1.0310 2.0377
3.1781 -0.7781 2.0377
3.2294 -0.5204 2.0377
3.2598 -0.2594 2.0377
3.2692 0.0032 2.0377
3.2574 0.2656 2.0377
3.2246 0.5261 2.0377
3.1711 0.7832 2.0377
3.0971 1.0350 2.0377
3.0031 1.2800 2.0377
2.8898 1.5167 2.0377
2.7580 1.7435 2.0377
2.6084 1.9590 2.0377
2.4420 2.1617 2.0377
2.2600 2.3504 2.0377
0.7561 0.9249 0.7467
0.6794 0.9827 0.7469
0.5983 1.0342 0.7471
0.5133 1.0790 0.7472
0.4250 1.1169 0.7474
0.3338 1.1475 0.7475
0.2406 1.1706 0.7475
0.1457 1.1862 0.7476
0.0499 1.1941 0.7476
-0.0462 1.1942 0.7476
-0.1421 1.1866 0.7476
-0.2370 1.1713 0.7475
-0.3303 1.1485 0.7475
-0.4215 1.1182 0.7474
-0.5100 1.0806 0.7472
-0.5951 1.0360 0.7471
-0.6764 0.9848 0.7469
-0.7533 0.9272 0.7467
-2.2527 2.3573 2.0377
-2.4353 2.1691 2.0377
-2.6023 1.9669 2.0377
-2.7525 1.7519 2.0377
-2.8851 1.5255 2.0377
-2.9991 1.2892 2.0377
-3.0937 1.0444 2.0377
-3.1685 0.7928 2.0377
-3.2229 0.5360 2.0377
-3.2564 0.2755 2.0377
-3.2690 0.0132 2.0377
-3.2604 -0.2494 2.0377
-3.2308 -0.5105 2.0377
-3.1803 -0.7684 2.0377
-3.1093 -1.0215 2.0377
-3.0181 -1.2681 2.0377
-2.9073 -1.5066 2.0377
-2.7778 -1.7355 2.0377
-2.6302 -1.9532 2.0377
-2.4656 -2.1585 2.0377
-2.2849 -2.3498 2.0377
-0.7591 -0.9177 0.7403
-0.6830 -0.9756 0.7401
-0.6025 -1.0271 0.7399
-0.5181 -1.0721 0.7398
-0.4304 -1.1101 0.7396
-0.3400 -1.1410 0.7395
-0.2473 -1.1646 0.7394
-0.1531 -1.1806 0.7394
-0.0579 -1.1891 0.7394
0.0376 -1.1899 0.7394
0.1329 -1.1831 0.7394
0.2274 -1.1686 0.7394
0.3204 -1.1467 0.7395
0.4114 -1.1173 0.7396
0.4997 -1.0808 0.7397
0.5848 -1.0373 0.7399
0.6662 -0.9871 0.7401
0.7433 -0.9306 0.7403
2.2446 -2.3887 2.0377
2.4285 -2.2004 2.0377
2.5966 -1.9981 2.0377
2.7479 -1.7828 2.0377
2.8814 -1.5562 2.0377
2.9962 -1.3196 2.0377
3.0916 -1.0745 2.0377
3.1670 -0.8227 2.0377
3.2219 -0.5657 2.0377
3.2560 -0.3051 2.0377
3.2691 -0.0428 2.0377
3.2610 0.2198 2.0377
3.2319 0.4808 2.0377
3.1819 0.7386 2.0377
3.1115 0.9914 2.0377
3.0210 1.2378 2.0377
2.9110 1.4760 2.0377
2.7823 1.7047 2.0377
2.6358 1.9222 2.0377
2.4722 2.1272 2.0377
2.2929 2.3185 2.0377
0.7690 0.9141 0.7466
0.6932 0.9731 0.7469
0.6128 1.0257 0.7470
0.5284 1.0717 0.7472
0.4406 1.1108 0.7473
0.3499 1.1426 0.7474
0.2570 1.1671 0.7475
0.1624 1.1840 0.7476
0.0667 1.1933 0.7476
-0.0294 1.1948 0.7476
-0.1254 1.1885 0.7476
-0.2205 1.1746 0.7476
-0.3141 1.1530 0.7475
-0.4058 1.1240 0.7474
-0.4947 1.0877 0.7473
-0.5805 1.0443 0.7471
-0.6625 0.9942 0.7469
-0.7402 0.9377 0.7467
-2.2192 2.3886 2.0377
-2.4045 2.2030 2.0377
-2.5743 2.0032 2.0377
-2.7275 1.7903 2.0377
-2.8632 1.5658 2.0377
-2.9805 1.3311 2.0377
-3.0786 1.0877 2.0377
-3.1569 0.8372 2.0377
-3.2149 0.5812 2.0377
-3.2521 0.3212 2.0377
-3.2683 0.0591 2.0377
-3.2635 -0.2036 2.0377
-3.2375 -0.4650 2.0377
-3.1906 -0.7236 2.0377
-3.1232 -0.9777 2.0377
-3.0354 -1.2255 2.0377
-2.9281 -1.4655 2.0377
-2.8017 -1.6962 2.0377
-2.6572 -1.9160 2.0377
-2.4955 -2.1236 2.0377
-2.3176 -2.3174 2.0377
-0.7719 -0.9070 0.7403
-0.6966 -0.9659 0.7401
-0.6168 -1.0186 0.7400
-0.5331 -1.0647 0.7398
-0.4459 -1.1040 0.7397
-0.3559 -1.1361 0.7395
-0.2636 -1.1610 0.7395
-0.1697 -1.1784 0.7394
-0.0746 -1.1882 0.7394
0.0209 -1.1903 0.7394
0.1163 -1.1848 0.7394
0.2110 -1.1717 0.7394
0.3043 -1.1510 0.7395
0.3957 -1.1230 0.7396
0.4845 -1.0877 0.7397
0.5702 -1.0454 0.7399
0.6523 -0.9964 0.7400
0.7302 -0.9409 0.7402
2.2109 -2.4200 2.0377
2.3975 -2.2344 2.0377
2.5684 -2.0344 2.0377
2.7228 -1.8213 2.0377
2.8594 -1.5965 2.0377
2.9776 -1.3616 2.0377
3.0764 -1.1179 2.0377
3.1553 -0.8672 2.0377
3.2138 -0.6109 2.0377
3.2516 -0.3509 2.0377
3.2683 -0.0887 2.0377
3.2639 0.1740 2.0377
3.2385 0.4354 2.0377
2.6060 -1.6394 2.0377
2.7284 -1.4246 2.0377
2.8332 -1.2008 2.0377
2.9197 -0.9693 2.0377
2.9873 -0.7316 2.0377
3.0355 -0.4893 2.0377
3.0641 -0.2440 2.0377
3.0730 0.0028 2.0377
3.0620 0.2495 2.0377
3.0312 0.4944 2.0377
2.9809 0.7360 2.0377
2.9113 0.9727 2.0377
2.8231 1.2031 2.0377
2.7166 1.4256 2.0377
2.5927 1.6388 2.0377
2.4521 1.8414 2.0377
2.2957 2.0320 2.0377
0.7781 0.8092 0.7463
0.7106 0.8692 0.7465
0.6386 0.9235 0.7467
0.5623 0.9719 0.7468
0.4824 1.0140 0.7470
0.3994 1.0496 0.7471
0.3138 1.0783 0.7472
0.2261 1.1001 0.7473
0.1369 1.1147 0.7473
0.0469 1.1221 0.7474
-0.0434 1.1223 0.7474
-0.1335 1.1151 0.7473
-0.2227 1.1008 0.7473
-0.3104 1.0793 0.7472
-0.3962 1.0508 0.7471
-0.4793 1.0155 0.7470
-0.5593 0.9736 0.7469
-0.6357 0.9255 0.7467
-0.7080 0.8713 0.7465
-0.7756 0.8115 0.7463
-2.2894 2.0389 2.0377
-2.4463 1.8488 2.0377
-2.5875 1.6467 2.0377
-2.7121 1.4339 2.0377
-2.8192 1.2117 2.0377
-2.9082 0.9816 2.0377
-2.9785 0.7451 2.0377
-3.0295 0.5036 2.0377
-3.0610 0.2588 2.0377
-3.0728 0.0122 2.0377
-3.0647 -0.2346 2.0377
-3.0369 -0.4800 2.0377
-2.9894 -0.7224 2.0377
-2.9225 -0.9603 2.0377
-2.8368 -1.1921 2.0377
-2.7327 -1.4163 2.0377
-2.6109 -1.6314 2.0377
-2.4721 -1.8360 2.0377
-2.3173 -2.0289 2.0377
-0.7806 -0.8029 0.7407
-0.7137 -0.8629 0.7405
-0.6421 -0.9172 0.7403
-0.5664 -0.9657 0.7401
-0.4871 -1.0080 0.7400
-0.4046 -1.0437 0.7399
-0.3196 -1.0728 0.7398
-0.2325 -1.0949 0.7397
-0.1440 -1.1100 0.7396
-0.0545 -1.1180 0.7396
0.0354 -1.1188 0.7396
0.1250 -1.1123 0.7396
0.2138 -1.0987 0.7397
0.3012 -1.0781 0.7397
0.3868 -1.0505 0.7398
0.4698 -1.0162 0.7400
0.5498 -0.9753 0.7401
0.6263 -0.9281 0.7403
0.6988 -0.8749 0.7404
0.7668 -0.8161 0.7407
2.2825 -2.0684 2.0377
2.4406 -1.8782 2.0377
2.5828 -1.6759 2.0377
2.7083 -1.4629 2.0377
2.8162 -1.2405 2.0377
2.9060 -1.0102 2.0377
2.9769 -0.7735 2.0377
3.0285 -0.5319 2.0377
3.0606 -0.2870 2.0377
3.0729 -0.0404 2.0377
3.0653 0.2064 2.0377
3.0380 0.4518 2.0377
2.9911 0.6941 2.0377
2.9249 0.9318 2.0377
2.8398 1.1634 2.0377
2.7365 1.3874 2.0377
2.6156 1.6023 2.0377
2.4778 1.8068 2.0377
2.3241 1.9996 2.0377
0.7894 0.7982 0.7462
0.7228 0.8591 0.7465
0.6515 0.9145 0.7467
0.5759 0.9639 0.7468
0.4966 1.0072 0.7470
0.4141 1.0439 0.7471
0.3289 1.0738 0.7472
0.2415 1.0968 0.7473
0.1526 1.1127 0.7473
0.0627 1.1214 0.7474
-0.0277 1.1228 0.7474
-0.1178 1.1169 0.7474
-0.2072 1.1038 0.7473
-0.2952 1.0836 0.7472
-0.3813 1.0563 0.7471
-0.4650 1.0222 0.7470
-0.5456 0.9814 0.7469
-0.6226 0.9343 0.7467
-0.6957 0.8812 0.7465
-0.7641 0.8224 0.7463
-2.2604 2.0708 2.0377
-2.4200 1.8829 2.0377
-2.5640 1.6828 2.0377
-2.6916 1.4718 2.0377
-2.8018 1.2511 2.0377
-2.8940 1.0223 2.0377
-2.9676 0.7868 2.0377
-3.0220 0.5461 2.0377
-3.0569 0.3017 2.0377
-3.0722 0.0553 2.0377
-3.0676 -0.1915 2.0377
-3.0431 -0.4373 2.0377
-2.9991 -0.6804 2.0377
-2.9356 -0.9191 2.0377
-2.8531 -1.1521 2.0377
-2.7522 -1.3777 2.0377
-2.6334 -1.5945 2.0377
-2.4975 -1.8011 2.0377
-2.3455 -1.9961 2.0377
-2.1783 -2.1783 2.0377
-0.7257 -0.8528 0.7405
-0.6549 -0.9082 0.7403
-0.5799 -0.9577 0.7402
-0.5012 -1.0011 0.7400
-0.4192 -1.0380 0.7399
-0.3346 -1.0682 0.7398
-0.2479 -1.0916 0.7397
-0.1595 -1.1079 0.7396
-0.0701 -1.1171 0.7396
0.0197 -1.1191 0.7396
0.1094 -1.1140 0.7396
0.1984 -1.1016 0.7397
0.2861 -1.0822 0.7397
0.3720 -1.0558 0.7398
0.4555 -1.0226 0.7399
0.5361 -0.9829 0.7401
0.6132 -0.9368 0.7402
0.6865 -0.8846 0.7404
0.7553 -0.8268 0.7406
2.2533 -2.1003 2.0377
2.4141 -1.9123 2.0377
2.5591 -1.7120 2.0377
2.6876 -1.5008 2.0377
2.7987 -1.2800 2.0377
2.8916 -1.0510 2.0377
2.9658 -0.8153 2.0377
3.0209 -0.5744 2.0377
3.0564 -0.3300 2.0377
3.0721 -0.0835 2.0377
3.0681 0.1634 2.0377
3.0442 0.4091 2.0377
2.4529 -1.5433 2.0377
2.5683 -1.3412 2.0377
2.6669 -1.1305 2.0377
2.7484 -0.9126 2.0377
2.8120 -0.6889 2.0377
2.8574 -0.4608 2.0377
2.8844 -0.2299 2.0377
2.8928 0.0024 2.0377
2.8824 0.2346 2.0377
2.8535 0.4652 2.0377
2.8062 0.6927 2.0377
2.7407 0.9155 2.0377
2.6577 1.1324 2.0377
2.5575 1.3419 2.0377
2.4408 1.5426 2.0377
2.3085 1.7333 2.0377
0.7912 0.7002 0.7459
0.7324 0.7616 0.7461
0.6689 0.8180 0.7463
0.6010 0.8692 0.7465
0.5293 0.9147 0.7467
0.4541 0.9544 0.7468
0.3759 0.9878 0.7469
0.2953 1.0149 0.7470
0.2128 1.0353 0.7471
0.1289 1.0491 0.7471
0.0441 1.0561 0.7471
-0.0409 1.0562 0.7471
-0.1257 1.0495 0.7471
-0.2096 1.0360 0.7471
-0.2922 1.0158 0.7470
-0.3729 0.9889 0.7469
-0.4511 0.9557 0.7468
-0.5264 0.9163 0.7467
-0.5983 0.8710 0.7465
-0.6664 0.8201 0.7463
-0.7300 0.7638 0.7461
-2.1553 1.9194 2.0377
-2.3030 1.7404 2.0377
-2.4360 1.5501 2.0377
-2.5532 1.3497 2.0377
-2.6541 1.1405 2.0377
-2.7378 0.9239 2.0377
-2.8039 0.7012 2.0377
-2.8519 0.4739 2.0377
-2.8816 0.2434 2.0377
-2.8926 0.0113 2.0377
-2.8850 -0.2211 2.0377
-2.8587 -0.4521 2.0377
-2.8140 -0.6802 2.0377
-2.7510 -0.9041 2.0377
-2.6703 -1.1223 2.0377
-2.5722 -1.3333 2.0377
-2.4575 -1.5358 2.0377
-2.3269 -1.7284 2.0377
-2.1812 -1.9099 2.0377
-0.7349 -0.7560 0.7409
-0.6719 -0.8124 0.7407
-0.6045 -0.8636 0.7405
-0.5333 -0.9093 0.7403
-0.4586 -0.9491 0.7402
-0.3810 -0.9828 0.7401
-0.3009 -1.0101 0.7400
-0.2189 -1.0310 0.7399
-0.1355 -1.0452 0.7399
-0.0513 -1.0527 0.7398
0.0333 -1.0534 0.7398
0.1177 -1.0473 0.7399
0.2013 -1.0345 0.7399
0.2836 -1.0151 0.7400
0.3641 -0.9891 0.7401
0.4423 -0.9568 0.7402
0.5176 -0.9183 0.7403
0.5897 -0.8738 0.7405
0.6579 -0.8238 0.7406
0.7219 -0.7684 0.7408
0.7813 -0.7081 0.7410
2.2972 -1.7680 2.0377
2.4311 -1.5777 2.0377
2.5493 -1.3772 2.0377
2.6509 -1.1679 2.0377
2.7354 -0.9511 2.0377
2.8022 -0.7283 2.0377
2.8508 -0.5009 2.0377
2.8810 -0.2704 2.0377
2.8926 -0.0382 2.0377
2.8856 0.1941 2.0377
2.8599 0.4251 2.0377
2.8157 0.6532 2.0377
2.7535 0.8770 2.0377
2.6734 1.0950 2.0377
2.5762 1.3059 2.0377
2.4624 1.5082 2.0377
2.3327 1.7008 2.0377
2.1880 1.8823 2.0377
0.7430 0.7512 0.7461
0.6803 0.8085 0.7463
0.6132 0.8606 0.7465
0.5421 0.9072 0.7466
0.4674 0.9479 0.7468
0.3898 0.9824 0.7469
0.3095 1.0106 0.7470
0.2273 1.0322 0.7471
0.1436 1.0472 0.7471
0.0590 1.0554 0.7471
-0.0260 1.0567 0.7471
-0.1109 1.0512 0.7471
-0.1950 1.0388 0.7471
-0.2779 1.0198 0.7470
-0.3589 0.9941 0.7469
-0.4376 0.9620 0.7468
-0.5135 0.9237 0.7467
-0.5860 0.8794 0.7465
-0.6548 0.8294 0.7464
-0.7192 0.7740 0.7462
-2.1280 1.9494 2.0377
-2.2783 1.7725 2.0377
-2.4139 1.5841 2.0377
-2.5339 1.3854 2.0377
-2.6377 1.1776 2.0377
-2.7244 0.9622 2.0377
-2.7936 0.7405 2.0377
-2.8448 0.5139 2.0377
-2.8777 0.2839 2.0377
-2.8920 0.0519 2.0377
-2.8876 -0.1805 2.0377
-2.8646 -0.4118 2.0377
-2.8231 -0.6406 2.0377
-2.7633 -0.8654 2.0377
-2.6856 -1.0846 2.0377
-2.5906 -1.2970 2.0377
-2.4788 -1.5011 2.0377
-2.3509 -1.6955 2.0377
-2.2077 -1.8791 2.0377
-0.7455 -0.7456 0.7409
-0.6832 -0.8029 0.7407
-0.6166 -0.8551 0.7405
-0.5460 -0.9017 0.7404
-0.4719 -0.9426 0.7402
-0.3947 -0.9773 0.7401
-0.3151 -1.0058 0.7400
-0.2334 -1.0278 0.7399
-0.1502 -1.0432 0.7399
-0.0660 -1.0518 0.7398
0.0185 -1.0538 0.7398
0.1030 -1.0489 0.7398
0.1868 -1.0373 0.7399
0.2694 -1.0190 0.7399
0.3502 -0.9941 0.7400
0.4288 -0.9629 0.7401
0.5047 -0.9254 0.7403
0.5773 -0.8820 0.7404
0.6463 -0.8329 0.7406
0.7111 -0.7785 0.7408
0.7713 -0.7190 0.7410
2.2723 -1.8002 2.0377
2.4089 -1.6117 2.0377
2.5298 -1.4129 2.0377
2.6344 -1.2050 2.0377
2.7219 -0.9895 2.0377
2.7918 -0.7676 2.0377
2.8436 -0.5409 2.0377
2.8771 -0.3108 2.0377
2.8920 -0.0788 2.0377
2.8882 0.1536 2.0377
2.8657 0.3849 2.0377
2.3117 -1.4546 2.0377
2.4204 -1.2642 2.0377
2.5134 -1.0656 2.0377
2.5902 -0.8603 2.0377
2.6502 -0.6494 2.0377
2.6930 -0.4345 2.0377
2.7185 -0.2168 2.0377
2.7264 0.0021 2.0377
2.7167 0.2209 2.0377
2.6894 0.4383 2.0377
2.6449 0.6526 2.0377
2.5832 0.8627 2.0377
2.5049 1.0671 2.0377
2.4105 1.2646 2.0377
2.3006 1.4538 2.0377
2.1759 1.6336 2.0377
0.7456 0.6598 0.7458
0.6902 0.7176 0.7460
0.6303 0.7708 0.7462
0.5664 0.8190 0.7463
0.4988 0.8619 0.7465
0.4279 0.8993 0.7466
0.3542 0.9308 0.7467
0.2783 0.9563 0.7468
0.2005 0.9756 0.7469
0.1215 0.9886 0.7469
0.0416 0.9951 0.7469
-0.0385 0.9953 0.7469
-0.1184 0.9889 0.7469
