ply
format ascii 1.0
element vertex 2160
property float32 x
property float32 y
property float32 z
end_header
-10.6461 -0.8898 2.0382
-10.5434 -1.7403 2.0382
-10.3718 -2.5798 2.0382
-10.1324 -3.4026 2.0382
-9.8267 -4.2031 2.0382
-9.4570 -4.9761 2.0382
-9.0257 -5.7163 2.0382
-8.5357 -6.4186 2.0382
-7.9904 -7.0786 2.0382
-7.3935 -7.6918 2.0382
-6.7492 -8.2540 2.0382
-6.0617 -8.7618 2.0382
-5.3359 -9.2118 2.0382
-4.5765 -9.6011 2.0382
-3.7889 -9.9273 2.0382
-2.9782 -10.1885 2.0382
-2.1498 -10.3830 2.0382
-1.3094 -10.5099 2.0382
-0.4624 -10.5685 2.0382
0.3856 -10.5586 2.0382
1.2290 -10.4806 2.0382
2.0625 -10.3353 2.0382
0.7798 -2.7408 0.5518
0.9958 -2.6662 0.5518
1.2050 -2.5749 0.5519
1.4061 -2.4675 0.5520
1.5979 -2.3447 0.5522
1.7792 -2.2072 0.5524
1.9559 -2.0632 0.5546
2.2242 -1.9978 0.5839
2.5237 -1.9247 0.6206
8.1045 -5.2094 1.8858
8.5028 -4.5463 1.8891
8.8696 -3.8628 1.8971
9.1784 -3.1485 1.9044
9.4262 -2.4087 1.9108
8.6630 -1.4861 1.7274
9.7300 -0.8742 1.9210
9.7828 -0.0912 1.9247
9.7684 0.6944 1.9273
9.6868 1.4764 1.9290
9.5385 2.2489 1.9296
9.3245 3.0057 1.9291
9.0466 3.7411 1.9276
8.7071 4.4493 1.9251
8.3088 5.1251 1.9215
7.8552 5.7633 1.9170
7.3499 6.3594 1.9116
6.7972 6.9090 1.9052
6.2016 7.4085 1.8981
5.5681 7.8546 1.8901
4.9127 8.2631 1.8858
4.2379 8.6379 1.8858
3.1356 7.9461 1.6727
2.8081 9.2222 1.8858
2.2284 10.1895 2.0382
1.4058 10.3470 2.0382
0.5724 10.4386 2.0382
-0.2666 10.4635 2.0382
-1.1060 10.4213 2.0382
-1.9403 10.3121 2.0382
-2.7642 10.1364 2.0382
-3.5724 9.8949 2.0382
-4.3596 9.5891 2.0382
-5.1207 9.2206 2.0382
-5.8506 8.7916 2.0382
-6.5444 8.3047 2.0382
-7.1975 7.7628 2.0382
-7.8055 7.1694 2.0382
-8.3642 6.5282 2.0382
-8.8698 5.8431 2.0382
-9.3187 5.1187 2.0382
-9.7079 4.3596 2.0382
-10.0345 3.5708 2.0382
-10.2962 2.7575 2.0382
-10.4912 1.9250 2.0382
-10.6179 1.0790 2.0382
-10.6755 0.2250 2.0382
-10.6635 -0.6312 2.0382
-10.5818 -1.4839 2.0382
-10.4309 -2.3273 2.0382
-10.2119 -3.1557 2.0382
-9.9261 -3.9636 2.0382
-9.5755 -4.7455 2.0382
-9.1625 -5.4961 2.0382
-8.6899 -6.2104 2.0382
-8.1610 -6.8837 2.0382
-7.5793 -7.5114 2.0382
-6.9489 -8.0895 2.0382
-6.2740 -8.6142 2.0382
-5.5592 -9.0819 2.0382
-4.8095 -9.4899 2.0382
-4.0299 -9.8354 2.0382
-3.2256 -10.1164 2.0382
-2.4020 -10.3313 2.0382
-1.5646 -10.4787 2.0382
-0.7190 -10.5580 2.0382
0.1293 -10.5688 2.0382
0.9747 -10.5114 2.0382
1.8117 -10.3863 2.0382
0.7134 -2.7600 0.5518
0.9311 -2.6906 0.5518
1.1425 -2.6043 0.5519
1.3461 -2.5017 0.5520
1.5409 -2.3834 0.5522
1.7255 -2.2503 0.5524
1.8990 -2.1031 0.5526
2.1401 -2.0183 0.5744
2.4292 -1.9477 0.6086
7.9780 -5.4063 1.8858
8.3808 -4.7464 1.8865
8.7646 -4.0731 1.8947
9.0913 -3.3676 1.9022
9.3578 -2.6349 1.9090
9.0288 -1.7756 1.8081
9.7009 -1.1097 1.9197
9.7739 -0.3287 1.9237
9.7799 0.4568 1.9266
9.7186 1.2405 1.9286
-9.2251 0.7115 2.0382
-9.2562 -0.0298 2.0382
-9.2270 -0.7714 2.0382
-9.1377 -1.5084 2.0382
-8.9888 -2.2358 2.0382
-8.7813 -2.9488 2.0382
-8.5165 -3.6426 2.0382
-8.1962 -4.3126 2.0382
-7.8227 -4.9541 2.0382
-7.3984 -5.5631 2.0382
-6.9262 -6.1355 2.0382
-6.4093 -6.6673 2.0382
-5.8513 -7.1553 2.0382
-5.2559 -7.5962 2.0382
-4.6271 -7.9871 2.0382
-3.9692 -8.3256 2.0382
-3.2866 -8.6096 2.0382
-2.5839 -8.8372 2.0382
-1.8657 -9.0072 2.0382
-1.1368 -9.1186 2.0382
-0.4020 -9.1708 2.0382
0.3339 -9.1637 2.0382
1.0661 -9.0975 2.0382
1.7898 -8.9727 2.0382
0.6781 -2.3841 0.5528
0.8695 -2.3286 0.5550
1.0669 -2.2804 0.5627
1.2708 -2.2306 0.5745
1.4844 -2.1785 0.5905
1.7112 -2.1231 0.6115
1.9558 -2.0634 0.6382
2.2241 -1.9980 0.6718
2.5236 -1.9250 0.7139
7.0459 -4.5296 1.8858
7.3801 -3.9467 1.8858
7.6668 -3.3395 1.8858
7.9086 -2.7134 1.8868
8.1192 -2.0751 1.8923
8.2754 -1.4200 1.8971
8.3760 -0.7529 1.9010
8.4197 -0.0788 1.9041
8.4062 0.5973 1.9064
8.3353 1.2703 1.9078
8.2074 1.9350 1.9083
8.0237 2.5864 1.9079
7.7853 3.2196 1.9066
7.4944 3.8298 1.9045
7.1532 4.4124 1.9015
6.7645 4.9633 1.8976
6.3314 5.4785 1.8930
5.8575 5.9544 1.8876
5.3589 6.4023 1.8858
4.8311 6.8157 1.8858
4.2719 7.1862 1.8858
3.6847 7.5113 1.8858
3.0797 7.8064 1.8899
2.6379 8.6654 2.0382
1.9364 8.8573 2.0382
1.2211 8.9929 2.0382
0.4967 9.0712 2.0382
-0.2324 9.0915 2.0382
-0.9616 9.0534 2.0382
-1.6861 8.9571 2.0382
-2.4014 8.8030 2.0382
-3.1028 8.5919 2.0382
-3.7858 8.3250 2.0382
-4.4458 8.0037 2.0382
-5.0786 7.6301 2.0382
-5.6799 7.2064 2.0382
-6.2457 6.7352 2.0382
-6.7722 6.2193 2.0382
-7.2559 5.6622 2.0382
-7.6934 5.0673 2.0382
-8.0817 4.4385 2.0382
-8.4181 3.7798 2.0382
-8.7004 3.0955 2.0382
-8.9264 2.3902 2.0382
-9.0946 1.6684 2.0382
-9.2038 0.9350 2.0382
-9.2531 0.1948 2.0382
-9.2422 -0.5473 2.0382
-9.1711 -1.2862 2.0382
-9.0401 -2.0171 2.0382
-8.8502 -2.7349 2.0382
-8.6025 -3.4350 2.0382
-8.2989 -4.1127 2.0382
-7.9412 -4.7633 2.0382
-7.5320 -5.3825 2.0382
-7.0739 -5.9664 2.0382
-6.5702 -6.5109 2.0382
-6.0243 -7.0125 2.0382
-5.4397 -7.4680 2.0382
-4.8206 -7.8743 2.0382
-4.1711 -8.2289 2.0382
-3.4955 -8.5295 2.0382
-2.7983 -8.7744 2.0382
-2.0843 -8.9619 2.0382
-1.3581 -9.0911 2.0382
-0.6246 -9.1613 2.0382
0.1114 -9.1721 2.0382
0.8452 -9.1237 2.0382
1.5720 -9.0166 2.0382
0.6203 -2.4006 0.5528
0.8106 -2.3430 0.5533
1.0066 -2.2951 0.5600
1.2083 -2.2459 0.5705
1.4185 -2.1946 0.5852
1.6409 -2.1403 0.6046
1.8796 -2.0820 0.6295
2.1400 -2.0185 0.6609
2.4291 -1.9480 0.7002
6.9356 -4.7007 1.8858
7.2839 -4.1258 1.8858
7.5852 -3.5255 1.8858
7.8345 -2.9025 1.8850
8.0611 -2.2702 1.8907
8.2340 -1.6197 1.8957
8.3515 -0.9557 1.8999
8.4125 -0.2832 1.9033
8.4164 0.3929 1.9058
8.3628 1.0673 1.9075
-8.1288 0.6267 2.0382
-8.1558 -0.0265 2.0382
-8.1299 -0.6799 2.0382
-8.0510 -1.3291 2.0382
-7.9196 -1.9700 2.0382
-7.7367 -2.5981 2.0382
-7.5035 -3.2093 2.0382
-7.2215 -3.7996 2.0382
-6.8926 -4.3649 2.0382
-6.5190 -4.9016 2.0382
-6.1033 -5.4061 2.0382
-5.6482 -5.8750 2.0382
-5.1568 -6.3054 2.0382
-4.6325 -6.6944 2.0382
-4.0787 -7.0395 2.0382
-3.4991 -7.3385 2.0382
-2.8978 -7.5895 2.0382
-2.2786 -7.7909 2.0382
-1.6456 -7.9417 2.0382
-1.0031 -8.0408 2.0382
-0.3552 -8.0878 2.0382
0.2938 -8.0825 2.0382
0.9397 -8.0250 2.0382
1.5782 -7.9160 2.0382
0.6756 -2.3761 0.6244
0.8693 -2.3288 0.6289
1.0668 -2.2806 0.6377
1.2707 -2.2308 0.6509
1.4842 -2.1787 0.6690
1.7111 -2.1234 0.6927
1.9558 -2.0637 0.7229
2.2240 -1.9983 0.7609
2.5236 -1.9252 0.8084
6.2226 -4.0010 1.8858
6.5185 -3.4864 1.8858
6.7723 -2.9503 1.8858
6.9826 -2.3961 1.8858
7.1481 -1.8273 1.8858
7.2679 -1.2474 1.8858
7.3413 -0.6602 1.8857
7.3785 -0.0692 1.8885
7.3658 0.5232 1.8904
7.3032 1.1129 1.8917
7.1911 1.6953 1.8921
7.0303 2.2662 1.8918
6.8220 2.8212 1.8906
6.5679 3.3564 1.8888
6.2699 3.8678 1.8861
5.9397 4.3585 1.8858
5.5729 4.8225 1.8858
5.1702 5.2561 1.8858
4.7343 5.6566 1.8858
4.2677 6.0215 1.8858
3.7733 6.3483 1.8858
3.3172 6.7633 1.9222
2.9330 7.4357 2.0382
2.3291 7.6530 2.0382
1.7093 7.8217 2.0382
1.0776 7.9406 2.0382
0.4378 8.0087 2.0382
-0.2059 8.0257 2.0382
-0.8495 7.9911 2.0382
-1.4888 7.9052 2.0382
-2.1199 7.7682 2.0382
-2.7385 7.5809 2.0382
-3.3407 7.3444 2.0382
-3.9225 7.0601 2.0382
-4.4801 6.7297 2.0382
-5.0099 6.3552 2.0382
-5.5082 5.9389 2.0382
-5.9718 5.4834 2.0382
-6.3976 4.9917 2.0382
-6.7826 4.4668 2.0382
-7.1242 3.9120 2.0382
-7.4201 3.3311 2.0382
-7.6682 2.7278 2.0382
-7.8668 2.1060 2.0382
-8.0145 1.4699 2.0382
-8.1102 0.8236 2.0382
-8.1533 0.1714 2.0382
-8.1433 -0.4824 2.0382
-8.0804 -1.1334 2.0382
-7.9648 -1.7772 2.0382
-7.7975 -2.4096 2.0382
-7.5793 -3.0264 2.0382
-7.3119 -3.6234 2.0382
-6.9969 -4.1967 2.0382
-6.6366 -4.7424 2.0382
-6.2333 -5.2571 2.0382
-5.7898 -5.7371 2.0382
-5.3091 -6.1795 2.0382
-4.7944 -6.5812 2.0382
-4.2491 -6.9399 2.0382
-3.6770 -7.2530 2.0382
-3.0818 -7.5187 2.0382
-2.4676 -7.7353 2.0382
-1.8383 -7.9015 2.0382
-1.1982 -8.0163 2.0382
-0.5515 -8.0791 2.0382
0.0976 -8.0896 2.0382
0.7448 -8.0479 2.0382
1.3861 -7.9544 2.0382
0.6174 -2.3904 0.6238
0.8105 -2.3432 0.6271
1.0065 -2.2953 0.6346
1.2081 -2.2461 0.6464
1.4184 -2.1948 0.6630
1.6408 -2.1405 0.6849
1.8795 -2.0823 0.7130
2.1400 -2.0188 0.7485
2.4291 -1.9483 0.7929
6.1384 -4.1611 1.8898
6.4333 -3.6445 1.8858
6.7000 -3.1146 1.8858
6.9236 -2.5655 1.8858
7.1028 -2.0007 1.8858
7.2365 -1.4238 1.8858
7.3203 -0.8380 1.8848
7.3725 -0.2484 1.8877
7.3749 0.3441 1.8899
7.3274 0.9351 1.8914
-7.2545 0.5590 2.0382
-7.2784 -0.0238 2.0382
-7.2550 -0.6069 2.0382
-7.1844 -1.1862 2.0382
-7.0671 -1.7580 2.0382
-6.9039 -2.3184 2.0382
-6.6958 -2.8638 2.0382
-6.4443 -3.3905 2.0382
-6.1509 -3.8950 2.0382
-5.8177 -4.3740 2.0382
-5.4469 -4.8244 2.0382
-5.0411 -5.2431 2.0382
-4.6028 -5.6275 2.0382
-4.1351 -5.9750 2.0382
-3.6411 -6.2834 2.0382
-3.1240 -6.5507 2.0382
-2.5875 -6.7752 2.0382
-2.0348 -6.9557 2.0382
-1.4699 -7.0908 2.0382
-0.8963 -7.1800 2.0382
-0.3178 -7.2226 2.0382
0.2618 -7.2186 2.0382
0.8387 -7.1680 2.0382
1.4092 -7.0713 2.0382
0.6755 -2.3764 0.6990
0.8692 -2.3291 0.7040
1.0666 -2.2809 0.7137
1.2706 -2.2311 0.7284
1.4841 -2.1790 0.7486
1.7110 -2.1236 0.7751
1.9557 -2.0639 0.8088
2.2240 -1.9985 0.8512
2.5235 -1.9255 0.9043
5.8585 -3.7675 1.9859
5.8281 -3.1177 1.8858
6.0555 -2.6385 1.8858
6.2440 -2.1430 1.8858
6.3924 -1.6344 1.8858
6.4998 -1.1159 1.8858
6.5658 -0.5907 1.8858
6.5898 -0.0620 1.8858
6.5718 0.4667 1.8858
6.5119 0.9922 1.8858
6.4105 1.5112 1.8858
6.2683 2.0206 1.8858
6.0861 2.5170 1.8858
5.8651 2.9974 1.8858
5.6067 3.4588 1.8858
5.3124 3.8984 1.8858
4.9841 4.3133 1.8858
4.6238 4.7010 1.8858
4.2336 5.0589 1.8858
3.8225 5.3940 1.8889
3.5150 5.9144 1.9646
3.1445 6.4123 2.0382
2.6219 6.6483 2.0382
2.0818 6.8421 2.0382
1.5275 6.9923 2.0382
0.9627 7.0980 2.0382
0.3907 7.1583 2.0382
-0.1846 7.1727 2.0382
-0.7598 7.1412 2.0382
-1.3310 7.0636 2.0382
-1.8947 6.9405 2.0382
-2.4472 6.7725 2.0382
-2.9849 6.5606 2.0382
-3.5042 6.3060 2.0382
-4.0019 6.0103 2.0382
-4.4746 5.6752 2.0382
-4.9192 5.3030 2.0382
-5.3327 4.8958 2.0382
-5.7123 4.4563 2.0382
-6.0555 3.9873 2.0382
-6.3600 3.4919 2.0382
-6.6236 2.9731 2.0382
-6.8446 2.4344 2.0382
-7.0215 1.8793 2.0382
-7.1529 1.3115 2.0382
-7.2380 0.7347 2.0382
-7.2761 0.1527 2.0382
-7.2670 -0.4307 2.0382
-7.2107 -1.0115 2.0382
-7.1075 -1.5860 2.0382
-6.9581 -2.1503 2.0382
-6.7634 -2.7006 2.0382
-6.5249 -3.2333 2.0382
-6.2440 -3.7449 2.0382
-5.9226 -4.2320 2.0382
-5.5629 -4.6913 2.0382
-5.1674 -5.1199 2.0382
-4.7386 -5.5150 2.0382
-4.2795 -5.8739 2.0382
-3.7931 -6.1943 2.0382
-3.2827 -6.4742 2.0382
-2.7517 -6.7119 2.0382
-2.2035 -6.9058 2.0382
-1.6419 -7.0548 2.0382
-1.0705 -7.1579 2.0382
-0.4931 -7.2146 2.0382
0.0865 -7.2247 2.0382
0.6646 -7.1882 2.0382
1.2375 -7.1054 2.0382
0.6172 -2.3906 0.6984
0.8103 -2.3435 0.7020
1.0063 -2.2956 0.7103
1.2080 -2.2464 0.7234
1.4183 -2.1950 0.7419
1.6407 -2.1408 0.7664
1.8794 -2.0825 0.7977
2.1399 -2.0190 0.8373
2.4290 -1.9485 0.8870
5.9068 -4.0046 2.0342
5.7645 -3.2662 1.8899
5.9907 -2.7853 1.8858
6.1911 -2.2945 1.8858
6.3517 -1.7895 1.8858
6.4717 -1.2736 1.8858
6.5502 -0.7501 1.8858
6.5869 -0.2221 1.8858
6.5816 0.3069 1.8858
6.5344 0.8337 1.8858
-6.5399 0.5037 2.0382
-6.5612 -0.0217 2.0382
-6.5400 -0.5472 2.0382
-6.4762 -1.0694 2.0382
-6.3705 -1.5847 2.0382
-6.2234 -2.0899 2.0382
-6.0358 -2.5815 2.0382
-5.8091 -3.0562 2.0382
-5.5448 -3.5111 2.0382
-5.2446 -3.9429 2.0382
-4.9105 -4.3490 2.0382
-4.5448 -4.7266 2.0382
-4.1499 -5.0733 2.0382
-3.7285 -5.3868 2.0382
-3.2833 -5.6651 2.0382
-2.8173 -5.9065 2.0382
-2.3336 -6.1093 2.0382
-1.8355 -6.2724 2.0382
-1.3261 -6.3948 2.0382
-0.8089 -6.4756 2.0382
-0.2872 -6.5146 2.0382
0.2356 -6.5114 2.0382
0.7560 -6.4663 2.0382
1.2707 -6.3796 2.0382
0.6753 -2.3766 0.7748
0.8690 -2.3293 0.7803
1.0665 -2.2811 0.7910
1.2704 -2.2313 0.8072
1.4840 -2.1792 0.8295
1.7109 -2.1239 0.8588
1.9556 -2.0642 0.8961
2.2239 -1.9988 0.9430
2.5235 -1.9258 1.0018
5.4281 -3.4912 2.0382
5.6719 -3.0346 2.0327
5.5449 -2.4166 1.9125
5.6379 -1.9354 1.8858
5.7722 -1.4762 1.8858
5.8695 -1.0079 1.8858
5.9292 -0.5336 1.8858
5.9511 -0.0562 1.8858
5.9349 0.4213 1.8858
5.8810 0.8960 1.8858
5.7895 1.3648 1.8858
5.6610 1.8248 1.8858
5.4965 2.2731 1.8858
5.2968 2.7070 1.8858
5.0634 3.1238 1.8858
4.7975 3.5207 1.8858
4.5008 3.8953 1.8858
4.1753 4.2453 1.8858
3.8482 4.6005 1.8985
3.6802 5.1938 2.0142
3.2922 5.5403 2.0382
2.8388 5.7897 2.0382
2.3667 6.0025 2.0382
1.8789 6.1770 2.0382
1.3784 6.3122 2.0382
0.8684 6.4072 2.0382
0.3521 6.4611 2.0382
-0.1672 6.4736 2.0382
-0.6862 6.4446 2.0382
-1.2017 6.3741 2.0382
-1.7102 6.2625 2.0382
-2.2086 6.1104 2.0382
-2.6935 5.9187 2.0382
-3.1618 5.6886 2.0382
-3.6105 5.4213 2.0382
-4.0366 5.1187 2.0382
-4.4372 4.7826 2.0382
-4.8098 4.4150 2.0382
-5.1518 4.0184 2.0382
-5.4609 3.5952 2.0382
-5.7351 3.1482 2.0382
-5.9724 2.6803 2.0382
-6.1713 2.1945 2.0382
-6.3304 1.6940 2.0382
-6.4486 1.1821 2.0382
-6.5251 0.6621 2.0382
-6.5592 0.1375 2.0382
-6.5509 -0.3884 2.0382
-6.5000 -0.9119 2.0382
-6.4069 -1.4297 2.0382
-6.2722 -1.9383 2.0382
-6.0967 -2.4344 2.0382
-5.8818 -2.9145 2.0382
-5.6286 -3.3757 2.0382
-5.3391 -3.8148 2.0382
-5.0150 -4.2290 2.0382
-4.6586 -4.6155 2.0382
-4.2723 -4.9718 2.0382
-3.8586 -5.2956 2.0382
-3.4203 -5.5847 2.0382
-2.9603 -5.8374 2.0382
-2.4816 -6.0521 2.0382
-1.9875 -6.2273 2.0382
-1.4812 -6.3621 2.0382
-0.9660 -6.4556 2.0382
-0.4453 -6.5072 2.0382
0.0775 -6.5168 2.0382
0.5990 -6.4844 2.0382
1.1158 -6.4102 2.0382
0.6170 -2.3909 0.7741
0.8101 -2.3437 0.7781
1.0062 -2.2958 0.7872
1.2079 -2.2466 0.8017
1.4182 -2.1953 0.8221
1.6406 -2.1410 0.8491
1.8794 -2.0828 0.8838
2.1398 -2.0193 0.9276
2.4290 -1.9488 0.9826
5.3427 -3.6228 2.0382
5.6125 -3.1805 2.0382
5.5820 -2.5957 1.9461
5.5901 -2.0721 1.8858
5.7354 -1.6162 1.8858
5.8440 -1.1504 1.8858
5.9151 -0.6776 1.8858
5.9485 -0.2008 1.8858
5.9438 0.2770 1.8858
5.9013 0.7528 1.8858
-5.9440 0.4576 2.0382
-5.9633 -0.0199 2.0382
-5.9438 -0.4975 2.0382
-5.8859 -0.9720 2.0382
-5.7897 -1.4403 2.0382
-5.6560 -1.8993 2.0382
-5.4856 -2.3461 2.0382
-5.2796 -2.7775 2.0382
-5.0395 -3.1909 2.0382
-4.7667 -3.5834 2.0382
-4.4632 -3.9526 2.0382
-4.1310 -4.2959 2.0382
-3.7722 -4.6111 2.0382
-3.3893 -4.8962 2.0382
-2.9848 -5.1494 2.0382
-2.5614 -5.3691 2.0382
-0.7659 -2.0046 0.7357
-1.6691 -5.7023 2.0382
-1.2061 -5.8139 2.0382
-0.7360 -5.8878 2.0382
-0.2617 -5.9236 2.0382
0.2137 -5.9211 2.0382
0.6870 -5.8805 2.0382
1.1551 -5.8020 2.0382
0.6751 -2.3769 0.8519
0.7494 -2.0093 0.7400
1.0663 -2.2814 0.8696
1.2703 -2.2316 0.8874
1.4839 -2.1795 0.9119
1.7108 -2.1241 0.9440
1.9555 -2.0645 0.9849
2.2238 -1.9991 1.0364
2.5235 -1.9260 1.1010
4.9392 -3.1773 2.0382
5.1751 -2.7692 2.0382
5.3776 -2.3439 2.0382
5.3947 -1.8523 1.9827
5.2911 -1.3534 1.8993
5.3527 -0.9194 1.8895
5.3966 -0.4859 1.8858
5.4166 -0.0513 1.8858
5.4021 0.3834 1.8858
5.3530 0.8154 1.8858
5.2697 1.2422 1.8858
5.1529 1.6610 1.8858
5.0031 2.0691 1.8858
4.8213 2.4641 1.8858
4.6087 2.8434 1.8858
4.3666 3.2046 1.8858
4.1087 3.5562 1.8914
3.9694 4.0363 1.9698
3.7602 4.4941 2.0382
3.3890 4.7833 2.0382
2.9958 5.0422 2.0382
2.5830 5.2690 2.0382
2.1533 5.4623 2.0382
1.7093 5.6209 2.0382
1.2538 5.7436 2.0382
0.7897 5.8296 2.0382
0.3199 5.8783 2.0382
-0.1526 5.8894 2.0382
-0.6248 5.8626 2.0382
-1.0936 5.7981 2.0382
-1.5561 5.6961 2.0382
-2.0093 5.5574 2.0382
-2.4501 5.3827 2.0382
-2.8759 5.1730 2.0382
-3.2837 4.9296 2.0382
-3.6709 4.6541 2.0382
-4.0349 4.3482 2.0382
-4.3734 4.0138 2.0382
-4.6840 3.6530 2.0382
-4.9648 3.2681 2.0382
-5.2137 2.8616 2.0382
-5.4292 2.4361 2.0382
-5.6098 1.9947 2.0382
-5.7541 1.5395 2.0382
-5.8613 1.0742 2.0382
-5.9306 0.6016 2.0382
-5.9615 0.1247 2.0382
-5.9538 -0.3531 2.0382
-5.9074 -0.8289 2.0382
-5.8228 -1.2994 2.0382
-5.7003 -1.7616 2.0382
-5.5409 -2.2124 2.0382
-5.3456 -2.6488 2.0382
-5.1156 -3.0679 2.0382
-4.8526 -3.4670 2.0382
-4.5582 -3.8435 2.0382
-4.2344 -4.1949 2.0382
-3.8834 -4.5188 2.0382
-3.5076 -4.8133 2.0382
-3.1093 -5.0763 2.0382
-2.6913 -5.3062 2.0382
-2.2564 -5.5016 2.0382
-1.8073 -5.6612 2.0382
-1.3471 -5.7841 2.0382
-0.8788 -5.8694 2.0382
-0.4054 -5.9168 2.0382
0.0699 -5.9259 2.0382
0.5442 -5.8968 2.0382
1.0142 -5.8297 2.0382
0.6169 -2.3911 0.8512
0.7004 -2.0269 0.7398
1.0060 -2.2961 0.8655
1.2077 -2.2469 0.8814
1.4181 -2.1955 0.9037
1.6405 -2.1413 0.9334
1.8793 -2.0830 0.9715
2.1398 -2.0195 1.0196
2.4289 -1.9491 1.0799
4.8614 -3.2970 2.0382
5.1071 -2.8946 2.0382
5.3199 -2.4743 2.0382
5.4280 -2.0124 2.0120
5.3208 -1.4997 1.9222
5.3188 -1.0472 1.8858
5.3837 -0.6169 1.8858
5.4142 -0.1829 1.8858
5.4101 0.2520 1.8858
5.3715 0.6852 1.8858
-5.4389 0.4184 2.0382
-5.4564 -0.0184 2.0382
-5.4385 -0.4553 2.0382
-5.3854 -0.8894 2.0382
-5.2974 -1.3179 2.0382
-5.1750 -1.7378 2.0382
-5.0191 -2.1465 2.0382
-4.8307 -2.5413 2.0382
-4.6111 -2.9195 2.0382
-4.3616 -3.2787 2.0382
-4.0840 -3.6165 2.0382
-3.7802 -3.9307 2.0382
-3.4520 -4.2192 2.0382
-3.1018 -4.4803 2.0382
-2.7317 -4.7121 2.0382
-2.3444 -4.9133 2.0382
-0.7017 -1.8362 0.7363
-0.5522 -1.8861 0.7366
-0.3993 -1.9240 0.7369
-0.2439 -1.9495 0.7373
-0.0869 -1.9626 0.7377
0.0707 -1.9630 0.7382
0.2277 -1.9510 0.7387
0.3833 -1.9264 0.7392
0.5365 -1.8895 0.7397
0.6862 -1.8404 0.7403
1.0662 -2.2816 0.9498
1.2702 -2.2318 0.9692
1.4838 -2.1797 0.9959
1.7107 -2.1244 1.0309
1.9554 -2.0647 1.0755
2.2238 -1.9993 1.1317
2.5234 -1.9263 1.2022
4.5236 -2.9105 2.0382
4.7399 -2.5368 2.0382
4.9256 -2.1473 2.0382
5.0796 -1.7443 2.0382
5.2011 -1.3307 2.0382
5.1595 -0.8865 1.9882
5.0659 -0.4564 1.9323
4.9810 -0.0473 1.8929
4.9489 0.3511 1.8858
4.9040 0.7470 1.8858
4.8278 1.1380 1.8858
4.7207 1.5217 1.8858
4.5834 1.8956 1.8858
4.4249 2.2616 1.8892
4.3114 2.6602 1.9257
4.1990 3.0818 1.9795
4.0559 3.5107 2.0382
3.7622 3.8260 2.0382
3.4443 4.1170 2.0382
3.1041 4.3818 2.0382
2.7438 4.6188 2.0382
2.3656 4.8264 2.0382
0.7263 1.8429 0.7507
0.5763 1.8956 0.7504
0.4225 1.9360 0.7501
0.2659 1.9640 0.7498
0.2924 5.3832 2.0382
-0.1403 5.3930 2.0382
-0.2103 1.9712 0.7484
-0.3676 1.9481 0.7479
-0.5226 1.9123 0.7474
-0.6742 1.8642 0.7468
-2.2436 4.9276 2.0382
-2.6332 4.7354 2.0382
-3.0063 4.5123 2.0382
-3.3605 4.2599 2.0382
-3.6936 3.9797 2.0382
-4.0031 3.6733 2.0382
-4.2872 3.3430 2.0382
-4.5439 2.9906 2.0382
-4.7716 2.6185 2.0382
-4.9685 2.2290 2.0382
-5.1335 1.8248 2.0382
-5.2655 1.4085 2.0382
-5.3634 0.9827 2.0382
-5.4266 0.5502 2.0382
-5.4548 0.1140 2.0382
-5.4476 -0.3232 2.0382
-5.4051 -0.7585 2.0382
-5.3276 -1.1890 2.0382
-5.2156 -1.6118 2.0382
-5.0698 -2.0242 2.0382
-4.8911 -2.4235 2.0382
-4.6807 -2.8070 2.0382
-4.4401 -3.1722 2.0382
-4.1709 -3.5167 2.0382
-3.8748 -3.8382 2.0382
-3.5537 -4.1347 2.0382
-3.2099 -4.4043 2.0382
-2.8456 -4.6451 2.0382
-2.4633 -4.8558 2.0382
-0.7461 -1.8187 0.7363
-0.5979 -1.8723 0.7365
-0.4459 -1.9138 0.7368
-0.2911 -1.9431 0.7372
-0.1345 -1.9599 0.7376
0.0230 -1.9642 0.7380
0.1803 -1.9559 0.7385
0.3365 -1.9351 0.7390
0.4905 -1.9019 0.7395
0.6414 -1.8565 0.7401
1.0059 -2.2963 0.9453
1.2076 -2.2471 0.9626
1.4179 -2.1958 0.9870
1.6404 -2.1415 1.0193
1.8792 -2.0833 1.0609
2.1397 -2.0198 1.1133
2.4289 -1.9493 1.1792
4.4524 -3.0200 2.0382
4.6776 -2.6516 2.0382
4.8727 -2.2667 2.0382
5.0365 -1.8675 2.0382
5.1678 -1.4568 2.0382
5.1885 -1.0219 2.0082
5.0939 -0.5839 1.9477
5.0021 -0.1693 1.9018
4.9562 0.2309 1.8858
4.9209 0.6276 1.8858
-5.0045 0.3849 2.0382
-5.0205 -0.0170 2.0382
-5.0040 -0.4190 2.0382
-4.9551 -0.8184 2.0382
-4.8741 -1.2126 2.0382
-4.7615 -1.5990 2.0382
-4.6181 -1.9750 2.0382
-4.4448 -2.3382 2.0382
-4.2427 -2.6862 2.0382
-4.0133 -3.0167 2.0382
-3.7580 -3.3275 2.0382
-3.4785 -3.6167 2.0382
-3.1766 -3.8822 2.0382
-2.8545 -4.1225 2.0382
-2.5141 -4.3360 2.0382
-0.7799 -1.6342 0.7367
-0.6464 -1.6911 0.7369
-0.5087 -1.7371 0.7372
-0.3679 -1.7719 0.7375
-0.2247 -1.7955 0.7378
-0.0802 -1.8075 0.7382
0.0649 -1.8079 0.7386
0.2096 -1.7968 0.7390
0.3529 -1.7741 0.7395
0.4939 -1.7401 0.7400
0.6318 -1.6950 0.7405
0.7657 -1.6389 0.7411
1.2700 -2.2321 1.0528
1.4837 -2.1800 1.0817
1.7106 -2.1247 1.1196
1.9553 -2.0650 1.1681
2.2237 -1.9996 1.2291
2.5234 -1.9266 1.3056
4.1656 -2.6805 2.0382
4.3649 -2.3365 2.0382
4.5361 -1.9779 2.0382
4.6782 -1.6069 2.0382
4.7901 -1.2258 2.0382
4.8712 -0.8369 2.0382
4.9213 -0.4435 2.0382
4.9398 -0.0471 2.0382
4.8570 0.3444 2.0093
4.7680 0.7262 1.9906
4.6780 1.1026 1.9838
4.5860 1.4782 1.9889
4.4908 1.8573 2.0060
4.3913 2.2445 2.0355
4.2030 2.5933 2.0382
3.9820 2.9228 2.0382
3.7355 3.2338 2.0382
3.4650 3.5240 2.0382
3.1721 3.7919 2.0382
2.8586 4.0357 2.0382
2.5267 4.2539 2.0382
2.1783 4.4449 2.0382
0.6682 1.6959 0.7501
0.5301 1.7443 0.7499
0.3886 1.7816 0.7496
0.2445 1.8073 0.7493
0.0988 1.8213 0.7489
-0.0476 1.8235 0.7485
-0.1937 1.8139 0.7480
-0.3385 1.7926 0.7476
-0.4811 1.7598 0.7471
-0.6206 1.7155 0.7465
-0.7561 1.6602 0.7460
-2.4242 4.3587 2.0382
-2.7676 4.1532 2.0382
-3.0935 3.9206 2.0382
-3.3998 3.6625 2.0382
-3.6846 3.3805 2.0382
-3.9459 3.0763 2.0382
-4.1819 2.7519 2.0382
-4.3912 2.4093 2.0382
-4.5723 2.0509 2.0382
-4.7240 1.6789 2.0382
-4.8452 1.2958 2.0382
-4.9352 0.9040 2.0382
-4.9933 0.5061 2.0382
-5.0191 0.1047 2.0382
-5.0124 -0.2976 2.0382
-4.9733 -0.6981 2.0382
-4.9019 -1.0941 2.0382
-4.7988 -1.4831 2.0382
-4.6647 -1.8625 2.0382
-4.5003 -2.2298 2.0382
-4.3068 -2.5826 2.0382
-4.0855 -2.9186 2.0382
-3.8379 -3.2357 2.0382
-3.5655 -3.5316 2.0382
-3.2702 -3.8045 2.0382
-2.9540 -4.0526 2.0382
-2.6189 -4.2744 2.0382
-2.2671 -4.4683 2.0382
-0.6872 -1.6750 0.7368
-0.5508 -1.7243 0.7371
-0.4108 -1.7626 0.7374
-0.2682 -1.7895 0.7377
-0.1240 -1.8051 0.7381
0.0210 -1.8090 0.7385
0.1659 -1.8014 0.7389
0.3097 -1.7822 0.7394
0.4515 -1.7516 0.7398
0.5905 -1.7098 0.7404
0.7257 -1.6570 0.7409
1.2075 -2.2474 1.0456
1.4178 -2.1961 1.0721
1.6403 -2.1418 1.1071
1.8791 -2.0836 1.1522
2.1396 -2.0201 1.2091
2.4288 -1.9496 1.2806
4.0999 -2.7814 2.0382
4.3075 -2.4423 2.0382
4.4874 -2.0878 2.0382
4.6383 -1.7203 2.0382
4.7595 -1.3420 2.0382
4.8500 -0.9553 2.0382
4.9095 -0.5630 2.0382
4.9375 -0.1672 2.0382
4.8839 0.2272 2.0175
4.7950 0.6114 1.9950
-4.6265 0.3556 2.0382
-4.6412 -0.0159 2.0382
-4.6259 -0.3875 2.0382
-4.5806 -0.7567 2.0382
-4.5057 -1.1210 2.0382
-4.4016 -1.4781 2.0382
-4.2691 -1.8257 2.0382
-4.1089 -2.1614 2.0382
-3.9222 -2.4831 2.0382
-3.7102 -2.7886 2.0382
-3.4742 -3.0760 2.0382
-3.2159 -3.3433 2.0382
-2.9370 -3.5889 2.0382
-2.6392 -3.8112 2.0382
-2.3246 -4.0086 2.0382
-0.7217 -1.5119 0.7372
-0.5981 -1.5645 0.7374
-0.4708 -1.6071 0.7376
-0.3405 -1.6394 0.7379
-0.2081 -1.6611 0.7382
-0.0743 -1.6723 0.7386
0.0599 -1.6727 0.7390
0.1937 -1.6624 0.7394
0.3263 -1.6414 0.7398
0.4568 -1.6099 0.7403
0.5844 -1.5681 0.7407
0.7082 -1.5163 0.7412
1.2699 -2.2324 1.1383
1.4835 -2.1803 1.1695
1.7105 -2.1249 1.2105
1.9552 -2.0653 1.2628
2.2236 -1.9999 1.3287
2.5233 -1.9269 1.4114
3.8534 -2.4801 2.0382
4.0380 -2.1619 2.0382
4.1965 -1.8301 2.0382
4.3280 -1.4869 2.0382
4.4317 -1.1344 2.0382
4.5070 -0.7748 2.0382
4.5533 -0.4105 2.0382
4.5705 -0.0438 2.0382
4.5583 0.3233 2.0382
4.5171 0.6879 2.0382
4.4469 1.0481 2.0382
4.3483 1.4016 2.0382
4.2218 1.7461 2.0382
4.0683 2.0796 2.0382
3.8888 2.3996 2.0382
3.6843 2.7044 2.0382
3.4561 2.9920 2.0382
3.2057 3.2606 2.0382
2.9346 3.5084 2.0382
2.6445 3.7340 2.0382
2.3373 3.9357 2.0382
0.7413 1.5129 0.7498
0.6177 1.5679 0.7496
0.4900 1.6127 0.7494
0.3591 1.6471 0.7491
0.2259 1.6708 0.7488
0.0912 1.6838 0.7485
-0.0442 1.6858 0.7481
-0.1792 1.6770 0.7477
-0.3131 1.6573 0.7472
-0.4450 1.6269 0.7468
-0.5739 1.5860 0.7463
-0.6992 1.5349 0.7458
-2.2423 4.0306 2.0382
-2.5597 3.8404 2.0382
-2.8609 3.6252 2.0382
-3.1441 3.3864 2.0382
-3.4072 3.1254 2.0382
-3.6487 2.8441 2.0382
-3.8668 2.5440 2.0382
-4.0601 2.2273 2.0382
-4.2274 1.8959 2.0382
-4.3675 1.5519 2.0382
-4.4795 1.1977 2.0382
-4.5625 0.8355 2.0382
-4.6161 0.4677 2.0382
-4.6399 0.0966 2.0382
-4.6337 -0.2752 2.0382
-4.5975 -0.6454 2.0382
-4.5315 -1.0114 2.0382
-4.4362 -1.3710 2.0382
-4.3121 -1.7217 2.0382
-4.1602 -2.0612 2.0382
-3.9814 -2.3874 2.0382
-3.7769 -2.6980 2.0382
-3.5480 -2.9911 2.0382
-3.2963 -3.2647 2.0382
-3.0234 -3.5170 2.0382
-2.7312 -3.7465 2.0382
-2.4214 -3.9516 2.0382
-0.7582 -1.4940 0.7371
-0.6359 -1.5496 0.7373
-0.5097 -1.5953 0.7376
-0.3802 -1.6307 0.7378
-0.2483 -1.6557 0.7381
-0.1149 -1.6700 0.7385
0.0193 -1.6737 0.7388
0.1533 -1.6666 0.7392
0.2864 -1.6489 0.7397
0.4176 -1.6206 0.7401
0.5461 -1.5819 0.7406
0.6712 -1.5330 0.7411
1.2073 -2.2476 1.1306
1.4177 -2.1963 1.1591
1.6401 -2.1421 1.1970
1.8790 -2.0839 1.2457
2.1395 -2.0204 1.3072
2.4288 -1.9499 1.3843
3.7926 -2.5734 2.0382
3.9848 -2.2597 2.0382
4.1514 -1.9318 2.0382
4.2911 -1.5918 2.0382
4.4033 -1.2419 2.0382
4.4872 -0.8842 2.0382
4.5423 -0.5211 2.0382
4.5684 -0.1548 2.0382
4.5651 0.2123 2.0382
4.5326 0.5779 2.0382
-4.2940 0.3299 2.0382
-4.3076 -0.0149 2.0382
-4.2933 -0.3597 2.0382
-4.2513 -0.7023 2.0382
-4.1818 -1.0404 2.0382
-4.0852 -1.3719 2.0382
-3.9622 -1.6944 2.0382
-3.8136 -2.0060 2.0382
-3.6403 -2.3045 2.0382
-3.4436 -2.5881 2.0382
-3.2247 -2.8548 2.0382
-2.9850 -3.1030 2.0382
-2.7262 -3.3310 2.0382
-2.4499 -3.5373 2.0382
-0.7808 -1.3463 0.7375
-0.6704 -1.4042 0.7376
-0.5557 -1.4530 0.7378
-0.4374 -1.4926 0.7380
-0.3164 -1.5226 0.7383
-0.1934 -1.5428 0.7386
-0.0692 -1.5531 0.7389
0.0555 -1.5535 0.7393
0.1798 -1.5439 0.7397
0.3029 -1.5245 0.7401
0.4241 -1.4952 0.7405
0.5426 -1.4564 0.7409
0.6576 -1.4082 0.7414
0.7684 -1.3510 0.7419
1.4834 -2.1805 1.2596
1.7104 -2.1252 1.3037
1.9551 -2.0656 1.3600
2.2236 -2.0002 1.4309
2.5233 -1.9272 1.5198
3.5784 -2.3035 2.0382
3.7499 -2.0080 2.0382
3.8973 -1.6999 2.0382
4.0195 -1.3812 2.0382
4.1159 -1.0538 2.0382
4.1859 -0.7198 2.0382
4.2290 -0.3814 2.0382
4.2450 -0.0408 2.0382
4.2338 0.3000 2.0382
4.1955 0.6388 2.0382
4.1304 0.9734 2.0382
4.0388 1.3018 2.0382
3.9213 1.6218 2.0382
3.7787 1.9315 2.0382
3.6119 2.2288 2.0382
3.4219 2.5119 2.0382
3.2099 2.7791 2.0382
2.9772 3.0285 2.0382
2.7254 3.2587 2.0382
2.4559 3.4681 2.0382
2.1705 3.6553 2.0382
0.6879 1.4043 0.7494
0.5732 1.4552 0.7492
0.4546 1.4968 0.7490
0.3332 1.5287 0.7487
0.2095 1.5508 0.7484
0.0845 1.5628 0.7481
-0.0411 1.5647 0.7478
-0.1665 1.5565 0.7474
-0.2908 1.5383 0.7470
-0.4132 1.5101 0.7465
-0.5329 1.4721 0.7461
-0.6492 1.4247 0.7456
-0.7612 1.3680 0.7452
-2.3767 3.5651 2.0382
-2.6562 3.3652 2.0382
-2.9190 3.1434 2.0382
-3.1632 2.9010 2.0382
-3.3872 2.6398 2.0382
-3.5895 2.3612 2.0382
-3.7689 2.0671 2.0382
-3.9240 1.7595 2.0382
-4.0539 1.4402 2.0382
-4.1578 1.1114 2.0382
-4.2348 0.7752 2.0382
-4.2844 0.4339 2.0382
-4.3064 0.0895 2.0382
-4.3006 -0.2555 2.0382
-4.2669 -0.5990 2.0382
-4.2057 -0.9388 2.0382
-4.1172 -1.2724 2.0382
-4.0021 -1.5979 2.0382
-3.8612 -1.9130 2.0382
-3.6953 -2.2157 2.0382
-3.5055 -2.5040 2.0382
-3.2931 -2.7760 2.0382
-3.0596 -3.0299 2.0382
-2.8064 -3.2642 2.0382
-2.5352 -3.4772 2.0382
-2.2478 -3.6677 2.0382
-0.7043 -1.3876 0.7376
-0.5908 -1.4392 0.7378
-0.4735 -1.4816 0.7380
-0.3533 -1.5145 0.7382
-0.2308 -1.5377 0.7385
-0.1068 -1.5511 0.7388
0.0178 -1.5544 0.7392
0.1422 -1.5479 0.7395
0.2658 -1.5314 0.7399
0.3877 -1.5051 0.7404
0.5070 -1.4692 0.7408
0.6232 -1.4238 0.7413
0.7353 -1.3693 0.7417
1.4175 -2.1966 1.2484
1.6400 -2.1424 1.2891
1.8789 -2.0841 1.3415
2.1394 -2.0207 1.4077
2.4287 -1.9502 1.4908
3.5219 -2.3901 2.0382
3.7005 -2.0988 2.0382
3.8553 -1.7944 2.0382
3.9852 -1.4786 2.0382
4.0895 -1.1536 2.0382
4.1675 -0.8214 2.0382
4.2188 -0.4842 2.0382
4.2430 -0.1440 2.0382
4.2401 0.1970 2.0382
4.2100 0.5367 2.0382
-3.9989 0.3071 2.0382
-4.0115 -0.0140 2.0382
-3.9982 -0.3351 2.0382
-3.9590 -0.6541 2.0382
-3.8942 -0.9689 2.0382
-3.8043 -1.2775 2.0382
-3.6898 -1.5779 2.0382
-3.5514 -1.8680 2.0382
-3.3901 -2.1460 2.0382
-3.2069 -2.4101 2.0382
-3.0031 -2.6585 2.0382
-2.7800 -2.8896 2.0382
-2.5390 -3.1019 2.0382
-2.2818 -3.2941 2.0382
-0.7277 -1.2545 0.7379
-0.6248 -1.3084 0.7380
-0.5179 -1.3540 0.7382
-0.4077 -1.3908 0.7384
-0.2950 -1.4188 0.7387
-0.1804 -1.4376 0.7389
-0.0646 -1.4472 0.7392
0.0515 -1.4476 0.7396
0.1674 -1.4387 0.7399
0.2821 -1.4205 0.7403
0.3950 -1.3933 0.7407
0.5054 -1.3571 0.7411
0.6126 -1.3122 0.7415
0.7158 -1.2589 0.7420
1.4833 -2.1808 1.3521
1.7102 -2.1255 1.3994
1.9550 -2.0659 1.4598
2.2235 -2.0005 1.5359
2.5232 -1.9275 1.6313
3.3340 -2.1465 2.0382
3.4939 -1.8713 2.0382
3.6312 -1.5842 2.0382
3.7452 -1.2872 2.0382
3.8352 -0.9821 2.0382
3.9004 -0.6709 2.0382
3.9407 -0.3556 2.0382
3.9556 -0.0381 2.0382
3.9453 0.2795 2.0382
3.9096 0.5952 2.0382
3.8489 0.9071 2.0382
3.7635 1.2131 2.0382
3.6540 1.5113 2.0382
3.5211 1.7999 2.0382
3.3656 2.0770 2.0382
3.1885 2.3408 2.0382
2.9909 2.5897 2.0382
2.7741 2.8221 2.0382
2.5393 3.0366 2.0382
2.2882 3.2316 2.0382
0.7433 1.2519 0.7491
0.6405 1.3078 0.7490
0.5336 1.3552 0.7488
0.4233 1.3940 0.7486
0.3101 1.4237 0.7484
0.1950 1.4442 0.7481
0.0785 1.4554 0.7478
-0.0385 1.4572 0.7475
-0.1552 1.4495 0.7471
-0.2709 1.4325 0.7467
-0.3849 1.4063 0.7463
-0.4964 1.3709 0.7459
-0.6047 1.3268 0.7455
-0.7091 1.2740 0.7450
-2.2141 3.3205 2.0382
-2.4745 3.1342 2.0382
-2.7191 2.9275 2.0382
-2.9464 2.7018 2.0382
-3.1549 2.4584 2.0382
-3.3433 2.1988 2.0382
-3.5102 1.9249 2.0382
-3.6546 1.6384 2.0382
-3.7756 1.3410 2.0382
-3.8721 1.0348 2.0382
-3.9438 0.7218 2.0382
-3.9900 0.4039 2.0382
-4.0104 0.0832 2.0382
-4.0049 -0.2381 2.0382
-3.9736 -0.5579 2.0382
-3.9165 -0.8742 2.0382
-3.8341 -1.1849 2.0382
-3.7270 -1.4880 2.0382
-3.5957 -1.7814 2.0382
-3.4413 -2.0633 2.0382
-3.2646 -2.3317 2.0382
-3.0669 -2.5851 2.0382
-2.8494 -2.8216 2.0382
-2.6137 -3.0398 2.0382
-2.3612 -3.2382 2.0382
-0.7579 -1.2365 0.7379
-0.6564 -1.2930 0.7380
-0.5506 -1.3411 0.7382
-0.4414 -1.3806 0.7384
-0.3293 -1.4113 0.7386
-0.2152 -1.4329 0.7388
-0.0997 -1.4453 0.7391
0.0164 -1.4485 0.7395
0.1324 -1.4424 0.7398
0.2475 -1.4270 0.7402
0.3611 -1.4025 0.7406
0.4723 -1.3690 0.7410
0.5805 -1.3267 0.7414
0.6850 -1.2759 0.7418
1.4174 -2.1969 1.3401
1.6399 -2.1426 1.3838
1.8788 -2.0844 1.4400
2.1394 -2.0210 1.5110
2.4287 -1.9505 1.6001
3.2813 -2.2272 2.0382
3.4478 -1.9559 2.0382
3.5921 -1.6722 2.0382
3.7133 -1.3780 2.0382
3.8105 -1.0752 2.0382
3.8833 -0.7656 2.0382
3.9312 -0.4513 2.0382
3.9538 -0.1343 2.0382
3.9511 0.1835 2.0382
3.9230 0.5000 2.0382
-3.7347 0.2866 2.0382
-3.7465 -0.0132 2.0382
-3.7340 -0.3131 2.0382
-3.6974 -0.6109 2.0382
-3.6369 -0.9049 2.0382
-3.5529 -1.1931 2.0382
-3.4460 -1.4736 2.0382
-3.3168 -1.7445 2.0382
-3.1662 -2.0041 2.0382
-2.9951 -2.2507 2.0382
-2.8048 -2.4827 2.0382
-2.5965 -2.6986 2.0382
-2.3715 -2.8969 2.0382
-0.7719 -1.1142 0.7382
-0.6801 -1.1722 0.7383
-0.5839 -1.2226 0.7384
-0.4840 -1.2652 0.7386
-0.3811 -1.2996 0.7388
-0.2758 -1.3257 0.7390
-0.1687 -1.3434 0.7392
-0.0605 -1.3524 0.7395
0.0480 -1.3527 0.7398
0.1562 -1.3443 0.7402
0.2634 -1.3274 0.7405
0.3689 -1.3019 0.7409
0.4721 -1.2681 0.7413
0.5722 -1.2261 0.7417
0.6687 -1.1763 0.7421
0.7609 -1.1189 0.7425
1.7101 -2.1258 1.4979
1.9549 -2.0662 1.5625
2.2234 -2.0008 1.6439
2.5232 -1.9278 1.7461
3.1149 -2.0058 2.0382
3.2644 -1.7487 2.0382
3.3928 -1.4805 2.0382
3.4994 -1.2030 2.0382
3.5835 -0.9179 2.0382
3.6446 -0.6271 2.0382
3.6822 -0.3324 2.0382
3.6962 -0.0358 2.0382
3.6866 0.2611 2.0382
3.6533 0.5561 2.0382
3.5965 0.8476 2.0382
3.5168 1.1335 2.0382
3.4144 1.4123 2.0382
3.2902 1.6819 2.0382
3.1449 1.9409 2.0382
2.9794 2.1874 2.0382
2.7947 2.4200 2.0382
2.5920 2.6372 2.0382
2.3726 2.8375 2.0382
0.7855 1.1095 0.7488
0.6941 1.1692 0.7487
0.5981 1.2214 0.7486
0.4983 1.2657 0.7485
0.3952 1.3019 0.7483
0.2895 1.3296 0.7480
0.1820 1.3488 0.7478
0.0732 1.3592 0.7475
-0.0361 1.3609 0.7472
-0.1451 1.3538 0.7469
-0.2532 1.3379 0.7465
-0.3597 1.3134 0.7461
-0.4638 1.2804 0.7458
-0.5649 1.2391 0.7454
-0.6624 1.1899 0.7449
-0.7556 1.1330 0.7445
-2.3117 2.9274 2.0382
-2.5401 2.7343 2.0382
-2.7524 2.5233 2.0382
-2.9471 2.2959 2.0382
-3.1229 2.0535 2.0382
-3.2787 1.7976 2.0382
-3.4135 1.5300 2.0382
-3.5264 1.2523 2.0382
-3.6165 0.9663 2.0382
-3.6834 0.6739 2.0382
-3.7264 0.3770 2.0382
-3.7455 0.0776 2.0382
-3.7403 -0.2225 2.0382
-3.7110 -0.5211 2.0382
-3.6577 -0.8165 2.0382
-3.5808 -1.1067 2.0382
-3.4807 -1.3896 2.0382
-3.3581 -1.6636 2.0382
-3.2139 -1.9269 2.0382
-3.0490 -2.1776 2.0382
-2.8644 -2.4142 2.0382
-2.6614 -2.6351 2.0382
-2.4412 -2.8389 2.0382
-2.2055 -3.0242 2.0382
-0.7083 -1.1554 0.7382
-0.6134 -1.2082 0.7383
-0.5146 -1.2531 0.7385
-0.4125 -1.2901 0.7387
-0.3078 -1.3187 0.7389
-0.2012 -1.3389 0.7392
-0.0933 -1.3505 0.7394
0.0152 -1.3535 0.7397
0.1236 -1.3478 0.7401
0.2312 -1.3334 0.7404
0.3372 -1.3105 0.7408
0.4412 -1.2792 0.7411
0.5423 -1.2397 0.7415
0.6399 -1.1922 0.7420
0.7335 -1.1371 0.7424
1.6398 -2.1429 1.4813
1.8787 -2.0847 1.5414
2.1393 -2.0213 1.6173
2.4286 -1.9509 1.7127
3.0656 -2.0812 2.0382
3.2213 -1.8277 2.0382
3.3562 -1.5627 2.0382
3.4695 -1.2878 2.0382
3.5605 -1.0048 2.0382
3.6285 -0.7156 2.0382
3.6733 -0.4219 2.0382
3.6945 -0.1256 2.0382
3.6920 0.1713 2.0382
3.6658 0.4671 2.0382
-3.4966 0.2682 2.0382
-3.5075 -0.0125 2.0382
-3.4958 -0.2932 2.0382
-3.4615 -0.5720 2.0382
-3.4049 -0.8472 2.0382
-3.3263 -1.1170 2.0382
-3.2262 -1.3796 2.0382
-3.1052 -1.6332 2.0382
-2.9643 -1.8762 2.0382
-2.8042 -2.1071 2.0382
-2.6261 -2.3243 2.0382
-2.4311 -2.5264 2.0382
-2.2205 -2.7121 2.0382
-0.7231 -1.0436 0.7385
-0.6371 -1.0979 0.7386
-0.5470 -1.1451 0.7387
-0.4535 -1.1850 0.7389
-0.3571 -1.2173 0.7390
-0.2584 -1.2418 0.7393
-0.1581 -1.2583 0.7395
-0.0568 -1.2667 0.7398
0.0448 -1.2670 0.7401
0.1462 -1.2592 0.7404
0.2466 -1.2433 0.7407
0.3454 -1.2195 0.7410
0.4420 -1.1878 0.7414
0.5358 -1.1485 0.7418
0.6262 -1.1018 0.7422
0.7125 -1.0480 0.7426
1.7100 -2.1261 1.5996
1.9548 -2.0665 1.6685
2.2233 -2.0011 1.7554
2.7582 -2.1078 2.0382
2.9171 -1.8789 2.0382
3.0572 -1.6380 2.0382
3.1776 -1.3869 2.0382
3.2775 -1.1269 2.0382
3.3563 -0.8599 2.0382
3.4136 -0.5876 2.0382
3.4489 -0.3115 2.0382
3.4621 -0.0336 2.0382
3.4530 0.2444 2.0382
3.4218 0.5208 2.0382
3.3687 0.7938 2.0382
3.2940 1.0617 2.0382
3.1981 1.3228 2.0382
3.0818 1.5755 2.0382
2.9456 1.8180 2.0382
2.7905 2.0489 2.0382
2.6175 2.2668 2.0382
2.4276 2.4702 2.0382
2.2221 2.6578 2.0382
0.7353 1.0387 0.7485
0.6497 1.0946 0.7484
0.5598 1.1435 0.7483
0.4664 1.1850 0.7481
0.3699 1.2188 0.7480
0.2709 1.2448 0.7477
0.1702 1.2627 0.7475
0.0684 1.2725 0.7472
-0.0339 1.2741 0.7470
-0.1360 1.2674 0.7467
-0.2372 1.2525 0.7463
-0.3369 1.2296 0.7460
-0.4344 1.1987 0.7456
-0.5291 1.1601 0.7452
-0.6203 1.1140 0.7448
-0.7076 1.0607 0.7444
-2.1649 2.7409 2.0382
-2.3787 2.5600 2.0382
-2.5773 2.3624 2.0382
-2.7596 2.1494 2.0382
-2.9241 1.9224 2.0382
-3.0700 1.6829 2.0382
-3.1961 1.4322 2.0382
-3.3017 1.1722 2.0382
-3.3860 0.9045 2.0382
-3.4485 0.6307 2.0382
-3.4888 0.3528 2.0382
-3.5066 0.0725 2.0382
-3.5018 -0.2084 2.0382
-3.4743 -0.4880 2.0382
-3.4244 -0.7645 2.0382
-3.3523 -1.0361 2.0382
-3.2587 -1.3010 2.0382
-3.1440 -1.5575 2.0382
-3.0090 -1.8039 2.0382
-2.8546 -2.0386 2.0382
-2.6818 -2.2601 2.0382
-2.4918 -2.4669 2.0382
-2.2857 -2.6577 2.0382
-0.7482 -1.0259 0.7385
-0.6636 -1.0822 0.7386
-0.5747 -1.1316 0.7387
-0.4821 -1.1738 0.7388
-0.3865 -1.2084 0.7390
-0.2885 -1.2352 0.7392
-0.1886 -1.2541 0.7394
-0.0875 -1.2650 0.7397
0.0141 -1.2678 0.7400
0.1156 -1.2624 0.7403
0.2164 -1.2490 0.7406
0.3157 -1.2275 0.7409
0.4131 -1.1982 0.7413
0.5078 -1.1612 0.7417
0.5992 -1.1167 0.7421
0.6868 -1.0650 0.7424
0.7700 -1.0065 0.7428
1.8786 -2.0850 1.6459
2.1392 -2.0216 1.7270
2.4286 -1.9512 1.8288
2.8710 -1.9495 2.0382
3.0169 -1.7121 2.0382
3.1433 -1.4638 2.0382
3.2495 -1.2064 2.0382
3.3347 -0.9414 2.0382
3.3985 -0.6704 2.0382
3.4405 -0.3953 2.0382
3.4604 -0.1178 2.0382
3.4581 0.1604 2.0382
3.4336 0.4375 2.0382
-3.2804 0.2515 2.0382
-3.2907 -0.0118 2.0382
-3.2797 -0.2751 2.0382
-3.2475 -0.5367 2.0382
-3.1944 -0.7949 2.0382
-3.1206 -1.0479 2.0382
-3.0267 -1.2942 2.0382
-2.9132 -1.5322 2.0382
-2.7810 -1.7601 2.0382
-2.6309 -1.9767 2.0382
-2.4638 -2.1805 2.0382
-2.2809 -2.3701 2.0382
-0.7551 -0.9222 0.7387
-0.6788 -0.9795 0.7388
-0.5980 -1.0305 0.7389
-0.5135 -1.0748 0.7390
-0.4258 -1.1122 0.7391
-0.3353 -1.1425 0.7393
-0.2427 -1.1655 0.7395
-0.1485 -1.1810 0.7397
-0.0534 -1.1889 0.7400
0.0420 -1.1892 0.7403
0.1371 -1.1819 0.7406
0.2313 -1.1669 0.7409
0.3241 -1.1445 0.7412
0.4147 -1.1148 0.7415
0.5027 -1.0779 0.7419
0.5875 -1.0341 0.7423
0.6685 -0.9836 0.7426
0.7453 -0.9268 0.7430
1.9547 -2.0668 1.7781
2.4223 -2.1806 2.0382
2.5883 -1.9784 2.0382
2.7375 -1.7635 2.0382
2.8690 -1.5375 2.0382
2.9821 -1.3018 2.0382
3.0759 -1.0579 2.0382
3.1499 -0.8073 2.0382
3.2037 -0.5516 2.0382
3.2368 -0.2925 2.0382
3.2492 -0.0317 2.0382
3.2408 0.2293 2.0382
3.2115 0.4888 2.0382
3.1617 0.7450 2.0382
3.0916 0.9965 2.0382
3.0016 1.2416 2.0382
2.8924 1.4787 2.0382
2.7645 1.7063 2.0382
2.6190 1.9231 2.0382
2.4565 2.1276 2.0382
2.2783 2.3184 2.0382
0.7655 0.9158 0.7482
0.6897 0.9745 0.7482
0.6094 1.0269 0.7481
0.5251 1.0728 0.7480
0.4374 1.1117 0.7478
0.3469 1.1434 0.7477
0.2540 1.1678 0.7475
0.1596 1.1846 0.7473
0.0640 1.1938 0.7470
-0.0319 1.1952 0.7467
-0.1277 1.1890 0.7465
-0.2226 1.1750 0.7461
-0.3162 1.1535 0.7458
-0.4076 1.1246 0.7455
-0.4965 1.0883 0.7451
-0.5821 1.0451 0.7448
-0.6640 0.9951 0.7444
-0.7416 0.9387 0.7440
-2.2321 2.4018 2.0382
-2.4185 2.2163 2.0382
-2.5894 2.0165 2.0382
-2.7437 1.8035 2.0382
-2.8805 1.5787 2.0382
-2.9987 1.3435 2.0382
-3.0977 1.0996 2.0382
-3.1768 0.8484 2.0382
-3.2354 0.5916 2.0382
-3.2732 0.3309 2.0382
-3.2898 0.0679 2.0382
-3.2852 -0.1956 2.0382
-3.2595 -0.4579 2.0382
-3.2126 -0.7173 2.0382
-3.1451 -0.9720 2.0382
-3.0572 -1.2205 2.0382
-2.9496 -1.4611 2.0382
-2.8230 -1.6923 2.0382
-2.6782 -1.9125 2.0382
-2.5161 -2.1203 2.0382
-2.3379 -2.3143 2.0382
-0.7773 -0.9037 0.7387
-0.7023 -0.9628 0.7388
-0.6229 -1.0157 0.7389
-0.5395 -1.0621 0.7390
-0.4526 -1.1016 0.7391
-0.3629 -1.1341 0.7393
-0.2709 -1.1593 0.7395
-0.1771 -1.1771 0.7397
-0.0823 -1.1873 0.7399
0.0131 -1.1899 0.7402
0.1084 -1.1849 0.7405
0.2029 -1.1722 0.7408
0.2962 -1.1521 0.7411
0.3876 -1.1246 0.7414
0.4764 -1.0898 0.7418
0.5622 -1.0481 0.7421
0.6445 -0.9996 0.7425
0.7225 -0.9447 0.7429
1.8785 -2.0854 1.7540
2.1391 -2.0219 1.8404
2.5398 -2.0409 2.0382
2.6942 -1.8298 2.0382
2.8312 -1.6070 2.0382
2.9499 -1.3740 2.0382
3.0496 -1.1324 2.0382
3.1296 -0.8837 2.0382
3.1896 -0.6294 2.0382
3.2290 -0.3712 2.0382
3.2477 -0.1107 2.0382
3.2455 0.1504 2.0382
3.2226 0.4105 2.0382
-3.0831 0.2362 2.0382
-3.0927 -0.0112 2.0382
-3.0823 -0.2587 2.0382
-3.0521 -0.5045 2.0382
-3.0021 -0.7471 2.0382
-2.9328 -0.9849 2.0382
-2.8446 -1.2163 2.0382
-2.7380 -1.4399 2.0382
-2.6137 -1.6542 2.0382
-2.4727 -1.8577 2.0382
-2.3157 -2.0492 2.0382
-0.7773 -0.8076 0.7390
-0.7100 -0.8671 0.7390
-0.6382 -0.9209 0.7391
-0.5624 -0.9688 0.7392
-0.4829 -1.0105 0.7393
-0.4004 -1.0457 0.7394
-0.3153 -1.0742 0.7396
-0.2283 -1.0958 0.7398
-0.1398 -1.1103 0.7400
-0.0504 -1.1178 0.7402
0.0393 -1.1181 0.7405
0.1288 -1.1112 0.7407
0.2174 -1.0971 0.7410
0.3045 -1.0761 0.7413
0.3898 -1.0481 0.7416
0.4725 -1.0134 0.7420
0.5522 -0.9722 0.7423
0.6284 -0.9248 0.7427
0.7005 -0.8714 0.7430
0.7682 -0.8124 0.7434
2.2769 -2.0502 2.0382
2.4330 -1.8600 2.0382
2.5733 -1.6581 2.0382
2.6970 -1.4456 2.0382
2.8034 -1.2240 2.0382
2.8916 -0.9947 2.0382
2.9612 -0.7591 2.0382
3.0118 -0.5187 2.0382
3.0430 -0.2752 2.0382
3.0547 -0.0299 2.0382
3.0468 0.2155 2.0382
3.0193 0.4594 2.0382
2.9724 0.7004 2.0382
2.9065 0.9368 2.0382
2.8219 1.1673 2.0382
2.7192 1.3902 2.0382
2.5990 1.6043 2.0382
2.4621 1.8081 2.0382
2.3094 2.0003 2.0382
0.7860 0.7999 0.7480
0.7194 0.8606 0.7479
0.6481 0.9158 0.7479
0.5726 0.9651 0.7478
0.4934 1.0082 0.7477
0.4110 1.0447 0.7476
0.3259 1.0746 0.7474
0.2386 1.0975 0.7472
0.1498 1.1133 0.7470
0.0601 1.1219 0.7468
-0.0301 1.1233 0.7466
-0.1201 1.1174 0.7463
-0.2094 1.1043 0.7460
-0.2973 1.0841 0.7457
-0.3832 1.0569 0.7454
-0.4667 1.0228 0.7450
-0.5472 0.9822 0.7447
-0.6242 0.9352 0.7443
-0.6971 0.8822 0.7440
-0.7655 0.8235 0.7436
-2.2733 2.0829 2.0382
-2.4339 1.8950 2.0382
-2.5789 1.6948 2.0382
-2.7074 1.4835 2.0382
-2.8185 1.2625 2.0382
-2.9115 1.0332 2.0382
-2.9858 0.7972 2.0382
-3.0408 0.5558 2.0382
-3.0763 0.3108 2.0382
-3.0919 0.0637 2.0382
-3.0876 -0.1839 2.0382
-3.0633 -0.4304 2.0382
-3.0193 -0.6741 2.0382
-2.9558 -0.9135 2.0382
-2.8732 -1.1471 2.0382
-2.7721 -1.3732 2.0382
-2.6531 -1.5904 2.0382
-2.5171 -1.7973 2.0382
-2.3648 -1.9926 2.0382
-2.1973 -2.1750 2.0382
-0.7309 -0.8496 0.7390
-0.6604 -0.9052 0.7391
-0.5857 -0.9549 0.7391
-0.5073 -0.9986 0.7392
-0.4257 -1.0357 0.7394
-0.3413 -1.0663 0.7395
-0.2548 -1.0900 0.7397
-0.1667 -1.1067 0.7399
-0.0775 -1.1163 0.7401
0.0122 -1.1187 0.7404
0.1018 -1.1140 0.7406
0.1907 -1.1021 0.7409
0.2783 -1.0832 0.7412
0.3642 -1.0573 0.7416
0.4478 -1.0246 0.7419
0.5285 -0.9854 0.7422
0.6057 -0.9398 0.7426
0.6791 -0.8881 0.7429
0.7482 -0.8308 0.7433
2.2267 -2.1052 2.0382
2.3874 -1.9189 2.0382
2.5326 -1.7204 2.0382
2.6614 -1.5110 2.0382
2.7731 -1.2920 2.0382
2.8668 -1.0648 2.0382
2.9422 -0.8310 2.0382
2.9985 -0.5919 2.0382
3.0357 -0.3491 2.0382
3.0533 -0.1042 2.0382
3.0513 0.1413 2.0382
3.0297 0.3859 2.0382
-2.9019 0.2222 2.0382
-2.9109 -0.0107 2.0382
-2.9012 -0.2436 2.0382
-2.8727 -0.4749 2.0382
-2.8257 -0.7032 2.0382
-2.7604 -0.9270 2.0382
-2.6774 -1.1448 2.0382
-2.5771 -1.3552 2.0382
-2.4602 -1.5569 2.0382
-2.3274 -1.7484 2.0382
-2.1797 -1.9287 2.0382
-0.7319 -0.7604 0.7393
-0.6686 -0.8163 0.7393
-0.6010 -0.8670 0.7393
-0.5296 -0.9122 0.7394
-0.4548 -0.9514 0.7395
-0.3771 -0.9846 0.7396
-0.2970 -1.0114 0.7398
-0.2150 -1.0317 0.7400
-0.1317 -1.0454 0.7402
-0.0475 -1.0524 0.7404
0.0369 -1.0527 0.7406
0.1211 -1.0462 0.7409
0.2045 -1.0330 0.7412
0.2866 -1.0132 0.7415
0.3669 -0.9868 0.7418
0.4448 -0.9542 0.7421
0.5198 -0.9154 0.7424
0.5915 -0.8707 0.7427
0.6594 -0.8204 0.7431
0.7231 -0.7649 0.7434
0.7821 -0.7044 0.7437
2.2903 -1.7513 2.0382
2.4225 -1.5612 2.0382
2.5390 -1.3612 2.0382
2.6391 -1.1526 2.0382
2.7222 -0.9367 2.0382
2.7878 -0.7149 2.0382
2.8355 -0.4886 2.0382
2.8649 -0.2592 2.0382
2.8760 -0.0283 2.0382
2.8685 0.2028 2.0382
2.8426 0.4325 2.0382
2.7985 0.6594 2.0382
2.7364 0.8820 2.0382
2.6568 1.0990 2.0382
2.5601 1.3089 2.0382
2.4469 1.5105 2.0382
2.3180 1.7023 2.0382
2.1741 1.8833 2.0382
0.7397 0.7529 0.7477
0.6770 0.8100 0.7477
0.6099 0.8620 0.7476
0.5388 0.9083 0.7476
0.4643 0.9489 0.7475
0.3867 0.9833 0.7473
0.3066 1.0114 0.7472
0.2245 1.0329 0.7470
0.1409 1.0478 0.7468
0.0564 1.0559 0.7466
-0.0285 1.0572 0.7464
-0.1132 1.0516 0.7461
-0.1972 1.0393 0.7458
-0.2799 1.0203 0.7456
-0.3608 0.9947 0.7452
-0.4394 0.9626 0.7449
-0.5152 0.9244 0.7446
-0.5876 0.8802 0.7443
-0.6563 0.8303 0.7439
-0.7207 0.7751 0.7436
-2.1401 1.9604 2.0382
-2.2912 1.7835 2.0382
-2.4276 1.5950 2.0382
-2.5485 1.3961 2.0382
-2.6531 1.1881 2.0382
-2.7405 0.9723 2.0382
-2.8104 0.7501 2.0382
-2.8622 0.5230 2.0382
-2.8955 0.2924 2.0382
-2.9102 0.0598 2.0382
-2.9061 -0.1732 2.0382
-2.8833 -0.4052 2.0382
-2.8418 -0.6345 2.0382
-2.7821 -0.8599 2.0382
-2.7043 -1.0796 2.0382
-2.6092 -1.2924 2.0382
-2.4972 -1.4969 2.0382
-2.3692 -1.6916 2.0382
-2.2259 -1.8754 2.0382
-0.7502 -0.7425 0.7393
-0.6882 -0.8000 0.7393
-0.6219 -0.8523 0.7393
-0.5516 -0.8991 0.7394
-0.4777 -0.9402 0.7395
-0.4009 -0.9752 0.7396
-0.3215 -1.0039 0.7398
-0.2400 -1.0263 0.7399
-0.1570 -1.0420 0.7401
-0.0731 -1.0510 0.7403
0.0114 -1.0533 0.7406
0.0957 -1.0489 0.7408
0.1794 -1.0377 0.7411
0.2619 -1.0199 0.7414
0.3428 -0.9955 0.7417
0.4215 -0.9647 0.7420
0.4974 -0.9277 0.7423
0.5702 -0.8848 0.7426
0.6393 -0.8362 0.7430
0.7043 -0.7822 0.7433
0.7648 -0.7232 0.7436
2.2474 -1.8067 2.0382
2.3841 -1.6198 2.0382
2.5054 -1.4227 2.0382
2.6106 -1.2165 2.0382
2.6989 -1.0027 2.0382
2.7699 -0.7825 2.0382
2.8230 -0.5574 2.0382
2.8580 -0.3288 2.0382
2.8746 -0.0982 2.0382
2.8727 0.1330 2.0382
2.8524 0.3632 2.0382
-2.7347 0.2092 2.0382
-2.7432 -0.0102 2.0382
-2.7340 -0.2296 2.0382
-2.7071 -0.4476 2.0382
-2.6628 -0.6627 2.0382
-2.6014 -0.8736 2.0382
-2.5231 -1.0788 2.0382
-2.4286 -1.2771 2.0382
-2.3185 -1.4671 2.0382
-2.1934 -1.6476 2.0382
-0.7453 -0.6594 0.7395
-0.6900 -0.7168 0.7395
-0.6304 -0.7695 0.7395
-0.5666 -0.8173 0.7396
-0.4993 -0.8599 0.7396
-0.4288 -0.8969 0.7397
-0.3556 -0.9281 0.7399
-0.2801 -0.9534 0.7400
-0.2028 -0.9726 0.7402
-0.1243 -0.9855 0.7404
-0.0449 -0.9921 0.7406
0.0347 -0.9924 0.7408
0.1140 -0.9862 0.7410
0.1927 -0.9738 0.7413
0.2700 -0.9551 0.7416
0.3457 -0.9303 0.7419
0.4191 -0.8995 0.7422
0.4898 -0.8629 0.7425
0.5574 -0.8208 0.7428
0.6214 -0.7734 0.7431
0.6814 -0.7210 0.7434
0.7371 -0.6640 0.7437
2.1586 -1.6510 2.0382
2.2832 -1.4718 2.0382
2.3930 -1.2833 2.0382
2.4875 -1.0866 2.0382
2.5659 -0.8831 2.0382
2.6277 -0.6740 2.0382
2.6727 -0.4607 2.0382
2.7004 -0.2445 2.0382
2.7109 -0.0268 2.0382
2.7038 0.1911 2.0382
2.6795 0.4076 2.0382
2.6379 0.6215 2.0382
2.5794 0.8314 2.0382
2.5043 1.0359 2.0382
2.4131 1.2338 2.0382
2.3064 1.4238 2.0382
2.1848 1.6047 2.0382
0.7515 0.6511 0.7474
0.6969 0.7095 0.7475
0.6379 0.7633 0.7474
0.5746 0.8123 0.7474
0.5077 0.8560 0.7473
0.4374 0.8941 0.7472
0.3643 0.9266 0.7471
0.2888 0.9530 0.7470
0.2114 0.9733 0.7468
0.1327 0.9873 0.7466
0.0530 0.9950 0.7464
-0.0270 0.9962 0.7462
-0.1068 0.9910 0.7460
-0.1859 0.9794 0.7457
-0.2639 0.9614 0.7454
-0.3402 0.9373 0.7451
-0.4142 0.9071 0.7449
-0.4856 0.8711 0.7445
-0.5539 0.8294 0.7442
-0.6186 0.7824 0.7439
-0.6793 0.7304 0.7436
-0.7356 0.6737 0.7433
-2.1595 1.6806 2.0382
-2.2880 1.5030 2.0382
-2.4019 1.3155 2.0382
-2.5004 1.1195 2.0382
-2.5828 0.9161 2.0382
-2.6486 0.7067 2.0382
-2.6973 0.4927 2.0382
-2.7287 0.2754 2.0382
-2.7425 0.0563 2.0382
-2.7386 -0.1633 2.0382
-2.7171 -0.3819 2.0382
-2.6781 -0.5980 2.0382
-2.6217 -0.8103 2.0382
-2.5485 -1.0174 2.0382
-2.4589 -1.2179 2.0382
-2.3534 -1.4105 2.0382
-2.2328 -1.5941 2.0382
-0.7611 -0.6412 0.7395
-0.7073 -0.6999 0.7395
-0.6489 -0.7541 0.7395
-0.5863 -0.8034 0.7396
-0.5200 -0.8476 0.7396
-0.4505 -0.8863 0.7397
-0.3780 -0.9193 0.7398
-0.3031 -0.9464 0.7400
-0.2264 -0.9674 0.7401
-0.1481 -0.9823 0.7403
-0.0690 -0.9908 0.7405
0.0106 -0.9930 0.7407
0.0901 -0.9888 0.7410
0.1690 -0.9782 0.7412
0.2468 -0.9614 0.7415
0.3230 -0.9384 0.7418
0.3972 -0.9094 0.7421
0.4688 -0.8745 0.7424
0.5373 -0.8341 0.7427
0.6025 -0.7882 0.7430
0.6637 -0.7373 0.7433
0.7207 -0.6817 0.7436
0.7731 -0.6217 0.7439
2.2470 -1.5270 2.0382
2.3614 -1.3412 2.0382
2.4606 -1.1469 2.0382
2.5439 -0.9453 2.0382
2.6108 -0.7378 2.0382
2.6609 -0.5256 2.0382
2.6939 -0.3101 2.0382
2.7095 -0.0927 2.0382
2.7078 0.1252 2.0382
2.6887 0.3423 2.0382
-2.5798 0.1972 2.0382
-2.5877 -0.0097 2.0382
-2.5790 -0.2167 2.0382
-2.5537 -0.4223 2.0382
-2.5119 -0.6252 2.0382
-2.4539 -0.8241 2.0382
-2.3801 -1.0176 2.0382
-2.2910 -1.2047 2.0382
-2.1871 -1.3839 2.0382
-0.7510 -0.5641 0.7398
-0.7033 -0.6222 0.7397
-0.6512 -0.6763 0.7397
-0.5949 -0.7261 0.7398
-0.5348 -0.7712 0.7398
-0.4712 -0.8113 0.7399
-0.4047 -0.8463 0.7400
-0.3356 -0.8757 0.7401
-0.2644 -0.8996 0.7402
-0.1915 -0.9177 0.7404
-0.1174 -0.9299 0.7405
-0.0425 -0.9361 0.7407
0.0326 -0.9364 0.7409
0.1075 -0.9306 0.7412
0.1817 -0.9188 0.7414
0.2547 -0.9012 0.7417
0.3260 -0.8778 0.7419
0.3953 -0.8487 0.7422
0.4621 -0.8142 0.7425
0.5258 -0.7744 0.7428
0.5862 -0.7297 0.7431
0.6428 -0.6803 0.7434
0.6953 -0.6265 0.7437
0.7433 -0.5687 0.7440
2.1540 -1.3888 2.0382
2.2577 -1.2111 2.0382
2.3468 -1.0254 2.0382
2.4208 -0.8334 2.0382
2.4792 -0.6361 2.0382
2.5216 -0.4348 2.0382
2.5478 -0.2308 2.0382
2.5577 -0.0254 2.0382
2.5511 0.1802 2.0382
2.5281 0.3845 2.0382
2.4889 0.5863 2.0382
2.4336 0.7844 2.0382
2.3628 0.9774 2.0382
2.2767 1.1642 2.0382
2.1760 1.3434 2.0382
0.7557 0.5551 0.7472
0.7088 0.6141 0.7472
0.6573 0.6692 0.7472
0.6016 0.7200 0.7472
0.5419 0.7662 0.7472
0.4787 0.8074 0.7471
0.4125 0.8434 0.7470
0.3435 0.8740 0.7469
0.2723 0.8989 0.7468
0.1993 0.9181 0.7466
0.1250 0.9313 0.7465
0.0499 0.9385 0.7463
-0.0256 0.9396 0.7460
-0.1009 0.9347 0.7458
-0.1755 0.9238 0.7456
-0.2490 0.9069 0.7453
-0.3210 0.8841 0.7451
-0.3909 0.8556 0.7448
-0.4582 0.8216 0.7445
-0.5226 0.7824 0.7442
-0.5836 0.7380 0.7439
-0.6409 0.6890 0.7436
-0.6940 0.6355 0.7433
-0.7427 0.5779 0.7430
-2.1586 1.4176 2.0382
-2.2660 1.2408 2.0382
-2.3588 1.0558 2.0382
-2.4365 0.8640 2.0382
-2.4985 0.6665 2.0382
-2.5445 0.4646 2.0382
-2.5741 0.2596 2.0382
-2.5871 0.0530 2.0382
-2.5834 -0.1541 2.0382
-2.5631 -0.3603 2.0382
-2.5263 -0.5642 2.0382
-2.4732 -0.7644 2.0382
-2.4041 -0.9597 2.0382
-2.3195 -1.1488 2.0382
-2.2201 -1.3305 2.0382
-0.7645 -0.5458 0.7398
-0.7183 -0.6050 0.7397
-0.6674 -0.6604 0.7397
-0.6123 -0.7115 0.7397
-0.5533 -0.7581 0.7398
-0.4908 -0.7997 0.7398
-0.4251 -0.8363 0.7399
-0.3568 -0.8674 0.7400
-0.2861 -0.8930 0.7402
-0.2137 -0.9128 0.7403
-0.1399 -0.9268 0.7405
-0.0652 -0.9349 0.7407
0.0099 -0.9369 0.7409
0.0849 -0.9330 0.7411
0.1593 -0.9230 0.7413
0.2327 -0.9072 0.7416
0.3047 -0.8855 0.7419
0.3746 -0.8581 0.7421
