ply
format ascii 1.0
element vertex 2150
property float32 x
property float32 y
property float32 z
end_header
-9.2472 11.9097 2.0385
-10.1848 11.1392 2.0385
-11.0578 10.2945 2.0385
-11.8603 9.3811 2.0385
-12.5868 8.4049 2.0385
-13.2322 7.3720 2.0385
-13.7921 6.2894 2.0385
-14.2625 5.1641 2.0385
-14.6401 4.0036 2.0385
-14.9222 2.8156 2.0385
-15.1067 1.6080 2.0385
-15.1923 0.3889 2.0385
-15.1785 -0.8334 2.0385
-15.0650 -2.0509 2.0385
-14.8526 -3.2552 2.0385
-14.5429 -4.4381 2.0385
-14.1378 -5.5919 2.0385
-13.6401 -6.7087 2.0385
-13.0532 -7.7810 2.0385
-12.3811 -8.8015 2.0385
-11.6284 -9.7638 2.0385
-10.8005 -10.6609 2.0385
-9.9028 -11.4874 2.0385
-8.9414 -12.2377 2.0385
-7.9230 -12.9070 2.0385
-6.8544 -13.4909 2.0385
-5.7430 -13.9859 2.0385
-4.5960 -14.3888 2.0385
-3.4214 -14.6973 2.0385
-0.6771 -4.5333 0.6198
-0.3074 -4.5265 0.6141
0.0573 -4.5199 0.6126
0.4215 -4.5133 0.6149
0.7903 -4.5066 0.6214
1.1685 -4.4998 0.6321
4.5495 -13.0884 1.8861
5.5806 -12.6663 1.8861
6.5936 -12.2004 1.8918
7.6083 -11.7160 1.9077
8.5850 -11.1437 1.9230
9.5154 -10.4862 1.9376
10.3912 -9.7469 1.9514
11.2042 -8.9302 1.9642
11.9468 -8.0416 1.9760
12.6118 -7.0872 1.9866
13.1925 -6.0742 1.9958
13.6831 -5.0103 2.0037
14.0784 -3.9042 2.0102
14.3743 -2.7649 2.0150
14.5676 -1.6022 2.0183
14.6565 -0.4260 2.0200
14.6398 0.7536 2.0201
14.5179 1.9264 2.0185
14.2921 3.0822 2.0153
4.1938 1.2647 0.6038
13.5395 5.3043 2.0041
13.0208 6.3521 1.9964
12.4140 7.3465 1.9872
11.7253 8.2800 1.9767
10.9616 9.1458 1.9651
10.1301 9.9380 1.9524
9.2388 10.6516 1.9387
8.2957 11.2825 1.9243
7.3091 11.8277 1.9091
6.2873 12.2848 1.8933
5.2636 12.7126 1.8861
4.2285 13.1066 1.8861
3.4198 14.5011 2.0385
2.2452 14.7439 2.0385
1.0539 14.8922 2.0385
-0.1469 14.9447 2.0385
-1.3492 14.9008 2.0385
-2.5454 14.7605 2.0385
-3.7278 14.5243 2.0385
-4.8887 14.1935 2.0385
-6.0204 13.7699 2.0385
-7.1155 13.2559 2.0385
-8.1667 12.6547 2.0385
-9.1670 11.9700 2.0385
-10.1096 11.2058 2.0385
-10.9882 10.3671 2.0385
-11.7968 9.4592 2.0385
-12.5297 8.4878 2.0385
-13.1820 7.4595 2.0385
-13.7491 6.3807 2.0385
-14.2271 5.2586 2.0385
-14.6124 4.1008 2.0385
-14.9025 2.9147 2.0385
-15.0952 1.7084 2.0385
-15.1891 0.4900 2.0385
-15.1834 -0.7325 2.0385
-15.0781 -1.9506 2.0385
-14.8739 -3.1563 2.0385
-14.5721 -4.3413 2.0385
-14.1748 -5.4978 2.0385
-13.6847 -6.6179 2.0385
-13.1050 -7.6941 2.0385
-12.4398 -8.7193 2.0385
-11.6937 -9.6864 2.0385
-10.8717 -10.5893 2.0385
-9.9795 -11.4218 2.0385
-9.0232 -12.1786 2.0385
-8.0092 -12.8548 2.0385
-6.9446 -13.4459 2.0385
-5.8363 -13.9484 2.0385
-4.6921 -14.3590 2.0385
-3.5194 -14.6754 2.0385
-0.7080 -4.5338 0.6205
-0.3377 -4.5271 0.6145
0.0272 -4.5205 0.6125
0.3913 -4.5139 0.6146
0.7595 -4.5072 0.6207
1.1367 -4.5004 0.6310
4.4627 -13.1196 1.8861
5.4968 -12.7043 1.8861
6.5082 -12.2365 1.8905
7.5257 -11.7594 1.9064
8.5059 -11.1943 1.9218
9.4404 -10.5437 1.9364
10.3210 -9.8110 1.9503
11.1395 -9.0006 1.9632
11.8883 -8.1177 1.9751
12.5599 -7.1685 1.9857
13.1479 -6.1600 1.9951
-7.0247 -10.3175 2.0385
-6.1688 -10.8416 2.0385
-5.2739 -11.2943 2.0385
-4.3459 -11.6729 2.0385
-3.3910 -11.9750 2.0385
-0.8986 -4.5377 0.7583
-0.5235 -4.5308 0.7483
-0.1565 -4.5242 0.7434
0.2075 -4.5176 0.7433
0.5730 -4.5109 0.7481
0.9451 -4.5042 0.7578
3.5046 -11.8614 2.0385
4.1104 -10.6680 1.8861
4.9502 -10.2942 1.8861
5.7565 -9.8541 1.8861
6.5440 -9.3793 1.8918
7.3173 -8.8719 1.9039
8.0486 -8.2981 1.9154
8.7317 -7.6610 1.9262
9.3605 -6.9649 1.9361
9.9294 -6.2143 1.9451
10.4332 -5.4147 1.9532
10.8669 -4.5719 1.9601
11.2267 -3.6924 1.9659
11.5088 -2.7830 1.9705
11.7107 -1.8510 1.9739
11.8304 -0.9041 1.9760
11.8665 0.0500 1.9768
11.8189 1.0036 1.9763
11.6881 1.9487 1.9745
11.4753 2.8776 1.9715
4.0615 1.3739 0.7145
10.8130 4.6571 1.9616
10.3701 5.4937 1.9550
9.8581 6.2863 1.9472
9.2818 7.0291 1.9385
8.6466 7.7170 1.9288
7.9581 8.3453 1.9183
7.2225 8.9101 1.9070
6.4459 9.4082 1.8951
5.6454 9.8554 1.8861
4.8381 10.2844 1.8861
3.9986 10.6479 1.8861
3.3851 11.8277 2.0385
2.4252 12.0715 2.0385
1.4482 12.2377 2.0385
0.4601 12.3254 2.0385
-0.5326 12.3335 2.0385
-1.5237 12.2620 2.0385
-2.5068 12.1111 2.0385
-3.4754 11.8814 2.0385
-4.4233 11.5743 2.0385
-5.3442 11.1916 2.0385
-6.2321 10.7355 2.0385
-7.0811 10.2090 2.0385
-7.8854 9.6151 2.0385
-8.6399 8.9577 2.0385
-9.3392 8.2409 2.0385
-9.9788 7.4692 2.0385
-10.5542 6.6478 2.0385
-11.0615 5.7819 2.0385
-11.4972 4.8772 2.0385
-11.8583 3.9396 2.0385
-12.1423 2.9753 2.0385
-12.3471 1.9907 2.0385
-12.4714 0.9924 2.0385
-12.5141 -0.0130 2.0385
-12.4750 -1.0187 2.0385
-12.3543 -2.0181 2.0385
-12.1527 -3.0045 2.0385
-11.8715 -3.9712 2.0385
-11.5128 -4.9118 2.0385
-11.0788 -5.8200 2.0385
-10.5726 -6.6897 2.0385
-9.9976 -7.5152 2.0385
-9.3576 -8.2910 2.0385
-8.6570 -9.0120 2.0385
-7.9006 -9.6734 2.0385
-7.0935 -10.2710 2.0385
-6.2412 -10.8009 2.0385
-5.3492 -11.2597 2.0385
-4.4237 -11.6445 2.0385
-3.4708 -11.9529 2.0385
-2.4969 -12.1832 2.0385
-0.5542 -4.5314 0.7489
-0.1867 -4.5247 0.7436
0.1774 -4.5181 0.7431
0.5426 -4.5115 0.7475
0.9139 -4.5048 0.7568
3.4258 -11.8854 2.0385
4.0521 -10.7293 1.8919
4.8819 -10.3277 1.8861
5.6912 -9.8929 1.8861
6.4783 -9.4182 1.8907
7.2548 -8.9165 1.9029
7.9898 -8.3480 1.9145
8.6772 -7.7160 1.9253
9.3107 -7.0246 1.9353
9.8848 -6.2783 1.9444
10.3941 -5.4825 1.9525
10.8338 -4.6431 1.9596
11.1998 -3.7663 1.9655
11.4885 -2.8592 1.9702
11.6971 -1.9288 1.9737
11.8236 -0.9828 1.9759
11.8667 -0.0290 1.9768
11.8261 0.9249 1.9764
11.7020 1.8710 1.9747
11.4959 2.8015 1.9718
4.0722 1.3474 0.7148
10.8464 4.5861 1.9621
10.4094 5.4261 1.9556
9.9030 6.2226 1.9479
9.3318 6.9697 1.9392
8.7013 7.6623 1.9296
8.0170 8.2956 1.9192
7.2850 8.8658 1.9079
6.5115 9.3696 1.8961
5.7106 9.8170 1.8861
4.9062 10.2514 1.8861
4.0691 10.6204 1.8861
3.4635 11.8042 2.0385
2.5054 12.0542 2.0385
1.5295 12.2270 2.0385
0.5421 12.3211 2.0385
-0.4505 12.3359 2.0385
-1.4420 12.2710 2.0385
-2.4260 12.1266 2.0385
-3.3960 11.9034 2.0385
-4.3458 11.6027 2.0385
-5.2692 11.2261 2.0385
-6.1600 10.7760 2.0385
-7.0124 10.2552 2.0385
-7.8207 9.6667 2.0385
-8.5795 9.0144 2.0385
-9.2836 8.3023 2.0385
-9.9283 7.5350 2.0385
-10.5091 6.7175 2.0385
-11.0222 5.8551 2.0385
-11.4640 4.9533 2.0385
-11.8314 4.0182 2.0385
-12.1218 3.0559 2.0385
-12.3332 2.0728 2.0385
-12.4642 1.0754 2.0385
-12.5137 0.0703 2.0385
-12.4814 -0.9357 2.0385
-12.3673 -1.9358 2.0385
-12.1724 -2.9236 2.0385
-11.8978 -3.8921 2.0385
-11.5454 -4.8351 2.0385
-11.1175 -5.7462 2.0385
-10.6171 -6.6194 2.0385
-10.0476 -7.4487 2.0385
-9.4129 -8.2288 2.0385
-8.7172 -8.9545 2.0385
-7.9652 -9.6211 2.0385
-7.1621 -10.2241 2.0385
-6.3133 -10.7597 2.0385
-5.4244 -11.2245 2.0385
-4.5014 -11.6155 2.0385
-3.5505 -11.9304 2.0385
-2.5781 -12.1671 2.0385
-0.5849 -4.5319 0.7496
-0.2169 -4.5253 0.7438
0.1473 -4.5186 0.7430
0.5122 -4.5120 0.7469
0.8829 -4.5053 0.7559
1.2643 -4.4985 0.7700
4.0422 -10.9226 1.9210
4.8135 -10.3607 1.8861
5.6257 -9.9313 1.8861
6.4125 -9.4567 1.8897
7.1921 -8.9606 1.9019
7.9308 -8.3974 1.9135
8.6223 -7.7706 1.9244
9.2605 -7.0839 1.9345
9.8397 -6.3420 1.9437
10.3545 -5.5501 1.9519
10.8002 -4.7140 1.9590
11.1724 -3.8401 1.9650
11.4676 -2.9352 1.9699
11.6830 -2.0064 1.9734
11.8163 -1.0615 1.9758
11.8663 -0.1080 1.9768
11.8326 0.8462 1.9765
11.7154 1.7932 1.9749
11.5160 2.7254 1.9721
4.0829 1.3208 0.7151
10.8793 4.5149 1.9626
10.4483 5.3582 1.9562
9.9474 6.1585 1.9486
9.3814 6.9099 1.9400
8.7555 7.6072 1.9305
8.0754 8.2456 1.9201
7.3472 8.8211 1.9089
6.5769 9.3305 1.8971
5.7712 9.7709 1.8847
4.9740 10.2179 1.8861
4.1394 10.5924 1.8861
3.5418 11.7801 2.0385
2.5854 12.0364 2.0385
1.6108 12.2156 2.0385
0.6241 12.3163 2.0385
-0.3684 12.3377 2.0385
-1.3602 12.2794 2.0385
-2.3450 12.1415 2.0385
-3.3164 11.9248 2.0385
-4.2682 11.6304 2.0385
-5.1940 11.2601 2.0385
-6.0877 10.8160 2.0385
-6.9435 10.3009 2.0385
-7.7557 9.7179 2.0385
-8.5187 9.0707 2.0385
-9.2275 8.3633 2.0385
-9.8773 7.6005 2.0385
-10.4636 6.7869 2.0385
-10.9824 5.9280 2.0385
-11.4302 5.0293 2.0385
-11.8039 4.0967 2.0385
-12.1007 3.1364 2.0385
-12.3188 2.1547 2.0385
-12.4564 1.1583 2.0385
-12.5127 0.1536 2.0385
-12.4871 -0.8526 2.0385
-12.3799 -1.8535 2.0385
-12.1916 -2.8425 2.0385
-11.9234 -3.8129 2.0385
-11.5774 -4.7583 2.0385
-11.1557 -5.6722 2.0385
-10.6612 -6.5487 2.0385
-10.0973 -7.3819 2.0385
-9.4677 -8.1663 2.0385
-8.7769 -8.8967 2.0385
-8.0294 -9.5683 2.0385
-7.2303 -10.1767 2.0385
-6.3851 -10.7181 2.0385
-5.4993 -11.1888 2.0385
-4.5789 -11.5861 2.0385
-3.6301 -11.9073 2.0385
-2.6592 -12.1505 2.0385
-0.6156 -4.5325 0.7503
-0.2471 -4.5258 0.7441
0.1172 -4.5192 0.7428
0.4819 -4.5126 0.7464
0.8519 -4.5059 0.7549
1.2322 -4.4990 0.7686
4.0395 -11.1427 1.9548
4.7447 -10.3933 1.8861
5.5599 -9.9692 1.8861
6.3463 -9.4946 1.8887
7.1290 -9.0042 1.9009
7.8714 -8.4465 1.9126
8.5670 -7.8248 1.9236
9.2099 -7.1429 1.9337
9.7942 -6.4054 1.9430
10.3145 -5.6174 1.9513
10.7661 -4.7847 1.9585
11.1445 -3.9137 1.9646
11.4462 -3.0110 1.9695
11.6682 -2.0840 1.9732
11.8084 -1.1401 1.9756
11.8654 -0.1870 1.9767
11.8386 0.7675 1.9766
11.7283 1.7154 1.9751
11.5356 2.6490 1.9724
4.1105 1.2996 0.7184
10.9117 4.4434 1.9631
10.4866 5.2900 1.9567
9.9914 6.0941 1.9493
9.4306 6.8498 1.9407
8.8094 7.5517 1.9313
8.1336 8.1951 1.9209
7.4091 8.7760 1.9098
6.6421 9.2909 1.8981
5.8390 9.7372 1.8857
5.0416 10.1840 1.8861
4.2096 10.5640 1.8861
3.6199 11.7555 2.0385
2.6653 12.0181 2.0385
1.6919 12.2038 2.0385
0.7060 12.3110 2.0385
-0.2862 12.3390 2.0385
-1.2783 12.2872 2.0385
-2.2640 12.1559 2.0385
-3.2368 11.9457 2.0385
-4.1904 11.6577 2.0385
-5.1185 11.2935 2.0385
-6.0152 10.8555 2.0385
-6.8743 10.3461 2.0385
-7.6903 9.7686 2.0385
-8.4576 9.1265 2.0385
-9.1711 8.4240 2.0385
-9.8259 7.6656 2.0385
-10.4176 6.8560 2.0385
-10.9422 6.0006 2.0385
-11.3960 5.1050 2.0385
-11.7758 4.1750 2.0385
-12.0791 3.2167 2.0385
-12.3038 2.2366 2.0385
-12.4481 1.2411 2.0385
-12.5112 0.2368 2.0385
-12.4924 -0.7695 2.0385
-12.3918 -1.7711 2.0385
-12.2102 -2.7613 2.0385
-11.9486 -3.7335 2.0385
-11.6089 -4.6812 2.0385
-11.1934 -5.5980 2.0385
-10.7048 -6.4778 2.0385
-10.1465 -7.3148 2.0385
-9.5222 -8.1034 2.0385
-8.8363 -8.8385 2.0385
-8.0933 -9.5151 2.0385
-7.2983 -10.1289 2.0385
-6.4566 -10.6759 2.0385
-5.5739 -11.1526 2.0385
-4.6562 -11.5560 2.0385
-3.7095 -11.8836 2.0385
-2.7402 -12.1334 2.0385
-0.6465 -4.5331 0.7510
-0.2773 -4.5264 0.7444
0.0871 -4.5197 0.7428
0.4516 -4.5131 0.7459
0.8210 -4.5065 0.7540
1.2002 -4.4996 0.7673
4.0368 -11.3708 1.9899
4.6758 -10.4255 1.8861
5.4938 -10.0068 1.8861
6.2800 -9.5321 1.8876
7.0657 -9.0473 1.8999
7.8117 -8.4951 1.9117
8.5114 -7.8785 1.9227
9.1588 -7.2015 1.9329
9.7482 -6.4683 1.9423
10.2740 -5.6843 1.9506
10.7314 -4.8551 1.9579
11.1161 -3.9870 1.9641
11.4243 -3.0867 1.9692
11.6530 -2.1614 1.9729
11.8000 -1.2186 1.9755
11.8638 -0.2660 1.9767
11.8439 0.6887 1.9766
11.7405 1.6374 1.9753
11.5546 2.5725 1.9726
4.1515 1.2822 0.7240
10.9436 4.3717 1.9636
10.5245 5.2215 1.9573
10.0349 6.0293 1.9499
9.4793 6.7892 1.9415
8.8629 7.4958 1.9321
8.1914 8.1442 1.9218
7.4707 8.7304 1.9108
6.7070 9.2509 1.8991
5.9066 9.7029 1.8868
5.1090 10.1496 1.8861
4.2796 10.5351 1.8861
3.6530 11.5881 2.0138
2.7450 11.9993 2.0385
1.7730 12.1914 2.0385
0.7879 12.3051 2.0385
-0.2041 12.3397 2.0385
-1.1964 12.2945 2.0385
-2.1828 12.1698 2.0385
-3.1569 11.9660 2.0385
-4.1124 11.6844 2.0385
-5.0429 11.3265 2.0385
-5.9424 10.8945 2.0385
-6.8049 10.3909 2.0385
-7.6246 9.8189 2.0385
-8.3961 9.1820 2.0385
-9.1142 8.4843 2.0385
-9.7741 7.7302 2.0385
-10.3712 6.9248 2.0385
-10.9014 6.0730 2.0385
-11.3612 5.1804 2.0385
-11.7473 4.2530 2.0385
-12.0570 3.2969 2.0385
-12.2882 2.3183 2.0385
-12.4393 1.3238 2.0385
-12.5090 0.3200 2.0385
-12.4970 -0.6863 2.0385
-12.4032 -1.6886 2.0385
-12.2282 -2.6800 2.0385
-11.9732 -3.6539 2.0385
-11.6399 -4.6039 2.0385
-11.2305 -5.5235 2.0385
-10.7479 -6.4066 2.0385
-10.1952 -7.2473 2.0385
-9.5762 -8.0402 2.0385
-8.8952 -8.7798 2.0385
-8.1568 -9.4614 2.0385
-7.3659 -10.0806 2.0385
-6.5278 -10.6333 2.0385
-5.6483 -11.1159 2.0385
-4.7333 -11.5255 2.0385
-3.7887 -11.8595 2.0385
-2.8211 -12.1158 2.0385
-0.6774 -4.5336 0.7518
-0.3076 -4.5269 0.7448
0.0570 -4.5203 0.7427
0.4213 -4.5137 0.7455
0.7901 -4.5070 0.7532
1.1683 -4.5002 0.7660
4.0339 -11.6073 2.0264
4.6066 -10.4572 1.8861
5.4275 -10.0439 1.8861
6.2134 -9.5691 1.8866
7.0021 -9.0900 1.8989
7.7516 -8.5433 1.9107
8.4554 -7.9319 1.9218
9.1074 -7.2597 1.9321
9.7018 -6.5310 1.9415
10.2331 -5.7509 1.9500
10.6963 -4.9253 1.9574
11.0871 -4.0601 1.9637
11.4017 -3.1622 1.9688
11.6371 -2.2387 1.9727
11.7909 -1.2971 1.9753
11.8617 -0.3449 1.9766
11.8488 0.6098 1.9767
11.7522 1.5593 1.9754
11.5731 2.4958 1.9729
4.1931 1.2645 0.7298
10.9750 4.2997 1.9641
10.5619 5.1527 1.9579
10.0779 5.9643 1.9506
9.5276 6.7283 1.9422
8.9161 7.4395 1.9329
8.2489 8.0929 1.9227
7.5320 8.6844 1.9117
6.7716 9.2104 1.9001
5.9741 9.6682 1.8878
5.1762 10.1148 1.8861
4.3493 10.5057 1.8861
3.6634 11.3570 1.9779
2.8246 11.9799 2.0385
1.8539 12.1785 2.0385
0.8697 12.2987 2.0385
-0.1219 12.3398 2.0385
-1.1145 12.3013 2.0385
-2.1016 12.1831 2.0385
-3.0770 11.9859 2.0385
-4.0342 11.7106 2.0385
-4.9670 11.3589 2.0385
-5.8693 10.9329 2.0385
-6.7351 10.4351 2.0385
-7.5585 9.8687 2.0385
-8.3343 9.2370 2.0385
-9.0570 8.5442 2.0385
-9.7218 7.7945 2.0385
-10.3243 6.9932 2.0385
-10.8602 6.1451 2.0385
-11.3259 5.2557 2.0385
-11.7182 4.3309 2.0385
-12.0344 3.3769 2.0385
-12.2721 2.3999 2.0385
-12.4298 1.4066 2.0385
-12.5064 0.4033 2.0385
-12.5011 -0.6032 2.0385
-12.4141 -1.6060 2.0385
-12.2457 -2.5986 2.0385
-11.9973 -3.5742 2.0385
-11.6704 -4.5264 2.0385
-11.2672 -5.4487 2.0385
-10.7905 -6.3351 2.0385
-10.2435 -7.1795 2.0385
-9.6299 -7.9765 2.0385
-8.9538 -8.7208 2.0385
-8.2199 -9.4074 2.0385
-7.4331 -10.0319 2.0385
-6.5988 -10.5902 2.0385
-5.7225 -11.0788 2.0385
-4.8101 -11.4945 2.0385
-3.8679 -11.8348 2.0385
-2.9018 -12.0975 2.0385
-0.7083 -4.5342 0.7526
-0.3379 -4.5275 0.7452
0.0269 -4.5208 0.7427
0.3911 -4.5142 0.7451
0.7593 -4.5076 0.7523
1.1366 -4.5008 0.7647
3.9805 -11.7042 2.0385
4.5373 -10.4884 1.8861
5.3609 -10.0805 1.8861
6.1466 -9.6056 1.8855
6.9383 -9.1323 1.8979
7.6913 -8.5910 1.9098
8.3991 -7.9848 1.9209
9.0556 -7.3175 1.9313
9.6549 -6.5933 1.9408
10.1916 -5.8173 1.9493
10.6607 -4.9952 1.9568
-5.9644 -8.7595 2.0385
-5.2383 -9.2053 2.0385
-4.4789 -9.5908 2.0385
-3.6913 -9.9133 2.0385
-2.8807 -10.1710 2.0385
-0.8989 -4.5380 0.8927
-0.5238 -4.5312 0.8809
-0.1567 -4.5245 0.8749
0.2072 -4.5179 0.8747
0.5728 -4.5113 0.8802
0.9449 -4.5046 0.8916
2.9788 -10.0838 2.0385
3.7767 -9.8039 2.0385
4.2089 -8.7538 1.8861
4.8952 -8.3806 1.8861
5.5489 -7.9540 1.8861
6.1669 -7.4779 1.8864
6.7777 -6.9884 1.8960
7.3473 -6.4470 1.9050
7.8710 -5.8570 1.9133
8.3441 -5.2226 1.9208
8.7625 -4.5480 1.9274
9.1225 -3.8383 1.9332
9.4208 -3.0987 1.9380
9.6546 -2.3349 1.9419
9.8219 -1.5527 1.9447
9.9210 -0.7584 1.9464
9.9511 0.0418 1.9471
9.9119 0.8416 1.9467
9.8038 1.6345 1.9452
9.6277 2.4143 1.9427
4.0610 1.3737 0.8390
9.0792 3.9104 1.9345
8.7117 4.6153 1.9290
8.2865 5.2843 1.9226
7.8073 5.9127 1.9153
7.2783 6.4961 1.9072
6.7040 7.0305 1.8985
6.0894 7.5127 1.8890
5.4598 7.9695 1.8861
4.8040 8.3873 1.8861
4.1166 8.7516 1.8861
3.6766 9.7920 2.0385
2.8794 10.0627 2.0385
2.0626 10.2688 2.0385
1.2313 10.4090 2.0385
0.3908 10.4822 2.0385
-0.4535 10.4878 2.0385
-1.2961 10.4256 2.0385
-2.1317 10.2958 2.0385
-2.9547 10.0992 2.0385
-3.7599 9.8369 2.0385
-4.5420 9.5103 2.0385
-5.2958 9.1216 2.0385
-6.0163 8.6730 2.0385
-6.6989 8.1675 2.0385
-7.3388 7.6081 2.0385
-7.9319 6.9984 2.0385
-8.4741 6.3424 2.0385
-8.9618 5.6443 2.0385
-9.3916 4.9086 2.0385
-9.7607 4.1401 2.0385
-10.0665 3.3440 2.0385
-10.3068 2.5253 2.0385
-10.4800 1.6895 2.0385
-10.5850 0.8421 2.0385
-10.6208 -0.0111 2.0385
-10.5873 -0.8647 2.0385
-10.4847 -1.7128 2.0385
-10.3135 -2.5498 2.0385
-10.0750 -3.3702 2.0385
-9.7707 -4.1684 2.0385
-9.4027 -4.9393 2.0385
-8.9734 -5.6776 2.0385
-8.4858 -6.3785 2.0385
-7.9431 -7.0374 2.0385
-7.3490 -7.6499 2.0385
-6.7074 -8.2120 2.0385
-6.0228 -8.7200 2.0385
-5.2997 -9.1707 2.0385
-4.5428 -9.5613 2.0385
-3.7574 -9.8891 2.0385
-2.9485 -10.1522 2.0385
-2.1215 -10.3490 2.0385
-0.5544 -4.5318 0.8816
-0.1869 -4.5251 0.8752
0.1771 -4.5185 0.8745
0.5424 -4.5119 0.8796
0.9138 -4.5051 0.8904
2.9118 -10.1040 2.0385
3.7116 -9.8294 2.0385
4.1508 -8.7822 1.8861
4.8396 -8.4136 1.8861
5.4962 -7.9912 1.8861
6.1147 -7.5159 1.8856
6.7287 -7.0309 1.8952
7.3019 -6.4937 1.9043
7.8295 -5.9076 1.9126
8.3070 -5.2767 1.9202
8.7301 -4.6052 1.9269
9.0950 -3.8982 1.9328
9.3985 -3.1609 1.9377
9.6378 -2.3988 1.9416
9.8106 -1.6179 1.9445
9.9155 -0.8244 1.9463
9.9513 -0.0244 1.9471
9.9178 0.7756 1.9467
9.8153 1.5693 1.9454
9.6448 2.3504 1.9429
4.0717 1.3472 0.8394
9.1069 3.8507 1.9349
8.7444 4.5583 1.9295
8.3238 5.2305 1.9231
7.8489 5.8624 1.9159
7.3238 6.4496 1.9079
6.7531 6.9883 1.8992
6.1417 7.4749 1.8898
5.5125 7.9327 1.8861
4.8595 8.3548 1.8861
4.1745 8.7236 1.8861
3.6864 9.6230 2.0085
2.9462 10.0427 2.0385
2.1308 10.2542 2.0385
1.3004 10.3999 2.0385
0.4605 10.4787 2.0385
-0.3836 10.4899 2.0385
-1.2266 10.4333 2.0385
-2.0629 10.3091 2.0385
-2.8872 10.1180 2.0385
-3.6941 9.8610 2.0385
-4.4783 9.5397 2.0385
-5.2346 9.1560 2.0385
-5.9581 8.7123 2.0385
-6.6440 8.2114 2.0385
-7.2876 7.6563 2.0385
-7.8847 7.0507 2.0385
-8.4313 6.3984 2.0385
-8.9236 5.7036 2.0385
-9.3584 4.9708 2.0385
-9.7326 4.2048 2.0385
-10.0436 3.4107 2.0385
-10.2894 2.5937 2.0385
-10.4683 1.7591 2.0385
-10.5789 0.9125 2.0385
-10.6205 0.0595 2.0385
-10.5927 -0.7942 2.0385
-10.4958 -1.6430 2.0385
-10.3302 -2.4811 2.0385
-10.0972 -3.3031 2.0385
-9.7983 -4.1034 2.0385
-9.4355 -4.8767 2.0385
-9.0112 -5.6179 2.0385
-8.5283 -6.3221 2.0385
-7.9900 -6.9846 2.0385
-7.4000 -7.6011 2.0385
-6.7622 -8.1675 2.0385
-6.0810 -8.6801 2.0385
-5.3608 -9.1357 2.0385
-4.6066 -9.5313 2.0385
-3.8233 -9.8644 2.0385
-3.0161 -10.1329 2.0385
-2.1905 -10.3353 2.0385
-0.5851 -4.5323 0.8824
-0.2171 -4.5256 0.8755
0.1470 -4.5190 0.8744
0.5120 -4.5124 0.8789
0.8827 -4.5057 0.8893
1.2641 -4.4988 0.9059
3.6463 -9.8546 2.0385
4.0925 -8.8102 1.8861
4.7838 -8.4461 1.8861
5.4432 -8.0281 1.8861
6.0622 -7.5536 1.8847
6.6794 -7.0731 1.8945
7.2562 -6.5400 1.9035
7.7877 -5.9578 1.9119
8.2695 -5.3304 1.9196
8.6972 -4.6622 1.9264
9.0671 -3.9579 1.9323
9.3758 -3.2229 1.9373
9.6205 -2.4627 1.9413
9.7989 -1.6831 1.9443
9.9094 -0.8904 1.9462
9.9509 -0.0907 1.9470
9.9232 0.7096 1.9468
9.8264 1.5040 1.9455
9.6615 2.2864 1.9432
4.0825 1.3207 0.8398
9.1341 3.7907 1.9354
8.7766 4.5010 1.9300
8.3607 5.1764 1.9237
7.8901 5.8118 1.9166
7.3690 6.4029 1.9086
6.8019 6.9457 1.9000
6.1937 7.4367 1.8906
5.5650 7.8955 1.8861
4.9148 8.3219 1.8861
4.2323 8.6952 1.8861
3.6947 9.4557 1.9787
3.0128 10.0223 2.0385
2.1988 10.2392 2.0385
1.3696 10.3904 2.0385
0.5302 10.4747 2.0385
-0.3138 10.4915 2.0385
-1.1570 10.4405 2.0385
-1.9941 10.3219 2.0385
-2.8196 10.1363 2.0385
-3.6281 9.8847 2.0385
-4.4144 9.5687 2.0385
-5.1732 9.1901 2.0385
-5.8996 8.7513 2.0385
-6.5888 8.2549 2.0385
-7.2361 7.7042 2.0385
-7.8372 7.1026 2.0385
-8.3881 6.4540 2.0385
-8.8850 5.7625 2.0385
-9.3247 5.0327 2.0385
-9.7040 4.2692 2.0385
-10.0204 3.4774 2.0385
-10.2716 2.6620 2.0385
-10.4561 1.8287 2.0385
-10.5723 0.9829 2.0385
-10.6197 0.1302 2.0385
-10.5976 -0.7237 2.0385
-10.5064 -1.5731 2.0385
-10.3465 -2.4123 2.0385
-10.1190 -3.2358 2.0385
-9.8255 -4.0381 2.0385
-9.4679 -4.8139 2.0385
-9.0485 -5.5579 2.0385
-8.5704 -6.2654 2.0385
-8.0365 -6.9315 2.0385
-7.4506 -7.5519 2.0385
-6.8167 -8.1226 2.0385
-6.1389 -8.6398 2.0385
-5.4218 -9.1003 2.0385
-4.6701 -9.5009 2.0385
-3.8890 -9.8393 2.0385
-3.0837 -10.1132 2.0385
-2.2593 -10.3211 2.0385
-0.6159 -4.5329 0.8832
-0.2473 -4.5262 0.8759
0.1169 -4.5196 0.8743
0.4817 -4.5130 0.8783
0.8517 -4.5063 0.8882
1.2320 -4.4994 0.9042
3.5809 -9.8793 2.0385
4.0341 -8.8378 1.8861
4.7278 -8.4783 1.8861
5.3900 -8.0647 1.8861
6.0164 -7.5997 1.8861
6.6298 -7.1148 1.8937
7.2101 -6.5860 1.9028
7.7456 -6.0078 1.9113
8.2317 -5.3839 1.9190
8.6640 -4.7189 1.9259
9.0388 -4.0174 1.9319
9.3527 -3.2847 1.9369
9.6027 -2.5264 1.9410
9.7867 -1.7482 1.9441
9.9028 -0.9563 1.9461
9.9501 -0.1569 1.9470
9.9281 0.6435 1.9469
9.8370 1.4387 1.9457
9.6777 2.2223 1.9434
4.1098 1.2994 0.8436
9.1610 3.7305 1.9358
8.8084 4.4436 1.9305
8.3972 5.1220 1.9243
7.9310 5.7608 1.9172
7.4139 6.3558 1.9093
6.8505 6.9027 1.9007
6.2454 7.3981 1.8914
5.6172 7.8579 1.8861
4.9699 8.2885 1.8861
4.2899 8.6663 1.8861
3.7027 9.2932 1.9500
3.0793 10.0015 2.0385
2.2668 10.2238 2.0385
1.4386 10.3804 2.0385
0.5999 10.4703 2.0385
-0.2439 10.4927 2.0385
-1.0875 10.4473 2.0385
-1.9253 10.3343 2.0385
-2.7519 10.1542 2.0385
-3.5620 9.9080 2.0385
-4.3503 9.5972 2.0385
-5.1116 9.2237 2.0385
-5.8409 8.7898 2.0385
-6.5333 8.2981 2.0385
-7.1842 7.7517 2.0385
-7.7893 7.1542 2.0385
-8.3445 6.5093 2.0385
-8.8461 5.8212 2.0385
-9.2905 5.0944 2.0385
-9.6749 4.3337 2.0385
-9.9966 3.5438 2.0385
-10.2534 2.7302 2.0385
-10.4434 1.8982 2.0385
-10.5653 1.0532 2.0385
-10.6184 0.2008 2.0385
-10.6021 -0.6532 2.0385
-10.5166 -1.5031 2.0385
-10.3623 -2.3434 2.0385
-10.1404 -3.1685 2.0385
-9.8523 -3.9727 2.0385
-9.4998 -4.7509 2.0385
-9.0855 -5.4977 2.0385
-8.6121 -6.2084 2.0385
-8.0827 -6.8781 2.0385
-7.5010 -7.5024 2.0385
-6.8708 -8.0774 2.0385
-6.1965 -8.5992 2.0385
-5.4824 -9.0644 2.0385
-4.7335 -9.4701 2.0385
-3.9546 -9.8137 2.0385
-3.1511 -10.0931 2.0385
-2.3281 -10.3064 2.0385
-0.6467 -4.5334 0.8841
-0.2776 -4.5267 0.8763
0.0869 -4.5201 0.8742
0.4514 -4.5135 0.8778
0.8208 -4.5068 0.8872
1.2000 -4.5000 0.9027
3.5153 -9.9036 2.0385
4.0127 -8.9483 1.9038
4.6716 -8.5101 1.8861
5.3365 -8.1009 1.8861
5.9660 -7.6401 1.8861
6.5799 -7.1563 1.8929
7.1637 -6.6317 1.9021
7.7031 -6.0574 1.9106
8.1934 -5.4372 1.9184
8.6304 -4.7754 1.9253
9.0101 -4.0767 1.9314
9.3291 -3.3464 1.9366
9.5845 -2.5899 1.9407
9.7740 -1.8131 1.9439
9.8958 -1.0221 1.9459
9.9489 -0.2232 1.9470
9.9326 0.5774 1.9469
9.8471 1.3733 1.9458
9.6934 2.1581 1.9436
4.1508 1.2820 0.8502
9.1874 3.6702 1.9362
8.8399 4.3858 1.9309
8.4334 5.0673 1.9248
7.9716 5.7096 1.9178
7.4585 6.3083 1.9100
6.8987 6.8594 1.9014
6.2969 7.3592 1.8922
5.6691 7.8200 1.8861
5.0247 8.2549 1.8861
4.3473 8.6372 1.8861
3.7105 9.1354 1.9221
3.1456 9.9802 2.0385
2.3347 10.2078 2.0385
1.5076 10.3700 2.0385
0.6695 10.4654 2.0385
-0.1741 10.4934 2.0385
-1.0178 10.4536 2.0385
-1.8563 10.3462 2.0385
-2.6841 10.1716 2.0385
-3.4958 9.9309 2.0385
-4.2861 9.6254 2.0385
-5.0498 9.2570 2.0385
-5.7819 8.8279 2.0385
-6.4775 8.3409 2.0385
-7.1321 7.7989 2.0385
-7.7411 7.2055 2.0385
-8.3006 6.5644 2.0385
-8.8067 5.8797 2.0385
-9.2560 5.1559 2.0385
-9.6455 4.3977 2.0385
-9.9725 3.6101 2.0385
-10.2346 2.7983 2.0385
-10.4302 1.9675 2.0385
-10.5579 1.1234 2.0385
-10.6166 0.2715 2.0385
-10.6061 -0.5826 2.0385
-10.5263 -1.4331 2.0385
-10.3777 -2.2744 2.0385
-10.1613 -3.1009 2.0385
-9.8785 -3.9071 2.0385
-9.5314 -4.6877 2.0385
-9.1221 -5.4373 2.0385
-8.6534 -6.1511 2.0385
-8.1285 -6.8244 2.0385
-7.5510 -7.4526 2.0385
-6.9247 -8.0318 2.0385
-6.2538 -8.5581 2.0385
-5.5429 -9.0281 2.0385
-4.7967 -9.4389 2.0385
-4.0201 -9.7877 2.0385
-3.2183 -10.0724 2.0385
-2.3968 -10.2913 2.0385
-0.6776 -4.5340 0.8850
-0.3079 -4.5273 0.8767
0.0568 -4.5207 0.8741
0.4211 -4.5140 0.8773
0.7899 -4.5074 0.8862
1.1682 -4.5006 0.9012
3.4495 -9.9274 2.0385
4.0102 -9.1044 1.9312
4.6151 -8.5416 1.8861
5.2828 -8.1367 1.8861
5.9154 -7.6800 1.8861
6.5298 -7.1973 1.8921
7.1171 -6.6770 1.9013
7.6603 -6.1067 1.9099
8.1549 -5.4901 1.9178
8.5964 -4.8315 1.9248
8.9809 -4.1358 1.9309
9.3051 -3.4079 1.9362
9.5659 -2.6533 1.9404
9.7609 -1.8780 1.9436
9.8884 -1.0880 1.9458
9.9471 -0.2894 1.9469
9.9365 0.5113 1.9470
9.8568 1.3078 1.9459
9.7087 2.0937 1.9438
4.1924 1.2643 0.8570
9.2134 3.6096 1.9365
8.8709 4.3278 1.9314
8.4692 5.0123 1.9253
8.0118 5.6581 1.9184
7.5028 6.2606 1.9107
6.9467 6.8157 1.9022
6.3482 7.3199 1.8930
5.7208 7.7818 1.8861
5.0793 8.2209 1.8861
4.4044 8.6076 1.8861
3.7213 8.9900 1.8967
3.2118 9.9585 2.0385
2.4024 10.1915 2.0385
1.5764 10.3591 2.0385
0.7391 10.4601 2.0385
-0.1042 10.4937 2.0385
-0.9482 10.4595 2.0385
-1.7873 10.3576 2.0385
-2.6161 10.1886 2.0385
-3.4294 9.9532 2.0385
-4.2217 9.6530 2.0385
-4.9878 9.2898 2.0385
-5.7227 8.8656 2.0385
-6.4215 8.3833 2.0385
-7.0796 7.8457 2.0385
-7.6926 7.2564 2.0385
-8.2563 6.6191 2.0385
-8.7669 5.9378 2.0385
-9.2211 5.2172 2.0385
-9.6156 4.4616 2.0385
-9.9478 3.6763 2.0385
-10.2154 2.8662 2.0385
-10.4166 2.0368 2.0385
-10.5499 1.1936 2.0385
-10.6144 0.3421 2.0385
-10.6096 -0.5120 2.0385
-10.5355 -1.3630 2.0385
-10.3925 -2.2053 2.0385
-10.1817 -3.0333 2.0385
-9.9044 -3.8413 2.0385
-9.5625 -4.6242 2.0385
-9.1582 -5.3765 2.0385
-8.6943 -6.0935 2.0385
-8.1740 -6.7703 2.0385
-7.6007 -7.4025 2.0385
-6.9783 -7.9858 2.0385
-6.3109 -8.5167 2.0385
-5.6031 -8.9915 2.0385
-4.8596 -9.4072 2.0385
-4.0853 -9.7612 2.0385
-3.2855 -10.0513 2.0385
-2.4654 -10.2757 2.0385
-0.7086 -4.5346 0.8860
-0.3382 -4.5278 0.8772
0.0267 -4.5212 0.8741
0.3909 -4.5146 0.8768
0.7591 -4.5079 0.8852
1.1364 -4.5011 0.8997
3.3836 -9.9508 2.0385
4.0076 -9.2653 1.9595
4.5584 -8.5727 1.8861
5.2288 -8.1722 1.8861
5.8645 -7.7197 1.8861
6.4794 -7.2380 1.8913
7.0701 -6.7220 1.9006
7.6172 -6.1557 1.9092
8.1159 -5.5428 1.9171
8.5619 -4.8875 1.9242
8.9514 -4.1946 1.9305
-5.1749 -7.5994 2.0385
-4.5453 -7.9868 2.0385
-3.8867 -8.3218 2.0385
-3.2036 -8.6024 2.0385
-2.5004 -8.8268 2.0385
-0.8992 -4.5384 1.0287
-0.5241 -4.5316 1.0149
-0.1570 -4.5249 1.0080
0.2070 -4.5183 1.0077
0.5726 -4.5117 1.0139
0.9447 -4.5050 1.0269
2.5863 -8.7570 2.0385
3.2796 -8.5148 2.0385
3.9507 -8.2180 2.0385
4.2519 -7.2802 1.8861
4.8202 -6.9102 1.8861
5.3567 -6.4961 1.8861
5.8580 -6.0407 1.8861
6.3323 -5.5568 1.8895
6.7801 -5.0457 1.8965
7.1843 -4.4971 1.9030
7.5415 -3.9146 1.9086
7.8486 -3.3026 1.9136
8.1029 -2.6655 1.9177
8.3022 -2.0080 1.9209
8.4448 -1.3352 1.9233
8.5293 -0.6521 1.9248
8.5550 0.0359 1.9254
8.5217 0.7234 1.9251
8.4297 1.4053 1.9238
8.2799 2.0763 1.9217
4.0605 1.3736 0.9650
7.8125 3.3650 1.9147
7.4992 3.9730 1.9100
7.1362 4.5510 1.9045
6.7268 5.0946 1.8983
6.2743 5.6003 1.8914
5.7893 6.0716 1.8861
5.2845 6.5201 1.8861
4.7452 6.9269 1.8861
4.1749 7.2895 1.8861
3.7231 7.9159 1.9630
3.1945 8.5091 2.0385
2.5015 8.7435 2.0385
1.7916 8.9219 2.0385
1.0692 9.0428 2.0385
0.3390 9.1055 2.0385
-0.3944 9.1095 2.0385
-1.1261 9.0546 2.0385
-1.8516 8.9410 2.0385
-2.5661 8.7694 2.0385
-3.2650 8.5407 2.0385
-3.9436 8.2563 2.0385
-4.5976 7.9181 2.0385
-5.2226 7.5280 2.0385
-5.8145 7.0885 2.0385
-6.3693 6.6024 2.0385
-6.8834 6.0728 2.0385
-7.3533 5.5031 2.0385
-7.7759 4.8970 2.0385
-8.1482 4.2584 2.0385
-8.4679 3.5914 2.0385
-8.7326 2.9006 2.0385
-8.9406 2.1903 2.0385
-9.0905 1.4653 2.0385
-9.1811 0.7303 2.0385
-9.2120 -0.0098 2.0385
-9.1827 -0.7500 2.0385
-9.0936 -1.4856 2.0385
-8.9451 -2.2115 2.0385
-8.7383 -2.9230 2.0385
-8.4745 -3.6153 2.0385
-8.1555 -4.2840 2.0385
-7.7834 -4.9245 2.0385
-7.3607 -5.5326 2.0385
-6.8903 -6.1043 2.0385
-6.3753 -6.6359 2.0385
-5.8191 -7.1240 2.0385
-5.2256 -7.5651 2.0385
-4.5985 -7.9567 2.0385
-3.9422 -8.2961 2.0385
-3.2609 -8.5813 2.0385
-2.5592 -8.8104 2.0385
-1.8417 -8.9820 2.0385
-0.5547 -4.5321 1.0158
-0.1872 -4.5255 1.0083
0.1769 -4.5188 1.0074
0.5422 -4.5122 1.0131
0.9136 -4.5055 1.0255
2.5281 -8.7745 2.0385
3.2230 -8.5370 2.0385
3.8962 -8.2445 2.0385
4.2036 -7.3087 1.8861
4.7744 -6.9425 1.8861
5.3136 -6.5320 1.8861
5.8179 -6.0799 1.8861
6.2934 -5.5973 1.8888
6.7447 -5.0895 1.8960
7.1526 -4.5438 1.9024
7.5138 -3.9640 1.9082
7.8252 -3.3543 1.9132
8.0839 -2.7190 1.9174
8.2879 -2.0631 1.9207
8.4352 -1.3913 1.9232
8.5245 -0.7089 1.9247
8.5551 -0.0211 1.9254
8.5267 0.6667 1.9251
8.4395 1.3493 1.9239
8.2944 2.0213 1.9219
4.0713 1.3471 0.9654
7.8361 3.3134 1.9151
7.5270 3.9238 1.9104
7.1681 4.5044 1.9050
6.7623 5.0511 1.8989
6.3133 5.5600 1.8920
5.8247 6.0279 1.8845
5.3276 6.4845 1.8861
4.7910 6.8949 1.8861
4.2231 7.2613 1.8861
3.7295 7.7945 1.9391
3.2509 8.4872 2.0385
2.5595 8.7263 2.0385
1.8508 8.9093 2.0385
1.1293 9.0350 2.0385
0.3996 9.1026 2.0385
-0.3337 9.1114 2.0385
-1.0658 9.0613 2.0385
-1.7920 8.9526 2.0385
-2.5076 8.7857 2.0385
-3.2079 8.5617 2.0385
-3.8884 8.2819 2.0385
-4.5445 7.9481 2.0385
-5.1721 7.5621 2.0385
-5.7669 7.1266 2.0385
-6.3249 6.6443 2.0385
-6.8425 6.1182 2.0385
-7.3162 5.5516 2.0385
-7.7428 4.9484 2.0385
-8.1194 4.3123 2.0385
-8.4435 3.6476 2.0385
-8.7128 2.9585 2.0385
-8.9256 2.2497 2.0385
-9.0803 1.5257 2.0385
-9.1759 0.7913 2.0385
-9.2117 0.0515 2.0385
-9.1874 -0.6889 2.0385
-9.1032 -1.4250 2.0385
-8.9596 -2.1519 2.0385
-8.7576 -2.8648 2.0385
-8.4984 -3.5589 2.0385
-8.1839 -4.2297 2.0385
-7.8161 -4.8727 2.0385
-7.3975 -5.4836 2.0385
-6.9309 -6.0585 2.0385
-6.4195 -6.5936 2.0385
-5.8666 -7.0853 2.0385
-5.2760 -7.5305 2.0385
-4.6515 -7.9263 2.0385
-3.9975 -8.2701 2.0385
-3.3181 -8.5598 2.0385
-2.6179 -8.7936 2.0385
-1.9016 -8.9700 2.0385
-0.5854 -4.5327 1.0167
-0.2174 -4.5260 1.0087
0.1468 -4.5194 1.0073
0.5118 -4.5128 1.0124
0.8825 -4.5061 1.0243
1.2640 -4.4992 1.0432
3.1663 -8.5587 2.0385
3.8414 -8.2708 2.0385
4.1551 -7.3369 1.8861
4.7283 -6.9745 1.8861
5.2703 -6.5676 1.8861
5.7776 -6.1188 1.8861
6.2542 -5.6375 1.8882
6.7089 -5.1330 1.8954
7.1206 -4.5903 1.9019
7.4858 -4.0132 1.9078
7.8014 -3.4057 1.9128
8.0646 -2.7724 1.9171
8.2731 -2.1180 1.9205
8.4252 -1.4473 1.9230
8.5193 -0.7656 1.9246
8.5548 -0.0781 1.9254
8.5313 0.6100 1.9252
8.4489 1.2932 1.9241
8.3086 1.9663 1.9221
4.0820 1.3205 0.9658
7.8594 3.2618 1.9154
7.5545 3.8744 1.9108
7.1996 4.4576 1.9055
6.7976 5.0072 1.8994
6.3520 5.5194 1.8926
5.8665 5.9908 1.8852
5.3704 6.4487 1.8861
4.8366 6.8626 1.8861
4.2712 7.2327 1.8861
3.7358 7.6759 1.9159
3.3072 8.4650 2.0385
2.6174 8.7086 2.0385
1.9100 8.8963 2.0385
1.1894 9.0268 2.0385
0.4601 9.0992 2.0385
-0.2730 9.1129 2.0385
-1.0054 9.0677 2.0385
-1.7323 8.9638 2.0385
-2.4489 8.8017 2.0385
-3.1507 8.5824 2.0385
-3.8329 8.3071 2.0385
-4.4913 7.9777 2.0385
-5.1214 7.5960 2.0385
-5.7190 7.1645 2.0385
-6.2802 6.6859 2.0385
-6.8013 6.1632 2.0385
-7.2788 5.6000 2.0385
-7.7094 4.9996 2.0385
-8.0902 4.3661 2.0385
-8.4187 3.7036 2.0385
-8.6927 3.0163 2.0385
-8.9102 2.3089 2.0385
-9.0697 1.5860 2.0385
-9.1702 0.8524 2.0385
-9.2110 0.1128 2.0385
-9.1917 -0.6278 2.0385
-9.1124 -1.3644 2.0385
-8.9737 -2.0923 2.0385
-8.7765 -2.8065 2.0385
-8.5220 -3.5023 2.0385
-8.2120 -4.1752 2.0385
-7.8485 -4.8206 2.0385
-7.4340 -5.4344 2.0385
-6.9713 -6.0124 2.0385
-6.4634 -6.5509 2.0385
-5.9138 -7.0463 2.0385
-5.3262 -7.4955 2.0385
-4.7044 -7.8955 2.0385
-4.0526 -8.2437 2.0385
-3.3751 -8.5380 2.0385
-2.6765 -8.7764 2.0385
-1.9613 -8.9576 2.0385
-0.6162 -4.5333 1.0177
-0.2476 -4.5266 1.0091
0.1167 -4.5199 1.0071
0.4815 -4.5133 1.0117
0.8515 -4.5066 1.0230
1.2319 -4.4998 1.0414
3.1095 -8.5801 2.0385
3.7865 -8.2966 2.0385
4.1064 -7.3648 1.8861
4.6820 -7.0062 1.8861
5.2267 -6.6028 1.8861
5.7371 -6.1574 1.8861
6.2148 -5.6774 1.8876
6.6729 -5.1762 1.8948
7.0883 -4.6365 1.9014
7.4574 -4.0621 1.9073
7.7772 -3.4570 1.9124
8.0449 -2.8257 1.9167
8.2580 -2.1728 1.9202
8.4148 -1.5033 1.9228
8.5138 -0.8223 1.9245
8.5541 -0.1350 1.9253
8.5354 0.5532 1.9252
8.4580 1.2370 1.9242
8.3224 1.9111 1.9223
4.1091 1.2992 0.9701
7.8823 3.2099 1.9158
7.5817 3.8248 1.9113
7.2308 4.4106 1.9060
6.8325 4.9631 1.8999
6.3904 5.4786 1.8932
5.9081 5.9534 1.8858
5.4131 6.4126 1.8861
4.8820 6.8300 1.8861
4.3191 7.2038 1.8861
3.7462 7.5688 1.8954
3.3633 8.4424 2.0385
2.6752 8.6905 2.0385
1.9691 8.8829 2.0385
1.2493 9.0182 2.0385
0.5207 9.0954 2.0385
-0.2124 9.1140 2.0385
-0.9450 9.0737 2.0385
-1.6725 8.9746 2.0385
-2.3901 8.8173 2.0385
-3.0933 8.6027 2.0385
-3.7773 8.3320 2.0385
-4.4379 8.0069 2.0385
-5.0704 7.6294 2.0385
-5.6709 7.2020 2.0385
-6.2353 6.7271 2.0385
-6.7598 6.2081 2.0385
-7.2410 5.6480 2.0385
-7.6756 5.0505 2.0385
-8.0607 4.4196 2.0385
-8.3936 3.7593 2.0385
-8.6721 3.0740 2.0385
-8.8944 2.3681 2.0385
-9.0588 1.6463 2.0385
-9.1642 0.9133 2.0385
-9.2099 0.1741 2.0385
-9.1956 -0.5666 2.0385
-9.1212 -1.3037 2.0385
-8.9874 -2.0325 2.0385
-8.7950 -2.7480 2.0385
-8.5452 -3.4456 2.0385
-8.2397 -4.1205 2.0385
-7.8805 -4.7684 2.0385
-7.4702 -5.3849 2.0385
-7.0113 -5.9661 2.0385
-6.5070 -6.5080 2.0385
-5.9608 -7.0071 2.0385
-5.3761 -7.4602 2.0385
-4.7570 -7.8643 2.0385
-4.1075 -8.2169 2.0385
-3.4320 -8.5157 2.0385
-2.7350 -8.7589 2.0385
-2.0210 -8.9448 2.0385
-0.6470 -4.5338 1.0187
-0.2778 -4.5271 1.0095
0.0866 -4.5205 1.0070
0.4512 -4.5139 1.0111
0.8206 -4.5072 1.0218
1.1999 -4.5004 1.0396
3.0525 -8.6011 2.0385
3.7314 -8.3221 2.0385
4.0575 -7.3923 1.8861
4.6355 -7.0376 1.8861
5.1829 -6.6378 1.8861
5.6962 -6.1958 1.8861
6.1751 -5.7170 1.8870
6.6366 -5.2192 1.8943
7.0556 -4.6825 1.9009
7.4287 -4.1108 1.9068
7.7527 -3.5081 1.9120
8.0248 -2.8788 1.9164
8.2425 -2.2275 1.9200
8.4040 -1.5592 1.9226
8.5078 -0.8789 1.9244
8.5530 -0.1920 1.9253
8.5392 0.4963 1.9253
8.4666 1.1807 1.9243
8.3358 1.8558 1.9225
4.1500 1.2818 0.9778
7.9048 3.1579 1.9161
7.6085 3.7750 1.9117
7.2616 4.3634 1.9064
6.8672 4.9188 1.9004
6.4286 5.4374 1.8938
5.9494 5.9158 1.8864
5.4555 6.3762 1.8861
4.9272 6.7971 1.8861
4.3668 7.1746 1.8861
3.7777 7.5064 1.8861
3.4193 8.4195 2.0385
2.7329 8.6721 2.0385
2.0280 8.8691 2.0385
1.3093 9.0092 2.0385
0.5812 9.0912 2.0385
-0.1517 9.1147 2.0385
-0.8845 9.0792 2.0385
-1.6126 8.9850 2.0385
-2.3313 8.8325 2.0385
-3.0358 8.6226 2.0385
-3.7216 8.3565 2.0385
-4.3842 8.0358 2.0385
-5.0193 7.6626 2.0385
-5.6225 7.2392 2.0385
-6.1901 6.7682 2.0385
-6.7180 6.2526 2.0385
-7.2029 5.6958 2.0385
-7.6415 5.1013 2.0385
-8.0307 4.4730 2.0385
-8.3681 3.8150 2.0385
-8.6512 3.1315 2.0385
-8.8781 2.4272 2.0385
-9.0474 1.7065 2.0385
-9.1577 0.9742 2.0385
-9.2084 0.2353 2.0385
-9.1990 -0.5054 2.0385
-9.1297 -1.2430 2.0385
-9.0007 -1.9727 2.0385
-8.8131 -2.6895 2.0385
-8.5679 -3.3887 2.0385
-8.2670 -4.0657 2.0385
-7.9122 -4.7159 2.0385
-7.5060 -5.3352 2.0385
-7.0510 -5.9194 2.0385
-6.5504 -6.4647 2.0385
-6.0075 -6.9672 2.0385
-5.4258 -7.4245 2.0385
-4.8094 -7.8328 2.0385
-4.1623 -8.1897 2.0385
-3.4888 -8.4931 2.0385
-2.7933 -8.7409 2.0385
-2.0806 -8.9316 2.0385
-0.6779 -4.5344 1.0198
-0.3081 -4.5276 1.0100
0.0566 -4.5210 1.0070
0.4209 -4.5144 1.0105
0.7897 -4.5078 1.0207
1.1680 -4.5009 1.0378
2.9953 -8.6217 2.0385
3.6761 -8.3472 2.0385
4.0084 -7.4197 1.8861
4.5888 -7.0687 1.8861
5.1389 -6.6726 1.8861
5.6552 -6.2339 1.8861
6.1352 -5.7563 1.8863
6.6000 -5.2619 1.8937
7.0227 -4.7283 1.9004
7.3997 -4.1593 1.9064
7.7279 -3.5590 1.9116
8.0043 -2.9318 1.9161
8.2266 -2.2821 1.9197
8.3928 -1.6150 1.9225
8.5014 -0.9355 1.9243
8.5515 -0.2489 1.9253
8.5426 0.4395 1.9253
8.4748 1.1244 1.9244
8.3488 1.8004 1.9226
4.1916 1.2641 0.9856
7.9270 3.1057 1.9164
7.6350 3.7250 1.9121
7.2922 4.3159 1.9069
6.9015 4.8742 1.9010
6.4664 5.3960 1.8943
5.9905 5.8778 1.8871
5.4976 6.3395 1.8861
4.9722 6.7639 1.8861
4.4143 7.1451 1.8861
3.8274 7.4807 1.8861
3.4751 8.3961 2.0385
2.7904 8.6533 2.0385
2.0869 8.8550 2.0385
1.3691 8.9998 2.0385
0.6416 9.0867 2.0385
-0.0910 9.1150 2.0385
-0.8240 9.0844 2.0385
-1.5527 8.9950 2.0385
-2.2723 8.8473 2.0385
-2.9782 8.6421 2.0385
-3.6657 8.3806 2.0385
-4.3304 8.0644 2.0385
-4.9679 7.6954 2.0385
-5.5739 7.2761 2.0385
-6.1446 6.8089 2.0385
-6.6760 6.2969 2.0385
-7.1645 5.7433 2.0385
-7.6071 5.1518 2.0385
-8.0005 4.5262 2.0385
-8.3422 3.8704 2.0385
-8.6299 3.1889 2.0385
-8.8615 2.4861 2.0385
-9.0356 1.7666 2.0385
-9.1509 1.0352 2.0385
-9.2065 0.2966 2.0385
-9.2021 -0.4442 2.0385
-9.1377 -1.1823 2.0385
-9.0136 -1.9128 2.0385
-8.8308 -2.6308 2.0385
-8.5904 -3.3316 2.0385
-8.2939 -4.0106 2.0385
-7.9435 -4.6633 2.0385
-7.5414 -5.2853 2.0385
-7.0904 -5.8725 2.0385
-6.5935 -6.4212 2.0385
-6.0539 -6.9276 2.0385
-5.4753 -7.3885 2.0385
-4.8616 -7.8009 2.0385
-4.2169 -8.1622 2.0385
-3.5454 -8.4701 2.0385
-2.8516 -8.7225 2.0385
-2.1401 -8.9181 2.0385
-0.7089 -4.5350 1.0209
-0.3385 -4.5282 1.0106
0.0265 -4.5216 1.0070
0.3907 -4.5150 1.0100
0.7589 -4.5083 1.0196
1.1362 -4.5015 1.0361
2.9380 -8.6420 2.0385
3.6207 -8.3720 2.0385
3.9899 -7.5045 1.9007
4.5419 -7.0995 1.8861
5.0946 -6.7070 1.8861
5.6138 -6.2717 1.8861
6.0950 -5.7954 1.8857
6.5631 -5.3043 1.8931
6.9894 -4.7738 1.8999
7.3703 -4.2077 1.9059
7.7026 -3.6098 1.9112
-4.5633 -6.7008 2.0385
-4.0084 -7.0427 2.0385
-3.4279 -7.3386 2.0385
-2.8256 -7.5865 2.0385
-2.2057 -7.7849 2.0385
-0.8995 -4.5388 1.1664
-0.5243 -4.5320 1.1507
-0.1572 -4.5253 1.1427
0.2068 -4.5187 1.1423
0.5724 -4.5121 1.1493
0.9445 -4.5054 1.1639
2.2818 -7.7275 2.0385
2.8938 -7.5144 2.0385
3.4863 -7.2529 2.0385
3.9608 -6.7826 1.9908
4.2543 -6.0996 1.8861
4.7282 -5.7346 1.8861
5.1711 -5.3329 1.8861
5.5802 -4.8973 1.8861
5.9529 -4.4305 1.8861
6.2978 -3.9425 1.8893
6.6089 -3.4308 1.8943
6.8761 -2.8937 1.8986
7.0974 -2.3350 1.9022
7.2708 -1.7587 1.9050
7.3947 -1.1693 1.9071
7.4682 -0.5711 1.9084
7.4906 0.0313 1.9089
7.4617 0.6334 1.9086
7.3819 1.2306 1.9075
7.2517 1.8185 1.9056
4.0601 1.3735 1.0925
6.8453 2.9484 1.8996
6.5727 3.4823 1.8955
6.2566 3.9902 1.8907
5.8998 4.4685 1.8853
5.5251 4.9318 1.8861
5.1122 5.3618 1.8861
4.6662 5.7576 1.8861
4.1897 6.1165 1.8861
3.7534 6.5544 1.9206
3.4131 7.2577 2.0385
2.8199 7.5123 2.0385
2.2079 7.7188 2.0385
1.5811 7.8757 2.0385
0.9433 7.9819 2.0385
0.2988 8.0367 2.0385
-0.3485 8.0395 2.0385
-0.9942 7.9905 2.0385
-1.6344 7.8896 2.0385
-2.2647 7.7375 2.0385
-2.8811 7.5352 2.0385
-3.4796 7.2838 2.0385
-4.0562 6.9848 2.0385
-4.6072 6.6402 2.0385
-5.1289 6.2520 2.0385
-5.6179 5.8229 2.0385
-6.0709 5.3555 2.0385
-6.4849 4.8527 2.0385
-6.8571 4.3180 2.0385
-7.1850 3.7547 2.0385
-7.4665 3.1664 2.0385
-7.6995 2.5572 2.0385
-7.8826 1.9309 2.0385
-8.0145 1.2917 2.0385
-8.0942 0.6437 2.0385
-8.1212 -0.0087 2.0385
-8.0953 -0.6613 2.0385
-8.0166 -1.3097 2.0385
-7.8857 -1.9496 2.0385
-7.7034 -2.5768 2.0385
-7.4709 -3.1871 2.0385
-7.1898 -3.7766 2.0385
-6.8619 -4.3413 2.0385
-6.4895 -4.8775 2.0385
-6.0750 -5.3817 2.0385
-5.6212 -5.8507 2.0385
-5.1311 -6.2812 2.0385
-4.6080 -6.6705 2.0385
-4.0553 -7.0162 2.0385
-3.4768 -7.3159 2.0385
-2.8762 -7.5679 2.0385
-2.2575 -7.7704 2.0385
-1.6249 -7.9223 2.0385
-0.5550 -4.5325 1.1517
-0.1874 -4.5258 1.1431
0.1767 -4.5192 1.1420
0.5420 -4.5126 1.1484
0.9134 -4.5059 1.1624
2.2304 -7.7429 2.0385
2.8438 -7.5338 2.0385
3.4381 -7.2763 2.0385
3.9585 -6.8834 2.0125
4.2139 -6.1281 1.8861
4.6902 -5.7662 1.8861
5.1357 -5.3675 1.8861
5.5477 -4.9345 1.8861
5.9235 -4.4703 1.8861
6.2702 -3.9835 1.8889
6.5847 -3.4742 1.8939
6.8558 -2.9390 1.8983
7.0809 -2.3819 1.9019
7.2583 -1.8070 1.9048
7.3864 -1.2185 1.9069
7.4641 -0.6208 1.9083
7.4907 -0.0186 1.9089
7.4661 0.5837 1.9086
7.3904 1.1815 1.9076
7.2643 1.7703 1.9058
4.0708 1.3470 1.0929
6.8659 2.9032 1.8999
6.5969 3.4391 1.8959
6.2843 3.9492 1.8911
5.9308 4.4302 1.8858
5.5577 4.8948 1.8861
5.1477 5.3275 1.8861
4.7042 5.7262 1.8861
4.2302 6.0883 1.8861
3.7585 6.4629 1.9012
3.4612 7.2345 2.0385
2.8697 7.4931 2.0385
2.2592 7.7036 2.0385
1.6334 7.8646 2.0385
0.9964 7.9751 2.0385
0.3522 8.0341 2.0385
-0.2949 8.0413 2.0385
-0.9410 7.9965 2.0385
-1.5817 7.8999 2.0385
-2.2130 7.7520 2.0385
-2.8307 7.5538 2.0385
-3.4308 7.3064 2.0385
-4.0094 7.0113 2.0385
-4.5627 6.6704 2.0385
-5.0869 6.2857 2.0385
-5.5787 5.8599 2.0385
-6.0348 5.3955 2.0385
-6.4522 4.8956 2.0385
-6.8280 4.3633 2.0385
-7.1597 3.8022 2.0385
-7.4450 3.2160 2.0385
-7.6821 2.6083 2.0385
-7.8694 1.9832 2.0385
-8.0055 1.3449 2.0385
-8.0896 0.6975 2.0385
-8.1209 0.0453 2.0385
-8.0994 -0.6074 2.0385
-8.0251 -1.2563 2.0385
-7.8985 -1.8971 2.0385
-7.7204 -2.5255 2.0385
-7.4920 -3.1374 2.0385
-7.2148 -3.7287 2.0385
-6.8908 -4.2956 2.0385
-6.5219 -4.8344 2.0385
-6.1108 -5.3413 2.0385
-5.6601 -5.8133 2.0385
-5.1729 -6.2471 2.0385
-4.6524 -6.6399 2.0385
-4.1021 -6.9893 2.0385
-3.5255 -7.2929 2.0385
-2.9266 -7.5489 2.0385
-2.3093 -7.7556 2.0385
-1.6776 -7.9117 2.0385
-0.5857 -4.5331 1.1527
-0.2176 -4.5264 1.1435
0.1466 -4.5198 1.1418
0.5116 -4.5132 1.1476
0.8823 -4.5065 1.1609
1.2638 -4.4996 1.1823
2.7938 -7.5530 2.0385
3.3898 -7.2994 2.0385
3.9560 -6.9864 2.0348
4.1732 -6.1563 1.8861
4.6519 -5.7976 1.8861
5.1001 -5.4018 1.8861
5.5150 -4.9716 1.8861
5.8939 -4.5098 1.8861
6.2423 -4.0244 1.8884
6.5603 -3.5173 1.8935
6.8350 -2.9841 1.8979
7.0641 -2.4287 1.9016
7.2455 -1.8551 1.9046
7.3777 -1.2675 1.9068
7.4596 -0.6705 1.9082
7.4904 -0.0685 1.9088
7.4701 0.5340 1.9087
7.3986 1.1323 1.9077
7.2767 1.7221 1.9060
4.0816 1.3204 1.0934
6.8861 2.8579 1.9002
6.6208 3.3957 1.8962
6.3118 3.9081 1.8916
5.9610 4.3912 1.8861
5.5900 4.8576 1.8861
5.1829 5.2930 1.8861
4.7421 5.6946 1.8861
4.2705 6.0598 1.8861
3.7736 6.3907 1.8874
3.5092 7.2110 2.0385
2.9194 7.4735 2.0385
2.3103 7.6880 2.0385
1.6856 7.8532 2.0385
1.0494 7.9679 2.0385
0.4057 8.0312 2.0385
-0.2414 8.0427 2.0385
-0.8877 8.0022 2.0385
-1.5290 7.9098 2.0385
-2.1613 7.7662 2.0385
-2.7802 7.5721 2.0385
-3.3820 7.3287 2.0385
-3.9625 7.0375 2.0385
-4.5180 6.7002 2.0385
-5.0448 6.3192 2.0385
-5.5394 5.8966 2.0385
-5.9986 5.4353 2.0385
-6.4192 4.9382 2.0385
-6.7985 4.4085 2.0385
-7.1339 3.8497 2.0385
-7.4232 3.2653 2.0385
-7.6644 2.6593 2.0385
-7.8558 2.0355 2.0385
-7.9962 1.3981 2.0385
-8.0846 0.7513 2.0385
-8.1204 0.0993 2.0385
-8.1032 -0.5535 2.0385
-8.0332 -1.2029 2.0385
-7.9109 -1.8445 2.0385
-7.7370 -2.4741 2.0385
-7.5128 -3.0875 2.0385
-7.2396 -3.6807 2.0385
-6.9193 -4.2498 2.0385
-6.5541 -4.7910 2.0385
-6.1464 -5.3007 2.0385
-5.6988 -5.7757 2.0385
-5.2145 -6.2127 2.0385
-4.6966 -6.6091 2.0385
-4.1486 -6.9621 2.0385
-3.5741 -7.2696 2.0385
-2.9769 -7.5296 2.0385
-2.3609 -7.7404 2.0385
-1.7303 -7.9007 2.0385
-0.6165 -4.5336 1.1538
-0.2478 -4.5269 1.1440
0.1165 -4.5203 1.1417
0.4813 -4.5137 1.1468
0.8513 -4.5070 1.1595
1.2317 -4.5002 1.1802
2.7436 -7.5718 2.0385
3.3413 -7.3222 2.0385
3.9167 -7.0256 2.0385
4.1343 -6.1873 1.8870
4.6134 -5.8287 1.8861
5.0643 -5.4358 1.8861
5.4820 -5.0084 1.8861
5.8640 -4.5492 1.8861
6.2141 -4.0651 1.8880
6.5356 -3.5603 1.8931
6.8140 -3.0291 1.8976
7.0469 -2.4754 1.9013
7.2323 -1.9031 1.9044
7.3686 -1.3166 1.9066
7.4547 -0.7201 1.9081
7.4898 -0.1183 1.9088
7.4737 0.4843 1.9087
7.4064 1.0831 1.9078
7.2886 1.6737 1.9062
4.1083 1.2989 1.0983
6.9060 2.8124 1.9005
6.6445 3.3521 1.8966
6.3390 3.8668 1.8920
5.9920 4.3528 1.8867
5.6221 4.8202 1.8861
5.2179 5.2582 1.8861
4.7798 5.6627 1.8861
4.3106 6.0311 1.8861
3.8133 6.3608 1.8861
3.5570 7.1872 2.0385
2.9690 7.4536 2.0385
2.3613 7.6722 2.0385
1.7378 7.8415 2.0385
1.1024 7.9603 2.0385
0.4591 8.0279 2.0385
-0.1879 8.0437 2.0385
-0.8344 8.0075 2.0385
-1.4763 7.9194 2.0385
-2.1094 7.7800 2.0385
-2.7296 7.5900 2.0385
-3.3329 7.3507 2.0385
-3.9154 7.0633 2.0385
-4.4731 6.7298 2.0385
-5.0024 6.3523 2.0385
-5.4998 5.9331 2.0385
-5.9620 5.4749 2.0385
-6.3859 4.9806 2.0385
-6.7688 4.4535 2.0385
-7.1079 3.8969 2.0385
-7.4011 3.3145 2.0385
-7.6463 2.7101 2.0385
-7.8419 2.0877 2.0385
-7.9866 1.4512 2.0385
-8.0793 0.8050 2.0385
-8.1194 0.1533 2.0385
-8.1066 -0.4996 2.0385
-8.0410 -1.1494 2.0385
-7.9230 -1.7918 2.0385
-7.7533 -2.4226 2.0385
-7.5332 -3.0375 2.0385
-7.2640 -3.6325 2.0385
-6.9475 -4.2037 2.0385
-6.5860 -4.7473 2.0385
-6.1816 -5.2598 2.0385
-5.7373 -5.7378 2.0385
-5.2559 -6.1781 2.0385
-4.7407 -6.5779 2.0385
-4.1950 -6.9346 2.0385
-3.6225 -7.2459 2.0385
-3.0270 -7.5099 2.0385
-2.4125 -7.7248 2.0385
-1.7829 -7.8894 2.0385
-0.6473 -4.5342 1.1550
-0.2781 -4.5275 1.1445
0.0864 -4.5209 1.1416
0.4510 -4.5143 1.1461
0.8204 -4.5076 1.1582
1.1997 -4.5008 1.1782
2.6933 -7.5903 2.0385
3.2927 -7.3447 2.0385
3.8701 -7.0519 2.0385
4.0912 -6.2120 1.8861
4.5747 -5.8595 1.8861
5.0282 -5.4697 1.8861
5.4488 -5.0450 1.8861
5.8338 -4.5883 1.8861
6.1857 -4.1055 1.8875
6.5107 -3.6031 1.8927
6.7927 -3.0740 1.8972
7.0294 -2.5220 1.9011
7.2188 -1.9511 1.9041
7.3592 -1.3655 1.9065
7.4495 -0.7697 1.9080
7.4889 -0.1682 1.9088
7.4770 0.4345 1.9088
7.4139 1.0339 1.9079
7.3003 1.6253 1.9063
4.1493 1.2815 1.1069
6.9256 2.7667 1.9008
6.6678 3.3084 1.8969
6.3658 3.8252 1.8924
6.0222 4.3137 1.8872
5.6540 4.7825 1.8861
5.2526 5.2232 1.8861
4.8172 5.6306 1.8861
4.3505 6.0020 1.8861
3.8554 6.3350 1.8861
3.6046 7.1631 2.0385
3.0184 7.4333 2.0385
2.4123 7.6559 2.0385
1.7899 7.8294 2.0385
1.1553 7.9524 2.0385
0.5125 8.0243 2.0385
-0.1343 8.0443 2.0385
-0.7810 8.0124 2.0385
-1.4235 7.9287 2.0385
-2.0575 7.7935 2.0385
-2.6789 7.6076 2.0385
-3.2838 7.3723 2.0385
-3.8681 7.0889 2.0385
-4.4280 6.7591 2.0385
-4.9597 6.3851 2.0385
-5.4599 5.9693 2.0385
-5.9252 5.5142 2.0385
-6.3524 5.0228 2.0385
-6.7387 4.4982 2.0385
-7.0816 3.9440 2.0385
-7.3786 3.3636 2.0385
-7.6279 2.7608 2.0385
-7.8277 2.1397 2.0385
-7.9766 1.5043 2.0385
-8.0736 0.8587 2.0385
-8.1181 0.2074 2.0385
-8.1097 -0.4456 2.0385
-8.0484 -1.0959 2.0385
-7.9347 -1.7391 2.0385
-7.7693 -2.3709 2.0385
-7.5533 -2.9873 2.0385
-7.2881 -3.5842 2.0385
-6.9755 -4.1575 2.0385
-6.6175 -4.7035 2.0385
-6.2166 -5.2187 2.0385
-5.7755 -5.6996 2.0385
-5.2971 -6.1431 2.0385
-4.7845 -6.5464 2.0385
-4.2412 -6.9068 2.0385
-3.6708 -7.2220 2.0385
-3.0771 -7.4899 2.0385
-2.4639 -7.7090 2.0385
-1.8355 -7.8777 2.0385
-0.6782 -4.5348 1.1562
-0.3084 -4.5280 1.1451
0.0563 -4.5214 1.1416
0.4207 -4.5148 1.1455
0.7895 -4.5081 1.1569
1.1679 -4.5013 1.1762
2.6428 -7.6084 2.0385
3.2438 -7.3668 2.0385
3.8233 -7.0778 2.0385
4.0500 -6.2393 1.8861
4.5358 -5.8901 1.8861
4.9919 -5.5033 1.8861
5.4153 -5.0814 1.8861
5.8033 -4.6272 1.8861
6.1569 -4.1458 1.8871
6.4854 -3.6457 1.8923
6.7711 -3.1187 1.8969
7.0116 -2.5684 1.9008
7.2050 -1.9989 1.9039
7.3495 -1.4144 1.9063
7.4440 -0.8193 1.9079
7.4876 -0.2181 1.9088
7.4799 0.3847 1.9088
7.4211 0.9845 1.9080
7.3116 1.5767 1.9065
4.1909 1.2639 1.1157
6.9449 2.7210 1.9011
6.6908 3.2644 1.8973
6.3924 3.7835 1.8928
6.0521 4.2745 1.8876
5.6856 4.7446 1.8861
5.2872 5.1880 1.8861
4.8545 5.5982 1.8861
4.3903 5.9727 1.8861
3.8974 6.3090 1.8861
3.6520 7.1386 2.0385
3.0677 7.4128 2.0385
2.4631 7.6394 2.0385
1.8419 7.8169 2.0385
1.2081 7.9442 2.0385
0.5659 8.0203 2.0385
-0.0808 8.0447 2.0385
-0.7277 8.0171 2.0385
-1.3706 7.9376 2.0385
-2.0054 7.8066 2.0385
-2.6281 7.6249 2.0385
-3.2345 7.3936 2.0385
-3.8206 7.1141 2.0385
-4.3827 6.7881 2.0385
-4.9169 6.4177 2.0385
-5.4198 6.0052 2.0385
-5.8881 5.5532 2.0385
-6.3186 5.0647 2.0385
-6.7084 4.5428 2.0385
-7.0549 3.9909 2.0385
-7.3559 3.4125 2.0385
-7.6091 2.8114 2.0385
-7.8131 2.1917 2.0385
-7.9662 1.5573 2.0385
-8.0676 0.9125 2.0385
-8.1164 0.2614 2.0385
-8.1124 -0.3917 2.0385
-8.0555 -1.0423 2.0385
-7.9461 -1.6862 2.0385
-7.7849 -2.3192 2.0385
-7.5730 -2.9370 2.0385
-7.3118 -3.5356 2.0385
-7.0031 -4.1110 2.0385
-6.6488 -4.6595 2.0385
-6.2514 -5.1773 2.0385
-5.8134 -5.6612 2.0385
-5.3380 -6.1080 2.0385
-4.8281 -6.5147 2.0385
-4.2872 -6.8787 2.0385
-3.7189 -7.1977 2.0385
-3.1270 -7.4696 2.0385
-2.5153 -7.6927 2.0385
-1.8879 -7.8657 2.0385
-0.7092 -4.5353 1.1575
-0.3387 -4.5286 1.1457
0.0262 -4.5220 1.1416
0.3905 -4.5153 1.1448
0.7588 -4.5087 1.1556
1.1361 -4.5019 1.1743
2.5923 -7.6262 2.0385
3.1949 -7.3886 2.0385
3.7762 -7.1035 2.0385
4.0086 -6.2669 1.8861
4.4967 -5.9205 1.8861
4.9554 -5.5367 1.8861
5.3816 -5.1175 1.8861
5.7726 -4.6659 1.8861
6.1279 -4.1858 1.8866
6.4598 -3.6882 1.8919
6.7491 -3.1632 1.8965
-4.0749 -5.9832 2.0385
-3.5796 -6.2888 2.0385
-3.0614 -6.5533 2.0385
-2.5237 -6.7750 2.0385
-1.9702 -6.9525 2.0385
-0.8998 -4.5392 1.3061
-0.5246 -4.5324 1.2884
-0.1575 -4.5257 1.2794
0.2066 -4.5191 1.2788
0.5722 -4.5124 1.2866
0.9444 -4.5057 1.3029
2.0383 -6.9041 2.0385
2.5852 -6.7141 2.0385
3.1148 -6.4810 2.0385
3.6237 -6.2061 2.0385
3.9482 -5.6614 1.9588
4.2253 -5.1251 1.8861
4.6214 -4.7664 1.8861
4.9873 -4.3773 1.8861
5.3207 -3.9603 1.8861
5.6195 -3.5182 1.8861
5.8819 -3.0537 1.8861
6.1084 -2.5708 1.8867
6.3038 -2.0741 1.8899
6.4569 -1.5621 1.8924
6.5664 -1.0385 1.8942
6.6313 -0.5073 1.8954
6.6512 0.0277 1.8958
6.6257 0.5624 1.8956
6.5553 1.0928 1.8946
6.4404 1.6150 1.8930
4.0421 1.3674 1.2165
6.0816 2.6195 1.8877
5.8470 3.0979 1.8861
5.5798 3.5586 1.8861
5.2766 3.9967 1.8861
4.9392 4.4091 1.8861
4.5700 4.7934 1.8861
4.1710 5.1470 1.8861
3.7746 5.5109 1.9010
3.5607 6.2183 2.0385
3.0504 6.4872 2.0385
2.5201 6.7145 2.0385
1.9730 6.8987 2.0385
1.4126 7.0385 2.0385
0.8426 7.1330 2.0385
0.2666 7.1815 2.0385
-0.3118 7.1837 2.0385
-0.8887 7.1394 2.0385
-1.4606 7.0488 2.0385
-2.0236 6.9125 2.0385
-2.5741 6.7313 2.0385
-3.1086 6.5063 2.0385
-3.6235 6.2389 2.0385
-4.1154 5.9307 2.0385
-4.5811 5.5837 2.0385
-5.0175 5.2001 2.0385
-5.4218 4.7824 2.0385
-5.7912 4.3333 2.0385
-6.1233 3.8556 2.0385
-6.4158 3.3524 2.0385
-6.6669 2.8271 2.0385
