ply
format ascii 1.0
element vertex 2172
property float32 x
property float32 y
property float32 z
end_header
-10.7889 -5.9906 2.0330
-10.2727 -6.8380 2.0330
-9.6901 -7.6411 2.0330
-9.0449 -8.3950 2.0330
-8.3412 -9.0946 2.0330
-7.5836 -9.7353 2.0330
-7.5475 -7.2856 2.0330
-6.9378 -7.8684 2.0330
-6.2832 -8.4003 2.0330
-5.5880 -8.8780 2.0330
-4.8566 -9.2982 2.0330
-4.0939 -9.6584 2.0330
-3.3047 -9.9561 2.0330
-2.4942 -10.1894 2.0330
-1.6675 -10.3568 2.0330
-0.6044 -7.6151 1.4804
0.0093 -7.6206 1.4768
0.6241 -7.6261 1.4828
1.6928 -10.3527 2.0330
2.5191 -10.1832 2.0330
3.3291 -9.9480 2.0330
3.8225 -8.9568 1.8873
4.5136 -8.5902 1.8806
4.2191 -6.6669 1.5290
5.8312 -7.7563 1.8806
6.4606 -7.2911 1.8879
7.0598 -6.7814 1.8971
7.6159 -6.2202 1.9056
8.1241 -5.6111 1.9134
8.5798 -4.9582 1.9204
8.9788 -4.2664 1.9265
9.3173 -3.5406 1.9316
9.5922 -2.7866 1.9358
9.8009 -2.0101 1.9389
9.9412 -1.2175 1.9410
10.0119 -0.4151 1.9419
10.0122 0.3906 1.9418
9.9422 1.1930 1.9406
9.8026 1.9855 1.9383
9.5948 2.7619 1.9349
9.3208 3.5158 1.9306
8.9855 4.2426 1.9257
8.5688 4.9240 1.9152
8.1097 5.5718 1.9068
7.6090 6.1836 1.9001
7.0603 6.7488 1.8928
6.4682 7.2638 1.8849
5.8502 7.7421 1.8806
5.2092 8.1870 1.8806
4.5346 8.5791 1.8806
3.9903 9.2872 1.9589
3.3534 9.9398 2.0330
2.5440 10.1770 2.0330
1.7182 10.3485 2.0330
0.8812 10.4531 2.0330
0.0385 10.4901 2.0330
-0.8044 10.4593 2.0330
-1.6421 10.3609 2.0330
-2.4692 10.1954 2.0330
-3.2803 9.9641 2.0330
-4.0703 9.6684 2.0330
-4.8339 9.3101 2.0330
-5.5663 8.8916 2.0330
-6.2626 8.4157 2.0330
-6.9185 7.8853 2.0330
-7.5297 7.3040 2.0330
-8.0921 6.6754 2.0330
-8.6023 6.0037 2.0330
-9.0568 5.2932 2.0330
-9.4528 4.5485 2.0330
-9.7877 3.7743 2.0330
-10.0593 2.9758 2.0330
-10.2658 2.1580 2.0330
-10.4060 1.3262 2.0330
-10.4789 0.4859 2.0330
-10.4841 -0.3576 2.0330
-10.4215 -1.1987 2.0330
-10.2915 -2.0321 2.0330
-10.0950 -2.8524 2.0330
-9.8331 -3.6542 2.0330
-9.5078 -4.4324 2.0330
-9.1209 -5.1819 2.0330
-8.6751 -5.8980 2.0330
-8.1732 -6.5759 2.0330
-7.6185 -7.2113 2.0330
-7.0145 -7.8001 2.0330
-6.3652 -8.3384 2.0330
-5.6747 -8.8228 2.0330
-4.9475 -9.2502 2.0330
-4.1883 -9.6178 2.0330
-3.4021 -9.9232 2.0330
-2.5938 -10.1645 2.0330
-1.7688 -10.3400 2.0330
-0.6795 -7.6144 1.4815
-0.0653 -7.6199 1.4768
0.5489 -7.6254 1.4816
1.5914 -10.3688 2.0330
2.4193 -10.2074 2.0330
3.2315 -9.9801 2.0330
3.8066 -9.1674 1.9237
4.4293 -8.6339 1.8806
4.1270 -6.6650 1.5192
5.7549 -7.8131 1.8806
6.3849 -7.3494 1.8867
6.9890 -6.8463 1.8960
7.5507 -6.2912 1.9046
8.0650 -5.6877 1.9125
8.5273 -5.0399 1.9196
8.9334 -4.3525 1.9258
9.2795 -3.6306 1.9311
9.5623 -2.8797 1.9353
9.7791 -2.1057 1.9386
9.9278 -1.3147 1.9408
10.0070 -0.5131 1.9419
10.0159 0.2925 1.9419
9.9545 1.0957 1.9408
9.8233 1.8898 1.9386
9.6237 2.6684 1.9354
9.3576 3.4254 1.9312
9.0294 4.1557 1.9263
8.6244 4.8441 1.9170
8.1672 5.4944 1.9076
7.6726 6.1115 1.9010
7.1295 6.6826 1.8937
6.5424 7.2039 1.8859
5.9257 7.6844 1.8806
5.2892 8.1356 1.8806
4.6184 8.5343 1.8806
3.9955 9.0538 1.9178
3.4506 9.9064 2.0330
2.6436 10.1516 2.0330
1.8194 10.3312 2.0330
0.9835 10.4440 2.0330
0.1413 10.4893 2.0330
-0.7019 10.4667 2.0330
-1.5406 10.3765 2.0330
-2.3692 10.2191 2.0330
-3.1826 9.9958 2.0330
-3.9754 9.7078 2.0330
-4.7425 9.3570 2.0330
-5.4789 8.9457 2.0330
-6.1799 8.4766 2.0330
-6.8409 7.9527 2.0330
-7.4577 7.3774 2.0330
-8.0264 6.7544 2.0330
-8.5431 6.0877 2.0330
-9.0046 5.3817 2.0330
-9.4078 4.6408 2.0330
-9.7502 3.8700 2.0330
-10.0296 3.0741 2.0330
-10.2442 2.2584 2.0330
-10.3925 1.4281 2.0330
-10.4737 0.5885 2.0330
-10.4871 -0.2549 2.0330
-10.4327 -1.0966 2.0330
-10.3109 -1.9312 2.0330
-10.1224 -2.7534 2.0330
-9.8685 -3.5577 2.0330
-9.5507 -4.3391 2.0330
-9.1713 -5.0924 2.0330
-8.7325 -5.8127 2.0330
-8.2372 -6.4955 2.0330
-7.6888 -7.1363 2.0330
-7.0906 -7.7310 2.0330
-6.4465 -8.2757 2.0330
-6.5540 -6.3266 2.0330
-6.0246 -6.8327 2.0330
-5.4561 -7.2946 2.0330
-4.8525 -7.7094 2.0330
-4.2174 -8.0743 2.0330
-3.5550 -8.3871 2.0330
-2.8697 -8.6456 2.0330
-2.1659 -8.8482 2.0330
-1.4480 -8.9936 2.0330
-0.6044 -7.6150 1.7048
0.0093 -7.6205 1.7007
0.6241 -7.6260 1.7076
1.4700 -8.9900 2.0330
2.1875 -8.8428 2.0330
2.8909 -8.6385 2.0330
3.5756 -8.3783 2.0330
3.9195 -7.4595 1.8806
4.2001 -6.6368 1.7528
5.0636 -6.7354 1.8806
5.5884 -6.3068 1.8806
6.0809 -5.8411 1.8818
6.5559 -5.3544 1.8890
6.9893 -4.8273 1.8957
7.3776 -4.2635 1.9016
7.7173 -3.6669 1.9068
8.0052 -3.0420 1.9112
8.2389 -2.3934 1.9147
8.4162 -1.7261 1.9174
8.5354 -1.0454 1.9191
8.5955 -0.3564 1.9199
8.5959 0.3353 1.9198
8.5366 1.0243 1.9188
8.4181 1.7051 1.9168
8.2417 2.3724 1.9140
8.0088 3.0210 1.9103
7.7218 3.6459 1.9057
7.3831 4.2426 1.9004
6.9958 4.8065 1.8943
6.5596 5.3308 1.8864
6.0898 5.8212 1.8801
5.6038 6.2931 1.8806
5.0801 6.7230 1.8806
4.5236 7.1094 1.8806
3.9828 7.5351 1.9021
3.5961 8.3696 2.0330
2.9120 8.6314 2.0330
2.2091 8.8375 2.0330
1.4920 8.9864 2.0330
0.7652 9.0772 2.0330
0.0334 9.1093 2.0330
-0.6985 9.0826 2.0330
-1.4260 8.9971 2.0330
-2.1442 8.8535 2.0330
-2.8486 8.6526 2.0330
-3.5345 8.3957 2.0330
-4.1976 8.0846 2.0330
-4.8336 7.7213 2.0330
-5.4383 7.3080 2.0330
-6.0078 6.8474 2.0330
-6.5385 6.3426 2.0330
-7.0270 5.7968 2.0330
-7.4700 5.2135 2.0330
-7.8647 4.5965 2.0330
-8.2086 3.9498 2.0330
-8.4994 3.2775 2.0330
-8.7352 2.5841 2.0330
-8.9146 1.8739 2.0330
-9.0363 1.1516 2.0330
-9.0996 0.4220 2.0330
-9.1041 -0.3105 2.0330
-9.0497 -1.0410 2.0330
-8.9368 -1.7646 2.0330
-8.7662 -2.4769 2.0330
-8.5388 -3.1732 2.0330
-8.2563 -3.8490 2.0330
-7.9204 -4.4999 2.0330
-7.5332 -5.1216 2.0330
-7.0974 -5.7103 2.0330
-6.6157 -6.2621 2.0330
-6.0912 -6.7734 2.0330
-5.5273 -7.2408 2.0330
-4.9277 -7.6615 2.0330
-4.2963 -8.0326 2.0330
-3.6370 -8.3518 2.0330
-2.9543 -8.6170 2.0330
-2.2524 -8.8265 2.0330
-1.5360 -8.9790 2.0330
-0.6795 -7.6144 1.7061
-0.0653 -7.6199 1.7006
0.5489 -7.6253 1.7062
1.3819 -9.0040 2.0330
2.1008 -8.8638 2.0330
2.8061 -8.6664 2.0330
3.4934 -8.4129 2.0330
3.8463 -7.4975 1.8806
4.1085 -6.6351 1.7417
4.9974 -6.7847 1.8806
5.5264 -6.3612 1.8806
6.0204 -5.8975 1.8808
6.5002 -5.4159 1.8882
6.9389 -4.8935 1.8949
7.3329 -4.3340 1.9010
7.6786 -3.7412 1.9062
7.9730 -3.1195 1.9107
8.2135 -2.4735 1.9143
8.3977 -1.8083 1.9171
8.5241 -1.1288 1.9189
8.5914 -0.4405 1.9199
8.5990 0.2511 1.9199
8.5470 0.9407 1.9190
8.4357 1.6228 1.9171
8.2662 2.2920 1.9144
8.0401 2.9432 1.9108
7.7595 3.5713 1.9063
7.4270 4.1716 1.9011
7.0455 4.7398 1.8950
6.6141 5.2683 1.8871
6.1491 5.7636 1.8809
5.6652 6.2379 1.8806
5.1457 6.6729 1.8806
4.5930 7.0648 1.8806
4.0105 7.4109 1.8806
3.6779 8.3339 2.0330
2.9964 8.6025 2.0330
2.2956 8.8154 2.0330
1.5799 8.9713 2.0330
0.8541 9.0693 2.0330
0.1227 9.1086 2.0330
-0.6095 9.0890 2.0330
-1.3378 9.0106 2.0330
-2.0574 8.8740 2.0330
-2.7637 8.6800 2.0330
-3.4521 8.4300 2.0330
-4.1182 8.1254 2.0330
-4.7577 7.7682 2.0330
-5.3664 7.3609 2.0330
-5.9405 6.9059 2.0330
-6.4761 6.4063 2.0330
-6.9699 5.8653 2.0330
-7.4186 5.2864 2.0330
-7.8193 4.6733 2.0330
-8.1695 4.0300 2.0330
-8.4668 3.3606 2.0330
-8.7095 2.6695 2.0330
-8.8958 1.9611 2.0330
-9.0246 1.2401 2.0330
-9.0950 0.5110 2.0330
-9.1067 -0.2213 2.0330
-9.0595 -0.9523 2.0330
-8.9537 -1.6770 2.0330
-8.7900 -2.3910 2.0330
-8.5695 -3.0894 2.0330
-8.2936 -3.7679 2.0330
-7.9641 -4.4221 2.0330
-7.5830 -5.0476 2.0330
-7.1530 -5.6405 2.0330
-6.6767 -6.1970 2.0330
-6.1573 -6.7134 2.0330
-5.5980 -7.1864 2.0330
-5.7832 -5.5825 2.0330
-5.3160 -6.0291 2.0330
-4.8144 -6.4367 2.0330
-4.2817 -6.8027 2.0330
-3.7213 -7.1247 2.0330
-3.1369 -7.4006 2.0330
-2.5322 -7.6287 2.0330
-1.9111 -7.8075 2.0330
-1.2777 -7.9358 2.0330
-0.6360 -8.0128 2.0330
0.0099 -8.0380 2.0330
0.6556 -8.0112 2.0330
1.2971 -7.9326 2.0330
1.9302 -7.8028 2.0330
2.5509 -7.6225 2.0330
3.1550 -7.3929 2.0330
3.7388 -7.1155 2.0330
3.9762 -6.2830 1.8806
4.4681 -5.9432 1.8806
4.9311 -5.5650 1.8806
5.3623 -5.1508 1.8806
5.7588 -4.7034 1.8806
6.1232 -4.2291 1.8822
6.4609 -3.7337 1.8873
6.7560 -3.2102 1.8918
7.0061 -2.6623 1.8956
7.2090 -2.0942 1.8987
7.3628 -1.5101 1.9010
7.4663 -0.9144 1.9025
7.5184 -0.3117 1.9032
7.5188 0.2933 1.9031
7.4674 0.8960 1.9022
7.3648 1.4917 1.9005
7.2117 2.0759 1.8980
7.0097 2.6441 1.8948
6.7604 3.1920 1.8909
6.4662 3.7157 1.8862
6.1295 4.2113 1.8809
5.7703 4.6893 1.8806
5.3749 5.1377 1.8806
4.9447 5.5530 1.8806
4.4826 5.9323 1.8806
3.9915 6.2732 1.8806
3.7562 7.1064 2.0330
3.1731 7.3852 2.0330
2.5695 7.6162 2.0330
1.9493 7.7981 2.0330
1.3165 7.9294 2.0330
0.6752 8.0096 2.0330
0.0295 8.0379 2.0330
-0.6164 8.0143 2.0330
-1.2582 7.9389 2.0330
-1.8920 7.8121 2.0330
-2.5135 7.6349 2.0330
-3.1188 7.4083 2.0330
-3.7039 7.1338 2.0330
-4.2651 6.8131 2.0330
-4.7987 6.4484 2.0330
-5.3012 6.0421 2.0330
-5.7695 5.5966 2.0330
-6.2005 5.1150 2.0330
-6.5914 4.6003 2.0330
-6.9397 4.0559 2.0330
-7.2431 3.4852 2.0330
-7.4997 2.8920 2.0330
-7.7078 2.2801 2.0330
-7.8661 1.6535 2.0330
-7.9735 1.0162 2.0330
-8.0294 0.3723 2.0330
-8.0333 -0.2740 2.0330
-7.9853 -0.9185 2.0330
-7.8857 -1.5571 2.0330
-7.7351 -2.1856 2.0330
-7.5345 -2.8000 2.0330
-7.2852 -3.3963 2.0330
-6.9888 -3.9706 2.0330
-6.6472 -4.5193 2.0330
-6.2626 -5.0387 2.0330
-5.8376 -5.5256 2.0330
-5.3748 -5.9767 2.0330
-4.8772 -6.3892 2.0330
-4.3481 -6.7604 2.0330
-3.7910 -7.0879 2.0330
-3.2092 -7.3695 2.0330
-2.6068 -7.6035 2.0330
-1.9875 -7.7884 2.0330
-1.3553 -7.9229 2.0330
-0.7144 -8.0062 2.0330
-0.0689 -8.0377 2.0330
0.5771 -8.0172 2.0330
1.2194 -7.9450 2.0330
1.8537 -7.8213 2.0330
2.4761 -7.6471 2.0330
3.0825 -7.4234 2.0330
3.6689 -7.1518 2.0330
3.9144 -6.3216 1.8806
4.4097 -5.9867 1.8806
4.8764 -5.6130 1.8806
5.3116 -5.2031 1.8806
5.7124 -4.7596 1.8806
6.0793 -4.2873 1.8815
6.4220 -3.7956 1.8867
6.7224 -3.2753 1.8913
6.9782 -2.7302 1.8952
7.1869 -2.1644 1.8983
7.3468 -1.5819 1.9007
7.4564 -0.9874 1.9023
7.5149 -0.3853 1.9031
7.5216 0.2197 1.9032
7.4764 0.8229 1.9024
7.3800 1.4197 1.9008
7.2330 2.0055 1.8984
7.0369 2.5759 1.8952
6.7933 3.1265 1.8914
6.5043 3.6534 1.8868
6.1726 4.1526 1.8816
5.8159 4.6325 1.8806
5.4249 5.0849 1.8806
4.9989 5.5043 1.8806
4.5405 5.8881 1.8806
4.0528 6.2338 1.8806
3.8256 7.0692 2.0330
3.2453 7.3537 2.0330
2.6440 7.5907 2.0330
2.0256 7.7786 2.0330
1.3941 7.9162 2.0330
0.7536 8.0026 2.0330
0.1082 8.0373 2.0330
-0.5378 8.0200 2.0330
-1.1804 7.9508 2.0330
-1.8154 7.8303 2.0330
-2.4386 7.6591 2.0330
-3.0461 7.4385 2.0330
-3.6339 7.1697 2.0330
-4.1981 6.8546 2.0330
-4.7353 6.4951 2.0330
-5.2418 6.0937 2.0330
-5.7144 5.6529 2.0330
-6.1501 5.1755 2.0330
-6.5460 4.6646 2.0330
-6.8996 4.1236 2.0330
-7.2086 3.5560 2.0330
-7.4710 2.9653 2.0330
-7.6851 2.3555 2.0330
-7.8495 1.7305 2.0330
-7.9632 1.0942 2.0330
-8.0253 0.4509 2.0330
-8.0356 -0.1953 2.0330
-7.9939 -0.8403 2.0330
-7.9006 -1.4798 2.0330
-7.7562 -2.1097 2.0330
-7.5616 -2.7261 2.0330
-7.3181 -3.3248 2.0330
-7.0274 -3.9020 2.0330
-6.6912 -4.4539 2.0330
-6.3117 -4.9771 2.0330
-5.8914 -5.4681 2.0330
-5.4331 -5.9238 2.0330
-4.9396 -6.3411 2.0330
-5.1668 -4.9874 2.0330
-4.7494 -5.3864 2.0330
-4.3013 -5.7506 2.0330
-3.8254 -6.0776 2.0330
-3.3247 -6.3653 2.0330
-2.8026 -6.6118 2.0330
-2.2623 -6.8156 2.0330
-1.7074 -6.9753 2.0330
-1.1415 -7.0899 2.0330
-0.5682 -7.1587 2.0330
0.0088 -7.1812 2.0330
0.5857 -7.1573 2.0330
1.1589 -7.0871 2.0330
1.7245 -6.9711 2.0330
2.2790 -6.8100 2.0330
2.8187 -6.6049 2.0330
3.3403 -6.3571 2.0330
3.8206 -6.0372 2.0226
3.9918 -5.3097 1.8806
4.4055 -4.9719 1.8806
4.7907 -4.6019 1.8806
5.1450 -4.2021 1.8806
5.4659 -3.7751 1.8806
5.7516 -3.3238 1.8806
5.9982 -2.8501 1.8800
6.2188 -2.3632 1.8833
6.3978 -1.8586 1.8860
6.5334 -1.3400 1.8881
6.6246 -0.8113 1.8894
6.6706 -0.2766 1.8900
6.6710 0.2602 1.8899
6.6257 0.7950 1.8891
6.5353 1.3237 1.8877
6.4004 1.8424 1.8855
6.2223 2.3471 1.8826
6.0070 2.8363 1.8806
5.7597 3.3097 1.8806
5.4752 3.7618 1.8806
5.1552 4.1895 1.8806
4.8020 4.5901 1.8806
4.4177 4.9611 1.8806
4.0048 5.3000 1.8806
3.8551 6.0588 2.0330
3.3558 6.3489 2.0330
2.8349 6.5980 2.0330
2.2956 6.8044 2.0330
1.7415 6.9669 2.0330
1.1762 7.0843 2.0330
0.6032 7.1559 2.0330
0.0264 7.1812 2.0330
-0.5507 7.1601 2.0330
-1.1241 7.0927 2.0330
-1.6903 6.9795 2.0330
-2.2456 6.8211 2.0330
-2.7864 6.6186 2.0330
-3.3091 6.3734 2.0330
-3.8105 6.0869 2.0330
-4.2872 5.7611 2.0330
-4.7362 5.3980 2.0330
-5.1546 5.0001 2.0330
-5.5396 4.5698 2.0330
-5.8888 4.1099 2.0330
-6.2000 3.6236 2.0330
-6.4711 3.1137 2.0330
-6.7003 2.5838 2.0330
-6.8862 2.0371 2.0330
-7.0277 1.4773 2.0330
-7.1236 0.9079 2.0330
-7.1735 0.3326 2.0330
-7.1771 -0.2448 2.0330
-7.1342 -0.8206 2.0330
-7.0452 -1.3911 2.0330
-6.9107 -1.9526 2.0330
-6.7315 -2.5016 2.0330
-6.5087 -3.0343 2.0330
-6.2439 -3.5474 2.0330
-5.9387 -4.0376 2.0330
-5.5951 -4.5016 2.0330
-5.2154 -4.9366 2.0330
-4.8019 -5.3397 2.0330
-4.3574 -5.7082 2.0330
-3.8847 -6.0398 2.0330
-3.3869 -6.3324 2.0330
-2.8672 -6.5840 2.0330
-2.3289 -6.7931 2.0330
-1.7757 -6.9583 2.0330
-1.2109 -7.0784 2.0330
-0.6383 -7.1528 2.0330
-0.0615 -7.1810 2.0330
0.5156 -7.1627 2.0330
1.0894 -7.0981 2.0330
1.6561 -6.9877 2.0330
2.2122 -6.8320 2.0330
2.7539 -6.6322 2.0330
3.2779 -6.3895 2.0330
3.7806 -6.1055 2.0330
3.9396 -5.3487 1.8806
4.3566 -5.0148 1.8806
4.7454 -4.6486 1.8806
5.1036 -4.2523 1.8806
5.4287 -3.8285 1.8806
5.7187 -3.3800 1.8806
5.9686 -2.9080 1.8795
6.1942 -2.4235 1.8830
6.3783 -1.9208 1.8857
6.5192 -1.4038 1.8878
6.6159 -0.8761 1.8893
6.6674 -0.3419 1.8900
6.6734 0.1949 1.8900
6.6337 0.7301 1.8893
6.5487 1.2598 1.8879
6.4192 1.7799 1.8858
6.2462 2.2865 1.8830
6.0314 2.7759 1.8796
5.7918 3.2532 1.8806
5.5117 3.7080 1.8806
5.1960 4.1388 1.8806
4.8467 4.5429 1.8806
4.4661 4.9176 1.8806
4.0565 5.2605 1.8806
3.9142 6.0207 2.0330
3.4178 6.3157 2.0330
2.8994 6.5699 2.0330
2.3622 6.7816 2.0330
1.8097 6.9495 2.0330
1.2455 7.0724 2.0330
0.6733 7.1496 2.0330
0.0967 7.1806 2.0330
-0.4805 7.1652 2.0330
-1.0546 7.1034 2.0330
-1.6219 6.9957 2.0330
-2.1787 6.8428 2.0330
-2.7214 6.6456 2.0330
-3.2465 6.4055 2.0330
-3.7507 6.1239 2.0330
-4.2306 5.8028 2.0330
-4.6831 5.4442 2.0330
-5.1053 5.0503 2.0330
-5.4946 4.6238 2.0330
-5.8483 4.1674 2.0330
-6.1642 3.6841 2.0330
-6.4403 3.1770 2.0330
-6.6747 2.6493 2.0330
-6.8660 2.1045 2.0330
-7.0128 1.5460 2.0330
-7.1144 0.9776 2.0330
-7.1699 0.4029 2.0330
-7.1791 -0.1745 2.0330
-7.1419 -0.7507 2.0330
-7.0585 -1.3221 2.0330
-6.9295 -1.8849 2.0330
-6.7556 -2.4355 2.0330
-6.5381 -2.9704 2.0330
-6.2783 -3.4861 2.0330
-5.9780 -3.9792 2.0330
-5.6389 -4.4466 2.0330
-5.2635 -4.8853 2.0330
-4.8540 -5.2924 2.0330
-4.4131 -5.6653 2.0330
-4.6619 -4.5001 2.0330
-4.2853 -4.8601 2.0330
-3.8810 -5.1887 2.0330
-3.4515 -5.4837 2.0330
-2.9998 -5.7433 2.0330
-2.5287 -5.9657 2.0330
-2.0412 -6.1496 2.0330
-1.5406 -6.2937 2.0330
-1.0299 -6.3971 2.0330
-0.5127 -6.4592 2.0330
0.0079 -6.4795 2.0330
0.5285 -6.4579 2.0330
1.0456 -6.3946 2.0330
1.5560 -6.2899 2.0330
2.0563 -6.1446 2.0330
2.5433 -5.9595 2.0330
3.0139 -5.7359 2.0330
3.4650 -5.4752 2.0330
3.8341 -5.0999 2.0018
3.9750 -4.4860 1.8806
4.3226 -4.1522 1.8806
4.6422 -3.7915 1.8806
4.9318 -3.4062 1.8806
5.1895 -2.9990 1.8806
5.4137 -2.5724 1.8806
5.6029 -2.1291 1.8806
5.7558 -1.6721 1.8806
5.8716 -1.2042 1.8806
5.9493 -0.7286 1.8806
5.9848 -0.2481 1.8794
5.9852 0.2335 1.8793
5.9511 0.7141 1.8806
5.8745 1.1899 1.8806
5.7599 1.6580 1.8806
5.6081 2.1154 1.8806
5.4200 2.5591 1.8806
5.1969 2.9863 1.8806
4.9401 3.3942 1.8806
4.6515 3.7801 1.8806
4.3327 4.1416 1.8806
3.9860 4.4763 1.8806
3.9063 5.1696 2.0330
3.4784 5.4667 2.0330
3.0279 5.7285 2.0330
2.5579 5.9533 2.0330
2.0713 6.1395 2.0330
1.5714 6.2861 2.0330
1.0613 6.3920 2.0330
0.5443 6.4566 2.0330
0.0238 6.4795 2.0330
-0.4969 6.4604 2.0330
-1.0143 6.3996 2.0330
-1.5252 6.2975 2.0330
-2.0262 6.1546 2.0330
-2.5141 5.9719 2.0330
-2.9858 5.7506 2.0330
-3.4381 5.4921 2.0330
-3.8682 5.1981 2.0330
-4.2734 4.8706 2.0330
-4.6509 4.5115 2.0330
-4.9983 4.1232 2.0330
-5.3134 3.7084 2.0330
-5.5942 3.2695 2.0330
-5.8388 2.8095 2.0330
-6.0456 2.3313 2.0330
-6.2133 1.8380 2.0330
-6.3409 1.3329 2.0330
-6.4275 0.8192 2.0330
-6.4726 0.3001 2.0330
-6.4757 -0.2209 2.0330
-6.4371 -0.7404 2.0330
-6.3568 -1.2552 2.0330
-6.2354 -1.7618 2.0330
-6.0737 -2.2571 2.0330
-5.8727 -2.7378 2.0330
-5.6338 -3.2007 2.0330
-5.3584 -3.6430 2.0330
-5.0484 -4.0618 2.0330
-4.7057 -4.4542 2.0330
-4.3327 -4.8179 2.0330
-3.9316 -5.1504 2.0330
-3.5051 -5.4496 2.0330
-3.0559 -5.7136 2.0330
-2.5870 -5.9406 2.0330
-2.1014 -6.1293 2.0330
-1.6021 -6.2783 2.0330
-1.0925 -6.3867 2.0330
-0.5759 -6.4539 2.0330
-0.0555 -6.4793 2.0330
0.4652 -6.4628 2.0330
0.9829 -6.4045 2.0330
1.4943 -6.3048 2.0330
1.9960 -6.1644 2.0330
2.4848 -5.9841 2.0330
2.9576 -5.7651 2.0330
3.4112 -5.5089 2.0330
3.8287 -5.1979 2.0255
3.9309 -4.5248 1.8806
4.2817 -4.1943 1.8806
4.6049 -3.8368 1.8806
4.8982 -3.4544 1.8806
5.1599 -3.0497 1.8806
5.3883 -2.6253 1.8806
5.5818 -2.1839 1.8806
5.7392 -1.7284 1.8806
5.8595 -1.2617 1.8806
5.9419 -0.7868 1.8806
5.9820 -0.3067 1.8793
5.9873 0.1749 1.8793
5.9578 0.6558 1.8806
5.8859 1.1323 1.8806
5.7759 1.6015 1.8806
5.6285 2.0604 1.8806
5.4448 2.5059 1.8806
5.2259 2.9353 1.8806
4.9731 3.3456 1.8806
4.6883 3.7344 1.8806
4.3731 4.0990 1.8806
4.0296 4.4371 1.8806
3.9355 5.1036 2.0220
3.5317 5.4324 2.0330
3.0839 5.6986 2.0330
2.6161 5.9279 2.0330
2.1314 6.1189 2.0330
1.6329 6.2704 2.0330
1.1238 6.3813 2.0330
0.6075 6.4510 2.0330
0.0873 6.4789 2.0330
-0.4336 6.4650 2.0330
-0.9516 6.4093 2.0330
-1.4634 6.3121 2.0330
-1.9658 6.1741 2.0330
-2.4555 5.9962 2.0330
-2.9293 5.7796 2.0330
-3.3842 5.5255 2.0330
-3.8172 5.2358 2.0330
-4.2255 4.9122 2.0330
-4.6065 4.5568 2.0330
-4.9577 4.1720 2.0330
-5.2768 3.7602 2.0330
-5.5619 3.3241 2.0330
-5.8110 2.8665 2.0330
-6.0225 2.3903 2.0330
-6.1950 1.8988 2.0330
-6.3276 1.3950 2.0330
-6.4192 0.8821 2.0330
-6.4693 0.3635 2.0330
-6.4776 -0.1574 2.0330
-6.4440 -0.6773 2.0330
-6.3688 -1.1929 2.0330
-6.2523 -1.7007 2.0330
-6.0955 -2.1975 2.0330
-5.8992 -2.6801 2.0330
-5.6648 -3.1454 2.0330
-5.3938 -3.5904 2.0330
-5.0879 -4.0121 2.0330
-4.7491 -4.4079 2.0330
-4.3797 -4.7752 2.0330
-3.9818 -5.1116 2.0330
-4.2402 -4.0930 2.0330
-3.8976 -4.4204 2.0330
-3.5299 -4.7193 2.0330
-3.1393 -4.9876 2.0330
-2.7285 -5.2237 2.0330
-2.3000 -5.4260 2.0330
-1.8566 -5.5933 2.0330
-1.4012 -5.7244 2.0330
-0.9368 -5.8184 2.0330
-0.4663 -5.8749 2.0330
0.0072 -5.8934 2.0330
0.4807 -5.8737 2.0330
0.9510 -5.8161 2.0330
1.4152 -5.7209 2.0330
0.6805 -2.0336 0.7397
2.3132 -5.4204 2.0330
2.7412 -5.2170 2.0330
3.1515 -4.9799 2.0330
3.5414 -4.7106 2.0330
3.8425 -4.3365 1.9987
3.9316 -3.7766 1.8806
4.2223 -3.4485 1.8806
4.4857 -3.0981 1.8806
4.7201 -2.7277 1.8806
4.9240 -2.3397 1.8806
5.0960 -1.9365 1.8806
5.2351 -1.5208 1.8806
5.3404 -1.0953 1.8806
5.4111 -0.6627 1.8806
5.4469 -0.2258 1.8806
5.4474 0.2125 1.8806
5.4127 0.6495 1.8806
5.3431 1.0822 1.8806
5.2388 1.5080 1.8806
5.1008 1.9240 1.8806
4.9297 2.3276 1.8806
4.7267 2.7162 1.8806
4.4932 3.0871 1.8806
4.2307 3.4381 1.8806
3.9541 3.7797 1.8869
3.9192 4.4013 2.0330
3.5529 4.7019 2.0330
3.1637 4.9722 2.0330
2.7540 5.2103 2.0330
2.3265 5.4147 2.0330
1.8839 5.5841 2.0330
1.4292 5.7174 2.0330
0.9653 5.8138 2.0330
0.4951 5.8725 2.0330
0.0216 5.8933 2.0330
-0.4519 5.8760 2.0330
-0.9225 5.8207 2.0330
-1.3872 5.7278 2.0330
-1.8429 5.5978 2.0330
-2.2867 5.4317 2.0330
-2.7157 5.2304 2.0330
-3.1271 4.9953 2.0330
-3.5183 4.7279 2.0330
-3.8868 4.4300 2.0330
-4.2301 4.1034 2.0330
-4.5461 3.7503 2.0330
-4.8327 3.3729 2.0330
-5.0881 2.9737 2.0330
-5.3106 2.5553 2.0330
-5.4987 2.1204 2.0330
-5.6513 1.6718 2.0330
-5.7673 1.2123 2.0330
-5.8461 0.7451 2.0330
-5.8870 0.2728 2.0330
-5.8899 -0.2009 2.0330
-5.8548 -0.6734 2.0330
-5.7817 -1.1416 2.0330
-5.6713 -1.6025 2.0330
-5.5242 -2.0529 2.0330
-5.3414 -2.4901 2.0330
-5.1241 -2.9112 2.0330
-4.8737 -3.3135 2.0330
-4.5917 -3.6943 2.0330
-4.2801 -4.0513 2.0330
-3.9407 -4.3821 2.0330
-3.5759 -4.6845 2.0330
-3.1880 -4.9566 2.0330
-2.7795 -5.1967 2.0330
-2.3530 -5.4033 2.0330
-0.6955 -2.0285 0.7397
-1.4572 -5.7104 2.0330
-0.9937 -5.8090 2.0330
-0.5238 -5.8700 2.0330
-0.0505 -5.8931 2.0330
0.4231 -5.8782 2.0330
0.8940 -5.8251 2.0330
1.3591 -5.7345 2.0330
1.8155 -5.6068 2.0330
2.2600 -5.4428 2.0330
2.6900 -5.2436 2.0330
3.1026 -5.0105 2.0330
3.4951 -4.7451 2.0330
3.8380 -4.4177 2.0187
3.8944 -3.8151 1.8806
4.1883 -3.4897 1.8806
4.4551 -3.1419 1.8806
4.6931 -2.7738 1.8806
4.9008 -2.3878 1.8806
5.0768 -1.9863 1.8806
5.2200 -1.5720 1.8806
5.3294 -1.1476 1.8806
5.4044 -0.7157 1.8806
5.4444 -0.2792 1.8806
5.4492 0.1592 1.8806
5.4188 0.5964 1.8806
5.3534 1.0299 1.8806
5.2534 1.4566 1.8806
5.1194 1.8740 1.8806
4.9522 2.2792 1.8806
4.7531 2.6697 1.8806
4.5233 3.0430 1.8806
4.2642 3.3965 1.8806
3.9775 3.7282 1.8806
3.9287 4.3259 2.0158
3.5988 4.6669 2.0330
3.2123 4.9410 2.0330
2.8049 5.1831 2.0330
2.3794 5.3917 2.0330
1.9386 5.5654 2.0330
1.4851 5.7032 2.0330
1.0221 5.8041 2.0330
0.5525 5.8674 2.0330
0.0794 5.8928 2.0330
-0.3943 5.8802 2.0330
-0.8655 5.8295 2.0330
-1.3310 5.7411 2.0330
-1.7880 5.6156 2.0330
-2.2334 5.4538 2.0330
-2.6643 5.2567 2.0330
-3.0780 5.0257 2.0330
-3.4718 4.7621 2.0330
-3.8432 4.4678 2.0330
-4.1897 4.1446 2.0330
-4.5092 3.7946 2.0330
-4.7995 3.4201 2.0330
-5.0587 3.0234 2.0330
-5.2853 2.6072 2.0330
-5.4777 2.1742 2.0330
-5.6346 1.7270 2.0330
-5.7552 1.2688 2.0330
-5.8385 0.8023 2.0330
-5.8841 0.3307 2.0330
-5.8916 -0.1431 2.0330
-5.8611 -0.6161 2.0330
-5.7926 -1.0850 2.0330
-5.6867 -1.5469 2.0330
-5.5441 -1.9987 2.0330
-5.3656 -2.4377 2.0330
-5.1524 -2.8609 2.0330
-4.9059 -3.2656 2.0330
-4.6277 -3.6492 2.0330
-4.3195 -4.0092 2.0330
-3.9835 -4.3432 2.0330
-3.6216 -4.6493 2.0330
-3.8821 -3.7474 2.0330
-3.5685 -4.0471 2.0330
-3.2318 -4.3208 2.0330
-2.8742 -4.5664 2.0330
-2.4980 -4.7826 2.0330
-0.7666 -1.8086 0.7401
-0.6188 -1.8641 0.7400
-0.4669 -1.9076 0.7400
-0.3122 -1.9388 0.7399
-0.1554 -1.9575 0.7399
0.0024 -1.9637 0.7399
0.1602 -1.9572 0.7399
0.3169 -1.9381 0.7399
0.4716 -1.9065 0.7400
0.6233 -1.8626 0.7401
0.7711 -1.8068 0.7402
2.5098 -4.7765 2.0330
2.8854 -4.5594 2.0330
3.2424 -4.3128 2.0330
3.5784 -4.0384 2.0330
3.8471 -3.6954 2.0099
3.8813 -3.1701 1.8881
4.1069 -2.8365 1.8806
4.3215 -2.4974 1.8806
4.5082 -2.1421 1.8806
4.6657 -1.7730 1.8806
4.7931 -1.3924 1.8806
4.8894 -1.0028 1.8806
4.9542 -0.6067 1.8806
4.9869 -0.2068 1.8806
4.9874 0.1946 1.8806
4.9557 0.5946 1.8806
4.8919 0.9909 1.8806
4.7964 1.3807 1.8806
4.6700 1.7616 1.8806
4.5134 2.1311 1.8806
4.3276 2.4868 1.8806
4.1138 2.8264 1.8806
3.9364 3.1990 1.9111
3.9004 3.7283 2.0330
3.5883 4.0296 2.0330
3.2529 4.3049 2.0330
2.8965 4.5523 2.0330
2.5214 4.7703 2.0330
0.7825 1.8212 0.7468
0.6337 1.8784 0.7469
0.4808 1.9235 0.7470
0.3248 1.9561 0.7471
0.4532 5.3766 2.0330
0.0198 5.3956 2.0330
-0.4138 5.3798 2.0330
-0.3104 1.9584 0.7471
-0.4667 1.9270 0.7470
-0.6199 1.8830 0.7469
-0.7691 1.8269 0.7468
-2.4863 4.7887 2.0330
-2.8630 4.5735 2.0330
-3.2212 4.3287 2.0330
-3.5586 4.0559 2.0330
-3.8729 3.7569 2.0330
-4.1622 3.4336 2.0330
-4.4246 3.0881 2.0330
-4.6584 2.7226 2.0330
-4.8621 2.3395 2.0330
-5.0343 1.9413 2.0330
-5.1740 1.5306 2.0330
-5.2803 1.1100 2.0330
-5.3524 0.6821 2.0330
-5.3899 0.2499 2.0330
-5.3925 -0.1839 2.0330
-5.3603 -0.6166 2.0330
-5.2935 -1.0452 2.0330
-5.1924 -1.4671 2.0330
-5.0577 -1.8796 2.0330
-4.8904 -2.2798 2.0330
-4.6914 -2.6654 2.0330
-4.4621 -3.0337 2.0330
-4.2039 -3.3823 2.0330
-3.9186 -3.7092 2.0330
-3.6079 -4.0120 2.0330
-3.2740 -4.2889 2.0330
-2.9188 -4.5381 2.0330
-2.5448 -4.7579 2.0330
-0.7843 -1.8011 0.7402
-0.6370 -1.8580 0.7401
-0.4856 -1.9030 0.7400
-0.3311 -1.9357 0.7399
-0.1745 -1.9559 0.7399
-0.0168 -1.9636 0.7399
0.1410 -1.9586 0.7399
0.2979 -1.9411 0.7399
0.4529 -1.9110 0.7400
0.6051 -1.8686 0.7400
0.7533 -1.8142 0.7401
2.4629 -4.8008 2.0330
2.8406 -4.5874 2.0330
3.2000 -4.3444 2.0330
3.5387 -4.0732 2.0330
3.8432 -3.7647 2.0270
3.8724 -3.2266 1.8991
4.0789 -2.8766 1.8806
4.2968 -2.5396 1.8806
4.4870 -2.1861 1.8806
4.6481 -1.8186 1.8806
4.7792 -1.4393 1.8806
4.8794 -1.0507 1.8806
4.9480 -0.6552 1.8806
4.9847 -0.2556 1.8806
4.9891 0.1457 1.8806
4.9612 0.5461 1.8806
4.9013 0.9429 1.8806
4.8097 1.3336 1.8806
4.6870 1.7157 1.8806
4.5340 2.0868 1.8806
4.3517 2.4443 1.8806
4.1413 2.7860 1.8806
3.9384 3.1369 1.8971
3.9203 3.6746 2.0245
3.6275 3.9943 2.0330
3.2949 4.2728 2.0330
2.9410 4.5237 2.0330
2.5680 4.7454 2.0330
2.1785 4.9364 2.0330
0.6521 1.8721 0.7469
0.4996 1.9187 0.7470
0.3439 1.9528 0.7471
0.1859 1.9742 0.7471
0.0726 5.3952 2.0330
-0.3610 5.3836 2.0330
-0.2912 1.9614 0.7471
-0.4478 1.9315 0.7470
-0.6015 1.8890 0.7470
-0.7512 1.8344 0.7469
-2.4393 4.8128 2.0330
-2.8181 4.6013 2.0330
-3.1787 4.3600 2.0330
-3.5187 4.0905 2.0330
-3.8359 3.7946 2.0330
-4.1284 3.4742 2.0330
-4.3942 3.1313 2.0330
-4.6315 2.7681 2.0330
-4.8390 2.3870 2.0330
-5.0151 1.9906 2.0330
-5.1588 1.5812 2.0330
-5.2692 1.1616 2.0330
-5.3455 0.7345 2.0330
-5.3872 0.3027 2.0330
-5.3941 -0.1311 2.0330
-5.3661 -0.5640 2.0330
-5.3035 -0.9933 2.0330
-5.2065 -1.4162 2.0330
-5.0759 -1.8299 2.0330
-4.9125 -2.2318 2.0330
-4.7173 -2.6193 2.0330
-4.4916 -2.9898 2.0330
-4.2369 -3.3410 2.0330
-3.9548 -3.6706 2.0330
-3.6471 -3.9765 2.0330
-3.3158 -4.2566 2.0330
-3.5738 -3.4498 2.0330
-3.2851 -3.7258 2.0330
-2.9752 -3.9777 2.0330
-2.6460 -4.2038 2.0330
-2.2997 -4.4028 2.0330
-0.7060 -1.6656 0.7404
-0.5698 -1.7167 0.7403
-0.4300 -1.7568 0.7402
-0.2875 -1.7855 0.7402
-0.1431 -1.8028 0.7402
0.0022 -1.8084 0.7401
0.1475 -1.8024 0.7402
0.2919 -1.7848 0.7402
0.4343 -1.7558 0.7402
0.5741 -1.7154 0.7403
0.7101 -1.6639 0.7404
2.3105 -4.3972 2.0330
2.6563 -4.1973 2.0330
2.9849 -3.9703 2.0330
3.2942 -3.7177 2.0330
3.5823 -3.4410 2.0330
3.8471 -3.1421 2.0330
3.8730 -2.6750 1.9265
3.9783 -2.2990 1.8806
4.1502 -1.9720 1.8806
4.2952 -1.6322 1.8806
4.4124 -1.2818 1.8806
4.5012 -0.9232 1.8806
4.5608 -0.5586 1.8806
4.5909 -0.1903 1.8806
4.5914 0.1791 1.8806
4.5621 0.5474 1.8806
4.5034 0.9122 1.8806
4.4156 1.2710 1.8806
4.2992 1.6217 1.8806
4.1550 1.9618 1.8806
3.9839 2.2893 1.8806
3.9243 2.6962 1.9487
3.8548 3.1327 2.0330
3.5907 3.4323 2.0330
3.3033 3.7096 2.0330
2.9946 3.9630 2.0330
2.6665 4.1908 2.0330
2.3212 4.3915 2.0330
0.7201 1.6760 0.7466
0.5832 1.7286 0.7467
0.4425 1.7701 0.7467
0.2989 1.8000 0.7468
0.1533 1.8183 0.7468
0.0067 1.8248 0.7468
-0.1399 1.8194 0.7468
-0.2856 1.8022 0.7468
-0.4295 1.7733 0.7467
-0.5705 1.7329 0.7467
-0.7078 1.6812 0.7466
-2.2889 4.4084 2.0330
-2.6357 4.2103 2.0330
-2.9654 3.9849 2.0330
-3.2760 3.7338 2.0330
-3.5654 3.4585 2.0330
-3.8317 3.1609 2.0330
-4.0733 2.8429 2.0330
-4.2885 2.5064 2.0330
-4.4760 2.1538 2.0330
-4.6346 1.7872 2.0330
-4.7632 1.4091 2.0330
-4.8610 1.0218 2.0330
-4.9274 0.6280 2.0330
-4.9619 0.2301 2.0330
-4.9643 -0.1693 2.0330
-4.9347 -0.5676 2.0330
-4.8731 -0.9622 2.0330
-4.7801 -1.3506 2.0330
-4.6561 -1.7303 2.0330
-4.5020 -2.0988 2.0330
-4.3189 -2.4537 2.0330
-4.1078 -2.7928 2.0330
-3.8701 -3.1137 2.0330
-3.6074 -3.4146 2.0330
-3.3214 -3.6934 2.0330
-3.0140 -3.9483 2.0330
-2.6870 -4.1777 2.0330
-2.3427 -4.3801 2.0330
-0.7223 -1.6586 0.7404
-0.5866 -1.7111 0.7403
-0.4472 -1.7525 0.7402
-0.3050 -1.7827 0.7402
-0.1607 -1.8013 0.7402
-0.0155 -1.8084 0.7401
0.1298 -1.8038 0.7402
0.2744 -1.7876 0.7402
0.4171 -1.7599 0.7402
0.5572 -1.7209 0.7403
0.6938 -1.6708 0.7404
2.2673 -4.4196 2.0330
2.6150 -4.2231 2.0330
2.9459 -3.9994 2.0330
3.2577 -3.7498 2.0330
3.5484 -3.4759 2.0330
3.8162 -3.1796 2.0330
3.8703 -2.7294 1.9383
3.9556 -2.3379 1.8806
4.1307 -2.0125 1.8806
4.2790 -1.6742 1.8806
4.3997 -1.3250 1.8806
4.4919 -0.9672 1.8806
4.5551 -0.6032 1.8806
4.5888 -0.2353 1.8806
4.5929 0.1341 1.8806
4.5673 0.5027 1.8806
4.5121 0.8680 1.8806
4.4278 1.2277 1.8806
4.3149 1.5795 1.8806
4.1740 1.9210 1.8806
4.0062 2.2502 1.8806
3.9260 2.6412 1.9366
3.8853 3.0948 2.0330
3.6241 3.3969 2.0330
3.3395 3.6771 2.0330
3.0333 3.9335 2.0330
2.7074 4.1645 2.0330
2.3641 4.3686 2.0330
0.7365 1.6688 0.7466
0.6001 1.7228 0.7467
0.4598 1.7656 0.7467
0.3165 1.7970 0.7468
0.1711 1.8167 0.7468
0.0246 1.8246 0.7468
-0.1221 1.8207 0.7468
-0.2680 1.8049 0.7468
-0.4121 1.7774 0.7467
-0.5535 1.7384 0.7467
-0.6913 1.6881 0.7466
-2.2456 4.4306 2.0330
-2.5943 4.2359 2.0330
-2.9262 4.0138 2.0330
-3.2393 3.7657 2.0330
-3.5313 3.4933 2.0330
-3.8006 3.1983 2.0330
-4.0452 2.8826 2.0330
-4.2638 2.5483 2.0330
-4.4547 2.1975 2.0330
-4.6169 1.8325 2.0330
-4.7491 1.4556 2.0330
-4.8507 1.0694 2.0330
-4.9210 0.6762 2.0330
-4.9594 0.2787 2.0330
-4.9658 -0.1207 2.0330
-4.9400 -0.5193 2.0330
-4.8823 -0.9145 2.0330
-4.7931 -1.3038 2.0330
-4.6728 -1.6846 2.0330
-4.5224 -2.0546 2.0330
-4.3427 -2.4113 2.0330
-4.1349 -2.7524 2.0330
-3.9004 -3.0757 2.0330
-3.6407 -3.3791 2.0330
-3.3575 -3.6607 2.0330
-3.0525 -3.9186 2.0330
-3.3052 -3.1905 2.0330
-3.0382 -3.4458 2.0330
-2.7516 -3.6787 2.0330
-2.4471 -3.8879 2.0330
-0.7749 -1.4837 0.7407
-0.6532 -1.5409 0.7406
-0.5272 -1.5882 0.7405
-0.3978 -1.6253 0.7405
-0.2660 -1.6519 0.7404
-0.1324 -1.6679 0.7404
0.0021 -1.6731 0.7404
0.1365 -1.6675 0.7404
0.2700 -1.6513 0.7404
0.4018 -1.6243 0.7405
0.5311 -1.5869 0.7406
0.6569 -1.5393 0.7406
0.7786 -1.4818 0.7408
2.4566 -3.8819 2.0330
2.7606 -3.6720 2.0330
3.0467 -3.4383 2.0330
3.3130 -3.1824 2.0330
3.5580 -2.9059 2.0330
3.7800 -2.6107 2.0330
3.8682 -2.2354 1.9771
3.8858 -1.8464 1.9038
3.9724 -1.5095 1.8806
4.0808 -1.1855 1.8806
4.1629 -0.8538 1.8806
4.2180 -0.5166 1.8806
4.2459 -0.1760 1.8806
4.2463 0.1657 1.8806
4.2193 0.5063 1.8806
4.1650 0.8436 1.8806
4.0837 1.1755 1.8806
3.9761 1.4998 1.8806
3.9211 1.8514 1.9189
3.9109 2.2473 1.9961
3.7864 2.6015 2.0330
3.5651 2.8972 2.0330
3.3208 3.1743 2.0330
3.0551 3.4309 2.0330
2.7695 3.6652 2.0330
2.4661 3.8759 2.0330
0.7880 1.4908 0.7462
0.6658 1.5495 0.7463
0.5392 1.5982 0.7464
0.4091 1.6365 0.7465
0.2763 1.6642 0.7465
0.1417 1.6811 0.7466
0.0062 1.6871 0.7466
-0.1294 1.6821 0.7466
-0.2641 1.6662 0.7465
-0.3971 1.6395 0.7465
-0.5274 1.6021 0.7464
-0.6544 1.5544 0.7463
-2.1169 4.0771 2.0330
-2.4376 3.8939 2.0330
-2.7426 3.6854 2.0330
-3.0298 3.4532 2.0330
-3.2974 3.1986 2.0330
-3.5437 2.9233 2.0330
-3.7672 2.6292 2.0330
-3.9662 2.3180 2.0330
-4.1396 1.9919 2.0330
-4.2863 1.6529 2.0330
-4.4052 1.3032 2.0330
-4.4957 0.9450 2.0330
-4.5571 0.5808 2.0330
-4.5890 0.2128 2.0330
-4.5912 -0.1566 2.0330
-4.5638 -0.5251 2.0330
-4.5069 -0.8899 2.0330
-4.4208 -1.2491 2.0330
-4.3062 -1.6003 2.0330
-4.1637 -1.9411 2.0330
-3.9943 -2.2693 2.0330
-3.7991 -2.5829 2.0330
-3.5793 -2.8797 2.0330
-3.3363 -3.1580 2.0330
-3.0718 -3.4158 2.0330
-2.7875 -3.6516 2.0330
-2.4851 -3.8637 2.0330
-2.1666 -4.0509 2.0330
-0.6682 -1.5345 0.7406
-0.5427 -1.5830 0.7406
-0.4137 -1.6213 0.7405
-0.2821 -1.6492 0.7404
-0.1487 -1.6665 0.7404
-0.0143 -1.6730 0.7404
0.1201 -1.6688 0.7404
0.2538 -1.6538 0.7404
0.3859 -1.6282 0.7405
0.5155 -1.5921 0.7406
0.6418 -1.5457 0.7406
0.7640 -1.4893 0.7407
2.4185 -3.9058 2.0330
2.7245 -3.6988 2.0330
3.0128 -3.4680 2.0330
3.2817 -3.2147 2.0330
3.5294 -2.9407 2.0330
3.7542 -2.6476 2.0330
3.8658 -2.2848 1.9872
3.8838 -1.8922 1.9119
3.9574 -1.5484 1.8806
4.0690 -1.2254 1.8806
4.1543 -0.8945 1.8806
4.2128 -0.5579 1.8806
4.2440 -0.2176 1.8806
4.2477 0.1241 1.8806
4.2240 0.4649 1.8806
4.1730 0.8028 1.8806
4.0950 1.1355 1.8806
3.9906 1.4608 1.8806
3.9221 1.8051 1.9107
3.9123 2.1975 1.9857
3.8117 2.5642 2.0330
3.5933 2.8622 2.0330
3.3518 3.1417 2.0330
3.0885 3.4008 2.0330
2.8053 3.6379 2.0330
2.5040 3.8515 2.0330
2.1864 4.0402 2.0330
0.6809 1.5429 0.7463
0.5548 1.5928 0.7464
0.4251 1.6324 0.7465
0.2926 1.6614 0.7465
0.1582 1.6796 0.7466
0.0227 1.6869 0.7466
-0.1129 1.6833 0.7466
-0.2477 1.6687 0.7465
-0.3810 1.6433 0.7465
-0.5117 1.6072 0.7464
-0.6391 1.5607 0.7463
-0.7624 1.5041 0.7462
-2.3993 3.9176 2.0330
-2.7063 3.7121 2.0330
-2.9958 3.4827 2.0330
-3.2659 3.2308 2.0330
-3.5149 2.9579 2.0330
-3.7412 2.6660 2.0330
-3.9433 2.3568 2.0330
-4.1199 2.0323 2.0330
-4.2699 1.6948 2.0330
-4.3922 1.3462 2.0330
-4.4862 0.9890 2.0330
-4.5512 0.6254 2.0330
-4.5867 0.2577 2.0330
-4.5926 -0.1116 2.0330
-4.5687 -0.4802 2.0330
-4.5154 -0.8457 2.0330
-4.4329 -1.2058 2.0330
-4.3217 -1.5579 2.0330
-4.1825 -1.9002 2.0330
-4.0163 -2.2301 2.0330
-3.8242 -2.5455 2.0330
-3.6073 -2.8445 2.0330
-3.3671 -3.1252 2.0330
-3.1051 -3.3856 2.0330
-2.8231 -3.6241 2.0330
-3.0688 -2.9623 2.0330
-2.8209 -3.1993 2.0330
-2.5547 -3.4155 2.0330
-2.2721 -3.6098 2.0330
-0.7197 -1.3779 0.7409
-0.6066 -1.4311 0.7408
-0.4896 -1.4750 0.7408
-0.3695 -1.5095 0.7407
-0.2470 -1.5342 0.7407
-0.1229 -1.5490 0.7406
0.0019 -1.5539 0.7406
0.1267 -1.5487 0.7406
0.2508 -1.5336 0.7407
0.3732 -1.5086 0.7407
0.4932 -1.4738 0.7408
0.6101 -1.4296 0.7409
0.7231 -1.3761 0.7409
2.2809 -3.6042 2.0330
2.5631 -3.4093 2.0330
2.8287 -3.1923 2.0330
3.0760 -2.9548 2.0330
3.3035 -2.6981 2.0330
3.5096 -2.4239 2.0330
3.6930 -2.1341 2.0330
3.8525 -1.8305 2.0330
3.8762 -1.4730 1.9764
3.8883 -1.1296 1.9299
3.8979 -0.7994 1.8965
3.9165 -0.4797 1.8807
3.9421 -0.1635 1.8806
3.9425 0.1537 1.8806
3.9235 0.4708 1.8835
3.9131 0.7925 1.9030
3.9099 1.1255 1.9392
3.9042 1.4727 1.9889
3.8570 1.8211 2.0330
3.6982 2.1251 2.0330
3.5155 2.4153 2.0330
3.3101 2.6900 2.0330
3.0833 2.9472 2.0330
2.8365 3.1854 2.0330
2.5714 3.4030 2.0330
2.2897 3.5986 2.0330
0.7314 1.3838 0.7460
0.6180 1.4383 0.7461
0.5005 1.4835 0.7462
0.3797 1.5190 0.7463
0.2565 1.5447 0.7463
0.1315 1.5604 0.7464
0.0057 1.5659 0.7464
-0.1201 1.5613 0.7464
-0.2451 1.5465 0.7463
-0.3685 1.5217 0.7463
-0.4896 1.4871 0.7462
-0.6074 1.4428 0.7461
-0.7213 1.3891 0.7460
-2.2632 3.6153 2.0330
-2.5464 3.4218 2.0330
-2.8130 3.2062 2.0330
-3.0615 2.9698 2.0330
-3.2902 2.7142 2.0330
-3.4977 2.4411 2.0330
-3.6825 2.1522 2.0330
-3.8435 1.8494 2.0330
-3.9796 1.5346 2.0330
-4.0901 1.2099 2.0330
-4.1741 0.8774 2.0330
-4.2311 0.5392 2.0330
-4.2607 0.1976 2.0330
-4.2628 -0.1454 2.0330
-4.2373 -0.4874 2.0330
-4.1845 -0.8263 2.0330
-4.1046 -1.1598 2.0330
-3.9981 -1.4858 2.0330
-3.8658 -1.8022 2.0330
-3.7085 -2.1070 2.0330
-3.5273 -2.3981 2.0330
-3.3232 -2.6737 2.0330
-3.0977 -2.9321 2.0330
-2.8521 -3.1715 2.0330
-2.5881 -3.3904 2.0330
-2.3073 -3.5873 2.0330
-0.7332 -1.3708 0.7409
-0.6206 -1.4251 0.7408
-0.5040 -1.4702 0.7408
-0.3843 -1.5058 0.7407
-0.2620 -1.5317 0.7407
-0.1381 -1.5477 0.7406
-0.0133 -1.5538 0.7406
0.1116 -1.5499 0.7406
0.2357 -1.5360 0.7407
0.3584 -1.5121 0.7407
0.4788 -1.4786 0.7408
0.5961 -1.4355 0.7408
0.7096 -1.3831 0.7409
2.2455 -3.6264 2.0330
2.5296 -3.4342 2.0330
2.7973 -3.2199 2.0330
3.0470 -2.9847 2.0330
3.2769 -2.7303 2.0330
3.4857 -2.4582 2.0330
3.6719 -2.1702 2.0330
3.8344 -1.8682 2.0330
3.8745 -1.5159 1.9830
3.8870 -1.1706 1.9348
3.8969 -0.8391 1.8999
3.9146 -0.5184 1.8821
3.9404 -0.2021 1.8806
3.9439 0.1151 1.8806
3.9246 0.4320 1.8819
3.9134 0.7529 1.8994
3.9104 1.0843 1.9341
3.9051 1.4295 1.9820
3.8746 1.7832 2.0330
3.7188 2.0888 2.0330
3.5390 2.3808 2.0330
3.3363 2.6574 2.0330
3.1120 2.9169 2.0330
2.8676 3.1575 2.0330
2.6046 3.3777 2.0330
2.3248 3.5760 2.0330
0.7449 1.3766 0.7460
0.6320 1.4321 0.7461
0.5150 1.4785 0.7462
0.3946 1.5152 0.7463
0.2716 1.5421 0.7463
0.1468 1.5590 0.7463
0.0211 1.5658 0.7464
-0.1048 1.5624 0.7464
-0.2300 1.5489 0.7463
-0.3536 1.5253 0.7463
-0.4750 1.4918 0.7462
-0.5932 1.4487 0.7461
-0.7076 1.3962 0.7460
-2.2277 3.6373 2.0330
-2.5127 3.4466 2.0330
-2.7815 3.2336 2.0330
-3.0323 2.9996 2.0330
-3.2635 2.7463 2.0330
-3.4736 2.4753 2.0330
-3.6612 2.1882 2.0330
-3.8252 1.8869 2.0330
-3.9644 1.5735 2.0330
-4.0780 1.2499 2.0330
-4.1653 0.9183 2.0330
-4.2256 0.5807 2.0330
-4.2586 0.2393 2.0330
-4.2640 -0.1036 2.0330
-4.2419 -0.4459 2.0330
-4.1924 -0.7852 2.0330
-4.1157 -1.1195 2.0330
-4.0125 -1.4466 2.0330
-3.8833 -1.7642 2.0330
-3.7290 -2.0705 2.0330
-3.5506 -2.3634 2.0330
-3.3492 -2.6411 2.0330
-3.1262 -2.9016 2.0330
-2.8830 -3.1434 2.0330
-2.6211 -3.3649 2.0330
-2.8587 -2.7595 2.0330
-2.6278 -2.9803 2.0330
-2.3798 -3.1817 2.0330
-0.7717 -1.2260 0.7412
-0.6706 -1.2839 0.7411
-0.5652 -1.3334 0.7410
-0.4562 -1.3744 0.7409
-0.3443 -1.4065 0.7409
-0.2302 -1.4295 0.7408
-0.1146 -1.4434 0.7408
0.0018 -1.4479 0.7408
0.1181 -1.4431 0.7408
0.2337 -1.4290 0.7408
0.3477 -1.4057 0.7409
0.4596 -1.3733 0.7410
0.5685 -1.3321 0.7410
0.6737 -1.2822 0.7411
0.7747 -1.2242 0.7412
2.3876 -3.1759 2.0330
2.6351 -2.9738 2.0330
2.8655 -2.7525 2.0330
3.0774 -2.5134 2.0330
3.2693 -2.2580 2.0330
3.4402 -1.9881 2.0330
3.5888 -1.7052 2.0330
3.7142 -1.4114 2.0330
3.8156 -1.1084 2.0330
3.8744 -0.7946 2.0236
3.8819 -0.4754 2.0010
3.8871 -0.1612 1.9906
3.8901 0.1518 1.9919
3.8909 0.4668 2.0051
3.8895 0.7878 2.0305
3.8183 1.0991 2.0330
3.7176 1.4023 2.0330
3.5929 1.6964 2.0330
3.4450 1.9796 2.0330
3.2748 2.2500 2.0330
3.0835 2.5058 2.0330
2.8722 2.7455 2.0330
2.6423 2.9674 2.0330
2.3954 3.1701 2.0330
0.7824 1.2297 0.7457
0.6812 1.2888 0.7459
0.5755 1.3395 0.7459
0.4661 1.3816 0.7460
0.3536 1.4147 0.7461
0.2388 1.4386 0.7461
0.1225 1.4532 0.7462
0.0054 1.4583 0.7462
-0.1118 1.4540 0.7462
-0.2283 1.4403 0.7461
-0.3432 1.4172 0.7461
-0.4559 1.3849 0.7460
-0.5657 1.3437 0.7459
-0.6717 1.2937 0.7459
-0.7734 1.2354 0.7457
-2.3721 3.1876 2.0330
-2.6205 2.9867 2.0330
-2.8520 2.7665 2.0330
-3.0650 2.5284 2.0330
-3.2582 2.2740 2.0330
-3.4304 2.0049 2.0330
-3.5804 1.7228 2.0330
-3.7072 1.4296 2.0330
-3.8101 1.1271 2.0330
-3.8883 0.8174 2.0330
-3.9414 0.5023 2.0330
-3.9690 0.1840 2.0330
-3.9710 -0.1354 2.0330
-3.9473 -0.4540 2.0330
-3.8980 -0.7697 2.0330
-3.8236 -1.0804 2.0330
-3.7244 -1.3841 2.0330
-3.6012 -1.6788 2.0330
-3.4547 -1.9627 2.0330
-3.2858 -2.2339 2.0330
-3.0957 -2.4907 2.0330
-2.8856 -2.7314 2.0330
-2.6568 -2.9544 2.0330
-2.4109 -3.1583 2.0330
-0.7837 -1.2184 0.7412
-0.6831 -1.2773 0.7411
-0.5782 -1.3279 0.7410
-0.4696 -1.3699 0.7410
-0.3580 -1.4031 0.7409
-0.2441 -1.4272 0.7408
-0.1287 -1.4422 0.7408
-0.0124 -1.4478 0.7408
0.1040 -1.4442 0.7408
0.2197 -1.4312 0.7408
0.3339 -1.4090 0.7409
0.4461 -1.3777 0.7409
0.5554 -1.3376 0.7410
0.6611 -1.2888 0.7411
0.7627 -1.2317 0.7412
2.3564 -3.1991 2.0330
2.6058 -2.9995 2.0330
2.8384 -2.7804 2.0330
3.0526 -2.5434 2.0330
3.2471 -2.2899 2.0330
3.4205 -2.0216 2.0330
3.5719 -1.7403 2.0330
3.7002 -1.4477 2.0330
3.8045 -1.1457 2.0330
3.8734 -0.8341 2.0272
3.8811 -0.5139 2.0031
3.8866 -0.1993 1.9912
3.8898 0.1136 1.9911
3.8909 0.4283 2.0028
3.8898 0.7483 2.0267
3.8288 1.0616 2.0330
3.7312 1.3658 2.0330
3.6094 1.6612 2.0330
3.4642 1.9458 2.0330
3.2967 2.2178 2.0330
3.1079 2.4755 2.0330
2.8989 2.7172 2.0330
2.6713 2.9413 2.0330
2.4263 3.1464 2.0330
2.1657 3.3312 2.0330
0.6938 1.2820 0.7458
0.5886 1.3338 0.7459
0.4796 1.3769 0.7460
0.3675 1.4111 0.7461
0.2529 1.4362 0.7461
0.1367 1.4519 0.7462
0.0196 1.4582 0.7462
-0.0976 1.4551 0.7462
-0.2142 1.4425 0.7461
-0.3293 1.4205 0.7461
-0.4424 1.3894 0.7460
-0.5525 1.3492 0.7460
-0.6590 1.3003 0.7459
-0.7613 1.2429 0.7458
-2.3407 3.2106 2.0330
-2.5911 3.0122 2.0330
-2.8247 2.7943 2.0330
-3.0401 2.5583 2.0330
-3.2358 2.3058 2.0330
-3.4106 2.0384 2.0330
-3.5633 1.7578 2.0330
-3.6930 1.4658 2.0330
-3.7989 1.1644 2.0330
-3.8801 0.8554 2.0330
-3.9363 0.5409 2.0330
-3.9670 0.2229 2.0330
-3.9721 -0.0965 2.0330
-3.9515 -0.4154 2.0330
-3.9054 -0.7315 2.0330
-3.8340 -1.0429 2.0330
-3.7378 -1.3475 2.0330
-3.6175 -1.6435 2.0330
-3.4737 -1.9288 2.0330
-3.3075 -2.2016 2.0330
-3.1200 -2.4603 2.0330
-2.9122 -2.7030 2.0330
-2.6856 -2.9282 2.0330
-2.4417 -3.1345 2.0330
-2.6706 -2.5779 2.0330
-2.4548 -2.7841 2.0330
-2.2232 -2.9723 2.0330
-0.7210 -1.1456 0.7414
-0.6266 -1.1996 0.7413
-0.5281 -1.2459 0.7412
-0.4263 -1.2842 0.7411
-0.3217 -1.3142 0.7411
-0.2151 -1.3357 0.7410
-0.1070 -1.3487 0.7410
0.0017 -1.3529 0.7410
0.1103 -1.3484 0.7410
0.2183 -1.3352 0.7410
0.3249 -1.3134 0.7411
0.4294 -1.2832 0.7411
0.5312 -1.2447 0.7412
0.6295 -1.1981 0.7413
0.7239 -1.1438 0.7414
2.2305 -2.9669 2.0330
2.4616 -2.7781 2.0330
2.6769 -2.5713 2.0330
2.8748 -2.3479 2.0330
3.0541 -2.1094 2.0330
3.2137 -1.8572 2.0330
3.3526 -1.5930 2.0330
3.4697 -1.3185 2.0330
3.5644 -1.0355 2.0330
3.6361 -0.7458 2.0330
3.6843 -0.4512 2.0330
3.7086 -0.1538 2.0330
3.7090 0.1447 2.0330
3.6854 0.4422 2.0330
3.6379 0.7369 2.0330
3.5670 1.0268 2.0330
3.4729 1.3100 2.0330
3.3565 1.5848 2.0330
3.2183 1.8493 2.0330
3.0593 2.1019 2.0330
2.8805 2.3409 2.0330
2.6832 2.5648 2.0330
2.4684 2.7720 2.0330
2.2377 2.9614 2.0330
0.7308 1.1485 0.7456
0.6362 1.2037 0.7457
0.5375 1.2511 0.7458
0.4353 1.2903 0.7459
0.3303 1.3212 0.7459
0.2231 1.3436 0.7460
0.1144 1.3572 0.7460
0.0050 1.3620 0.7460
-0.1044 1.3580 0.7460
-0.2132 1.3452 0.7460
-0.3206 1.3236 0.7459
-0.4258 1.2935 0.7459
-0.5283 1.2550 0.7458
-0.6274 1.2083 0.7457
-0.7223 1.1539 0.7456
-2.2159 2.9778 2.0330
-2.4480 2.7901 2.0330
-2.6642 2.5844 2.0330
-2.8633 2.3620 2.0330
-3.0438 2.1243 2.0330
-3.2046 1.8729 2.0330
-3.3447 1.6094 2.0330
-3.4632 1.3355 2.0330
-3.5593 1.0529 2.0330
-3.6324 0.7636 2.0330
-3.6820 0.4693 2.0330
-3.7078 0.1719 2.0330
-3.7096 -0.1265 2.0330
-3.6875 -0.4241 2.0330
-3.6415 -0.7190 2.0330
-3.5719 -1.0093 2.0330
-3.4793 -1.2930 2.0330
-3.3642 -1.5683 2.0330
-3.2273 -1.8335 2.0330
-3.0696 -2.0869 2.0330
-2.8920 -2.3268 2.0330
-2.6957 -2.5516 2.0330
-2.4820 -2.7599 2.0330
-2.2522 -2.9504 2.0330
-0.7322 -1.1385 0.7414
-0.6383 -1.1934 0.7413
-0.5403 -1.2407 0.7412
-0.4388 -1.2800 0.7411
-0.3346 -1.3110 0.7411
-0.2281 -1.3336 0.7410
-0.1202 -1.3476 0.7410
-0.0116 -1.3528 0.7410
0.0971 -1.3494 0.7410
0.2052 -1.3373 0.7410
0.3120 -1.3166 0.7411
0.4168 -1.2873 0.7411
0.5190 -1.2498 0.7412
0.6178 -1.2042 0.7413
0.7126 -1.1508 0.7414
2.2013 -2.9886 2.0330
2.4343 -2.8021 2.0330
2.6516 -2.5974 2.0330
2.8517 -2.3760 2.0330
3.0333 -2.1392 2.0330
3.1954 -1.8886 2.0330
3.3368 -1.6257 2.0330
3.4566 -1.3524 2.0330
3.5541 -1.0703 2.0330
3.6286 -0.7813 2.0330
3.6797 -0.4873 2.0330
3.7069 -0.1901 2.0330
3.7102 0.1084 2.0330
3.6895 0.4061 2.0330
3.6450 0.7012 2.0330
3.5768 0.9918 2.0330
3.4856 1.2759 2.0330
3.3718 1.5519 2.0330
3.2362 1.8177 2.0330
3.0797 2.0719 2.0330
2.9033 2.3126 2.0330
2.7081 2.5384 2.0330
2.4955 2.7477 2.0330
2.2666 2.9394 2.0330
0.7420 1.1413 0.7456
0.6480 1.1974 0.7457
0.5498 1.2457 0.7458
0.4479 1.2860 0.7458
0.3432 1.3179 0.7459
0.2362 1.3413 0.7459
0.1277 1.3560 0.7460
0.0183 1.3619 0.7460
-0.0911 1.3590 0.7460
-0.2000 1.3472 0.7460
-0.3076 1.3267 0.7459
-0.4132 1.2976 0.7459
-0.5160 1.2601 0.7458
-0.6155 1.2144 0.7457
-0.7110 1.1609 0.7456
-2.1867 2.9993 2.0330
-2.4206 2.8139 2.0330
-2.6388 2.6104 2.0330
-2.8400 2.3899 2.0330
-3.0228 2.1540 2.0330
-3.1861 1.9042 2.0330
-3.3288 1.6421 2.0330
-3.4500 1.3693 2.0330
-3.5488 1.0877 2.0330
-3.6248 0.7991 2.0330
-3.6772 0.5053 2.0330
-3.7059 0.2082 2.0330
-3.7107 -0.0902 2.0330
-3.6915 -0.3880 2.0330
-3.6483 -0.6833 2.0330
-3.5817 -0.9742 2.0330
-3.4918 -1.2588 2.0330
-3.3794 -1.5353 2.0330
-3.2451 -1.8019 2.0330
-3.0899 -2.0567 2.0330
-2.9146 -2.2983 2.0330
-2.7205 -2.5251 2.0330
-2.5089 -2.7355 2.0330
-2.2810 -2.9282 2.0330
-2.5008 -2.4140 2.0330
-2.2988 -2.6071 2.0330
-0.7595 -1.0154 0.7416
-0.6753 -1.0729 0.7415
-0.5869 -1.1236 0.7414
-0.4946 -1.1670 0.7413
-0.3993 -1.2028 0.7413
-0.3013 -1.2309 0.7412
-0.2014 -1.2511 0.7412
-0.1003 -1.2632 0.7412
0.0016 -1.2672 0.7411
0.1034 -1.2630 0.7412
0.2045 -1.2506 0.7412
0.3043 -1.2302 0.7412
0.4022 -1.2019 0.7413
0.4975 -1.1658 0.7413
0.5896 -1.1222 0.7414
0.6780 -1.0713 0.7415
0.7620 -1.0135 0.7416
2.3052 -2.6015 2.0330
2.5067 -2.4079 2.0330
2.6921 -2.1987 2.0330
2.8600 -1.9753 2.0330
3.0095 -1.7391 2.0330
3.1395 -1.4917 2.0330
3.2492 -1.2347 2.0330
3.3379 -0.9697 2.0330
3.4050 -0.6983 2.0330
3.4501 -0.4225 2.0330
3.4729 -0.1440 2.0330
3.4732 0.1355 2.0330
3.4511 0.4141 2.0330
3.4067 0.6900 2.0330
3.3402 0.9615 2.0330
3.2522 1.2267 2.0330
3.1431 1.4841 2.0330
3.0137 1.7318 2.0330
2.8648 1.9683 2.0330
2.6974 2.1921 2.0330
2.5126 2.4018 2.0330
2.3115 2.5959 2.0330
0.7683 1.0167 0.7454
0.6842 1.0753 0.7455
0.5957 1.1270 0.7456
0.5033 1.1713 0.7456
0.4076 1.2081 0.7457
0.3092 1.2370 0.7458
0.2088 1.2579 0.7458
0.1071 1.2707 0.7458
0.0047 1.2752 0.7458
-0.0978 1.2714 0.7458
-0.1996 1.2594 0.7458
-0.3001 1.2392 0.7458
-0.3987 1.2110 0.7457
-0.4947 1.1750 0.7456
-0.5874 1.1313 0.7456
-0.6763 1.0803 0.7455
-0.7608 1.0224 0.7454
-2.2924 2.6128 2.0330
-2.4949 2.4201 2.0330
-2.6813 2.2119 2.0330
-2.8503 1.9893 2.0330
-3.0009 1.7539 2.0330
-3.1321 1.5071 2.0330
-3.2431 1.2506 2.0330
-3.3331 0.9860 2.0330
-3.4015 0.7150 2.0330
-3.4480 0.4394 2.0330
-3.4721 0.1610 2.0330
-3.4738 -0.1185 2.0330
-3.4531 -0.3972 2.0330
-3.4100 -0.6733 2.0330
-3.3449 -0.9451 2.0330
-3.2581 -1.2108 2.0330
-3.1503 -1.4687 2.0330
-3.0222 -1.7170 2.0330
-2.8744 -1.9543 2.0330
-2.7081 -2.1789 2.0330
-2.5243 -2.3894 2.0330
-2.3242 -2.5845 2.0330
-0.7694 -1.0079 0.7416
-0.6858 -1.0663 0.7415
-0.5979 -1.1178 0.7414
-0.5061 -1.1621 0.7413
-0.4110 -1.1989 0.7413
-0.3134 -1.2279 0.7412
-0.2137 -1.2491 0.7412
-0.1126 -1.2622 0.7412
-0.0109 -1.2671 0.7411
0.0910 -1.2639 0.7412
0.1922 -1.2526 0.7412
0.2923 -1.2331 0.7412
0.3904 -1.2057 0.7413
0.4861 -1.1706 0.7413
0.5786 -1.1279 0.7414
0.6674 -1.0779 0.7415
0.7520 -1.0209 0.7416
2.2796 -2.6239 2.0330
2.4830 -2.4323 2.0330
2.6704 -2.2250 2.0330
2.8405 -2.0032 2.0330
2.9923 -1.7685 2.0330
3.1247 -1.5224 2.0330
3.2369 -1.2664 2.0330
3.3282 -1.0023 2.0330
3.3980 -0.7317 2.0330
3.4458 -0.4563 2.0330
3.4713 -0.1780 2.0330
3.4744 0.1014 2.0330
3.4550 0.3803 2.0330
3.4133 0.6566 2.0330
3.3495 0.9287 2.0330
3.2640 1.1948 2.0330
3.1575 1.4532 2.0330
3.0305 1.7022 2.0330
2.8840 1.9402 2.0330
2.7188 2.1656 2.0330
2.5360 2.3770 2.0330
2.3368 2.5731 2.0330
0.7782 1.0091 0.7453
0.6947 1.0686 0.7455
0.6067 1.1211 0.7455
0.5147 1.1663 0.7456
0.4194 1.2040 0.7457
0.3213 1.2339 0.7458
0.2212 1.2558 0.7458
0.1196 1.2695 0.7458
0.0172 1.2751 0.7458
-0.0853 1.2723 0.7458
-0.1873 1.2613 0.7458
-0.2880 1.2421 0.7458
-0.3868 1.2149 0.7457
-0.4831 1.1798 0.7456
-0.5763 1.1370 0.7456
-0.6657 1.0869 0.7455
-0.7508 1.0298 0.7454
-2.2667 2.6351 2.0330
-2.4711 2.4444 2.0330
-2.6595 2.2380 2.0330
-2.8307 2.0171 2.0330
-2.9836 1.7832 2.0330
-3.1172 1.5377 2.0330
-3.2307 1.2823 2.0330
-3.3233 1.0186 2.0330
-3.3943 0.7483 2.0330
-3.4435 0.4732 2.0330
-3.4704 0.1950 2.0330
-3.4748 -0.0845 2.0330
-3.4568 -0.3633 2.0330
-3.4164 -0.6399 2.0330
-3.3540 -0.9123 2.0330
-3.2698 -1.1788 2.0330
-3.1646 -1.4377 2.0330
-3.0388 -1.6873 2.0330
-2.8934 -1.9260 2.0330
-2.7294 -2.1523 2.0330
-2.5476 -2.3646 2.0330
-2.3494 -2.5616 2.0330
-0.7792 -1.0003 0.7416
-2.3466 -2.2652 2.0330
-2.1571 -2.4464 2.0330
-0.7127 -0.9529 0.7417
-0.6338 -1.0070 0.7416
-0.5508 -1.0545 0.7415
-0.4642 -1.0952 0.7415
-0.3747 -1.1289 0.7414
-0.2828 -1.1553 0.7413
-0.1890 -1.1742 0.7413
-0.0941 -1.1856 0.7413
0.0015 -1.1893 0.7413
0.0970 -1.1853 0.7413
0.1919 -1.1737 0.7413
0.2856 -1.1546 0.7414
0.3775 -1.1280 0.7414
0.4669 -1.0941 0.7415
0.5534 -1.0532 0.7415
0.6363 -1.0054 0.7416
0.7151 -0.9512 0.7417
2.1631 -2.4411 2.0330
2.3522 -2.2595 2.0330
2.5261 -2.0632 2.0330
2.6837 -1.8535 2.0330
2.8239 -1.6319 2.0330
2.9459 -1.3998 2.0330
3.0489 -1.1586 2.0330
3.1321 -0.9099 2.0330
3.1951 -0.6553 2.0330
3.2374 -0.3965 2.0330
3.2588 -0.1351 2.0330
3.2591 0.1271 2.0330
3.2384 0.3886 2.0330
3.1967 0.6475 2.0330
3.1343 0.9022 2.0330
3.0517 1.1511 2.0330
2.9494 1.3926 2.0330
2.8279 1.6250 2.0330
2.6882 1.8470 2.0330
2.5312 2.0570 2.0330
2.3577 2.2537 2.0330
2.1690 2.4358 2.0330
0.7208 0.9539 0.7452
0.6419 1.0089 0.7453
0.5589 1.0573 0.7454
0.4722 1.0989 0.7455
0.3824 1.1334 0.7456
0.2901 1.1605 0.7456
0.1959 1.1801 0.7457
0.1005 1.1921 0.7457
0.0044 1.1963 0.7457
-0.0917 1.1928 0.7457
-0.1873 1.1815 0.7457
-0.2816 1.1626 0.7456
-0.3740 1.1362 0.7456
-0.4641 1.1023 0.7455
-0.5511 1.0614 0.7454
-0.6345 1.0136 0.7453
-0.7138 0.9592 0.7452
-2.1511 2.4517 2.0330
-2.3411 2.2710 2.0330
-2.5160 2.0755 2.0330
-2.6746 1.8667 2.0330
-2.8159 1.6458 2.0330
-2.9390 1.4142 2.0330
-3.0432 1.1735 2.0330
-3.1276 0.9252 2.0330
-3.1918 0.6710 2.0330
-3.2354 0.4124 2.0330
-3.2581 0.1511 2.0330
-3.2597 -0.1112 2.0330
-3.2402 -0.3727 2.0330
-3.1998 -0.6318 2.0330
-3.1387 -0.8868 2.0330
-3.0573 -1.1362 2.0330
-2.9561 -1.3781 2.0330
-2.8359 -1.6112 2.0330
-2.6973 -1.8338 2.0330
-2.5412 -2.0446 2.0330
-2.3687 -2.2421 2.0330
-2.1809 -2.4252 2.0330
-0.7221 -0.9459 0.7417
-0.6436 -1.0007 0.7416
-0.5611 -1.0491 0.7415
-0.4749 -1.0906 0.7415
-0.3858 -1.1252 0.7414
-0.2941 -1.1525 0.7414
-0.2005 -1.1723 0.7413
-0.1057 -1.1846 0.7413
-0.0102 -1.1892 0.7413
0.0854 -1.1862 0.7413
0.1804 -1.1756 0.7413
0.2743 -1.1573 0.7413
0.3664 -1.1316 0.7414
0.4562 -1.0986 0.7415
0.5430 -1.0585 0.7415
0.6264 -1.0116 0.7416
0.7057 -0.9581 0.7417
0.7805 -0.8985 0.7418
2.3299 -2.2824 2.0330
