ply
format ascii 1.0
element vertex 2142
property float32 x
property float32 y
property float32 z
end_header
-0.0503 -7.6205 0.6019
0.5633 -7.6260 0.6040
7.1144 -17.0634 1.4602
4.1931 -6.7529 0.6278
-0.8016 -7.6138 0.6047
-0.1872 -7.6193 0.6020
0.4256 -7.6248 0.6032
1.0448 -7.6303 0.6083
6.8892 -17.3974 1.4779
4.0706 -6.8265 0.6278
-0.9401 -7.6126 0.6058
-0.3243 -7.6181 0.6023
0.2882 -7.6235 0.6026
0.9052 -7.6290 0.6068
13.5783 -12.8073 2.0043
14.6859 -11.7757 2.0214
15.7039 -10.6411 2.0370
16.6208 -9.4111 2.0510
17.4262 -8.0954 2.0633
18.1104 -6.7048 2.0737
18.6651 -5.2511 2.0821
19.0835 -3.7478 2.0884
19.3601 -2.2088 2.0924
19.4950 -0.6489 2.0946
19.4834 0.9173 2.0945
19.2035 2.4593 2.0789
18.6985 3.9404 2.0520
18.2697 5.4125 2.0461
17.7106 6.8355 2.0385
17.0278 8.1973 2.0293
16.2289 9.4867 2.0186
15.3227 10.6936 2.0065
14.3189 11.8091 1.9930
13.2279 12.8256 1.9785
12.0607 13.7368 1.9629
10.8284 14.5378 1.9466
9.5425 15.2250 1.9295
8.2144 15.7960 1.9118
6.8553 16.2495 1.8938
4.2496 12.8711 1.4555
4.1497 17.0623 1.8856
2.9910 18.7418 2.0380
1.4775 18.9213 2.0380
-0.0454 18.9789 2.0380
-1.5681 18.9140 2.0380
-3.0806 18.7272 2.0380
-4.5733 18.4197 2.0380
-6.0365 17.9933 2.0380
-7.4608 17.4510 2.0380
-8.8369 16.7961 2.0380
-10.1561 16.0329 2.0380
-11.4098 15.1663 2.0380
-12.5899 14.2019 2.0380
-13.6888 13.1460 2.0380
-14.6995 12.0052 2.0380
-15.6153 10.7871 2.0380
-16.4305 9.4994 2.0380
-17.1397 8.1504 2.0380
-17.7384 6.7489 2.0380
-18.2227 5.3039 2.0380
-18.5896 3.8246 2.0380
-18.8365 2.3207 2.0380
-18.9620 0.8019 2.0380
-18.9652 -0.7222 2.0380
-18.8461 -2.2415 2.0380
-18.6055 -3.7464 2.0380
-18.2449 -5.2272 2.0380
-17.7666 -6.6743 2.0380
-17.1738 -8.0783 2.0380
-16.4703 -9.4302 2.0380
-15.6605 -10.7214 2.0380
-14.7498 -11.9433 2.0380
-13.7439 -13.0883 2.0380
-12.6494 -14.1489 2.0380
-11.4734 -15.1182 2.0380
-10.2234 -15.9901 2.0380
-8.9074 -16.7588 2.0380
-7.5340 -17.4195 2.0380
-6.1120 -17.9678 2.0380
-4.6507 -18.4003 2.0380
-3.1593 -18.7141 2.0380
-0.6635 -7.6149 0.8208
-0.0503 -7.6204 0.8183
0.5633 -7.6259 0.8211
2.9122 -18.7542 2.0380
4.0780 -17.0796 1.8856
5.4352 -16.6973 1.8856
6.8082 -16.3291 1.8998
8.1875 -15.9070 1.9211
4.1926 -6.7522 0.8535
10.8545 -14.7014 1.9623
12.1183 -13.9200 1.9818
13.3194 -13.0233 2.0003
14.4454 -12.0158 2.0177
15.4845 -10.9035 2.0336
16.4250 -9.6942 2.0480
17.2562 -8.3968 2.0607
17.9683 -7.0219 2.0716
18.5526 -5.5812 2.0804
19.0020 -4.0878 2.0872
19.3107 -2.5555 2.0917
19.4749 -0.9990 2.0940
19.5076 0.5673 2.0956
19.2911 2.1189 2.0840
18.8230 3.6146 2.0582
18.3771 5.0869 2.0476
17.8467 6.5220 2.0404
17.1910 7.8985 2.0315
16.4173 9.2050 2.0211
15.5343 10.4312 2.0093
14.5515 11.5678 1.9961
13.4791 12.6071 1.9818
12.3279 13.5423 1.9665
11.1092 14.3684 1.9503
9.8344 15.0812 1.9333
8.5147 15.6784 1.9158
7.1616 16.1582 1.8979
4.5043 12.8612 1.4633
4.4557 16.9850 1.8856
3.3273 18.6850 2.0380
1.8174 18.8917 2.0380
0.2957 18.9766 2.0380
-1.2279 18.9392 2.0380
-2.7435 18.7796 2.0380
-4.2415 18.4989 2.0380
-5.7121 18.0989 2.0380
-7.1459 17.5822 2.0380
-8.5336 16.9522 2.0380
-9.8663 16.2128 2.0380
-11.1353 15.3689 2.0380
-12.3326 14.4259 2.0380
-13.4503 13.3899 2.0380
-14.4813 12.2675 2.0380
-15.4189 11.0660 2.0380
-16.2571 9.7931 2.0380
-16.9905 8.4571 2.0380
-17.6143 7.0666 2.0380
-18.1245 5.6305 2.0380
-18.5178 4.1581 2.0380
-18.7917 2.6589 2.0380
-18.9445 1.1425 2.0380
-18.9751 -0.3812 2.0380
-18.8833 -1.9024 2.0380
-18.6698 -3.4115 2.0380
-18.3359 -4.8985 2.0380
-17.8837 -6.3539 2.0380
-17.3162 -7.7683 2.0380
-16.6371 -9.1327 2.0380
-15.8507 -10.4382 2.0380
-14.9621 -11.6763 2.0380
-13.9769 -12.8392 2.0380
-12.9017 -13.9192 2.0380
-11.7433 -14.9096 2.0380
-10.5091 -15.8037 2.0380
-9.2072 -16.5960 2.0380
-7.8459 -17.2812 2.0380
-6.4340 -17.8550 2.0380
-4.9806 -18.3137 2.0380
-3.4951 -18.6543 2.0380
-0.8016 -7.6137 0.8221
-0.1872 -7.6192 0.8184
0.4256 -7.6246 0.8200
1.0448 -7.6302 0.8270
3.7703 -17.1501 1.8856
5.1343 -16.7923 1.8856
6.4971 -16.4071 1.8949
7.8807 -16.0119 1.9164
4.0701 -6.8256 0.8534
10.5643 -14.8601 1.9578
11.8405 -14.1050 1.9775
13.0567 -13.2338 1.9963
14.2006 -12.2506 2.0139
15.2601 -11.1612 2.0302
16.2236 -9.9728 2.0449
17.0802 -8.6942 2.0580
17.8198 -7.3357 2.0693
18.4334 -5.9086 2.0786
18.9135 -4.4259 2.0858
19.2541 -2.9011 2.0909
19.4509 -1.3486 2.0937
19.5246 0.2167 2.0967
19.3599 1.7749 2.0876
18.9468 3.2864 2.0649
18.4780 4.7590 2.0490
17.9765 6.2055 2.0421
17.3482 7.5962 2.0336
16.6003 8.9193 2.0236
15.7409 10.1643 2.0121
14.7796 11.3217 1.9992
13.7263 12.3833 1.9851
12.5918 13.3423 1.9700
11.3872 14.1932 1.9540
10.1239 14.9317 1.9372
8.8133 15.5549 1.9198
7.4667 16.0611 1.9019
6.0952 16.4497 1.8838
4.7602 16.9021 1.8856
3.6626 18.6221 2.0380
2.1566 18.8560 2.0380
0.6367 18.9682 2.0380
-0.8873 18.9582 2.0380
-2.4056 18.8259 2.0380
-3.9083 18.5722 2.0380
-5.3859 18.1987 2.0380
-6.8287 17.7078 2.0380
-8.2275 17.1028 2.0380
-9.5733 16.3875 2.0380
-10.8573 15.5666 2.0380
-12.0713 14.6453 2.0380
-13.2075 13.6295 2.0380
-14.2585 12.5258 2.0380
-15.2175 11.3413 2.0380
-16.0785 10.0838 2.0380
-16.8357 8.7612 2.0380
-17.4844 7.3821 2.0380
-18.0203 5.9554 2.0380
-18.4401 4.4903 2.0380
-18.7409 2.9962 2.0380
-18.9209 1.4829 2.0380
-18.9789 -0.0401 2.0380
-18.9145 -1.5628 2.0380
-18.7281 -3.0753 2.0380
-18.4210 -4.5681 2.0380
-17.9950 -6.0314 2.0380
-17.4531 -7.4558 2.0380
-16.7986 -8.8322 2.0380
-16.0357 -10.1516 2.0380
-15.1695 -11.4055 2.0380
-14.2054 -12.5859 2.0380
-13.1498 -13.6850 2.0380
-12.0093 -14.6961 2.0380
-10.7915 -15.6123 2.0380
-9.5040 -16.4278 2.0380
-8.1552 -17.1374 2.0380
-6.7539 -17.7365 2.0380
-5.3090 -18.2212 2.0380
-3.8299 -18.5885 2.0380
-0.9400 -7.6124 0.8236
-0.3243 -7.6179 0.8188
0.2882 -7.6234 0.8192
0.9052 -7.6289 0.8250
3.6960 -18.3812 2.0133
4.8316 -16.8819 1.8856
6.1854 -16.4792 1.8901
7.5728 -16.1108 1.9116
8.9388 -15.6221 1.9327
10.2718 -15.0128 1.9533
11.5597 -14.2842 1.9732
12.7904 -13.4386 1.9922
13.9515 -12.4800 2.0101
15.0310 -11.4138 2.0267
16.0170 -10.2469 2.0418
16.8984 -8.9876 2.0553
17.6649 -7.6460 2.0670
18.3074 -6.2333 2.0767
18.8180 -4.7618 2.0844
19.1902 -3.2452 2.0899
19.4195 -1.6977 2.0933
19.5204 -0.1342 2.0962
19.4182 1.4288 2.0908
19.0632 2.9547 2.0715
18.5723 4.4289 2.0502
18.1000 5.8862 2.0438
17.4995 7.2905 2.0357
16.7776 8.6296 2.0260
15.9424 9.8930 2.0148
15.0030 11.0707 2.0022
13.9694 12.1545 1.9884
12.8521 13.1370 1.9735
11.6623 14.0125 1.9576
10.4111 14.7764 1.9410
9.1101 15.4256 1.9237
7.7706 15.9580 1.9060
6.4037 16.3729 1.8878
5.0633 16.8139 1.8856
3.9967 18.5533 2.0380
2.4952 18.8142 2.0380
0.9776 18.9537 2.0380
-0.5464 18.9710 2.0380
-2.0668 18.8660 2.0380
-3.5739 18.6394 2.0380
-5.0579 18.2925 2.0380
-6.5094 17.8277 2.0380
-7.9188 17.2480 2.0380
-9.2772 16.5570 2.0380
-10.5758 15.7592 2.0380
10.4636 -9.8694 1.9555
11.2951 -9.0569 1.9683
12.0565 -8.1696 1.9799
12.7401 -7.2138 1.9904
13.3388 -6.1966 1.9995
13.8462 -5.1260 2.0073
14.2567 -4.0109 2.0134
14.5659 -2.8606 2.0181
14.7702 -1.6851 2.0211
14.8675 -0.4949 2.0224
14.8567 0.6995 2.0220
14.7478 1.8887 2.0213
14.4928 3.0541 2.0136
14.0709 4.1686 1.9951
13.6194 5.2565 1.9847
13.1080 6.3103 1.9778
12.5083 7.3118 1.9697
11.8261 8.2534 1.9606
11.0683 9.1282 1.9505
10.2419 9.9304 1.9394
9.3548 10.6549 1.9276
8.4147 11.2973 1.9151
7.4300 11.8545 1.9020
6.4089 12.3240 1.8885
5.3912 12.7790 1.8856
4.2333 12.8217 1.8357
3.5426 14.5661 2.0380
2.3624 14.8033 2.0380
1.1670 14.9452 2.0380
-0.0359 14.9906 2.0380
-1.2386 14.9394 2.0380
-2.4332 14.7919 2.0380
-3.6123 14.5489 2.0380
-4.7680 14.2122 2.0380
-5.8929 13.7838 2.0380
-6.9799 13.2665 2.0380
-8.0219 12.6637 2.0380
-9.0121 11.9792 2.0380
-9.9442 11.2175 2.0380
-10.8122 10.3835 2.0380
-11.6105 9.4824 2.0380
-12.3339 8.5203 2.0380
-12.9778 7.5032 2.0380
-13.5379 6.4377 2.0380
-14.0108 5.3307 2.0380
-14.3934 4.1893 2.0380
-14.6831 3.0209 2.0380
-14.8782 1.8330 2.0380
-14.9773 0.6334 2.0380
-14.9798 -0.5704 2.0380
-14.8857 -1.7705 2.0380
-14.6957 -2.9592 2.0380
-14.4109 -4.1288 2.0380
-14.0331 -5.2717 2.0380
-13.5649 -6.3807 2.0380
-13.0092 -7.4486 2.0380
-12.3696 -8.4684 2.0380
-11.6502 -9.4335 2.0380
-10.8557 -10.3379 2.0380
-9.9913 -11.1756 2.0380
-9.0624 -11.9412 2.0380
-8.0750 -12.6299 2.0380
-7.0356 -13.2371 2.0380
-5.9508 -13.7589 2.0380
-4.8276 -14.1920 2.0380
-3.6734 -14.5336 2.0380
-2.4954 -14.7815 2.0380
-0.6635 -7.6148 1.0392
-0.0503 -7.6203 1.0360
0.5633 -7.6258 1.0396
2.3002 -14.8131 2.0380
3.4814 -14.5808 2.0380
4.2931 -13.1885 1.8856
5.3374 -12.8015 1.8856
6.3700 -12.3760 1.8923
4.1922 -6.7514 1.0804
8.4050 -11.3838 1.9238
9.3626 -10.7546 1.9385
10.2688 -10.0405 1.9525
11.1149 -9.2454 1.9655
11.8926 -8.3743 1.9774
12.5943 -7.4333 1.9882
13.2126 -6.4292 1.9976
13.7408 -5.3698 2.0057
14.1735 -4.2638 2.0122
14.5057 -3.1205 2.0172
14.7338 -1.9498 2.0205
14.8551 -0.7620 2.0222
14.8685 0.4324 2.0222
14.7786 1.6232 2.0212
14.5653 2.7970 2.0163
14.1804 3.9252 2.0003
13.7212 5.0143 1.9861
13.2303 6.0788 1.9794
12.6498 7.0926 1.9716
11.9856 8.0482 1.9627
11.2441 8.9386 1.9528
10.4324 9.7575 1.9420
9.5581 10.4997 1.9303
8.6293 11.1608 1.9180
7.6538 11.7374 1.9050
6.6401 12.2266 1.8915
5.6200 12.6800 1.8856
4.4869 12.8116 1.8455
3.8038 14.5000 2.0380
2.6281 14.7585 2.0380
1.4355 14.9218 2.0380
0.2336 14.9888 2.0380
-0.9698 14.9593 2.0380
-2.1670 14.8332 2.0380
-3.3502 14.6115 2.0380
-4.5118 14.2956 2.0380
-5.6442 13.8875 2.0380
-6.7403 13.3898 2.0380
-7.7930 12.8058 2.0380
-8.7953 12.1393 2.0380
-9.7410 11.3944 2.0380
-10.6238 10.5761 2.0380
-11.4382 9.6896 2.0380
-12.1788 8.7406 2.0380
-12.8408 7.7352 2.0380
-13.4201 6.6800 2.0380
-13.9128 5.5816 2.0380
-14.3158 4.4473 2.0380
-14.6264 3.2843 2.0380
-14.8428 2.1001 2.0380
-14.9635 0.9024 2.0380
-14.9876 -0.3011 2.0380
-14.9151 -1.5027 2.0380
-14.7465 -2.6946 2.0380
-14.4827 -3.8691 2.0380
-14.1256 -5.0187 2.0380
-13.6774 -6.1358 2.0380
-13.1409 -7.2135 2.0380
-12.5198 -8.2447 2.0380
-11.8179 -9.2226 2.0380
-11.0398 -10.1411 2.0380
-10.1905 -10.9942 2.0380
-9.2755 -11.7764 2.0380
-8.3007 -12.4827 2.0380
-7.2724 -13.1085 2.0380
-6.1971 -13.6498 2.0380
-5.0819 -14.1030 2.0380
-3.9340 -14.4652 2.0380
-2.7607 -14.7343 2.0380
-0.8016 -7.6136 1.0408
-0.1872 -7.6191 1.0361
0.4255 -7.6245 1.0382
1.0447 -7.6301 1.0470
3.2187 -14.6410 2.0380
4.0553 -13.2635 1.8856
5.1065 -12.8954 1.8856
6.1347 -12.4645 1.8887
4.0696 -6.8247 1.0803
8.1845 -11.5126 1.9204
9.1525 -10.9029 1.9353
10.0709 -10.2075 1.9494
10.9312 -9.4301 1.9627
11.7249 -8.5755 1.9749
12.4443 -7.6496 1.9859
13.0818 -6.6589 1.9956
13.6307 -5.6112 2.0040
14.0852 -4.5149 2.0109
14.4403 -3.3791 2.0162
14.6919 -2.2136 2.0199
14.8373 -1.0287 2.0220
14.8749 0.1651 2.0224
14.8043 1.3572 2.0211
14.6294 2.5376 2.0186
14.2794 3.6776 2.0046
13.8183 4.7701 1.9874
13.3482 5.8447 1.9810
12.7872 6.8706 1.9735
12.1412 7.8398 1.9648
11.4164 8.7453 1.9551
10.6197 9.5807 1.9445
9.7588 10.3405 1.9330
8.8414 11.0202 1.9208
7.8757 11.6159 1.9079
6.8699 12.1248 1.8946
5.8470 12.5770 1.8856
4.8190 13.0056 1.8856
4.0315 14.3145 2.0218
2.8929 14.7089 2.0380
1.7034 14.8936 2.0380
0.5029 14.9822 2.0380
-0.7008 14.9743 2.0380
-1.9000 14.8698 2.0380
-3.0870 14.6694 2.0380
-4.2541 14.3744 2.0380
-5.3937 13.9867 2.0380
-6.4986 13.5088 2.0380
-7.5615 12.9438 2.0380
-8.5757 12.2954 2.0380
-9.5346 11.5677 2.0380
-10.4320 10.7653 2.0380
-11.2622 9.8936 2.0380
-12.0197 8.9581 2.0380
-12.6997 7.9647 2.0380
-13.2978 6.9201 2.0380
-13.8102 5.8308 2.0380
-14.2335 4.7039 2.0380
-14.5650 3.5467 2.0380
-14.8027 2.3666 2.0380
-14.9448 1.1713 2.0380
-14.9906 -0.0317 2.0380
-14.9397 -1.2343 2.0380
-14.7925 -2.4291 2.0380
-14.5499 -3.6082 2.0380
-14.2135 -4.7640 2.0380
-13.7854 -5.8891 2.0380
-13.2685 -6.9762 2.0380
-12.6659 -8.0183 2.0380
-11.9818 -9.0087 2.0380
-11.2203 -9.9411 2.0380
-10.3865 -10.8093 2.0380
-9.4857 -11.6078 2.0380
-8.5237 -12.3315 2.0380
-7.5068 -12.9756 2.0380
-6.4415 -13.5361 2.0380
-5.3346 -14.0093 2.0380
-4.1934 -14.3922 2.0380
-3.0251 -14.6823 2.0380
-0.9400 -7.6123 1.0428
-0.3243 -7.6178 1.0366
0.2882 -7.6233 1.0371
0.9052 -7.6288 1.0444
2.9551 -14.6965 2.0380
3.8163 -13.3342 1.8856
4.8739 -12.9851 1.8856
5.8983 -12.5484 1.8850
6.9453 -12.1380 1.9012
7.9620 -11.6370 1.9169
8.9399 -11.0469 1.9320
9.8701 -10.3704 1.9463
10.7442 -9.6109 1.9598
11.5535 -8.7732 1.9722
12.2902 -7.8627 1.9835
12.9466 -6.8858 1.9936
13.5159 -5.8502 2.0022
13.9920 -4.7640 2.0095
14.3697 -3.6362 2.0151
14.6447 -2.4765 2.0192
14.8141 -1.2951 2.0217
14.8759 -0.1023 2.0224
14.8295 1.0912 2.0215
14.6828 2.2758 2.0200
14.3721 3.4273 2.0087
13.9105 4.5238 1.9886
13.4614 5.6081 1.9826
12.9204 6.6457 1.9753
12.2928 7.6282 1.9668
11.5850 8.5486 1.9574
10.8039 9.4002 1.9469
9.9567 10.1773 1.9356
9.0512 10.8752 1.9236
8.0956 11.4900 1.9109
7.0980 12.0186 1.8976
6.0667 12.4589 1.8839
5.0520 12.9168 1.8856
4.0437 13.4280 1.9065
3.1569 14.6545 2.0380
1.9709 14.8605 2.0380
0.7721 14.9707 2.0380
-0.4316 14.9844 2.0380
-1.6325 14.9015 2.0380
-2.8229 14.7225 2.0380
-3.9951 14.4485 2.0380
-5.1415 14.0814 2.0380
-6.2547 13.6234 2.0380
-7.3277 13.0776 2.0380
-8.3534 12.4475 2.0380
8.4991 -8.0164 1.9247
9.1632 -7.3474 1.9349
9.7699 -6.6202 1.9442
10.3136 -5.8398 1.9525
10.7888 -5.0120 1.9598
11.1909 -4.1430 1.9659
11.5159 -3.2398 1.9708
11.7604 -2.3096 1.9744
11.9221 -1.3602 1.9768
11.9991 -0.3994 1.9778
11.9907 0.5646 1.9775
11.8971 1.5236 1.9759
11.7192 2.4696 1.9730
11.4630 3.3960 1.9695
11.0922 4.2811 1.9587
10.6399 5.1221 1.9453
10.1609 5.9396 1.9389
9.6151 6.7103 1.9316
9.0076 7.4288 1.9235
8.3439 8.0902 1.9146
7.6298 8.6902 1.9051
6.8713 9.2252 1.8950
6.0749 9.6923 1.8844
5.2809 10.1549 1.8856
4.4491 10.5458 1.8856
3.8786 11.7473 2.0380
2.9235 12.0206 2.0380
1.9496 12.2164 2.0380
0.9631 12.3335 2.0380
-0.0296 12.3710 2.0380
-1.0221 12.3287 2.0380
-2.0080 12.2070 2.0380
-2.9810 12.0065 2.0380
-3.9348 11.7286 2.0380
-4.8631 11.3751 2.0380
-5.7602 10.9482 2.0380
-6.6200 10.4507 2.0380
-7.4372 9.8858 2.0380
-8.2064 9.2572 2.0380
-8.9227 8.5689 2.0380
-9.5815 7.8254 2.0380
-10.1785 7.0313 2.0380
-10.7099 6.1920 2.0380
-11.1722 5.3127 2.0380
-11.5624 4.3991 2.0380
-11.8781 3.4572 2.0380
-12.1172 2.4930 2.0380
-12.2782 1.5127 2.0380
-12.3600 0.5227 2.0380
-12.3620 -0.4707 2.0380
-12.2844 -1.4611 2.0380
-12.1276 -2.4421 2.0380
-11.8925 -3.4072 2.0380
-11.5808 -4.3505 2.0380
-11.1944 -5.2657 2.0380
-10.7358 -6.1469 2.0380
-10.2080 -6.9885 2.0380
-9.6143 -7.7849 2.0380
-8.9587 -8.5313 2.0380
-8.2453 -9.2226 2.0380
-7.4787 -9.8545 2.0380
-6.6639 -10.4228 2.0380
-5.8061 -10.9239 2.0380
-4.9109 -11.3545 2.0380
-3.9840 -11.7119 2.0380
-3.0314 -11.9938 2.0380
-2.0593 -12.1984 2.0380
-0.6635 -7.6147 1.2592
-0.0503 -7.6202 1.2554
0.5632 -7.6257 1.2597
1.8983 -12.2245 2.0380
2.8730 -12.0328 2.0380
3.7676 -11.5744 2.0052
4.4047 -10.5644 1.8856
5.2382 -10.1770 1.8856
4.1636 -6.7053 1.3003
6.8478 -9.2747 1.8992
7.6172 -8.7497 1.9111
8.3432 -8.1577 1.9223
9.0194 -7.5023 1.9327
9.6395 -6.7877 1.9422
10.1977 -6.0187 1.9507
10.6886 -5.2010 1.9582
11.1075 -4.3407 1.9646
11.4500 -3.4445 1.9698
11.7128 -2.5197 1.9737
11.8932 -1.5739 1.9764
11.9892 -0.6150 1.9777
12.0000 0.3490 1.9777
11.9254 1.3098 1.9764
11.7662 2.2595 1.9738
11.5292 3.1914 1.9707
11.1867 4.0881 1.9621
10.7375 4.9334 1.9467
10.2740 5.7605 1.9404
9.7428 6.5422 1.9333
9.1487 7.2728 1.9253
8.4971 7.9473 1.9166
7.7937 8.5614 1.9073
7.0446 9.1113 1.8973
6.2560 9.5938 1.8868
5.4625 10.0583 1.8856
4.6379 10.4642 1.8856
4.0065 11.4397 1.9968
3.1391 11.9661 2.0380
2.1688 12.1794 2.0380
1.1846 12.3142 2.0380
0.1928 12.3695 2.0380
-0.8004 12.3451 2.0380
-1.7883 12.2410 2.0380
-2.7647 12.0581 2.0380
-3.7233 11.7974 2.0380
-4.6579 11.4606 2.0380
-5.5624 11.0499 2.0380
-6.4311 10.5680 2.0380
-7.2583 10.0179 2.0380
-8.0387 9.4032 2.0380
-8.7673 8.7279 2.0380
-9.4393 7.9963 2.0380
-10.0505 7.2131 2.0380
-10.5969 6.3834 2.0380
-11.0749 5.5126 2.0380
-11.4815 4.6062 2.0380
-11.8140 3.6701 2.0380
-12.0704 2.7104 2.0380
-12.2490 1.7331 2.0380
-12.3486 0.7447 2.0380
-12.3685 -0.2485 2.0380
-12.3087 -1.2401 2.0380
-12.1695 -2.2237 2.0380
-11.9518 -3.1930 2.0380
-11.6571 -4.1416 2.0380
-11.2872 -5.0636 2.0380
-10.8445 -5.9530 2.0380
-10.3319 -6.8039 2.0380
-9.7527 -7.6109 2.0380
-9.1106 -8.3689 2.0380
-8.4097 -9.0730 2.0380
-7.6546 -9.7185 2.0380
-6.8501 -10.3013 2.0380
-6.0015 -10.8180 2.0380
-5.1142 -11.2644 2.0380
-4.1939 -11.6384 2.0380
-3.2465 -11.9374 2.0380
-2.2782 -12.1594 2.0380
-0.8015 -7.6135 1.2612
-0.1872 -7.6190 1.2555
0.4255 -7.6244 1.2580
1.0447 -7.6299 1.2687
2.6563 -12.0824 2.0380
3.6171 -11.8304 2.0380
4.2141 -10.6419 1.8856
5.0544 -10.2695 1.8856
4.0167 -6.7361 1.2920
6.6704 -9.3827 1.8965
7.4486 -8.8731 1.9085
8.1848 -8.2958 1.9198
8.8727 -7.6543 1.9304
9.5059 -6.9525 1.9401
10.0784 -6.1953 1.9489
10.5849 -5.3879 1.9567
11.0202 -4.5366 1.9633
11.3802 -3.6478 1.9687
11.6611 -2.7288 1.9729
11.8601 -1.7870 1.9759
11.9751 -0.8303 1.9775
12.0050 0.1333 1.9778
11.9495 1.0955 1.9768
11.8091 2.0484 1.9745
11.5876 2.9844 1.9712
11.2732 3.8915 1.9647
10.8315 4.7427 1.9479
10.3838 5.5792 1.9419
9.8673 6.3715 1.9350
9.2868 7.1140 1.9272
8.6476 7.8015 1.9187
7.9553 8.4295 1.9094
7.2158 8.9940 1.8996
6.4356 9.4918 1.8892
5.6424 9.9585 1.8856
4.8252 10.3791 1.8856
4.0173 10.8420 1.9048
3.3537 11.9078 2.0380
2.3874 12.1385 2.0380
1.4057 12.2909 2.0380
0.4150 12.3641 2.0380
-0.5783 12.3575 2.0380
-1.5680 12.2712 2.0380
-2.5476 12.1058 2.0380
-3.5107 11.8624 2.0380
-4.4512 11.5425 2.0380
-5.3629 11.1481 2.0380
-6.2401 10.6819 2.0380
-7.0771 10.1467 2.0380
-7.8684 9.5462 2.0380
-8.6090 8.8841 2.0380
-9.2941 8.1647 2.0380
-9.9192 7.3926 2.0380
-10.4804 6.5729 2.0380
-10.9740 5.7108 2.0380
-11.3968 4.8119 2.0380
-11.7462 3.8819 2.0380
-12.0198 2.9269 2.0380
-12.2159 1.9530 2.0380
-12.3332 0.9666 2.0380
-12.3710 -0.0261 2.0380
-12.3290 -1.0187 2.0380
-12.2075 -2.0046 2.0380
-12.0073 -2.9776 2.0380
-11.7297 -3.9315 2.0380
-11.3764 -4.8599 2.0380
-10.9498 -5.7571 2.0380
-10.4525 -6.6171 2.0380
-9.8879 -7.4344 2.0380
-9.2595 -8.2038 2.0380
-8.5714 -8.9203 2.0380
-7.8280 -9.5793 2.0380
-7.0342 -10.1765 2.0380
-6.1950 -10.7081 2.0380
-5.3158 -11.1707 2.0380
-4.4024 -11.5612 2.0380
-3.4606 -11.8771 2.0380
-2.4964 -12.1165 2.0380
-0.9400 -7.6122 1.2636
-0.3243 -7.6177 1.2561
0.2881 -7.6232 1.2567
0.9052 -7.6287 1.2656
2.4387 -12.1283 2.0380
3.4039 -11.8935 2.0380
4.0222 -10.7159 1.8856
4.8690 -10.3586 1.8856
3.9778 -6.9519 1.3195
6.4912 -9.4873 1.8937
7.2778 -8.9931 1.9059
8.0240 -8.4307 1.9174
8.7233 -7.8032 1.9281
9.3693 -7.1146 1.9380
9.9559 -6.3693 1.9470
10.4775 -5.5726 1.9550
10.9292 -4.7306 1.9619
11.3064 -3.8496 1.9676
11.6053 -2.9367 1.9721
11.8228 -1.9993 1.9753
11.9568 -1.0453 1.9773
12.0058 -0.0825 1.9779
11.9693 0.8807 1.9771
11.8478 1.8364 1.9751
11.6426 2.7764 1.9718
11.3556 3.6929 1.9672
10.9446 4.5596 1.9532
10.4901 5.3956 1.9433
9.9886 6.1984 1.9366
9.4220 6.9525 1.9290
8.7954 7.6527 1.9206
8.1145 8.2943 1.9115
7.3851 8.8733 1.9018
6.6134 9.3863 1.8916
5.8205 9.8555 1.8856
5.0110 10.2907 1.8856
4.1794 10.6860 1.8903
3.5671 11.8456 2.0380
2.6052 12.0936 2.0380
1.6264 12.2636 2.0380
0.6372 12.3546 2.0380
-0.3562 12.3659 2.0380
-1.3472 12.2974 2.0380
-2.3296 12.1497 2.0380
-3.2969 11.9236 2.0380
-4.2430 11.6206 2.0380
-5.1617 11.2427 2.0380
-6.0472 10.7923 2.0380
-6.8936 10.2723 2.0380
7.1450 -6.7393 1.9035
7.6969 -6.1717 1.9119
8.2002 -5.5565 1.9196
8.6506 -4.8982 1.9265
9.0437 -4.2013 1.9325
9.3761 -3.4712 1.9376
9.6445 -2.7133 1.9416
9.8463 -1.9337 1.9446
9.9797 -1.1386 1.9466
10.0433 -0.3343 1.9474
10.0365 0.4725 1.9472
9.9595 1.2755 1.9459
9.8129 2.0679 1.9435
9.5982 2.8435 1.9400
9.3176 3.5962 1.9355
8.9752 4.3207 1.9304
8.5427 4.9937 1.9177
8.0887 5.6451 1.9116
7.5828 6.2537 1.9048
7.0292 6.8154 1.8974
6.4326 7.3266 1.8895
5.8121 7.8031 1.8856
5.1672 8.2443 1.8856
4.4891 8.6323 1.8856
3.9876 9.4520 1.9881
3.2970 9.9859 2.0380
2.4852 10.2183 2.0380
1.6573 10.3848 2.0380
0.8187 10.4842 2.0380
-0.0252 10.5161 2.0380
-0.8689 10.4802 2.0380
-1.7070 10.3767 2.0380
-2.5340 10.2063 2.0380
-3.3448 9.9700 2.0380
-4.1340 9.6695 2.0380
-4.8965 9.3067 2.0380
-5.6274 8.8838 2.0380
-6.3221 8.4036 2.0380
-6.9760 7.8692 2.0380
-7.5849 7.2841 2.0380
-8.1449 6.6521 2.0380
-8.6524 5.9771 2.0380
-9.1041 5.2636 2.0380
-9.4971 4.5161 2.0380
-9.8288 3.7395 2.0380
-10.0972 2.9389 2.0380
-10.3004 2.1192 2.0380
-10.4372 1.2859 2.0380
-10.5068 0.4443 2.0380
-10.5085 -0.4002 2.0380
-10.4425 -1.2420 2.0380
-10.3092 -2.0759 2.0380
-10.1094 -2.8964 2.0380
-9.8444 -3.6982 2.0380
-9.5160 -4.4762 2.0380
-9.1261 -5.2253 2.0380
-8.6774 -5.9407 2.0380
-8.1728 -6.6178 2.0380
-7.6155 -7.2522 2.0380
-7.0090 -7.8398 2.0380
-6.3574 -8.3770 2.0380
-5.6647 -8.8600 2.0380
-4.9356 -9.2860 2.0380
-4.1746 -9.6521 2.0380
-3.3867 -9.9559 2.0380
-2.5769 -10.1955 2.0380
-1.7505 -10.3694 2.0380
-0.6635 -7.6146 1.4813
-0.0503 -7.6201 1.4768
0.5632 -7.6255 1.4818
1.6136 -10.3916 2.0380
2.4422 -10.2286 2.0380
3.2551 -9.9997 2.0380
3.8089 -9.1355 1.9181
4.4528 -8.6511 1.8856
4.1391 -6.6659 1.5206
5.7792 -7.8274 1.8856
6.4109 -7.3640 1.8921
7.0154 -6.8595 1.9015
7.5774 -6.3029 1.9101
8.0920 -5.6981 1.9180
8.5546 -5.0490 1.9251
8.9609 -4.3603 1.9313
9.3072 -3.6371 1.9365
9.5901 -2.8850 1.9408
9.8070 -2.1098 1.9440
9.9559 -1.3175 1.9462
10.0352 -0.5147 1.9473
10.0442 0.2921 1.9473
9.9828 1.0965 1.9463
9.8517 1.8918 1.9441
9.6521 2.6718 1.9409
9.3860 3.4301 1.9366
9.0579 4.1617 1.9318
8.6518 4.8510 1.9223
8.1950 5.5029 1.9130
7.7003 6.1214 1.9064
7.1570 6.6940 1.8991
6.5696 7.2168 1.8913
5.9514 7.6974 1.8856
5.3146 8.1501 1.8856
4.6435 8.5502 1.8856
3.9972 9.0187 1.9118
3.4760 9.9251 2.0380
2.6684 10.1720 2.0380
1.8437 10.3533 2.0380
1.0070 10.4678 2.0380
0.1639 10.5149 2.0380
-0.6804 10.4941 2.0380
-1.5202 10.4057 2.0380
-2.3502 10.2502 2.0380
-3.1651 10.0286 2.0380
-3.9595 9.7423 2.0380
-4.7284 9.3932 2.0380
-5.4669 8.9835 2.0380
-6.1700 8.5159 2.0380
-6.8334 7.9934 2.0380
-7.4528 7.4193 2.0380
-8.0240 6.7974 2.0380
-8.5436 6.1316 2.0380
-9.0080 5.4264 2.0380
-9.4144 4.6861 2.0380
-9.7600 3.9156 2.0380
-10.0427 3.1199 2.0380
-10.2606 2.3040 2.0380
-10.4124 1.4733 2.0380
-10.4971 0.6331 2.0380
-10.5140 -0.2112 2.0380
-10.4632 -1.0542 2.0380
-10.3449 -1.8903 2.0380
-10.1598 -2.7142 2.0380
-9.9093 -3.5207 2.0380
-9.5949 -4.3043 2.0380
-9.2186 -5.0604 2.0380
-8.7828 -5.7838 2.0380
-8.2904 -6.4698 2.0380
-7.7446 -7.1141 2.0380
-7.1488 -7.7126 2.0380
-6.5069 -8.2613 2.0380
-5.8231 -8.7568 2.0380
-5.1017 -9.1958 2.0380
-4.3474 -9.5755 2.0380
-3.5651 -9.8934 2.0380
-2.7597 -10.1476 2.0380
-1.9366 -10.3363 2.0380
-0.8015 -7.6133 1.4836
-0.1872 -7.6188 1.4769
0.4255 -7.6243 1.4799
1.0447 -7.6298 1.4924
2.2580 -10.2709 2.0380
3.0748 -10.0566 2.0380
3.7902 -9.5713 1.9950
4.2966 -8.7297 1.8856
3.9857 -6.6841 1.5082
5.6376 -7.9300 1.8856
6.2703 -7.4695 1.8900
6.8836 -6.9770 1.8994
7.4556 -6.4318 1.9082
7.9813 -5.8374 1.9163
8.4558 -5.1979 1.9236
8.8751 -4.5176 1.9300
9.2351 -3.8017 1.9354
9.5324 -3.0555 1.9399
9.7643 -2.2849 1.9434
9.9286 -1.4960 1.9458
10.0235 -0.6950 1.9472
10.0483 0.1115 1.9474
10.0026 0.9170 1.9466
9.8870 1.7150 1.9447
9.7026 2.4989 1.9417
9.4512 3.2625 1.9377
9.1352 4.0000 1.9326
8.7510 4.7019 1.9252
8.2986 5.3586 1.9144
7.8154 5.9869 1.9079
7.2825 6.5700 1.9008
6.7046 7.1042 1.8931
6.0864 7.5862 1.8848
5.4602 8.0532 1.8856
4.7964 8.4654 1.8856
4.1017 8.8229 1.8856
3.6538 9.8610 2.0380
2.8508 10.1224 2.0380
2.0294 10.3185 2.0380
1.1950 10.4480 2.0380
0.3528 10.5102 2.0380
-0.4916 10.5047 2.0380
-1.3329 10.4313 2.0380
-2.1656 10.2908 2.0380
-2.9843 10.0838 2.0380
-3.7838 9.8119 2.0380
-4.5588 9.4766 2.0380
-5.3045 9.0803 2.0380
-6.0160 8.6254 2.0380
-6.6887 8.1149 2.0380
-7.3182 7.5520 2.0380
-7.9006 6.9405 2.0380
-8.4320 6.2842 2.0380
-8.9090 5.5874 2.0380
-9.3286 4.8545 2.0380
-9.6880 4.0904 2.0380
-9.9850 3.2999 2.0380
-10.2176 2.4881 2.0380
-10.3843 1.6602 2.0380
-10.4840 0.8216 2.0380
-10.5161 -0.0222 2.0380
-10.4804 -0.8659 2.0380
-10.3772 -1.7040 2.0380
-10.2070 -2.5312 2.0380
-9.9710 -3.3420 2.0380
-9.6707 -4.1313 2.0380
-9.3080 -4.8939 2.0380
-8.8853 -5.6250 2.0380
-8.4054 -6.3198 2.0380
-7.8712 -6.9738 2.0380
-7.2863 -7.5829 2.0380
-6.6543 -8.1430 2.0380
-5.9795 -8.6509 2.0380
-5.2661 -9.1026 2.0380
-4.5188 -9.4958 2.0380
-3.7423 -9.8277 2.0380
-2.9417 -10.0963 2.0380
-2.1221 -10.2998 2.0380
-0.9400 -7.6121 1.4864
-0.3243 -7.6176 1.4776
0.2881 -7.6231 1.4784
0.9052 -7.6286 1.4888
2.0730 -10.3098 2.0380
2.8936 -10.1102 2.0380
3.6954 -9.8455 2.0380
4.1390 -8.8055 1.8856
3.9503 -6.9038 1.5415
5.4942 -8.0301 1.8856
6.1279 -7.5722 1.8878
6.7498 -7.0919 1.8974
7.3315 -6.5582 1.9063
7.8679 -5.9745 1.9146
8.3543 -5.3447 1.9220
8.7863 -4.6731 1.9286
9.1598 -3.9647 1.9343
9.4715 -3.2248 1.9390
9.7183 -2.4592 1.9427
9.8978 -1.6738 1.9454
10.0083 -0.8749 1.9470
10.0489 -0.0691 1.9475
10.0189 0.7372 1.9469
9.9189 1.5374 1.9452
9.7498 2.3250 1.9424
9.5131 3.0937 1.9386
9.2113 3.8375 1.9338
8.8451 4.5495 1.9276
8.3995 5.2123 1.9157
7.9280 5.8500 1.9094
7.4059 6.4437 1.9024
6.8376 6.9891 1.8949
6.2279 7.4830 1.8867
5.6041 7.9538 1.8856
4.9478 8.3778 1.8856
4.2596 8.7478 1.8856
3.8305 9.7937 2.0380
3.0323 10.0695 2.0380
2.2146 10.2803 2.0380
1.3826 10.4249 2.0380
0.5417 10.5022 2.0380
-0.3028 10.5118 2.0380
-1.1452 10.4536 2.0380
-1.9803 10.3280 2.0380
-2.8026 10.1358 2.0380
-3.6068 9.8783 2.0380
-4.3878 9.5570 2.0380
-5.1405 9.1742 2.0380
-5.8600 8.7321 2.0380
6.1539 -5.8045 1.8879
6.6251 -5.3123 1.8951
7.0544 -4.7801 1.9017
7.4381 -4.2116 1.9076
7.7727 -3.6109 1.9127
8.0554 -2.9822 1.9170
8.2836 -2.3304 1.9204
8.4551 -1.6605 1.9230
8.5684 -0.9776 1.9246
8.6225 -0.2870 1.9254
8.6168 0.4057 1.9252
8.5515 1.0952 1.9240
8.4271 1.7759 1.9220
8.2448 2.4426 1.9191
8.0063 3.0901 1.9153
7.7138 3.7135 1.9106
7.3700 4.3082 1.9052
6.9778 4.8698 1.8990
6.5373 5.3915 1.8911
6.0633 5.8789 1.8848
5.5745 6.3492 1.8856
5.0470 6.7760 1.8856
4.4871 7.1591 1.8856
3.9806 7.6546 1.9255
3.5496 8.4138 2.0380
2.8631 8.6715 2.0380
2.1581 8.8733 2.0380
1.4391 9.0178 2.0380
0.7109 9.1042 2.0380
-0.0218 9.1319 2.0380
-0.7545 9.1007 2.0380
-1.4823 9.0108 2.0380
-2.2005 8.8629 2.0380
-2.9045 8.6577 2.0380
-3.5898 8.3967 2.0380
-4.2520 8.0816 2.0380
-4.8867 7.7144 2.0380
-5.4899 7.2975 2.0380
-6.0578 6.8334 2.0380
-6.5865 6.3253 2.0380
-7.0728 5.7765 2.0380
-7.5135 5.1903 2.0380
-7.9057 4.5707 2.0380
-8.2470 3.9217 2.0380
-8.5351 3.2473 2.0380
-8.7681 2.5520 2.0380
-8.9446 1.8403 2.0380
-9.0634 1.1166 2.0380
-9.1238 0.3858 2.0380
-9.1253 -0.3475 2.0380
-9.0680 -1.0786 2.0380
-8.9522 -1.8027 2.0380
-8.7787 -2.5151 2.0380
-8.5486 -3.2114 2.0380
-8.2634 -3.8870 2.0380
-7.9249 -4.5375 2.0380
-7.5352 -5.1587 2.0380
-7.0970 -5.7467 2.0380
-6.6130 -6.2976 2.0380
-6.0864 -6.8079 2.0380
-5.5206 -7.2743 2.0380
-4.9191 -7.6938 2.0380
-4.2859 -8.0637 2.0380
-3.6251 -8.3816 2.0380
-2.9409 -8.6454 2.0380
-2.2377 -8.8535 2.0380
-1.5201 -9.0045 2.0380
-0.6635 -7.6145 1.7058
-0.0503 -7.6200 1.7006
0.5632 -7.6254 1.7064
1.4012 -9.0238 2.0380
2.1208 -8.8823 2.0380
2.8266 -8.6835 2.0380
3.5142 -8.4287 2.0380
3.8667 -7.5124 1.8856
4.1205 -6.6360 1.7432
5.0185 -6.7971 1.8856
5.5477 -6.3725 1.8856
6.0431 -5.9088 1.8862
6.5232 -5.4260 1.8936
6.9622 -4.9025 1.9003
7.3563 -4.3418 1.9063
7.7023 -3.7479 1.9116
7.9968 -3.1251 1.9161
8.2374 -2.4780 1.9197
8.4217 -1.8117 1.9225
8.5482 -1.1312 1.9243
8.6156 -0.4419 1.9253
8.6233 0.2508 1.9253
8.5713 0.9415 1.9244
8.4600 1.6246 1.9225
8.2906 2.2949 1.9198
8.0645 2.9471 1.9162
7.7839 3.5763 1.9117
7.4512 4.1778 1.9065
7.0696 4.7472 1.9004
6.6379 5.2768 1.8924
6.1728 5.7734 1.8862
5.6877 6.2480 1.8856
5.1680 6.6842 1.8856
4.6150 7.0773 1.8856
4.0323 7.4248 1.8856
3.7003 8.3487 2.0380
3.0185 8.6187 2.0380
2.3172 8.8331 2.0380
1.6010 8.9905 2.0380
0.8745 9.0900 2.0380
0.1423 9.1308 2.0380
-0.5908 9.1128 2.0380
-1.3201 9.0360 2.0380
-2.0408 8.9010 2.0380
-2.7484 8.7085 2.0380
-3.4383 8.4599 2.0380
-4.1060 8.1568 2.0380
-4.7473 7.8010 2.0380
-5.3579 7.3949 2.0380
-5.9340 6.9412 2.0380
-6.4718 6.4427 2.0380
-6.9679 5.9026 2.0380
-7.4190 5.3245 2.0380
-7.8223 4.7121 2.0380
-8.1752 4.0693 2.0380
-8.4753 3.4002 2.0380
-8.7208 2.7092 2.0380
-8.9101 2.0007 2.0380
-9.0419 1.2794 2.0380
-9.1154 0.5497 2.0380
-9.1301 -0.1834 2.0380
-9.0859 -0.9154 2.0380
-8.9832 -1.6415 2.0380
-8.8225 -2.3570 2.0380
-8.6050 -3.0573 2.0380
-8.3319 -3.7378 2.0380
-8.0051 -4.3943 2.0380
-7.6267 -5.0224 2.0380
-7.1992 -5.6182 2.0380
-6.7252 -6.1777 2.0380
-6.2078 -6.6974 2.0380
-5.6504 -7.1739 2.0380
-5.0566 -7.6042 2.0380
-4.4301 -7.9854 2.0380
-3.7751 -8.3151 2.0380
-3.0958 -8.5912 2.0380
-2.3965 -8.8119 2.0380
-1.6817 -8.9757 2.0380
-0.8015 -7.6132 1.7084
-0.1872 -7.6187 1.7008
0.4255 -7.6242 1.7042
1.0447 -7.6297 1.7186
1.9608 -8.9190 2.0380
2.6701 -8.7328 2.0380
3.3622 -8.4905 2.0380
3.8207 -7.7629 1.9309
3.9663 -6.6516 1.7283
4.8956 -6.8862 1.8856
5.4323 -6.4712 1.8856
5.9305 -6.0109 1.8845
6.4192 -5.5377 1.8920
6.8677 -5.0230 1.8989
7.2722 -4.4703 1.9051
7.6292 -3.8834 1.9105
7.9355 -3.2667 1.9152
8.1883 -2.6247 1.9190
8.3854 -1.9622 1.9219
8.5250 -1.2845 1.9240
8.6057 -0.5967 1.9251
8.6268 0.0958 1.9254
8.5881 0.7873 1.9247
8.4900 1.4726 1.9230
8.3335 2.1463 1.9205
8.1199 2.8030 1.9171
7.8513 3.4378 1.9128
7.5300 4.0459 1.9077
7.1591 4.6228 1.9018
6.7414 5.1641 1.8952
6.2803 5.6659 1.8877
5.7990 6.1447 1.8856
5.2873 6.5902 1.8856
4.7415 6.9932 1.8856
4.1651 7.3511 1.8856
3.8497 8.2808 2.0380
3.1729 8.5630 2.0380
2.4756 8.7900 2.0380
1.7623 8.9603 2.0380
1.0377 9.0728 2.0380
0.3064 9.1268 2.0380
-0.4269 9.1220 2.0380
-1.1575 9.0583 2.0380
-1.8805 8.9362 2.0380
-2.5915 8.7565 2.0380
-3.2857 8.5203 2.0380
-3.9588 8.2292 2.0380
-4.6063 7.8851 2.0380
-5.2241 7.4900 2.0380
-5.8083 7.0467 2.0380
-6.3549 6.5580 2.0380
-6.8606 6.0269 2.0380
-7.3221 5.4570 2.0380
-7.7363 4.8519 2.0380
-8.1007 4.2155 2.0380
-8.4128 3.5520 2.0380
-8.6707 2.8655 2.0380
-8.8727 2.1606 2.0380
-9.0174 1.4417 2.0380
-9.1040 0.7135 2.0380
-9.1319 -0.0193 2.0380
-9.1009 -0.7519 2.0380
-9.0112 -1.4797 2.0380
-8.8635 -2.1980 2.0380
-8.6585 -2.9021 2.0380
-8.3977 -3.5875 2.0380
-8.0828 -4.2497 2.0380
-7.7158 -4.8845 2.0380
-7.2990 -5.4879 2.0380
-6.8351 -6.0559 2.0380
-6.3272 -6.5847 2.0380
-5.7784 -7.0712 2.0380
-5.1924 -7.5120 2.0380
-4.5730 -7.9044 2.0380
-3.9240 -8.2459 2.0380
-3.2497 -8.5341 2.0380
-2.5545 -8.7674 2.0380
-1.8428 -8.9441 2.0380
-0.9400 -7.6120 1.7117
-0.3243 -7.6175 1.7016
0.2881 -7.6230 1.7024
0.9052 -7.6285 1.7144
1.8002 -8.9527 2.0380
2.5127 -8.7794 2.0380
3.2090 -8.5495 2.0380
3.8052 -8.0953 1.9963
3.9229 -6.8559 1.7628
4.7710 -6.9731 1.8856
5.3151 -6.5678 1.8856
5.8249 -6.1202 1.8856
6.3132 -5.6473 1.8904
6.7710 -5.1416 1.8974
7.1857 -4.5971 1.9037
7.5536 -4.0175 1.9094
7.8715 -3.4071 1.9142
8.1365 -2.7703 1.9182
8.3463 -2.1120 1.9214
8.4988 -1.4372 1.9236
8.5928 -0.7512 1.9250
8.6272 -0.0593 1.9254
8.6019 0.6329 1.9249
8.5171 1.3201 1.9235
8.3735 1.9968 1.9211
8.1725 2.6578 1.9179
7.9160 3.2979 1.9138
7.6063 3.9124 1.9089
7.2463 4.4966 1.9032
6.8390 5.0465 1.8968
6.3859 5.5562 1.8891
5.9085 6.0395 1.8856
5.4049 6.4941 1.8856
4.8664 6.9069 1.8856
4.2965 7.2750 1.8856
3.9677 8.1483 2.0226
3.3263 8.5046 2.0380
2.6332 8.7441 2.0380
1.9231 8.9272 2.0380
1.2006 9.0527 2.0380
0.4704 9.1198 2.0380
-0.2629 9.1282 2.0380
-0.9945 9.0776 2.0380
-1.7196 8.9686 2.0380
-2.4337 8.8017 2.0380
-3.1321 8.5780 2.0380
-3.8102 8.2991 2.0380
-4.4638 7.9666 2.0380
-5.0887 7.5827 2.0380
5.4234 -5.1155 1.8856
5.8164 -4.6638 1.8856
6.1799 -4.1875 1.8881
6.5136 -3.6881 1.8932
6.8044 -3.1610 1.8976
7.0499 -2.6099 1.9013
7.2479 -2.0391 1.9043
7.3967 -1.4526 1.9065
7.4951 -0.8551 1.9079
7.5420 -0.2511 1.9086
7.5372 0.3549 1.9084
7.4806 0.9580 1.9074
7.3727 1.5537 1.9057
7.2146 2.1374 1.9031
7.0077 2.7047 1.8998
6.7537 3.2513 1.8958
6.4549 3.7733 1.8911
6.1137 4.2667 1.8856
5.7516 4.7435 1.8856
5.3525 5.1897 1.8856
4.9188 5.6024 1.8856
4.4534 5.9790 1.8856
3.9780 6.3469 1.8945
3.7177 7.1490 2.0380
3.1321 7.4242 2.0380
2.5263 7.6516 2.0380
1.9042 7.8296 2.0380
1.2699 7.9572 2.0380
0.6273 8.0334 2.0380
-0.0193 8.0579 2.0380
-0.6658 8.0303 2.0380
-1.3079 7.9510 2.0380
-1.9417 7.8204 2.0380
-2.5629 7.6394 2.0380
-3.1676 7.4092 2.0380
-3.7519 7.1311 2.0380
-4.3120 6.8071 2.0380
-4.8442 6.4392 2.0380
-5.3453 6.0297 2.0380
-5.8119 5.5814 2.0380
-6.2409 5.0971 2.0380
-6.6298 4.5799 2.0380
-6.9759 4.0332 2.0380
-7.2770 3.4604 2.0380
-7.5312 2.8654 2.0380
-7.7368 2.2519 2.0380
-7.8926 1.6238 2.0380
-7.9974 0.9853 2.0380
-8.0507 0.3405 2.0380
-8.0520 -0.3066 2.0380
-8.0015 -0.9517 2.0380
-7.8993 -1.5906 2.0380
-7.7462 -2.2193 2.0380
-7.5432 -2.8337 2.0380
-7.2915 -3.4298 2.0380
-6.9928 -4.0038 2.0380
-6.6490 -4.5520 2.0380
-6.2623 -5.0709 2.0380
-5.8352 -5.5569 2.0380
-5.3706 -6.0072 2.0380
-4.8713 -6.4187 2.0380
-4.3405 -6.7889 2.0380
-3.7818 -7.1153 2.0380
-3.1987 -7.3958 2.0380
-2.5950 -7.6286 2.0380
-1.9745 -7.8122 2.0380
-1.3413 -7.9455 2.0380
-0.6995 -8.0275 2.0380
-0.0531 -8.0577 2.0380
0.5936 -8.0360 2.0380
1.2364 -7.9624 2.0380
1.8713 -7.8376 2.0380
2.4941 -7.6621 2.0380
3.1009 -7.4373 2.0380
3.6876 -7.1645 2.0380
3.9328 -6.3336 1.8856
4.4283 -5.9977 1.8856
4.8952 -5.6230 1.8856
5.3306 -5.2121 1.8856
5.7316 -4.7676 1.8856
6.0997 -4.2952 1.8868
6.4425 -3.8024 1.8921
6.7431 -3.2812 1.8967
6.9990 -2.7351 1.9005
7.2078 -2.1683 1.9037
7.3678 -1.5850 1.9061
7.4775 -0.9896 1.9077
7.5360 -0.3866 1.9085
7.5428 0.2194 1.9085
7.4977 0.8235 1.9077
7.4013 1.4213 1.9061
7.2543 2.0080 1.9037
7.0582 2.5794 1.9006
6.8145 3.1310 1.8967
6.5256 3.6588 1.8922
6.1938 4.1591 1.8869
5.8359 4.6393 1.8856
5.4449 5.0927 1.8856
5.0187 5.5131 1.8856
4.5602 5.8980 1.8856
4.0722 6.2449 1.8856
3.8456 7.0810 2.0380
3.2651 7.3667 2.0380
2.6634 7.6050 2.0380
2.0447 7.7941 2.0380
1.4127 7.9331 2.0380
0.7716 8.0208 2.0380
0.1256 8.0569 2.0380
-0.5213 8.0410 2.0380
-1.1648 7.9732 2.0380
-1.8008 7.8541 2.0380
-2.4252 7.6843 2.0380
-3.0339 7.4649 2.0380
-3.6231 7.1974 2.0380
-4.1889 6.8835 2.0380
-4.7277 6.5252 2.0380
-5.2360 6.1248 2.0380
-5.7106 5.6849 2.0380
-6.1483 5.2084 2.0380
-6.5464 4.6983 2.0380
-6.9023 4.1579 2.0380
-7.2136 3.5906 2.0380
-7.4785 3.0003 2.0380
-7.6951 2.3906 2.0380
-7.8621 1.7654 2.0380
-7.9784 1.1289 2.0380
-8.0433 0.4851 2.0380
-8.0562 -0.1618 2.0380
-8.0173 -0.8077 2.0380
-7.9266 -1.4484 2.0380
-7.7849 -2.0797 2.0380
-7.5929 -2.6977 2.0380
-7.3520 -3.2982 2.0380
-7.0636 -3.8775 2.0380
-6.7297 -4.4317 2.0380
-6.3524 -4.9574 2.0380
-5.9342 -5.4511 2.0380
-5.4777 -5.9097 2.0380
-4.9858 -6.3301 2.0380
-4.4618 -6.7098 2.0380
-3.9091 -7.0462 2.0380
-3.3311 -7.3371 2.0380
-2.7317 -7.5807 2.0380
-2.1146 -7.7755 2.0380
-1.4839 -7.9201 2.0380
-0.8437 -8.0136 2.0380
-0.1980 -8.0554 2.0380
0.4490 -8.0454 2.0380
1.0931 -7.9834 2.0380
1.7302 -7.8699 2.0380
2.3560 -7.7057 2.0380
2.9667 -7.4918 2.0380
3.5583 -7.2296 2.0380
3.8429 -6.4451 1.8978
4.3198 -6.0763 1.8856
4.7934 -5.7101 1.8856
5.2361 -5.3071 1.8856
5.6450 -4.8698 1.8856
6.0175 -4.4012 1.8856
6.3694 -3.9153 1.8910
6.6797 -3.4001 1.8957
6.9457 -2.8593 1.8997
7.1653 -2.2967 1.9031
7.3363 -1.7167 1.9056
7.4574 -1.1236 1.9074
7.5274 -0.5219 1.9084
7.5457 0.0838 1.9086
7.5123 0.6887 1.9080
7.4273 1.2883 1.9065
7.2915 1.8779 1.9043
7.1062 2.4531 1.9014
6.8731 3.0095 1.8977
6.5940 3.5430 1.8932
6.2716 4.0497 1.8882
5.9184 4.5337 1.8856
5.5355 4.9940 1.8856
5.1170 5.4220 1.8856
4.6654 5.8151 1.8856
4.1838 6.1707 1.8856
3.9545 6.9795 2.0289
3.3969 7.3069 2.0380
2.7997 7.5559 2.0380
2.1844 7.7562 2.0380
1.5550 7.9064 2.0380
0.9156 8.0057 2.0380
0.2703 8.0533 2.0380
-0.3767 8.0491 2.0380
-1.0213 7.9929 2.0380
-1.6594 7.8852 2.0380
-2.2867 7.7266 2.0380
-2.8993 7.5182 2.0380
-3.4932 7.2614 2.0380
-4.0645 6.9577 2.0380
-4.6097 6.6091 2.0380
-5.1251 6.2179 2.0380
-5.6075 5.7866 2.0380
-6.0537 5.3181 2.0380
-6.4609 4.8152 2.0380
-6.8264 4.2813 2.0380
-7.1479 3.7197 2.0380
-7.4233 3.1342 2.0380
-7.6509 2.5285 2.0380
-7.8291 1.9065 2.0380
-7.9568 1.2721 2.0380
-8.0332 0.6296 2.0380
-8.0579 -0.0170 2.0380
-8.0305 -0.6635 2.0380
-7.9514 -1.3057 2.0380
-7.8210 -1.9395 2.0380
-7.6401 -2.5608 2.0380
-7.4100 -3.1655 2.0380
-7.1322 -3.7499 2.0380
-6.8083 -4.3101 2.0380
-6.4405 -4.8424 2.0380
-6.0312 -5.3436 2.0380
-5.5830 -5.8103 2.0380
-5.0988 -6.2395 2.0380
-4.5817 -6.6285 2.0380
-4.0351 -6.9747 2.0380
-3.4625 -7.2760 2.0380
-2.8675 -7.5304 2.0380
-2.2540 -7.7362 2.0380
-1.6260 -7.8921 2.0380
-0.9875 -7.9971 2.0380
-0.3427 -8.0506 2.0380
0.3044 -8.0521 2.0380
0.9495 -8.0017 2.0380
1.5884 -7.8998 2.0380
2.2172 -7.7468 2.0380
2.8316 -7.5440 2.0380
3.4278 -7.2925 2.0380
3.8283 -6.6906 1.9496
4.2098 -6.1529 1.8856
4.6900 -5.7953 1.8856
5.1398 -5.4003 1.8856
5.5566 -4.9705 1.8856
5.9334 -4.5055 1.8843
6.2941 -4.0267 1.8898
6.6140 -3.5177 1.8947
6.8902 -2.9823 1.8989
7.1203 -2.4243 1.9024
7.3023 -1.8478 1.9051
7.4347 -1.2573 1.9071
7.5162 -0.6571 1.9082
7.5461 -0.0519 1.9086
7.5243 0.5537 1.9082
7.4507 1.1548 1.9069
7.3263 1.7471 1.9049
7.1519 2.3258 1.9021
6.9293 2.8868 1.8986
6.6603 3.4258 1.8943
6.3474 3.9388 1.8894
5.9989 4.4266 1.8856
5.6244 4.8937 1.8856
5.2136 5.3292 1.8856
4.7692 5.7303 1.8856
4.2941 6.0945 1.8856
3.9625 6.7094 1.9708
3.5277 7.2446 2.0380
2.9350 7.5043 2.0380
2.3235 7.7156 2.0380
1.6969 7.8772 2.0380
1.0594 7.9879 2.0380
0.4150 8.0472 2.0380
-0.2320 8.0545 2.0380
-0.8775 8.0100 2.0380
-1.5174 7.9137 2.0380
-2.1475 7.7665 2.0380
-2.7637 7.5691 2.0380
-3.3621 7.3230 2.0380
-3.9388 7.0296 2.0380
-4.4902 6.6909 2.0380
4.8454 -4.5702 1.8856
5.1964 -4.1667 1.8856
5.5140 -3.7363 1.8856
5.7960 -3.2819 1.8856
6.0407 -2.8062 1.8856
6.2575 -2.3166 1.8890
6.4322 -1.8096 1.8916
6.5634 -1.2890 1.8935
6.6501 -0.7587 1.8948
6.6915 -0.2227 1.8954
6.6873 0.3149 1.8952
6.6374 0.8500 1.8944
6.5424 1.3787 1.8928
6.4031 1.8970 1.8905
6.2206 2.4009 1.8876
6.0015 2.8891 1.8856
5.7503 3.3614 1.8856
5.4620 3.8119 1.8856
5.1386 4.2379 1.8856
4.7820 4.6365 1.8856
4.3945 5.0053 1.8856
3.9788 5.3417 1.8856
3.8232 6.0999 2.0380
3.3215 6.3870 2.0380
2.7983 6.6329 2.0380
2.2571 6.8360 2.0380
1.7013 6.9951 2.0380
1.1345 7.1091 2.0380
0.5605 7.1772 2.0380
-0.0172 7.1990 2.0380
-0.5948 7.1744 2.0380
-1.1685 7.1035 2.0380
-1.7347 6.9869 2.0380
-2.2897 6.8252 2.0380
-2.8300 6.6194 2.0380
-3.3520 6.3710 2.0380
-3.8524 6.0815 2.0380
-4.3279 5.7528 2.0380
-4.7755 5.3870 2.0380
-5.1924 4.9865 2.0380
-5.5757 4.5538 2.0380
-5.9231 4.0917 2.0380
-6.2324 3.6033 2.0380
-6.5014 3.0916 2.0380
-6.7285 2.5600 2.0380
-6.9122 2.0119 2.0380
-7.0513 1.4508 2.0380
-7.1450 0.8803 2.0380
-7.1926 0.3042 2.0380
-7.1938 -0.2739 2.0380
-7.1486 -0.8503 2.0380
-7.0573 -1.4211 2.0380
-6.9206 -1.9828 2.0380
-6.7392 -2.5317 2.0380
-6.5143 -3.0642 2.0380
-6.2474 -3.5770 2.0380
-5.9403 -4.0668 2.0380
-5.5948 -4.5303 2.0380
-5.2133 -4.9646 2.0380
-4.7981 -5.3669 2.0380
-4.3520 -5.7346 2.0380
-3.8779 -6.0653 2.0380
-3.3787 -6.3569 2.0380
-2.8578 -6.6075 2.0380
-2.3184 -6.8155 2.0380
-1.7641 -6.9795 2.0380
-1.1984 -7.0986 2.0380
-0.6249 -7.1718 2.0380
-0.0475 -7.1989 2.0380
0.5303 -7.1794 2.0380
1.1046 -7.1137 2.0380
1.6719 -7.0022 2.0380
2.2283 -6.8454 2.0380
2.7704 -6.6446 2.0380
3.2946 -6.4009 2.0380
3.7976 -6.1159 2.0380
3.9563 -5.3584 1.8856
4.3735 -5.0237 1.8856
4.7624 -4.6566 1.8856
5.1207 -4.2594 1.8856
5.4460 -3.8348 1.8856
5.7361 -3.3855 1.8856
5.9869 -2.9132 1.8849
6.2126 -2.4278 1.8883
6.3968 -1.9244 1.8911
6.5379 -1.4065 1.8932
6.6346 -0.8780 1.8946
6.6862 -0.3430 1.8953
6.6922 0.1946 1.8953
6.6525 0.7307 1.8946
6.5676 1.2612 1.8932
6.4381 1.7821 1.8911
6.2651 2.2896 1.8883
6.0503 2.7798 1.8849
5.8098 3.2575 1.8856
5.5297 3.7131 1.8856
5.2139 4.1448 1.8856
4.8645 4.5498 1.8856
4.4838 4.9255 1.8856
4.0741 5.2694 1.8856
3.9322 6.0302 2.0380
3.4357 6.3263 2.0380
2.9170 6.5815 2.0380
2.3796 6.7944 2.0380
1.8267 6.9634 2.0380
1.2621 7.0875 2.0380
0.6894 7.1659 2.0380
0.1122 7.1981 2.0380
-0.4657 7.1839 2.0380
-1.0407 7.1234 2.0380
-1.6089 7.0169 2.0380
-2.1667 6.8652 2.0380
-2.7106 6.6692 2.0380
-3.2369 6.4302 2.0380
-3.7424 6.1498 2.0380
-4.2238 5.8297 2.0380
-4.6779 5.4720 2.0380
-5.1019 5.0790 2.0380
-5.4930 4.6533 2.0380
-5.8486 4.1975 2.0380
-6.1666 3.7147 2.0380
-6.4448 3.2079 2.0380
-6.6814 2.6805 2.0380
-6.8749 2.1358 2.0380
-7.0241 1.5773 2.0380
-7.1280 1.0086 2.0380
-7.1860 0.4334 2.0380
-7.1976 -0.1446 2.0380
-7.1627 -0.7216 2.0380
-7.0818 -1.2940 2.0380
-6.9551 -1.8581 2.0380
-6.7836 -2.4101 2.0380
-6.5683 -2.9467 2.0380
-6.3107 -3.4642 2.0380
-6.0124 -3.9593 2.0380
-5.6753 -4.4290 2.0380
-5.3017 -4.8701 2.0380
-4.8938 -5.2798 2.0380
-4.4544 -5.6554 2.0380
-3.9863 -5.9946 2.0380
-3.4924 -6.2951 2.0380
-2.9761 -6.5551 2.0380
-2.4405 -6.7727 2.0380
-1.8892 -6.9467 2.0380
-1.3258 -7.0759 2.0380
-0.7537 -7.1594 2.0380
-0.1769 -7.1968 2.0380
0.4012 -7.1878 2.0380
0.9766 -7.1325 2.0380
1.5457 -7.0311 2.0380
2.1049 -6.8844 2.0380
2.6505 -6.6933 2.0380
3.1790 -6.4591 2.0380
3.6870 -6.1832 2.0380
3.8635 -5.4345 1.8876
4.2825 -5.1015 1.8856
4.6780 -4.7414 1.8856
5.0433 -4.3508 1.8856
5.3762 -3.9321 1.8856
5.6743 -3.4881 1.8856
5.9309 -3.0190 1.8840
6.1657 -2.5381 1.8876
6.3593 -2.0384 1.8905
6.5101 -1.5234 1.8928
6.6169 -0.9970 1.8943
6.6786 -0.4631 1.8952
6.6948 0.0743 1.8954
6.6653 0.6111 1.8948
6.5905 1.1432 1.8936
6.4709 1.6666 1.8916
6.3075 2.1774 1.8890
6.1014 2.6716 1.8856
5.8674 3.1525 1.8856
5.5955 3.6132 1.8856
5.2876 4.0504 1.8856
4.9455 4.4616 1.8856
4.5716 4.8441 1.8856
4.1682 5.1953 1.8856
3.9494 5.8249 1.9923
3.5489 6.2635 2.0380
3.0349 6.5280 2.0380
2.5013 6.7505 2.0380
1.9516 6.9294 2.0380
1.3893 7.0637 2.0380
0.8180 7.1524 2.0380
0.2415 7.1950 2.0380
-0.3366 7.1911 2.0380
-0.9125 7.1410 2.0380
-1.4825 7.0447 2.0380
-2.0430 6.9030 2.0380
-2.5903 6.7169 2.0380
-3.1208 6.4874 2.0380
-3.6313 6.2161 2.0380
-4.1184 5.9047 2.0380
-4.5788 5.5552 2.0380
-5.0098 5.1699 2.0380
-5.4085 4.7512 2.0380
-5.7723 4.3020 2.0380
-6.0988 3.8249 2.0380
-6.3861 3.3233 2.0380
-6.6321 2.8001 2.0380
-6.8354 2.2590 2.0380
-6.9946 1.7032 2.0380
-7.1087 1.1365 2.0380
-7.1770 0.5625 2.0380
-7.1990 -0.0152 2.0380
-7.1746 -0.5928 2.0380
-7.1039 -1.1665 2.0380
-6.9874 -1.7328 2.0380
-6.8258 -2.2878 2.0380
-6.6202 -2.8281 2.0380
-6.3720 -3.3502 2.0380
-6.0826 -3.8507 2.0380
-5.7540 -4.3263 2.0380
-5.3884 -4.7740 2.0380
-4.9879 -5.1910 2.0380
-4.5553 -5.5745 2.0380
-4.0934 -5.9220 2.0380
-3.6050 -6.2313 2.0380
-3.0934 -6.5005 2.0380
-2.5619 -6.7277 2.0380
-2.0138 -6.9116 2.0380
-1.4527 -7.0509 2.0380
-0.8823 -7.1447 2.0380
-0.3062 -7.1925 2.0380
0.2719 -7.1939 2.0380
0.8483 -7.1488 2.0380
1.4191 -7.0577 2.0380
1.9808 -6.9211 2.0380
2.5298 -6.7399 2.0380
3.0624 -6.5152 2.0380
3.5753 -6.2484 2.0380
3.8435 -5.6176 1.9269
4.1901 -5.1776 1.8856
4.5920 -4.8247 1.8856
4.9643 -4.4407 1.8856
5.3046 -4.0281 1.8856
5.6107 -3.5895 1.8856
5.8806 -3.1277 1.8856
6.1167 -2.6475 1.8868
6.3196 -2.1517 1.8899
6.4802 -1.6398 1.8923
6.5969 -1.1156 1.8940
6.6687 -0.5830 1.8951
6.6951 -0.0460 1.8954
6.6759 0.4912 1.8950
6.6112 1.0247 1.8939
6.5015 1.5504 1.8921
6.3478 2.0644 1.8897
6.1515 2.5628 1.8865
5.9231 3.0466 1.8856
5.6595 3.5120 1.8856
5.3595 3.9548 1.8856
5.0249 4.3721 1.8856
4.6579 4.7611 1.8856
4.2609 5.1195 1.8856
3.9561 5.6148 1.9444
3.6609 6.1987 2.0380
3.1517 6.4724 2.0380
2.6222 6.7044 2.0380
2.0758 6.8932 2.0380
1.5160 7.0376 2.0380
0.9465 7.1365 2.0380
0.3708 7.1895 2.0380
-0.2073 7.1960 2.0380
-0.7840 7.1562 2.0380
-1.3556 7.0702 2.0380
-1.9186 6.9387 2.0380
-2.4691 6.7624 2.0380
-3.0037 6.5424 2.0380
-3.5190 6.2803 2.0380
-4.0116 5.9777 2.0380
4.3719 -4.1236 1.8856
4.6887 -3.7596 1.8856
4.9752 -3.3712 1.8856
5.2297 -2.9612 1.8856
5.4504 -2.5320 1.8856
5.6360 -2.0865 1.8856
5.7852 -1.6276 1.8856
5.8972 -1.1581 1.8856
5.9666 -0.6807 1.8842
6.0036 -0.1998 1.8847
5.9998 0.2825 1.8845
5.9611 0.7634 1.8856
5.8807 1.2392 1.8856
5.7623 1.7071 1.8856
5.6067 2.1639 1.8856
5.4150 2.6068 1.8856
5.1884 3.0329 1.8856
4.9283 3.4394 1.8856
4.6364 3.8238 1.8856
4.3147 4.1835 1.8856
3.9671 4.5185 1.8866
3.8801 5.2093 2.0380
3.4496 5.5038 2.0380
2.9969 5.7629 2.0380
2.5248 5.9848 2.0380
2.0365 6.1680 2.0380
1.5350 6.3116 2.0380
1.0237 6.4144 2.0380
0.5057 6.4758 2.0380
-0.0155 6.4955 2.0380
-0.5367 6.4733 2.0380
-1.0543 6.4094 2.0380
-1.5652 6.3041 2.0380
-2.0660 6.1582 2.0380
-2.5534 5.9726 2.0380
-3.0244 5.7485 2.0380
-3.4759 5.4873 2.0380
-3.9050 5.1907 2.0380
-4.3089 4.8606 2.0380
-4.6850 4.4992 2.0380
-5.0309 4.1088 2.0380
-5.3444 3.6919 2.0380
-5.6233 3.2512 2.0380
-5.8661 2.7895 2.0380
-6.0710 2.3098 2.0380
-6.2367 1.8153 2.0380
-6.3623 1.3090 2.0380
-6.4468 0.7943 2.0380
-6.4897 0.2744 2.0380
-6.4908 -0.2472 2.0380
-6.4501 -0.7672 2.0380
-6.3677 -1.2822 2.0380
-6.2443 -1.7890 2.0380
-6.0806 -2.2843 2.0380
-5.8777 -2.7648 2.0380
-5.6370 -3.2275 2.0380
-5.3598 -3.6694 2.0380
-5.0481 -4.0876 2.0380
-4.7039 -4.4795 2.0380
-4.3293 -4.8425 2.0380
-3.9268 -5.1742 2.0380
-3.4989 -5.4726 2.0380
-3.0486 -5.7357 2.0380
-2.5785 -5.9618 2.0380
-2.0919 -6.1495 2.0380
-1.5917 -6.2975 2.0380
-1.0813 -6.4049 2.0380
-0.5639 -6.4710 2.0380
-0.0428 -6.4954 2.0380
0.4785 -6.4779 2.0380
0.9967 -6.4186 2.0380
1.5085 -6.3179 2.0380
2.0106 -6.1765 2.0380
2.4997 -5.9953 2.0380
2.9727 -5.7754 2.0380
3.4265 -5.5183 2.0380
3.8302 -5.1876 2.0232
3.9461 -4.5328 1.8856
4.2971 -4.2016 1.8856
4.6203 -3.8432 1.8856
4.9138 -3.4601 1.8856
5.1756 -3.0547 1.8856
5.4040 -2.6296 1.8856
5.5976 -2.1875 1.8856
5.7550 -1.7313 1.8856
5.8754 -1.2639 1.8856
5.9528 -0.7878 1.8840
5.9988 -0.3077 1.8846
6.0042 0.1746 1.8846
5.9689 0.6556 1.8840
5.9020 1.1334 1.8856
5.7920 1.6033 1.8856
5.6447 2.0628 1.8856
5.4610 2.5091 1.8856
5.2421 2.9392 1.8856
4.9893 3.3503 1.8856
4.7044 3.7398 1.8856
4.3892 4.1052 1.8856
4.0456 4.4442 1.8856
3.9368 5.0918 2.0194
3.5480 5.4409 2.0380
3.1000 5.7081 2.0380
2.6320 5.9384 2.0380
2.1470 6.1304 2.0380
1.6482 6.2829 2.0380
1.1388 6.3950 2.0380
0.6220 6.4657 2.0380
0.1012 6.4948 2.0380
-0.4202 6.4819 2.0380
-0.9390 6.4273 2.0380
-1.4517 6.3313 2.0380
-1.9550 6.1944 2.0380
-2.4457 6.0175 2.0380
-2.9206 5.8019 2.0380
-3.3767 5.5489 2.0380
-3.8111 5.2600 2.0380
-4.2208 4.9373 2.0380
-4.6034 4.5827 2.0380
-4.9562 4.1985 2.0380
-5.2771 3.7874 2.0380
-5.5640 3.3517 2.0380
-5.8150 2.8945 2.0380
-6.0285 2.4186 2.0380
-6.2031 1.9271 2.0380
-6.3377 1.4231 2.0380
-6.4315 0.9100 2.0380
-6.4838 0.3910 2.0380
-6.4942 -0.1305 2.0380
-6.4628 -0.6511 2.0380
-6.3897 -1.1676 2.0380
-6.2755 -1.6765 2.0380
-6.1207 -2.1745 2.0380
-5.9265 -2.6588 2.0380
-5.6941 -3.1257 2.0380
-5.4249 -3.5725 2.0380
-5.1208 -3.9962 2.0380
-4.7836 -4.3942 2.0380
-4.4156 -4.7639 2.0380
-4.0191 -5.1028 2.0380
-3.5967 -5.4088 2.0380
-3.1512 -5.6800 2.0380
-2.6853 -5.9145 2.0380
-2.2020 -6.1109 2.0380
-1.7046 -6.2679 2.0380
-1.1962 -6.3844 2.0380
-0.6801 -6.4598 2.0380
-0.1596 -6.4936 2.0380
0.3620 -6.4854 2.0380
0.8812 -6.4355 2.0380
1.3947 -6.3440 2.0380
1.8992 -6.2117 2.0380
2.3915 -6.0393 2.0380
2.8684 -5.8279 2.0380
3.3267 -5.5790 2.0380
3.7637 -5.2941 2.0380
3.8707 -4.6110 1.8889
4.2209 -4.2781 1.8856
4.5505 -3.9256 1.8856
4.8508 -3.5479 1.8856
5.1199 -3.1472 1.8856
5.3559 -2.7263 1.8856
5.5573 -2.2877 1.8856
5.7230 -1.8344 1.8856
5.8517 -1.3693 1.8856
5.9427 -0.8954 1.8856
5.9921 -0.4155 1.8845
6.0065 0.0667 1.8847
5.9803 0.5482 1.8842
5.9214 1.0271 1.8856
5.8199 1.4989 1.8856
5.6809 1.9610 1.8856
5.5052 2.4105 1.8856
5.2940 2.8445 1.8856
5.0487 3.2601 1.8856
4.7709 3.6547 1.8856
4.4623 4.0257 1.8856
4.1249 4.3707 1.8856
3.9429 4.9145 1.9768
3.6452 5.3763 2.0380
3.2021 5.6515 2.0380
2.7383 5.8901 2.0380
2.2569 6.0909 2.0380
1.7609 6.2523 2.0380
1.2535 6.3734 2.0380
0.7381 6.4535 2.0380
0.2179 6.4919 2.0380
-0.3037 6.4884 2.0380
-0.8233 6.4432 2.0380
-1.3376 6.3563 2.0380
-1.8433 6.2285 2.0380
-2.3371 6.0605 2.0380
-2.8159 5.8535 2.0380
-3.2765 5.6086 2.0380
-3.7159 5.3277 2.0380
-4.1314 5.0123 2.0380
-4.5203 4.6647 2.0380
-4.8800 4.2870 2.0380
-5.2082 3.8816 2.0380
-5.5029 3.4512 2.0380
-5.7620 2.9985 2.0380
-5.9841 2.5259 2.0380
-6.1675 2.0382 2.0380
-6.3111 1.5368 2.0380
-6.4141 1.0255 2.0380
-6.4757 0.5075 2.0380
-6.4955 -0.0137 2.0380
-6.4735 -0.5349 2.0380
-6.4097 -1.0525 2.0380
-6.3046 -1.5634 2.0380
-6.1588 -2.0643 2.0380
-5.9733 -2.5518 2.0380
-5.7493 -3.0228 2.0380
-5.4882 -3.4744 2.0380
-5.1918 -3.9035 2.0380
-4.8618 -4.3075 2.0380
-4.5005 -4.6837 2.0380
-4.1102 -5.0297 2.0380
-3.6934 -5.3433 2.0380
-3.2527 -5.6224 2.0380
-2.7911 -5.8653 2.0380
-2.3115 -6.0703 2.0380
-1.8170 -6.2362 2.0380
-1.3108 -6.3619 2.0380
-0.7961 -6.4466 2.0380
