ply
format ascii 1.0
element vertex 2124
property float32 x
property float32 y
property float32 z
end_header
-16.5508 8.5893 -1.0690
-16.5018 6.9414 -1.0237
-16.4473 5.4076 -0.9880
-16.4026 3.9640 -0.9615
-16.3589 2.5829 -0.9428
-16.3155 1.2435 -0.9311
-16.2729 -0.0726 -0.9262
-16.2368 -1.3832 -0.9283
-16.1963 -2.7055 -0.9367
-16.1468 -4.0549 -0.9515
-16.1013 -5.4535 -0.9740
-16.0636 -6.9264 -1.0053
-16.0168 -8.4944 -1.0456
-15.9608 -10.1889 -1.0964
-15.9012 -12.0553 -1.1605
-16.5995 10.3810 -0.5737
-16.5497 8.5810 -0.5430
-16.5008 6.9336 -0.5186
-16.4470 5.4004 -0.4996
-16.4023 3.9569 -0.4855
-16.3586 2.5759 -0.4756
-16.3153 1.2365 -0.4696
-16.2726 -0.0796 -0.4673
-16.2365 -1.3905 -0.4687
-16.1960 -2.7130 -0.4736
-16.1472 -4.0631 -0.4820
-16.1018 -5.4622 -0.4947
-16.0636 -6.9357 -0.5120
-16.0167 -8.5046 -0.5344
-15.9606 -10.2002 -0.5625
-15.9010 -12.0682 -0.5979
-16.5996 10.3860 -0.5738
-16.5499 8.5855 -0.5430
-16.5009 6.9378 -0.5187
-16.4471 5.4043 -0.4996
-16.4024 3.9607 -0.4855
-16.3588 2.5795 -0.4757
-16.3154 1.2400 -0.4696
-16.2727 -0.0762 -0.4673
-16.2366 -1.3870 -0.4687
-16.1961 -2.7095 -0.4736
-16.1474 -4.0595 -0.4820
-16.1019 -5.4584 -0.4946
-16.0637 -6.9317 -0.5120
-16.0168 -8.5003 -0.5343
-15.9608 -10.1956 -0.5624
-15.9012 -12.0630 -0.5978
-16.5998 10.3910 -0.5739
-16.5500 8.5900 -0.5431
-16.5010 6.9419 -0.5188
-16.4472 5.4082 -0.4997
-16.4025 3.9644 -0.4856
-16.3589 2.5831 -0.4757
-16.3155 1.2435 -0.4696
-16.2728 -0.0727 -0.4673
-16.2368 -1.3836 -0.4687
-16.1962 -2.7060 -0.4736
-16.1475 -4.0559 -0.4820
-16.1020 -5.4547 -0.4946
-16.0638 -6.9277 -0.5119
-16.0170 -8.4961 -0.5342
-15.9609 -10.1909 -0.5623
-15.9014 -12.0577 -0.5977
-16.6001 10.3830 -0.0224
-16.5489 8.5818 -0.0180
-16.5000 6.9342 -0.0147
-16.4469 5.4010 -0.0121
-16.4022 3.9573 -0.0104
-16.3586 2.5761 -0.0093
-16.3152 1.2365 -0.0089
-16.2726 -0.0798 -0.0091
-16.2365 -1.3909 -0.0098
-16.1959 -2.7136 -0.0112
-16.1479 -4.0640 -0.0132
-16.1025 -5.4634 -0.0159
-16.0638 -6.9370 -0.0194
-16.0169 -8.5063 -0.0237
-15.9607 -10.2023 -0.0291
-15.9012 -12.0706 -0.0358
-16.6002 10.3880 -0.0224
-16.5490 8.5863 -0.0180
-16.5001 6.9383 -0.0147
-16.4470 5.4049 -0.0121
-16.4023 3.9611 -0.0104
-16.3587 2.5797 -0.0093
-16.3153 1.2400 -0.0089
-16.2727 -0.0764 -0.0091
-16.2366 -1.3874 -0.0098
-16.1960 -2.7100 -0.0112
-16.1481 -4.0604 -0.0132
-16.1026 -5.4597 -0.0159
-16.0639 -6.9330 -0.0193
-16.0170 -8.5020 -0.0237
-15.9609 -10.1976 -0.0291
-15.9014 -12.0654 -0.0358
-16.6004 10.3930 -0.0225
-16.5492 8.5908 -0.0180
-16.5002 6.9425 -0.0147
-16.4471 5.4088 -0.0122
-16.4024 3.9648 -0.0104
-16.3588 2.5833 -0.0093
-16.3154 1.2435 -0.0089
-16.2728 -0.0729 -0.0091
-16.2367 -1.3839 -0.0098
-16.1961 -2.7065 -0.0112
-16.1482 -4.0568 -0.0132
-16.1027 -5.4559 -0.0159
-16.0640 -6.9290 -0.0193
-16.0172 -8.4977 -0.0237
-15.9610 -10.1929 -0.0291
-15.9015 -12.0602 -0.0358
-16.6007 10.3849 0.5289
-16.5481 8.5825 0.5069
-16.4992 6.9347 0.4893
-16.4468 5.4016 0.4753
-16.4021 3.9577 0.4647
-16.3585 2.5763 0.4570
-16.3151 1.2365 0.4518
-16.2725 -0.0800 0.4491
-16.2364 -1.3912 0.4490
-16.1958 -2.7141 0.4512
-16.1486 -4.0650 0.4557
-16.1032 -5.4647 0.4629
-16.0639 -6.9383 0.4733
-16.0171 -8.5079 0.4869
-15.9609 -10.2043 0.5043
-15.9013 -12.0731 0.5263
-16.6008 10.3899 0.5290
-16.5482 8.5871 0.5069
-16.4993 6.9389 0.4893
-16.4469 5.4055 0.4753
-16.4022 3.9615 0.4647
-16.3587 2.5799 0.4570
-16.3153 1.2400 0.4518
-16.2726 -0.0765 0.4491
-16.2365 -1.3877 0.4490
-16.1959 -2.7106 0.4512
-16.1488 -4.0613 0.4557
-16.1033 -5.4609 0.4629
-16.0641 -6.9344 0.4733
-16.0172 -8.5036 0.4869
-15.9610 -10.1996 0.5042
-15.9015 -12.0679 0.5263
-16.6010 10.3949 0.5290
-16.5484 8.5916 0.5070
-16.4995 6.9431 0.4894
-16.4470 5.4094 0.4754
-16.4023 3.9652 0.4647
-16.3588 2.5835 0.4570
-16.3154 1.2435 0.4518
-16.2727 -0.0731 0.4492
-16.2366 -1.3843 0.4490
-16.1960 -2.7071 0.4512
-16.1489 -4.0577 0.4557
-16.1034 -5.4571 0.4629
-16.0642 -6.9304 0.4733
-16.0173 -8.4993 0.4869
-15.9612 -10.1949 0.5042
-15.9017 -12.0627 0.5262
11.7395 8.9106 0.6908
11.6962 14.4658 0.8889
-16.6013 10.3869 1.0812
-16.5473 8.5833 1.0325
-16.4984 6.9353 0.9940
-16.4467 5.4022 0.9635
-16.4020 3.9581 0.9405
-16.3585 2.5765 0.9240
-16.3151 1.2366 0.9132
-16.2724 -0.0801 0.9081
-16.2363 -1.3916 0.9086
-16.1957 -2.7146 0.9143
-16.1493 -4.0659 0.9254
-16.1039 -5.4659 0.9426
-16.0641 -6.9397 0.9668
-16.0173 -8.5096 0.9984
-15.9610 -10.2063 1.0385
-15.9015 -12.0756 1.0894
12.2083 -12.5838 0.8227
11.9405 1.9986 0.5539
11.7386 8.9060 0.6906
11.6988 14.4627 0.8888
-16.6014 10.3919 1.0813
-16.5474 8.5879 1.0326
-16.4985 6.9395 0.9941
-16.4468 5.4061 0.9636
-16.4021 3.9619 0.9406
-16.3586 2.5801 0.9240
-16.3152 1.2400 0.9133
-16.2725 -0.0767 0.9081
-16.2364 -1.3881 0.9086
-16.1958 -2.7111 0.9143
-16.1495 -4.0623 0.9253
-16.1040 -5.4621 0.9425
-16.0642 -6.9357 0.9668
-16.0174 -8.5053 0.9983
-15.9612 -10.2016 1.0384
-15.9016 -12.0704 1.0893
12.1928 -12.5731 0.8219
11.9380 1.9956 0.5538
11.7377 8.9014 0.6904
11.7013 14.4595 0.8888
-16.6016 10.3969 1.0815
-16.5475 8.5924 1.0328
-16.4987 6.9437 0.9942
-16.4469 5.4100 0.9636
-16.4022 3.9656 0.9406
-16.3587 2.5837 0.9241
-16.3153 1.2435 0.9133
-16.2727 -0.0732 0.9081
-16.2365 -1.3846 0.9086
-16.1959 -2.7076 0.9143
-16.1496 -4.0587 0.9253
-16.1041 -5.4584 0.9424
-16.0644 -6.9317 0.9667
-16.0175 -8.5010 0.9982
-15.9613 -10.1969 1.0383
-15.9018 -12.0651 1.0891
12.1810 -12.5664 0.8213
11.9354 1.9926 0.5536
11.7368 8.8968 0.6902
11.7038 14.4563 0.8887
6.1905 3.9560 0.5500
5.8446 4.4353 0.5512
5.4592 4.8825 0.5523
11.7286 14.5023 1.4183
-16.6019 10.3888 1.6353
-16.5464 8.5841 1.5598
-16.4976 6.9359 1.5002
-16.4466 5.4028 1.4532
-16.4018 3.9585 1.4179
-16.3584 2.5767 1.3925
-16.3150 1.2366 1.3761
-16.2724 -0.0803 1.3684
-16.2362 -1.3919 1.3696
-16.1956 -2.7152 1.3789
-16.1500 -4.0668 1.3965
-16.1046 -5.4671 1.4237
-16.0643 -6.9410 1.4619
-16.0174 -8.5112 1.5116
-15.9612 -10.2083 1.5745
11.8805 -12.2435 1.2826
11.6947 -3.8406 0.9112
11.6714 1.9532 0.8758
6.1914 3.9547 0.5500
5.8455 4.4341 0.5512
5.4603 4.8813 0.5523
11.7314 14.4995 1.4183
-16.6021 10.3938 1.6355
-16.5466 8.5886 1.5600
-16.4977 6.9401 1.5004
-16.4467 5.4067 1.4533
-16.4020 3.9622 1.4179
-16.3586 2.5803 1.3925
-16.3151 1.2400 1.3762
-16.2725 -0.0769 1.3684
-16.2363 -1.3884 1.3696
-16.1957 -2.7116 1.3788
-16.1502 -4.0632 1.3965
-16.1047 -5.4634 1.4236
-16.0644 -6.9370 1.4618
-16.0176 -8.5069 1.5114
-15.9613 -10.2036 1.5743
11.8779 -12.2461 1.2827
11.6942 -3.8432 0.9112
11.6719 1.9507 0.8758
6.1922 3.9534 0.5500
5.8465 4.4329 0.5512
5.4613 4.8802 0.5523
11.7342 14.4967 1.4182
-16.6022 10.3988 1.6357
-16.5467 8.5932 1.5602
-16.4979 6.9442 1.5005
-16.4468 5.4106 1.4534
-16.4021 3.9660 1.4180
-16.3587 2.5839 1.3926
-16.3153 1.2436 1.3762
-16.2726 -0.0734 1.3684
-16.2365 -1.3850 1.3696
-16.1959 -2.7081 1.3788
-16.1503 -4.0596 1.3964
-16.1049 -5.4596 1.4236
-16.0645 -6.9330 1.4617
-16.0177 -8.5026 1.5113
-15.9615 -10.1989 1.5741
11.8754 -12.2487 1.2827
11.6938 -3.8458 0.9113
11.6723 1.9482 0.8758
6.1931 3.9521 0.5500
5.8474 4.4317 0.5512
5.4624 4.8791 0.5523
11.7370 14.4939 1.4182
5.0285 1.7056 0.5450
4.8752 2.1046 0.5459
4.6888 2.4891 0.5468
4.4706 2.8564 0.5477
4.2300 3.2094 0.5496
4.2110 3.7654 0.5863
4.1894 4.4017 0.6325
11.4249 14.1235 1.8970
10.1593 14.8613 1.8861
8.8999 15.5761 1.8861
8.2039 17.4908 2.0385
6.7452 18.0272 2.0385
5.2531 18.4415 2.0385
3.7380 18.7324 2.0385
2.2101 18.8994 2.0385
0.6796 18.9427 2.0385
-0.8436 18.8634 2.0385
-2.3498 18.6636 2.0385
-3.8299 18.3456 2.0385
-5.2747 17.9130 2.0385
-6.6759 17.3695 2.0385
-8.0251 16.7195 2.0385
-9.3149 15.9682 2.0385
-10.5381 15.1206 2.0385
-11.6880 14.1835 2.0385
-12.7584 13.1622 2.0385
-13.7438 12.0637 2.0385
-14.6390 10.8949 2.0385
-14.7153 9.2096 1.9429
-14.9343 7.7489 1.8861
-15.4889 6.5127 1.8861
-15.9461 5.2390 1.8861
-16.3036 3.9352 1.8861
-16.3584 2.5769 1.8632
-16.3150 1.2366 1.8412
-16.2723 -0.0805 1.8309
-16.2362 -1.3923 1.8328
-16.1956 -2.7157 1.8456
-16.1508 -4.0678 1.8700
-15.9269 -5.4078 1.8861
-15.4639 -6.6828 1.8861
-14.9030 -7.9205 1.8861
-14.2467 -9.1135 1.8861
-14.0723 -10.6907 1.9663
-13.6845 -12.2530 2.0385
-12.6891 -13.3518 2.0385
-11.6078 -14.3726 2.0385
-10.4463 -15.3086 2.0385
-9.2109 -16.1534 2.0385
-7.9084 -16.9009 2.0385
-6.5461 -17.5455 2.0385
-5.1319 -18.0821 2.0385
-3.6740 -18.5061 2.0385
-2.1813 -18.8136 2.0385
-0.6630 -19.0013 2.0385
0.8714 -19.0665 2.0385
2.4118 -19.0075 2.0385
3.9481 -18.8231 2.0385
5.4700 -18.5133 2.0385
6.9668 -18.0787 2.0385
8.4281 -17.5210 2.0385
9.5132 -16.2782 1.9702
10.1313 -14.5141 1.8437
11.5597 -14.0081 1.8861
12.0016 -12.3660 1.7846
13.9305 -12.2139 1.9137
15.0941 -11.2222 1.9384
16.1430 -10.0940 1.9581
17.0608 -8.8450 1.9730
17.8605 -7.5046 1.9861
11.7497 -3.8582 1.2664
19.0611 -4.5992 2.0062
19.4441 -3.0632 2.0129
19.6738 -1.4931 2.0172
19.7463 0.0940 2.0191
5.2790 0.4512 0.5420
5.2312 0.8752 0.5430
5.1476 1.2941 0.5440
5.0288 1.7045 0.5450
4.8757 2.1035 0.5459
4.6893 2.4881 0.5468
4.4712 2.8555 0.5477
4.2300 3.2080 0.5495
4.2111 3.7638 0.5862
4.1894 4.3999 0.6324
11.4284 14.1216 1.8970
10.1625 14.8593 1.8861
8.9033 15.5744 1.8861
8.2077 17.4892 2.0385
6.7491 18.0259 2.0385
5.2571 18.4406 2.0385
3.7420 18.7318 2.0385
2.2142 18.8991 2.0385
0.6837 18.9427 2.0385
-0.8396 18.8638 2.0385
-2.3459 18.6642 2.0385
-3.8260 18.3466 2.0385
-5.2710 17.9143 2.0385
-6.6722 17.3710 2.0385
-8.0216 16.7214 2.0385
-9.3116 15.9703 2.0385
-10.5350 15.1232 2.0385
-11.6850 14.1861 2.0385
-12.7557 13.1650 2.0385
-13.7413 12.0667 2.0385
-14.6367 10.8981 2.0385
-14.7154 9.2140 1.9431
-14.9328 7.7522 1.8861
-15.4876 6.5160 1.8861
-15.9450 5.2424 1.8861
-16.3028 3.9387 1.8861
-16.3585 2.5805 1.8632
-16.3151 1.2401 1.8412
-16.2724 -0.0770 1.8309
-16.2363 -1.3888 1.8328
-16.1957 -2.7122 1.8456
-16.1509 -4.0642 1.8699
-15.9280 -5.4044 1.8861
-15.4653 -6.6795 1.8861
-14.9046 -7.9173 1.8861
-14.2486 -9.1104 1.8861
-14.0725 -10.6861 1.9660
-13.6870 -12.2500 2.0385
-12.6918 -13.3489 2.0385
-11.6107 -14.3700 2.0385
-10.4495 -15.3062 2.0385
-9.2143 -16.1513 2.0385
-7.9120 -16.8991 2.0385
-6.5498 -17.5439 2.0385
-5.1357 -18.0808 2.0385
-3.6779 -18.5052 2.0385
-2.1853 -18.8130 2.0385
-0.6670 -19.0010 2.0385
0.8673 -19.0665 2.0385
2.4077 -19.0078 2.0385
3.9441 -18.8238 2.0385
5.4660 -18.5143 2.0385
6.9629 -18.0800 2.0385
8.4243 -17.5227 2.0385
9.5133 -16.2863 1.9709
10.1253 -14.5120 1.8432
11.5566 -14.0104 1.8861
12.0001 -12.3697 1.7848
13.9274 -12.2164 1.9137
15.0911 -11.2250 1.9383
16.1404 -10.0971 1.9581
17.0585 -8.8485 1.9730
17.8585 -7.5083 1.9860
11.7490 -3.8607 1.2664
19.0599 -4.6032 2.0061
19.4433 -3.0673 2.0128
19.6734 -1.4972 2.0172
19.7463 0.0898 2.0191
5.2791 0.4501 0.5420
5.2314 0.8741 0.5430
5.1479 1.2930 0.5440
5.0292 1.7035 0.5450
4.8761 2.1025 0.5459
4.6899 2.4872 0.5468
4.4719 2.8545 0.5477
4.2301 3.2067 0.5494
4.2111 3.7623 0.5861
4.1895 4.3981 0.6323
11.4318 14.1197 1.8971
10.1658 14.8573 1.8861
8.9066 15.5727 1.8861
8.2115 17.4876 2.0385
6.7529 18.0247 2.0385
5.2610 18.4397 2.0385
3.7460 18.7312 2.0385
2.2182 18.8988 2.0385
0.6877 18.9428 2.0385
-0.8356 18.8642 2.0385
-2.3420 18.6649 2.0385
-3.8222 18.3476 2.0385
-5.2672 17.9156 2.0385
-6.6686 17.3726 2.0385
-8.0181 16.7232 2.0385
-9.3083 15.9724 2.0385
-10.5318 15.1256 2.0385
-11.6821 14.1886 2.0385
-12.7530 13.1678 2.0385
-13.7388 12.0697 2.0385
-14.6345 10.9012 2.0385
-14.7155 9.2185 1.9434
-14.9312 7.7553 1.8861
-15.4863 6.5193 1.8861
-15.9440 5.2459 1.8861
-16.3020 3.9422 1.8861
-16.3586 2.5841 1.8633
-16.3152 1.2436 1.8413
-16.2725 -0.0736 1.8310
-16.2364 -1.3853 1.8327
-16.1958 -2.7087 1.8455
-16.1510 -4.0605 1.8699
-15.9291 -5.4010 1.8861
-15.4666 -6.6762 1.8861
-14.9062 -7.9141 1.8861
-14.2504 -9.1073 1.8861
-14.0727 -10.6815 1.9657
-13.6895 -12.2469 2.0385
-12.6946 -13.3462 2.0385
-11.6137 -14.3674 2.0385
-10.4526 -15.3039 2.0385
-9.2176 -16.1492 2.0385
-7.9155 -16.8972 2.0385
-6.5535 -17.5424 2.0385
-5.1395 -18.0796 2.0385
-3.6818 -18.5042 2.0385
-2.1893 -18.8124 2.0385
-0.6710 -19.0006 2.0385
0.8632 -19.0666 2.0385
2.4037 -19.0081 2.0385
3.9401 -18.8245 2.0385
5.4620 -18.5153 2.0385
6.9590 -18.0814 2.0385
8.4205 -17.5243 2.0385
9.5133 -16.2943 1.9717
10.1173 -14.5071 1.8423
11.5535 -14.0128 1.8861
11.9986 -12.3734 1.7849
13.9242 -12.2189 1.9136
15.0882 -11.2277 1.9383
16.1379 -10.1003 1.9580
17.0563 -8.8519 1.9729
17.8565 -7.5119 1.9860
11.7483 -3.8633 1.2664
19.0586 -4.6072 2.0061
19.4425 -3.0714 2.0128
19.6729 -1.5014 2.0172
19.7464 0.0856 2.0191
5.2792 0.4490 0.5420
5.2315 0.8730 0.5430
5.1481 1.2919 0.5440
5.0295 1.7024 0.5450
4.8766 2.1015 0.5459
4.6904 2.4862 0.5468
4.4725 2.8536 0.5477
4.2301 3.2053 0.5493
4.2112 3.7607 0.5860
4.1896 4.3963 0.6321
11.4352 14.1177 1.8971
10.1690 14.8553 1.8861
8.9100 15.5709 1.8861
8.2153 17.4861 2.0385
6.7568 18.0234 2.0385
5.2650 18.4387 2.0385
3.7500 18.7306 2.0385
2.2222 18.8985 2.0385
0.6917 18.9428 2.0385
4.2897 1.4548 0.5942
4.2764 1.8457 0.6118
4.2622 2.2623 0.6348
4.2469 2.7129 0.6641
4.2300 3.2088 0.7011
4.2111 3.7646 0.7475
4.1894 4.4008 0.8059
8.9220 11.0267 1.8861
8.5924 12.5658 2.0295
7.5663 13.2382 2.0385
6.4584 13.7646 2.0385
5.3146 14.1978 2.0385
4.1427 14.5356 2.0385
2.9508 14.7767 2.0385
1.7470 14.9204 2.0385
0.5391 14.9666 2.0385
-0.6649 14.9159 2.0385
-1.8574 14.7694 2.0385
-3.0310 14.5289 2.0385
-4.1783 14.1968 2.0385
-5.2926 13.7759 2.0385
-6.3671 13.2695 2.0385
-7.3956 12.6815 2.0385
-8.3721 12.0159 2.0385
-9.2912 11.2775 2.0385
-10.1477 10.4709 2.0385
-10.9369 9.6018 2.0385
-11.6544 8.6751 2.0385
-12.2964 7.6970 2.0385
-12.8595 6.6733 2.0385
-13.3407 5.6102 2.0385
-13.7375 4.5140 2.0385
-14.0476 3.3911 2.0385
-14.2697 2.2481 2.0385
-14.4022 1.0916 2.0385
-14.4009 -0.0714 2.0323
-14.3633 -1.2320 2.0337
-14.2588 -2.3914 2.0385
-14.0312 -3.5346 2.0385
-13.7151 -4.6577 2.0385
-13.3123 -5.7540 2.0385
-12.8246 -6.8171 2.0385
-12.2546 -7.8406 2.0385
-11.6052 -8.8182 2.0385
-10.8800 -9.7438 2.0385
-10.0827 -10.6117 2.0385
-9.2177 -11.4161 2.0385
-8.2899 -12.1517 2.0385
-7.3043 -12.8135 2.0385
-6.2666 -13.3970 2.0385
-5.1829 -13.8977 2.0385
-4.0597 -14.3118 2.0385
-2.9035 -14.6360 2.0385
-1.7216 -14.8674 2.0385
-0.5213 -15.0037 2.0385
0.6897 -15.0431 2.0385
1.9035 -14.9845 2.0385
3.1122 -14.8274 2.0385
4.3076 -14.5719 2.0385
5.4816 -14.2190 2.0385
6.6259 -13.7701 2.0385
7.7326 -13.2277 2.0385
8.7936 -12.5946 2.0385
9.3749 -11.3582 1.9498
9.9446 -10.2445 1.8861
10.7579 -9.4306 1.8861
11.5076 -8.5543 1.8869
12.2555 -7.6620 1.8990
12.9231 -6.6989 1.9098
13.5022 -5.6726 1.9193
11.9720 -3.9307 1.6499
14.3673 -3.4663 1.9339
14.6421 -2.3065 1.9387
14.8063 -1.1237 1.9418
4.3385 0.0206 0.5674
4.3267 0.3697 0.5681
4.3147 0.7218 0.5727
4.3024 1.0814 0.5813
4.2898 1.4537 0.5941
4.2764 1.8447 0.6117
4.2623 2.2611 0.6347
4.2469 2.7117 0.6640
4.2300 3.2074 0.7010
4.2111 3.7631 0.7473
4.1895 4.3990 0.8058
8.9244 11.0248 1.8861
8.5926 12.5605 2.0289
7.5692 13.2367 2.0385
6.4614 13.7633 2.0385
5.3176 14.1967 2.0385
4.1458 14.5349 2.0385
2.9540 14.7762 2.0385
1.7502 14.9202 2.0385
0.5423 14.9666 2.0385
-0.6617 14.9161 2.0385
-1.8543 14.7699 2.0385
-3.0279 14.5297 2.0385
-4.1754 14.1978 2.0385
-5.2897 13.7771 2.0385
-6.3643 13.2710 2.0385
-7.3929 12.6831 2.0385
-8.3696 12.0178 2.0385
-9.2889 11.2795 2.0385
-10.1455 10.4732 2.0385
-10.9349 9.6042 2.0385
-11.6526 8.6776 2.0385
-12.2948 7.6996 2.0385
-12.8582 6.6760 2.0385
-13.3396 5.6130 2.0385
-13.7365 4.5169 2.0385
-14.0470 3.3941 2.0385
-14.2692 2.2511 2.0385
-14.4020 1.0947 2.0385
-14.4009 -0.0683 2.0323
-14.3634 -1.2289 2.0337
-14.2593 -2.3884 2.0385
-14.0319 -3.5316 2.0385
-13.7161 -4.6547 2.0385
-13.3134 -5.7512 2.0385
-12.8260 -6.8143 2.0385
-12.2562 -7.8380 2.0385
-11.6070 -8.8157 2.0385
-10.8820 -9.7415 2.0385
-10.0849 -10.6094 2.0385
-9.2201 -11.4140 2.0385
-8.2924 -12.1498 2.0385
-7.3070 -12.8119 2.0385
-6.2694 -13.3955 2.0385
-5.1859 -13.8965 2.0385
-4.0627 -14.3108 2.0385
-2.9066 -14.6353 2.0385
-1.7247 -14.8670 2.0385
-0.5245 -15.0035 2.0385
0.6865 -15.0431 2.0385
1.9003 -14.9848 2.0385
3.1090 -14.8279 2.0385
4.3045 -14.5727 2.0385
5.4785 -14.2200 2.0385
6.6229 -13.7714 2.0385
7.7297 -13.2292 2.0385
8.7908 -12.5964 2.0385
9.3750 -11.3631 1.9503
9.9424 -10.2466 1.8861
10.7559 -9.4328 1.8861
11.5055 -8.5565 1.8869
12.2537 -7.6645 1.8990
12.9215 -6.7016 1.9098
13.5009 -5.6754 1.9193
11.9710 -3.9332 1.6498
14.3664 -3.4693 1.9338
14.6415 -2.3096 1.9387
14.8061 -1.1268 1.9418
4.3386 0.0197 0.5674
4.3267 0.3688 0.5681
4.3147 0.7208 0.5727
4.3025 1.0804 0.5812
4.2898 1.4527 0.5941
4.2765 1.8436 0.6117
4.2623 2.2600 0.6346
4.2470 2.7104 0.6639
4.2301 3.2061 0.7009
4.2112 3.7615 0.7472
4.1895 4.3972 0.8056
8.9268 11.0230 1.8861
8.5929 12.5552 2.0284
7.5720 13.2351 2.0385
6.4644 13.7620 2.0385
5.3207 14.1957 2.0385
4.1490 14.5341 2.0385
2.9572 14.7757 2.0385
1.7534 14.9199 2.0385
0.5455 14.9666 2.0385
-0.6586 14.9164 2.0385
-1.8512 14.7704 2.0385
-3.0249 14.5304 2.0385
-4.1724 14.1988 2.0385
-5.2868 13.7783 2.0385
-6.3615 13.2724 2.0385
-7.3903 12.6848 2.0385
-8.3671 12.0196 2.0385
-9.2865 11.2815 2.0385
-10.1434 10.4754 2.0385
-10.9329 9.6064 2.0385
-11.6508 8.6801 2.0385
-12.2933 7.7023 2.0385
-12.8568 6.6788 2.0385
-13.3384 5.6159 2.0385
-13.7356 4.5198 2.0385
-14.0463 3.3971 2.0385
-14.2687 2.2542 2.0385
-14.4018 1.0978 2.0385
-14.4010 -0.0653 2.0323
-14.3635 -1.2259 2.0337
-14.2598 -2.3854 2.0385
-14.0326 -3.5286 2.0385
-13.7170 -4.6518 2.0385
-13.3146 -5.7483 2.0385
-12.8273 -6.8116 2.0385
-12.2578 -7.8353 2.0385
-11.6089 -8.8132 2.0385
-10.8840 -9.7391 2.0385
-10.0871 -10.6072 2.0385
-9.2225 -11.4120 2.0385
-8.2949 -12.1480 2.0385
-7.3096 -12.8103 2.0385
-6.2722 -13.3941 2.0385
-5.1888 -13.8953 2.0385
-4.0657 -14.3099 2.0385
-2.9097 -14.6346 2.0385
-1.7279 -14.8665 2.0385
-0.5277 -15.0032 2.0385
0.6833 -15.0432 2.0385
1.8971 -14.9851 2.0385
3.1059 -14.8285 2.0385
4.3014 -14.5735 2.0385
5.4755 -14.2211 2.0385
6.6200 -13.7727 2.0385
7.7268 -13.2308 2.0385
8.7881 -12.5982 2.0385
9.3750 -11.3682 1.9509
9.9401 -10.2486 1.8861
10.7538 -9.4351 1.8861
11.5034 -8.5588 1.8869
12.2518 -7.6669 1.8989
12.9199 -6.7042 1.9098
13.4994 -5.6782 1.9193
11.9700 -3.9357 1.6498
14.3656 -3.4723 1.9338
14.6409 -2.3127 1.9387
14.8058 -1.1299 1.9418
4.3386 0.0188 0.5674
4.3267 0.3679 0.5681
4.3147 0.7199 0.5727
4.3025 1.0795 0.5812
4.2898 1.4517 0.5940
4.2765 1.8426 0.6116
4.2623 2.2588 0.6346
4.2470 2.7092 0.6639
4.2301 3.2047 0.7008
4.2112 3.7600 0.7471
4.1896 4.3954 0.8054
8.9292 11.0212 1.8861
8.5932 12.5499 2.0278
7.5749 13.2337 2.0385
6.4673 13.7608 2.0385
5.3237 14.1947 2.0385
4.1521 14.5333 2.0385
2.9603 14.7752 2.0385
1.7566 14.9197 2.0385
0.5487 14.9666 2.0385
4.2897 1.4545 0.7244
4.2764 1.8454 0.7457
4.2622 2.2619 0.7735
4.2469 2.7124 0.8090
4.2300 3.2082 0.8537
4.2111 3.7639 0.9098
4.1895 4.3998 0.9806
7.9292 9.7972 2.0385
7.1000 10.3805 2.0385
6.2279 10.8931 2.0385
5.3189 11.3319 2.0385
4.3794 11.6944 2.0385
3.4159 11.9789 2.0385
2.4349 12.1840 2.0385
1.4431 12.3090 2.0385
0.4468 12.3536 2.0385
-0.5473 12.3182 2.0385
-1.5329 12.2035 2.0385
-2.5039 12.0108 2.0385
-3.4541 11.7420 2.0385
-4.3778 11.3993 2.0385
-5.2693 10.9853 2.0385
-6.1234 10.5030 2.0385
-6.9351 9.9558 2.0385
-7.6995 9.3475 2.0385
-8.4124 8.6820 2.0385
-9.0696 7.9639 2.0385
-9.6675 7.1973 2.0385
-10.2028 6.3874 2.0385
-10.6724 5.5391 2.0385
-11.0738 4.6575 2.0385
-11.4048 3.7479 2.0385
-11.6635 2.8159 2.0385
-11.8486 1.8668 2.0385
-11.9590 0.9065 2.0385
-11.9942 -0.0596 2.0385
-11.9537 -1.0256 2.0385
-11.8380 -1.9858 2.0385
-11.6474 -2.9347 2.0385
-11.3831 -3.8664 2.0385
-11.0463 -4.7755 2.0385
-10.6390 -5.6564 2.0385
-10.1632 -6.5038 2.0385
-9.6216 -7.3124 2.0385
-9.0170 -8.0772 2.0385
-8.3530 -8.7932 2.0385
-7.6332 -9.4560 2.0385
-6.8617 -10.0610 2.0385
-6.0430 -10.6042 2.0385
-5.1818 -11.0819 2.0385
-4.2834 -11.4904 2.0385
-3.3530 -11.8269 2.0385
-2.3963 -12.0886 2.0385
-1.4194 -12.2733 2.0385
-0.4283 -12.3793 2.0385
0.5705 -12.4053 2.0385
1.5707 -12.3505 2.0385
2.5656 -12.2146 2.0385
3.5485 -11.9980 2.0385
4.5129 -11.7016 2.0385
5.4520 -11.3267 2.0385
6.3593 -10.8755 2.0385
7.2284 -10.3504 2.0385
8.0532 -9.7547 2.0385
8.8276 -9.0921 2.0385
9.2657 -8.1210 1.9786
9.4405 -7.0165 1.8861
9.9873 -6.2430 1.8861
10.4690 -5.4260 1.8861
10.8817 -4.5710 1.8861
11.2148 -3.6816 1.8848
11.5116 -2.7770 1.8899
11.7250 -1.8468 1.8937
11.8523 -0.8995 1.8961
4.3386 0.0206 0.6921
4.3267 0.3696 0.6930
4.3147 0.7216 0.6984
4.3024 1.0812 0.7088
4.2898 1.4535 0.7243
4.2765 1.8443 0.7456
4.2623 2.2607 0.7734
4.2470 2.7112 0.8089
4.2301 3.2068 0.8536
4.2112 3.7623 0.9097
4.1895 4.3980 0.9804
7.9313 9.7956 2.0385
7.1023 10.3791 2.0385
6.2302 10.8918 2.0385
5.3213 11.3308 2.0385
4.3819 11.6936 2.0385
3.4185 11.9783 2.0385
2.4375 12.1836 2.0385
1.4457 12.3088 2.0385
0.4495 12.3536 2.0385
-0.5447 12.3184 2.0385
-1.5304 12.2039 2.0385
-2.5014 12.0114 2.0385
-3.4517 11.7428 2.0385
-4.3754 11.4003 2.0385
-5.2670 10.9865 2.0385
-6.1212 10.5043 2.0385
-6.9330 9.9573 2.0385
-7.6976 9.3492 2.0385
-8.4106 8.6839 2.0385
-9.0679 7.9657 2.0385
-9.6660 7.1994 2.0385
-10.2015 6.3896 2.0385
-10.6713 5.5414 2.0385
-11.0728 4.6598 2.0385
-11.4040 3.7504 2.0385
-11.6630 2.8184 2.0385
-11.8483 1.8694 2.0385
-11.9589 0.9090 2.0385
-11.9942 -0.0570 2.0385
-11.9539 -1.0230 2.0385
-11.8384 -1.9833 2.0385
-11.6480 -2.9322 2.0385
-11.3839 -3.8640 2.0385
-11.0473 -4.7731 2.0385
-10.6401 -5.6541 2.0385
-10.1645 -6.5016 2.0385
-9.6231 -7.3103 2.0385
-9.0187 -8.0752 2.0385
-8.3549 -8.7914 2.0385
-7.6352 -9.4543 2.0385
-6.8638 -10.0595 2.0385
-6.0452 -10.6029 2.0385
-5.1842 -11.0807 2.0385
-4.2858 -11.4894 2.0385
-3.3554 -11.8261 2.0385
-2.3989 -12.0880 2.0385
-1.4220 -12.2729 2.0385
-0.4309 -12.3791 2.0385
0.5679 -12.4053 2.0385
1.5681 -12.3507 2.0385
2.5630 -12.2150 2.0385
3.5460 -11.9987 2.0385
4.5104 -11.7024 2.0385
5.4495 -11.3278 2.0385
6.3569 -10.8767 2.0385
7.2262 -10.3519 2.0385
8.0511 -9.7564 2.0385
8.8257 -9.0939 2.0385
9.2657 -8.1245 1.9790
9.4389 -7.0185 1.8861
9.9860 -6.2451 1.8861
10.4678 -5.4282 1.8861
10.8807 -4.5733 1.8861
11.2140 -3.6840 1.8848
11.5110 -2.7795 1.8899
11.7245 -1.8493 1.8936
11.8521 -0.9020 1.8961
4.3386 0.0196 0.6922
4.3267 0.3687 0.6930
4.3147 0.7207 0.6984
4.3025 1.0802 0.7088
4.2898 1.4525 0.7243
4.2765 1.8433 0.7455
4.2623 2.2596 0.7733
4.2470 2.7099 0.8088
4.2301 3.2054 0.8534
4.2112 3.7608 0.9095
4.1896 4.3962 0.9802
7.9334 9.7940 2.0385
7.1045 10.3777 2.0385
6.2326 10.8906 2.0385
5.3237 11.3297 2.0385
4.3844 11.6927 2.0385
3.4210 11.9776 2.0385
2.4401 12.1832 2.0385
1.4483 12.3086 2.0385
0.4521 12.3536 2.0385
-0.5421 12.3186 2.0385
-1.5278 12.2043 2.0385
-2.4988 12.0120 2.0385
-3.4492 11.7436 2.0385
-4.3730 11.4013 2.0385
-5.2647 10.9876 2.0385
-6.1190 10.5057 2.0385
-6.9309 9.9588 2.0385
-7.6956 9.3509 2.0385
-8.4088 8.6857 2.0385
-9.0663 7.9677 2.0385
-9.6646 7.2015 2.0385
-10.2002 6.3919 2.0385
-10.6701 5.5436 2.0385
-11.0719 4.6622 2.0385
-11.4032 3.7528 2.0385
-11.6624 2.8208 2.0385
-11.8479 1.8719 2.0385
-11.9587 0.9116 2.0385
-11.9942 -0.0545 2.0385
-11.9541 -1.0205 2.0385
-11.8388 -1.9808 2.0385
-11.6486 -2.9297 2.0385
-11.3847 -3.8616 2.0385
-11.0483 -4.7707 2.0385
-10.6413 -5.6518 2.0385
-10.1659 -6.4994 2.0385
-9.6246 -7.3082 2.0385
-9.0204 -8.0732 2.0385
-8.3567 -8.7896 2.0385
-7.6372 -9.4526 2.0385
-6.8659 -10.0580 2.0385
-6.0475 -10.6015 2.0385
-5.1865 -11.0795 2.0385
-4.2882 -11.4885 2.0385
-3.3579 -11.8253 2.0385
-2.4014 -12.0874 2.0385
-1.4246 -12.2726 2.0385
-0.4336 -12.3790 2.0385
0.5653 -12.4054 2.0385
1.5654 -12.3509 2.0385
2.5604 -12.2155 2.0385
3.5434 -11.9993 2.0385
4.5078 -11.7033 2.0385
5.4471 -11.3289 2.0385
6.3546 -10.8780 2.0385
7.2240 -10.3534 2.0385
8.0490 -9.7581 2.0385
8.8237 -9.0957 2.0385
9.2658 -8.1280 1.9794
9.4374 -7.0205 1.8861
9.9846 -6.2472 1.8861
10.4666 -5.4304 1.8861
10.8797 -4.5756 1.8861
11.2131 -3.6864 1.8848
11.5103 -2.7819 1.8899
11.7241 -1.8518 1.8936
11.8519 -0.9045 1.8961
4.3386 0.0187 0.6922
4.3267 0.3678 0.6929
4.3148 0.7197 0.6984
4.3025 1.0793 0.7087
4.2898 1.4515 0.7242
4.2765 1.8422 0.7455
4.2624 2.2584 0.7732
4.2470 2.7087 0.8087
4.2302 3.2041 0.8533
4.2113 3.7592 0.9093
4.1897 4.3944 0.9799
7.9355 9.7924 2.0385
7.1067 10.3762 2.0385
6.2349 10.8893 2.0385
5.3262 11.3287 2.0385
4.3869 11.6919 2.0385
3.4236 11.9770 2.0385
2.4428 12.1827 2.0385
1.4509 12.3083 2.0385
0.4547 12.3536 2.0385
4.2898 1.4542 0.8558
4.2764 1.8451 0.8808
4.2623 2.2614 0.9135
4.2469 2.7119 0.9551
4.2301 3.2076 1.0077
4.2112 3.7631 1.0737
4.1895 4.3989 1.1568
6.7237 8.3057 2.0385
6.0227 8.8030 2.0385
5.2848 9.2408 2.0385
4.5153 9.6164 2.0385
3.7194 9.9276 2.0385
2.9025 10.1729 2.0385
2.0702 10.3509 2.0385
1.2280 10.4610 2.0385
0.3814 10.5028 2.0385
-0.4639 10.4766 2.0385
-1.3027 10.3828 2.0385
-2.1296 10.2226 2.0385
-2.9394 9.9973 2.0385
-3.7270 9.7087 2.0385
-4.4878 9.3591 2.0385
-5.2171 8.9510 2.0385
-5.9105 8.4871 2.0385
-6.5640 7.9707 2.0385
-7.1737 7.4051 2.0385
-7.7360 6.7940 2.0385
-8.2478 6.1414 2.0385
-8.7061 5.4513 2.0385
-9.1083 4.7280 2.0385
-9.4522 3.9760 2.0385
-9.7357 3.1998 2.0385
-9.9574 2.4044 2.0385
-10.1159 1.5940 2.0385
-10.2103 0.7739 2.0385
-10.2402 -0.0510 2.0385
-10.2053 -0.8758 2.0385
-10.1057 -1.6956 2.0385
-9.9421 -2.5055 2.0385
-9.7152 -3.3005 2.0385
-9.4264 -4.0759 2.0385
-9.0771 -4.8269 2.0385
-8.6694 -5.5488 2.0385
-8.2054 -6.2373 2.0385
-7.6879 -6.8880 2.0385
-7.1198 -7.4967 2.0385
-6.5042 -8.0594 2.0385
-5.8449 -8.5724 2.0385
-5.1457 -9.0324 2.0385
-4.4107 -9.4360 2.0385
-3.6444 -9.7806 2.0385
-2.8514 -10.0634 2.0385
-2.0367 -10.2823 2.0385
-1.2053 -10.4356 2.0385
-0.3625 -10.5218 2.0385
0.4863 -10.5399 2.0385
1.3356 -10.4894 2.0385
2.1797 -10.3702 2.0385
3.0132 -10.1826 2.0385
3.8302 -9.9276 2.0385
4.6254 -9.6063 2.0385
5.3931 -9.2206 2.0385
6.1281 -8.7727 2.0385
6.8252 -8.2654 2.0385
7.4793 -7.7019 2.0385
8.0859 -7.0857 2.0385
8.6405 -6.4208 2.0385
9.1391 -5.7119 2.0385
9.1627 -4.7483 1.9501
9.2101 -3.8683 1.8861
9.4973 -3.1174 1.8861
9.7217 -2.3450 1.8861
9.8816 -1.5564 1.8861
9.9759 -0.7570 1.8861
4.3386 0.0205 0.8180
4.3267 0.3695 0.8189
4.3147 0.7215 0.8253
4.3025 1.0810 0.8375
4.2898 1.4532 0.8557
4.2765 1.8440 0.8807
4.2623 2.2603 0.9134
4.2470 2.7107 0.9550
4.2301 3.2062 1.0075
4.2112 3.7616 1.0735
4.1896 4.3971 1.1565
6.7255 8.3043 2.0385
6.0246 8.8018 2.0385
5.2868 9.2397 2.0385
4.5173 9.6155 2.0385
3.7215 9.9269 2.0385
2.9047 10.1723 2.0385
2.0724 10.3505 2.0385
1.2302 10.4608 2.0385
0.3837 10.5028 2.0385
-0.4617 10.4767 2.0385
-1.3005 10.3831 2.0385
-2.1274 10.2231 2.0385
-2.9373 9.9979 2.0385
-3.7250 9.7096 2.0385
-4.4859 9.3601 2.0385
-5.2152 8.9522 2.0385
-5.9088 8.4884 2.0385
-6.5623 7.9721 2.0385
-7.1721 7.4066 2.0385
-7.7346 6.7957 2.0385
-8.2465 6.1432 2.0385
-8.7050 5.4532 2.0385
-9.1073 4.7299 2.0385
-9.4513 3.9780 2.0385
-9.7351 3.2019 2.0385
-9.9569 2.4065 2.0385
-10.1155 1.5961 2.0385
-10.2102 0.7761 2.0385
-10.2402 -0.0488 2.0385
-10.2054 -0.8736 2.0385
-10.1061 -1.6935 2.0385
-9.9426 -2.5033 2.0385
-9.7159 -3.2984 2.0385
-9.4272 -4.0739 2.0385
-9.0781 -4.8250 2.0385
-8.6705 -5.5471 2.0385
-8.2067 -6.2356 2.0385
-7.6893 -6.8864 2.0385
-7.1213 -7.4951 2.0385
-6.5059 -8.0580 2.0385
-5.8467 -8.5712 2.0385
-5.1476 -9.0312 2.0385
-4.4127 -9.4351 2.0385
-3.6464 -9.7797 2.0385
-2.8535 -10.0627 2.0385
-2.0389 -10.2818 2.0385
-1.2075 -10.4353 2.0385
-0.3647 -10.5216 2.0385
0.4841 -10.5399 2.0385
1.3333 -10.4896 2.0385
2.1775 -10.3706 2.0385
3.0110 -10.1832 2.0385
3.8281 -9.9283 2.0385
4.6233 -9.6072 2.0385
5.3912 -9.2217 2.0385
6.1262 -8.7740 2.0385
6.8234 -8.2668 2.0385
7.4777 -7.7034 2.0385
8.0844 -7.0874 2.0385
8.6391 -6.4227 2.0385
9.1379 -5.7139 2.0385
9.1628 -4.7508 1.9503
9.2092 -3.8703 1.8861
9.4967 -3.1194 1.8861
9.7212 -2.3470 1.8861
9.8813 -1.5584 1.8861
9.9757 -0.7591 1.8861
4.3386 0.0196 0.8180
4.3267 0.3686 0.8189
4.3147 0.7205 0.8253
4.3025 1.0800 0.8374
4.2898 1.4522 0.8556
4.2765 1.8430 0.8806
4.2624 2.2592 0.9133
4.2470 2.7094 0.9549
4.2302 3.2048 1.0074
4.2113 3.7600 1.0733
4.1896 4.3953 1.1563
6.7273 8.3029 2.0385
6.0265 8.8006 2.0385
5.2888 9.2387 2.0385
4.5194 9.6146 2.0385
3.7236 9.9262 2.0385
2.9068 10.1718 2.0385
2.0746 10.3502 2.0385
1.2324 10.4606 2.0385
0.3859 10.5028 2.0385
-0.4595 10.4769 2.0385
-1.2983 10.3835 2.0385
-2.1253 10.2236 2.0385
-2.9352 9.9986 2.0385
-3.7230 9.7104 2.0385
-4.4839 9.3611 2.0385
-5.2134 8.9533 2.0385
-5.9070 8.4897 2.0385
-6.5607 7.9735 2.0385
-7.1706 7.4082 2.0385
-7.7332 6.7974 2.0385
-8.2452 6.1449 2.0385
-8.7038 5.4550 2.0385
-9.1064 4.7319 2.0385
-9.4505 3.9800 2.0385
-9.7344 3.2040 2.0385
-9.9564 2.4084 2.0385
-10.1152 1.5983 2.0385
-10.2100 0.7783 2.0385
-10.2402 -0.0466 2.0385
-10.2056 -0.8715 2.0385
-10.1064 -1.6913 2.0385
-9.9431 -2.5013 2.0385
-9.7166 -3.2964 2.0385
-9.4280 -4.0719 2.0385
-9.0791 -4.8230 2.0385
-8.6717 -5.5450 2.0385
-8.2080 -6.2338 2.0385
-7.6908 -6.8847 2.0385
-7.1229 -7.4936 2.0385
-6.5076 -8.0565 2.0385
-5.8485 -8.5699 2.0385
-5.1495 -9.0301 2.0385
-4.4147 -9.4341 2.0385
-3.6485 -9.7789 2.0385
-2.8557 -10.0620 2.0385
-2.0410 -10.2813 2.0385
-1.2097 -10.4350 2.0385
-0.3670 -10.5215 2.0385
0.4818 -10.5400 2.0385
1.3311 -10.4899 2.0385
2.1753 -10.3710 2.0385
3.0088 -10.1838 2.0385
3.8260 -9.9291 2.0385
4.6213 -9.6082 2.0385
5.3892 -9.2228 2.0385
6.1243 -8.7752 2.0385
6.8216 -8.2682 2.0385
7.4760 -7.7050 2.0385
8.0828 -7.0891 2.0385
8.6377 -6.4245 2.0385
9.1367 -5.7158 2.0385
9.1628 -4.7533 1.9505
9.2084 -3.8722 1.8861
9.4960 -3.1215 1.8861
9.7207 -2.3491 1.8861
9.8810 -1.5605 1.8861
9.9755 -0.7613 1.8861
4.3386 0.0187 0.8180
4.3267 0.3677 0.8189
4.3148 0.7196 0.8253
4.3025 1.0791 0.8374
4.2899 1.4512 0.8556
4.2766 1.8419 0.8805
4.2624 2.2580 0.9132
4.2471 2.7082 0.9548
4.2302 3.2034 1.0072
4.2113 3.7585 1.0731
4.1897 4.3935 1.1560
6.7290 8.3015 2.0385
6.0284 8.7993 2.0385
5.2908 9.2376 2.0385
4.5215 9.6137 2.0385
3.7257 9.9254 2.0385
2.9090 10.1712 2.0385
2.0768 10.3498 2.0385
1.2347 10.4604 2.0385
0.3881 10.5028 2.0385
4.2898 1.4540 0.9885
4.2765 1.8447 1.0173
4.2623 2.2610 1.0549
4.2470 2.7114 1.1029
4.2301 3.2069 1.1633
4.2112 3.7624 1.2392
4.1896 4.3979 1.3348
5.8283 7.1978 2.0385
5.2220 7.6307 2.0385
4.5836 8.0121 2.0385
3.9174 8.3400 2.0385
3.2279 8.6122 2.0385
2.5200 8.8274 2.0385
1.7982 8.9844 2.0385
1.0675 9.0824 2.0385
0.3326 9.1213 2.0385
-0.4017 9.1010 2.0385
-1.1306 9.0220 2.0385
-1.8496 8.8851 2.0385
-2.5541 8.6916 2.0385
-3.2398 8.4428 2.0385
-3.9023 8.1408 2.0385
-4.5377 7.7876 2.0385
-5.1422 7.3856 2.0385
-5.7120 6.9376 2.0385
-6.2438 6.4465 2.0385
-6.7345 5.9156 2.0385
-7.1813 5.3481 2.0385
-7.5814 4.7478 2.0385
-7.9326 4.1183 2.0385
-8.2329 3.4636 2.0385
-8.4806 2.7877 2.0385
-8.6742 2.0946 2.0385
-8.8126 1.3887 2.0385
-8.8950 0.6743 2.0385
-8.9209 -0.0445 2.0385
-8.8902 -0.7632 2.0385
-8.8030 -1.4774 2.0385
-8.6599 -2.1828 2.0385
-8.4614 -2.8752 2.0385
-8.2089 -3.5502 2.0385
-7.9037 -4.2037 2.0385
-7.5474 -4.8317 2.0385
-7.1423 -5.4303 2.0385
-6.6905 -5.9957 2.0385
-6.1947 -6.5242 2.0385
-5.6578 -7.0123 2.0385
-5.0830 -7.4571 2.0385
-4.4737 -7.8553 2.0385
-3.8335 -8.2043 2.0385
-3.1664 -8.5016 2.0385
-2.4765 -8.7451 2.0385
-1.7680 -8.9329 2.0385
-1.0455 -9.0636 2.0385
-0.3134 -9.1359 2.0385
0.4235 -9.1491 2.0385
1.1604 -9.1027 2.0385
1.8924 -8.9968 2.0385
2.6148 -8.8317 2.0385
3.3226 -8.6082 2.0385
4.0110 -8.3276 2.0385
4.6754 -7.9913 2.0385
5.3112 -7.6014 2.0385
5.9139 -7.1602 2.0385
6.4793 -6.6707 2.0385
7.0033 -6.1359 2.0385
7.4824 -5.5593 2.0385
7.9129 -4.9448 2.0385
8.2919 -4.2964 2.0385
8.6165 -3.6186 2.0385
8.8845 -2.9159 2.0385
9.0653 -2.1864 2.0321
9.0477 -1.4249 1.9954
9.0282 -0.6851 1.9723
4.3386 0.0205 0.9452
4.3267 0.3694 0.9462
4.3147 0.7213 0.9536
4.3025 1.0808 0.9675
4.2898 1.4530 0.9885
4.2765 1.8437 1.0172
4.2623 2.2599 1.0548
4.2470 2.7102 1.1027
4.2301 3.2056 1.1631
4.2112 3.7608 1.2390
4.1896 4.3961 1.3346
5.8298 7.1966 2.0385
5.2237 7.6296 2.0385
4.5853 8.0112 2.0385
3.9192 8.3392 2.0385
3.2298 8.6116 2.0385
2.5219 8.8269 2.0385
1.8002 8.9840 2.0385
1.0695 9.0823 2.0385
0.3346 9.1213 2.0385
-0.3997 9.1011 2.0385
-1.1287 9.0223 2.0385
-1.8477 8.8856 2.0385
-2.5523 8.6922 2.0385
-3.2380 8.4436 2.0385
-3.9006 8.1417 2.0385
-4.5361 7.7886 2.0385
-5.1406 7.3867 2.0385
-5.7105 6.9388 2.0385
-6.2425 6.4479 2.0385
-6.7333 5.9170 2.0385
-7.1801 5.3497 2.0385
-7.5804 4.7494 2.0385
-7.9318 4.1200 2.0385
-8.2322 3.4653 2.0385
-8.4800 2.7895 2.0385
-8.6737 2.0965 2.0385
-8.8123 1.3906 2.0385
-8.8948 0.6761 2.0385
-8.9209 -0.0427 2.0385
-8.8904 -0.7613 2.0385
-8.8034 -1.4754 2.0385
-8.6603 -2.1810 2.0385
-8.4620 -2.8733 2.0385
-8.2096 -3.5484 2.0385
-7.9045 -4.2020 2.0385
-7.5484 -4.8301 2.0385
-7.1434 -5.4288 2.0385
-6.6917 -5.9942 2.0385
-6.1961 -6.5228 2.0385
-5.6593 -7.0111 2.0385
-5.0846 -7.4559 2.0385
-4.4753 -7.8543 2.0385
-3.8353 -8.2034 2.0385
-3.1682 -8.5009 2.0385
-2.4784 -8.7445 2.0385
-1.7699 -8.9325 2.0385
-1.0474 -9.0633 2.0385
-0.3153 -9.1358 2.0385
0.4215 -9.1491 2.0385
1.1584 -9.1029 2.0385
1.8905 -8.9972 2.0385
2.6129 -8.8323 2.0385
3.3207 -8.6089 2.0385
4.0092 -8.3284 2.0385
4.6737 -7.9922 2.0385
5.3096 -7.6024 2.0385
5.9123 -7.1615 2.0385
6.4778 -6.6721 2.0385
7.0020 -6.1374 2.0385
7.4812 -5.5609 2.0385
7.9118 -4.9464 2.0385
8.2909 -4.2981 2.0385
8.6157 -3.6203 2.0385
8.8839 -2.9178 2.0385
9.0654 -2.1884 2.0322
9.0477 -1.4268 1.9955
9.0283 -0.6870 1.9724
4.3386 0.0196 0.9452
4.3267 0.3685 0.9462
4.3147 0.7204 0.9536
4.3025 1.0798 0.9675
4.2898 1.4520 0.9884
4.2765 1.8426 1.0171
4.2624 2.2587 1.0547
4.2471 2.7089 1.1026
4.2302 3.2042 1.1629
4.2113 3.7592 1.2388
4.1897 4.3943 1.3343
5.8314 7.1954 2.0385
5.2253 7.6285 2.0385
4.5870 8.0103 2.0385
3.9209 8.3384 2.0385
3.2316 8.6109 2.0385
2.5238 8.8264 2.0385
1.8021 8.9837 2.0385
1.0714 9.0821 2.0385
0.3365 9.1212 2.0385
-0.3978 9.1013 2.0385
-1.1268 9.0226 2.0385
-1.8459 8.8860 2.0385
-2.5505 8.6927 2.0385
-3.2362 8.4443 2.0385
-3.8989 8.1425 2.0385
-4.5345 7.7896 2.0385
-5.1391 7.3878 2.0385
-5.7091 6.9401 2.0385
-6.2411 6.4492 2.0385
-6.7321 5.9185 2.0385
-7.1790 5.3512 2.0385
-7.5794 4.7510 2.0385
-7.9309 4.1217 2.0385
-8.2315 3.4671 2.0385
-8.4794 2.7913 2.0385
-8.6733 2.0983 2.0385
-8.8120 1.3925 2.0385
-8.8947 0.6781 2.0385
-8.9209 -0.0408 2.0385
-8.8905 -0.7594 2.0385
-8.8037 -1.4736 2.0385
-8.6608 -2.1791 2.0385
-8.4626 -2.8715 2.0385
-8.2104 -3.5466 2.0385
-7.9054 -4.2003 2.0385
-7.5494 -4.8285 2.0385
-7.1445 -5.4272 2.0385
-6.6930 -5.9928 2.0385
-6.1974 -6.5215 2.0385
-5.6608 -7.0099 2.0385
-5.0861 -7.4548 2.0385
-4.4770 -7.8533 2.0385
-3.8370 -8.2026 2.0385
-3.1700 -8.5002 2.0385
-2.4802 -8.7440 2.0385
-1.7718 -8.9321 2.0385
-1.0493 -9.0630 2.0385
-0.3173 -9.1357 2.0385
0.4196 -9.1492 2.0385
1.1565 -9.1031 2.0385
1.8886 -8.9975 2.0385
2.6110 -8.8328 2.0385
3.3189 -8.6096 2.0385
4.0074 -8.3292 2.0385
4.6720 -7.9932 2.0385
5.3079 -7.6035 2.0385
5.9108 -7.1627 2.0385
6.4764 -6.6734 2.0385
7.0007 -6.1388 2.0385
7.4800 -5.5624 2.0385
7.9108 -4.9481 2.0385
8.2900 -4.2999 2.0385
8.6149 -3.6222 2.0385
8.8832 -2.9197 2.0385
9.0654 -2.1905 2.0323
9.0478 -1.4288 1.9956
9.0283 -0.6890 1.9724
4.3386 0.0186 0.9452
4.3268 0.3676 0.9462
4.3148 0.7194 0.9535
4.3025 1.0789 0.9674
4.2899 1.4510 0.9883
4.2766 1.8416 1.0170
4.2624 2.2576 1.0546
4.2471 2.7077 1.1024
4.2302 3.2028 1.1628
4.2114 3.7577 1.2385
4.1897 4.3925 1.3340
5.8329 7.1942 2.0385
5.2270 7.6274 2.0385
4.5887 8.0093 2.0385
3.9227 8.3376 2.0385
3.2335 8.6103 2.0385
2.5256 8.8259 2.0385
1.8040 8.9833 2.0385
1.0733 9.0819 2.0385
0.3385 9.1212 2.0385
4.2898 1.4537 1.1230
4.2765 1.8444 1.1555
4.2623 2.2606 1.1981
4.2470 2.7109 1.2524
4.2301 3.2063 1.3208
4.2112 3.7616 1.4068
4.1896 4.3969 1.5151
5.1360 6.3412 2.0385
4.6027 6.7238 2.0385
4.0409 7.0614 2.0385
3.4545 7.3518 2.0385
2.8473 7.5933 2.0385
2.2236 7.7847 2.0385
1.5874 7.9248 2.0385
0.9431 8.0131 2.0385
0.2947 8.0491 2.0385
-0.3533 8.0329 2.0385
-0.9969 7.9649 2.0385
-1.6320 7.8457 2.0385
-2.2546 7.6763 2.0385
-2.8607 7.4581 2.0385
-3.4466 7.1926 2.0385
-4.0088 6.8818 2.0385
-4.5437 6.5277 2.0385
-5.0481 6.1327 2.0385
-5.5190 5.6994 2.0385
-5.9537 5.2307 2.0385
-6.3495 4.7295 2.0385
-6.7040 4.1990 2.0385
-7.0153 3.6426 2.0385
-7.2815 3.0637 2.0385
-7.5010 2.4660 2.0385
-7.6726 1.8530 2.0385
-7.7952 1.2285 2.0385
-7.8682 0.5964 2.0385
-7.8911 -0.0394 2.0385
-7.8638 -0.6752 2.0385
-7.7863 -1.3070 2.0385
-7.6592 -1.9310 2.0385
-7.4832 -2.5432 2.0385
-7.2592 -3.1400 2.0385
-6.9885 -3.7177 2.0385
-6.6727 -4.2726 2.0385
-6.3136 -4.8013 2.0385
-5.9133 -5.3004 2.0385
-5.4742 -5.7666 2.0385
-4.9988 -6.1971 2.0385
-4.4900 -6.5889 2.0385
-3.9509 -6.9395 2.0385
-3.3847 -7.2464 2.0385
-2.7949 -7.5075 2.0385
-2.1852 -7.7209 2.0385
-1.5594 -7.8851 2.0385
-0.9214 -7.9987 2.0385
-0.2753 -8.0608 2.0385
0.3748 -8.0707 2.0385
1.0246 -8.0280 2.0385
1.6698 -7.9330 2.0385
2.3063 -7.7858 2.0385
2.9297 -7.5872 2.0385
3.5358 -7.3384 2.0385
4.1205 -7.0407 2.0385
4.6798 -6.6960 2.0385
5.2098 -6.3064 2.0385
5.7069 -5.8743 2.0385
6.1675 -5.4026 2.0385
6.5884 -4.8943 2.0385
6.9667 -4.3528 2.0385
7.2995 -3.7816 2.0385
7.5847 -3.1848 2.0385
7.8200 -2.5662 2.0385
8.0039 -1.9302 2.0385
8.1349 -1.2810 2.0385
8.2123 -0.6232 2.0385
4.3386 0.0204 1.0739
4.3267 0.3693 1.0751
4.3147 0.7212 1.0834
4.3025 1.0806 1.0992
4.2898 1.4527 1.1229
4.2765 1.8433 1.1554
4.2624 2.2595 1.1980
4.2470 2.7096 1.2522
4.2302 3.2049 1.3206
4.2113 3.7600 1.4065
4.1897 4.3951 1.5148
5.1374 6.3402 2.0385
4.6042 6.7229 2.0385
4.0425 7.0605 2.0385
3.4560 7.3511 2.0385
2.8489 7.5928 2.0385
2.2252 7.7843 2.0385
1.5891 7.9245 2.0385
0.9448 8.0129 2.0385
0.2965 8.0490 2.0385
-0.3516 8.0330 2.0385
-0.9953 7.9651 2.0385
-1.6304 7.8460 2.0385
-2.2530 7.6768 2.0385
-2.8592 7.4587 2.0385
-3.4451 7.1934 2.0385
-4.0073 6.8827 2.0385
-4.5423 6.5286 2.0385
-5.0468 6.1338 2.0385
-5.5179 5.7006 2.0385
-5.9526 5.2319 2.0385
-6.3485 4.7308 2.0385
-6.7032 4.2005 2.0385
-7.0146 3.6441 2.0385
-7.2808 3.0653 2.0385
-7.5005 2.4676 2.0385
-7.6722 1.8546 2.0385
-7.7950 1.2302 2.0385
-7.8681 0.5981 2.0385
-7.8911 -0.0378 2.0385
-7.8639 -0.6735 2.0385
-7.7866 -1.3053 2.0385
-7.6596 -1.9293 2.0385
-7.4837 -2.5416 2.0385
-7.2598 -3.1385 2.0385
-6.9893 -3.7162 2.0385
-6.6736 -4.2712 2.0385
-6.3146 -4.7999 2.0385
-5.9144 -5.2991 2.0385
-5.4754 -5.7654 2.0385
-5.0001 -6.1960 2.0385
-4.4914 -6.5880 2.0385
-3.9523 -6.9386 2.0385
-3.3862 -7.2456 2.0385
-2.7965 -7.5069 2.0385
-2.1869 -7.7204 2.0385
-1.5611 -7.8847 2.0385
-0.9231 -7.9985 2.0385
-0.2770 -8.0607 2.0385
0.3731 -8.0707 2.0385
1.0229 -8.0282 2.0385
1.6681 -7.9333 2.0385
2.3046 -7.7862 2.0385
2.9280 -7.5878 2.0385
3.5342 -7.3391 2.0385
4.1190 -7.0416 2.0385
4.6783 -6.6970 2.0385
5.2085 -6.3075 2.0385
5.7056 -5.8755 2.0385
6.1663 -5.4039 2.0385
6.5874 -4.8957 2.0385
6.9657 -4.3542 2.0385
7.2987 -3.7832 2.0385
7.5840 -3.1864 2.0385
7.8194 -2.5679 2.0385
8.0034 -1.9319 2.0385
8.1347 -1.2827 2.0385
8.2121 -0.6249 2.0385
4.3386 0.0195 1.0739
4.3267 0.3684 1.0751
4.3148 0.7202 1.0834
4.3025 1.0796 1.0991
4.2899 1.4517 1.1228
4.2766 1.8423 1.1553
4.2624 2.2583 1.1978
4.2471 2.7084 1.2521
4.2302 3.2036 1.3204
4.2113 3.7585 1.4063
4.1897 4.3933 1.5144
5.1387 6.3391 2.0385
4.6056 6.7219 2.0385
4.0440 7.0597 2.0385
3.4576 7.3504 2.0385
2.8506 7.5922 2.0385
2.2269 7.7838 2.0385
1.5908 7.9242 2.0385
0.9465 8.0127 2.0385
0.2982 8.0490 2.0385
-0.3499 8.0331 2.0385
-0.9936 7.9654 2.0385
-1.6287 7.8464 2.0385
-2.2514 7.6773 2.0385
-2.8576 7.4594 2.0385
-3.4436 7.1941 2.0385
-4.0059 6.8835 2.0385
-4.5409 6.5296 2.0385
-5.0455 6.1349 2.0385
-5.5167 5.7018 2.0385
-5.9515 5.2332 2.0385
-6.3475 4.7322 2.0385
-6.7023 4.2019 2.0385
-7.0138 3.6456 2.0385
-7.2802 3.0668 2.0385
-7.5000 2.4692 2.0385
-7.6718 1.8563 2.0385
-7.7947 1.2318 2.0385
-7.8680 0.5998 2.0385
-7.8911 -0.0361 2.0385
-7.8641 -0.6719 2.0385
-7.7869 -1.3037 2.0385
-7.6600 -1.9277 2.0385
-7.4842 -2.5400 2.0385
-7.2605 -3.1369 2.0385
-6.9900 -3.7147 2.0385
-6.6745 -4.2697 2.0385
-6.3156 -4.7985 2.0385
-5.9155 -5.2978 2.0385
-5.4766 -5.7643 2.0385
-5.0014 -6.1949 2.0385
-4.4928 -6.5870 2.0385
-3.9538 -6.9377 2.0385
-3.3878 -7.2449 2.0385
-2.7981 -7.5062 2.0385
-2.1885 -7.7199 2.0385
-1.5627 -7.8843 2.0385
-0.9248 -7.9982 2.0385
-0.2787 -8.0606 2.0385
0.3714 -8.0707 2.0385
1.0212 -8.0284 2.0385
1.6665 -7.9336 2.0385
2.3030 -7.7867 2.0385
2.9264 -7.5884 2.0385
3.5326 -7.3398 2.0385
4.1175 -7.0424 2.0385
4.6769 -6.6979 2.0385
5.2071 -6.3086 2.0385
5.7043 -5.8767 2.0385
6.1652 -5.4052 2.0385
6.5863 -4.8970 2.0385
6.9648 -4.3557 2.0385
7.2979 -3.7847 2.0385
7.5833 -3.1880 2.0385
7.8189 -2.5695 2.0385
8.0030 -1.9336 2.0385
8.1344 -1.2845 2.0385
8.2120 -0.6267 2.0385
4.3387 0.0186 1.0739
4.3268 0.3675 1.0751
4.3148 0.7193 1.0833
4.3026 1.0786 1.0991
4.2899 1.4507 1.1227
4.2766 1.8412 1.1552
4.2624 2.2572 1.1977
4.2471 2.7072 1.2519
4.2303 3.2022 1.3202
4.2114 3.7569 1.4060
4.1898 4.3915 1.5141
5.1401 6.3380 2.0385
4.6071 6.7210 2.0385
4.0455 7.0589 2.0385
3.4592 7.3497 2.0385
2.8522 7.5916 2.0385
2.2286 7.7834 2.0385
1.5925 7.9239 2.0385
0.9482 8.0126 2.0385
0.2999 8.0490 2.0385
4.2898 1.4534 1.2593
4.2765 1.8441 1.2957
4.2623 2.2602 1.3433
4.2470 2.7104 1.4040
4.2302 3.2057 1.4806
4.2043 3.7545 1.5741
4.1897 4.3959 1.6978
4.5840 5.6582 2.0385
4.1088 6.0005 2.0385
3.6079 6.3027 2.0385
3.0850 6.5630 2.0385
2.5434 6.7797 2.0385
1.9868 6.9518 2.0385
1.4189 7.0781 2.0385
0.8436 7.1582 2.0385
0.2645 7.1916 2.0385
-0.3146 7.1783 2.0385
-0.8899 7.1188 2.0385
-1.4578 7.0134 2.0385
-2.0147 6.8631 2.0385
-2.5570 6.6691 2.0385
-3.0814 6.4326 2.0385
-3.5847 6.1556 2.0385
-4.0637 5.8395 2.0385
-4.5155 5.4869 2.0385
-4.9374 5.0998 2.0385
-5.3269 4.6809 2.0385
-5.6817 4.2328 2.0385
-5.9995 3.7584 2.0385
-6.2786 3.2606 2.0385
-6.5173 2.7426 2.0385
-6.7141 2.2075 2.0385
-6.8679 1.6588 2.0385
-6.9779 1.0998 2.0385
-7.0433 0.5339 2.0385
-7.0638 -0.0354 2.0385
-7.0392 -0.6046 2.0385
-6.9696 -1.1701 2.0385
-6.8555 -1.7287 2.0385
-6.6975 -2.2766 2.0385
-6.4965 -2.8107 2.0385
-6.2537 -3.3274 2.0385
-5.9705 -3.8237 2.0385
-5.6485 -4.2964 2.0385
-5.2897 -4.7425 2.0385
-4.8962 -5.1590 2.0385
-4.4703 -5.5434 2.0385
-4.0147 -5.8930 2.0385
-3.5320 -6.2057 2.0385
-3.0252 -6.4791 2.0385
-2.4975 -6.7115 2.0385
-1.9521 -6.9011 2.0385
-1.3925 -7.0466 2.0385
-0.8222 -7.1470 2.0385
-0.2448 -7.2012 2.0385
0.3359 -7.2088 2.0385
0.9161 -7.1695 2.0385
1.4921 -7.0834 2.0385
2.0600 -6.9508 2.0385
2.6161 -6.7724 2.0385
3.1566 -6.5493 2.0385
3.6779 -6.2827 2.0385
4.1764 -5.9743 2.0385
4.6487 -5.6259 2.0385
5.0915 -5.2398 2.0385
5.5017 -4.8185 2.0385
5.8765 -4.3647 2.0385
6.2133 -3.8814 2.0385
6.5096 -3.3719 2.0385
6.7634 -2.8395 2.0385
6.9728 -2.2879 2.0385
7.1365 -1.7208 2.0385
7.2532 -1.1421 2.0385
7.3221 -0.5556 2.0385
4.3386 0.0204 1.2045
4.3267 0.3692 1.2058
4.3147 0.7210 1.2151
4.3025 1.0804 1.2327
4.2898 1.4524 1.2592
4.2765 1.8430 1.2956
4.2624 2.2590 1.3431
4.2471 2.7091 1.4038
4.2302 3.2043 1.4803
4.2052 3.7537 1.5741
4.1897 4.3942 1.6975
4.5852 5.6573 2.0385
4.1100 5.9997 2.0385
3.6093 6.3020 2.0385
3.0864 6.5623 2.0385
2.5448 6.7792 2.0385
1.9883 6.9514 2.0385
1.4204 7.0778 2.0385
0.8451 7.1580 2.0385
0.2660 7.1915 2.0385
-0.3131 7.1784 2.0385
-0.8884 7.1190 2.0385
-1.4563 7.0137 2.0385
-2.0132 6.8636 2.0385
-2.5556 6.6696 2.0385
-3.0800 6.4333 2.0385
-3.5835 6.1564 2.0385
-4.0624 5.8404 2.0385
-4.5144 5.4879 2.0385
-4.9364 5.1009 2.0385
-5.3260 4.6821 2.0385
-5.6808 4.2340 2.0385
-5.9987 3.7597 2.0385
-6.2779 3.2619 2.0385
-6.5167 2.7440 2.0385
-6.7136 2.2090 2.0385
-6.8676 1.6603 2.0385
-6.9777 1.1013 2.0385
-7.0432 0.5354 2.0385
-7.0638 -0.0339 2.0385
-7.0393 -0.6031 2.0385
-6.9699 -1.1686 2.0385
-6.8559 -1.7272 2.0385
-6.6980 -2.2752 2.0385
-6.4971 -2.8093 2.0385
-6.2544 -3.3261 2.0385
-5.9713 -3.8225 2.0385
-5.6494 -4.2952 2.0385
-5.2907 -4.7413 2.0385
-4.8973 -5.1580 2.0385
-4.4715 -5.5424 2.0385
-4.0159 -5.8922 2.0385
-3.5333 -6.2049 2.0385
-3.0265 -6.4784 2.0385
-2.4989 -6.7109 2.0385
-1.9535 -6.9007 2.0385
-1.3940 -7.0463 2.0385
-0.8237 -7.1467 2.0385
-0.2463 -7.2011 2.0385
0.3343 -7.2088 2.0385
0.9146 -7.1696 2.0385
1.4906 -7.0837 2.0385
2.0586 -6.9512 2.0385
2.6147 -6.7730 2.0385
3.1552 -6.5499 2.0385
3.6766 -6.2835 2.0385
4.1751 -5.9751 2.0385
4.6475 -5.6268 2.0385
5.0904 -5.2408 2.0385
5.5007 -4.8196 2.0385
5.8756 -4.3659 2.0385
6.2124 -3.8827 2.0385
6.5089 -3.3733 2.0385
6.7628 -2.8410 2.0385
6.9724 -2.2894 2.0385
7.1361 -1.7223 2.0385
7.2529 -1.1436 2.0385
7.3219 -0.5572 2.0385
4.3386 0.0195 1.2045
4.3268 0.3683 1.2058
4.3148 0.7201 1.2150
4.3025 1.0794 1.2326
4.2899 1.4514 1.2591
4.2766 1.8419 1.2955
4.2624 2.2579 1.3430
4.2471 2.7079 1.4037
4.2303 3.2029 1.4801
4.2061 3.7529 1.5742
4.1898 4.3924 1.6971
4.5864 5.6563 2.0385
4.1113 5.9988 2.0385
3.6106 6.3012 2.0385
3.0878 6.5617 2.0385
2.5463 6.7787 2.0385
1.9897 6.9510 2.0385
1.4219 7.0776 2.0385
0.8466 7.1579 2.0385
0.2675 7.1915 2.0385
-0.3116 7.1785 2.0385
-0.8869 7.1192 2.0385
-1.4549 7.0141 2.0385
-2.0118 6.8640 2.0385
-2.5542 6.6702 2.0385
-3.0787 6.4340 2.0385
-3.5820 6.1570 2.0385
-4.0612 5.8413 2.0385
-4.5132 5.4888 2.0385
-4.9353 5.1020 2.0385
-5.3250 4.6832 2.0385
-5.6799 4.2353 2.0385
-5.9980 3.7609 2.0385
-6.2772 3.2633 2.0385
-6.5161 2.7453 2.0385
-6.7132 2.2104 2.0385
-6.8672 1.6618 2.0385
-6.9774 1.1028 2.0385
-7.0431 0.5369 2.0385
-7.0638 -0.0324 2.0385
-7.0394 -0.6016 2.0385
-6.9701 -1.1672 2.0385
-6.8562 -1.7257 2.0385
-6.6985 -2.2737 2.0385
-6.4977 -2.8079 2.0385
-6.2551 -3.3248 2.0385
-5.9721 -3.8212 2.0385
-5.6503 -4.2940 2.0385
-5.2917 -4.7402 2.0385
-4.8984 -5.1569 2.0385
-4.4727 -5.5415 2.0385
-4.0171 -5.8913 2.0385
-3.5346 -6.2041 2.0385
-3.0279 -6.4777 2.0385
-2.5003 -6.7103 2.0385
-1.9550 -6.9002 2.0385
-1.3955 -7.0460 2.0385
-0.8252 -7.1465 2.0385
-0.2479 -7.2010 2.0385
0.3328 -7.2089 2.0385
0.9131 -7.1698 2.0385
1.4891 -7.0839 2.0385
2.0571 -6.9516 2.0385
2.6132 -6.7735 2.0385
3.1538 -6.5506 2.0385
3.6752 -6.2842 2.0385
4.1739 -5.9760 2.0385
4.6463 -5.6278 2.0385
5.0892 -5.2419 2.0385
5.4996 -4.8208 2.0385
5.8746 -4.3671 2.0385
6.2116 -3.8840 2.0385
6.5081 -3.3746 2.0385
6.7622 -2.8424 2.0385
6.9719 -2.2909 2.0385
7.1358 -1.7238 2.0385
7.2527 -1.1451 2.0385
7.3218 -0.5587 2.0385
4.3387 0.0185 1.2045
4.3268 0.3674 1.2057
4.3148 0.7191 1.2150
4.3026 1.0784 1.2326
4.2899 1.4504 1.2590
4.2766 1.8409 1.2953
4.2625 2.2568 1.3429
4.2472 2.7067 1.4035
4.2303 3.2015 1.4799
4.2070 3.7522 1.5742
4.1898 4.3905 1.6968
4.5876 5.6554 2.0385
4.1126 5.9980 2.0385
3.6120 6.3005 2.0385
3.0892 6.5611 2.0385
2.5477 6.7782 2.0385
1.9912 6.9506 2.0385
1.4235 7.0773 2.0385
0.8481 7.1577 2.0385
0.2690 7.1915 2.0385
4.2898 1.4531 1.3977
4.2765 1.8437 1.4380
4.2624 2.2597 1.4908
4.2471 2.7098 1.5580
4.2302 3.2050 1.6428
4.1980 3.7481 1.7438
4.5346 4.7568 2.0385
4.1328 5.1000 2.0385
3.7049 5.4092 2.0385
3.2539 5.6824 2.0385
2.7827 5.9178 2.0385
2.2947 6.1141 2.0385
1.7930 6.2701 2.0385
1.2810 6.3849 2.0385
0.7621 6.4581 2.0385
0.2396 6.4891 2.0385
-0.2829 6.4781 2.0385
-0.8022 6.4252 2.0385
-1.3150 6.3310 2.0385
-1.8179 6.1962 2.0385
-2.3078 6.0217 2.0385
-2.7817 5.8090 2.0385
-3.2366 5.5595 2.0385
-3.6696 5.2746 2.0385
-4.0781 4.9566 2.0385
-4.4597 4.6074 2.0385
-4.8120 4.2293 2.0385
-5.1330 3.8247 2.0385
-5.4205 3.3962 2.0385
-5.6731 2.9466 2.0385
-5.8890 2.4786 2.0385
-6.0672 1.9951 2.0385
-6.2064 1.4992 2.0385
-6.3059 0.9940 2.0385
-6.3650 0.4825 2.0385
-6.3835 -0.0320 2.0385
-6.3612 -0.5465 2.0385
-6.2981 -1.0577 2.0385
-6.1948 -1.5624 2.0385
-6.0517 -2.0575 2.0385
-5.8697 -2.5400 2.0385
-5.6499 -3.0068 2.0385
-5.3936 -3.4550 2.0385
-5.1023 -3.8817 2.0385
-4.7776 -4.2843 2.0385
-4.4217 -4.6601 2.0385
-4.0365 -5.0068 2.0385
-3.6246 -5.3220 2.0385
-3.1882 -5.6036 2.0385
-2.7303 -5.8497 2.0385
-2.2535 -6.0587 2.0385
-1.7610 -6.2291 2.0385
-1.2557 -6.3596 2.0385
-0.7409 -6.4492 2.0385
-0.2199 -6.4972 2.0385
0.3040 -6.5031 2.0385
0.8273 -6.4668 2.0385
1.3467 -6.3882 2.0385
1.8586 -6.2678 2.0385
2.3598 -6.1062 2.0385
2.8467 -5.9042 2.0385
3.3163 -5.6632 2.0385
3.7651 -5.3845 2.0385
4.1903 -5.0700 2.0385
4.5889 -4.7216 2.0385
4.9581 -4.3415 2.0385
5.2954 -3.9323 2.0385
5.5983 -3.4967 2.0385
5.8649 -3.0375 2.0385
6.0932 -2.5578 2.0385
6.2816 -2.0609 2.0385
6.4288 -1.5500 2.0385
6.5338 -1.0287 2.0385
6.5958 -0.5005 2.0385
4.3386 0.0203 1.3371
4.3267 0.3691 1.3385
4.3148 0.7208 1.3488
4.3025 1.0801 1.3683
4.2899 1.4521 1.3976
4.2766 1.8426 1.4379
4.2624 2.2586 1.4906
4.2471 2.7086 1.5578
4.2302 3.2036 1.6426
