ply
format ascii 1.0
element vertex 2181
property float32 x
property float32 y
property float32 z
end_header
-4.8557 4.3164 2.0384
-5.1866 3.9126 2.0384
-5.4839 3.4836 2.0384
-5.7459 3.0321 2.0384
-5.9708 2.5610 2.0384
-6.1571 2.0734 2.0384
-6.3037 1.5724 2.0384
-6.4096 1.0613 2.0384
-6.4741 0.5433 2.0384
-6.4968 0.0218 2.0384
-6.4776 -0.4998 2.0384
-6.4165 -1.0182 2.0384
-6.3141 -1.5301 2.0384
-6.1709 -2.0320 2.0384
-5.9878 -2.5209 2.0384
-5.7661 -2.9934 2.0384
-5.5072 -3.4466 2.0384
-5.2127 -3.8777 2.0384
-4.8846 -4.2836 2.0384
-4.5250 -4.6619 2.0384
-4.1361 -5.0101 2.0384
-3.7205 -5.3260 2.0384
-3.2809 -5.6076 2.0384
-2.8202 -5.8528 2.0384
-2.3412 -6.0603 2.0384
-1.8471 -6.2287 2.0384
-1.3411 -6.3569 2.0384
-0.8265 -6.4440 2.0384
-0.3065 -6.4896 2.0384
0.2155 -6.4932 2.0384
0.7361 -6.4550 2.0384
1.2519 -6.3751 2.0384
1.7597 -6.2540 2.0384
2.2561 -6.0925 2.0384
2.7379 -5.8917 2.0384
3.2021 -5.6529 2.0384
3.6455 -5.3776 2.0384
3.8513 -4.8006 1.9310
4.1258 -4.3716 1.8860
4.4634 -4.0263 1.8860
4.7723 -3.6550 1.8860
5.0503 -3.2600 1.8860
5.2957 -2.8441 1.8860
5.5069 -2.4098 1.8860
5.6826 -1.9599 1.8860
5.8216 -1.4974 1.8860
5.9230 -1.0252 1.8860
5.9825 -0.5460 1.8848
6.0080 -0.0640 1.8851
5.9927 0.4185 1.8848
5.9435 0.8988 1.8860
5.8522 1.3730 1.8860
5.7231 1.8384 1.8860
5.5570 2.2919 1.8860
5.3551 2.7307 1.8860
5.1186 3.1518 1.8860
4.8490 3.5525 1.8860
4.5482 3.9303 1.8860
4.2180 4.2827 1.8860
5.3797 0.9747 1.8860
5.2841 1.4035 1.8860
5.1544 1.8232 1.8860
4.9914 2.2311 1.8860
4.7962 2.6246 1.8860
4.5700 3.0012 1.8860
4.3143 3.3583 1.8860
4.0308 3.6939 1.8860
3.9329 4.2334 1.9933
3.6614 4.6381 2.0384
3.2772 4.9171 2.0384
2.8719 5.1643 2.0384
2.4480 5.3782 2.0384
2.0084 5.5573 2.0384
1.5557 5.7006 2.0384
1.0931 5.8071 2.0384
0.6233 5.8762 2.0384
0.1496 5.9072 2.0384
-0.3251 5.9002 2.0384
-0.7977 5.8550 2.0384
-1.2652 5.7721 2.0384
-1.7245 5.6519 2.0384
-2.1727 5.4952 2.0384
-2.6068 5.3030 2.0384
-3.0241 5.0766 2.0384
-3.4219 4.8175 2.0384
-3.7976 4.5272 2.0384
-4.1488 4.2077 2.0384
-4.4732 3.8611 2.0384
-4.7688 3.4895 2.0384
-5.0335 3.0954 2.0384
-5.2658 2.6813 2.0384
-5.4640 2.2499 2.0384
-5.6270 1.8040 2.0384
-5.7537 1.3465 2.0384
-5.8432 0.8802 2.0384
-5.8950 0.4083 2.0384
-5.9087 -0.0663 2.0384
-5.8843 -0.5404 2.0384
-5.8220 -1.0111 2.0384
-5.7220 -1.4752 2.0384
-5.5851 -1.9298 2.0384
-5.4122 -2.3720 2.0384
-5.2043 -2.7988 2.0384
-4.9628 -3.2076 2.0384
-4.6893 -3.5956 2.0384
-4.3855 -3.9605 2.0384
-4.0534 -4.2998 2.0384
-3.6951 -4.6112 2.0384
-3.3130 -4.8930 2.0384
-2.9095 -5.1432 2.0384
-2.4872 -5.3602 2.0384
-0.7436 -2.0115 0.7398
-1.5973 -5.6891 2.0384
-1.1354 -5.7990 2.0384
-0.6662 -5.8714 2.0384
-0.1927 -5.9060 2.0384
0.2821 -5.9024 2.0384
0.7550 -5.8607 2.0384
1.2231 -5.7811 2.0384
1.6833 -5.6643 2.0384
0.7740 -2.0001 0.7398
2.5681 -5.3219 2.0384
2.9870 -5.0985 2.0384
3.3867 -4.8423 2.0384
3.7645 -4.5548 2.0384
3.8633 -3.9755 1.9123
4.1126 -3.6025 1.8860
4.3886 -3.2607 1.8860
4.6362 -2.8979 1.8860
4.8538 -2.5163 1.8860
5.0402 -2.1185 1.8860
5.1940 -1.7070 1.8860
5.3143 -1.2846 1.8860
5.4002 -0.8538 1.8860
5.4514 -0.4175 1.8860
5.4673 0.0215 1.8860
5.4479 0.4604 1.8860
5.3934 0.8962 1.8860
5.3040 1.3263 1.8860
5.1804 1.7478 1.8860
5.0234 2.1581 1.8860
4.8339 2.5544 1.8860
4.6132 2.9342 1.8860
4.3628 3.2951 1.8860
4.0842 3.6347 1.8860
3.9370 4.1158 1.9647
3.7286 4.5842 2.0384
3.3485 4.8688 2.0384
2.9469 5.1219 2.0384
2.5262 5.3419 2.0384
2.0892 5.5275 2.0384
1.6387 5.6774 2.0384
1.1776 5.7906 2.0384
0.7089 5.8664 2.0384
0.2357 5.9044 2.0384
-0.2391 5.9043 2.0384
-0.7123 5.8660 2.0384
-1.1809 5.7899 2.0384
-1.6419 5.6764 2.0384
-2.0923 5.5263 2.0384
-2.5292 5.3405 2.0384
-2.9498 5.1202 2.0384
-3.3513 4.8669 2.0384
-3.7312 4.5821 2.0384
-4.0870 4.2678 2.0384
-4.4165 3.9259 2.0384
-4.7174 3.5587 2.0384
-4.9878 3.1685 2.0384
-5.2261 2.7578 2.0384
-5.4306 2.3294 2.0384
-5.6001 1.8859 2.0384
-5.7334 1.4302 2.0384
-5.8297 0.9653 2.0384
-5.8884 0.4942 2.0384
-5.9091 0.0199 2.0384
-5.8916 -0.4547 2.0384
-5.8361 -0.9261 2.0384
-5.7429 -1.3916 2.0384
-5.6127 -1.8482 2.0384
-5.4462 -2.2928 2.0384
-5.2445 -2.7226 2.0384
-5.0090 -3.1349 2.0384
-4.7412 -3.5269 2.0384
-4.4427 -3.8961 2.0384
-4.1156 -4.2402 2.0384
-3.7619 -4.5569 2.0384
-3.3840 -4.8442 2.0384
-2.9841 -5.1003 2.0384
-2.5651 -5.3233 2.0384
-0.7728 -2.0005 0.7398
-1.6800 -5.6653 2.0384
-1.2198 -5.7818 2.0384
-0.7517 -5.8611 2.0384
-0.2787 -5.9025 2.0384
0.1960 -5.9059 2.0384
0.6695 -5.8711 2.0384
1.1387 -5.7984 2.0384
1.6005 -5.6882 2.0384
0.7447 -2.0111 0.7398
2.4902 -5.3588 2.0384
2.9124 -5.1416 2.0384
3.3158 -4.8911 2.0384
3.6977 -4.6092 2.0384
3.8572 -4.0870 1.9386
4.0597 -3.6621 1.8860
4.3406 -3.3243 1.8860
4.5934 -2.9651 1.8860
4.8166 -2.5868 1.8860
5.0088 -2.1918 1.8860
5.1686 -1.7826 1.8860
5.2950 -1.3619 1.8860
5.3872 -0.9324 1.8860
5.4447 -0.4969 1.8860
5.4670 -0.0582 1.8860
5.4540 0.3809 1.8860
5.4059 0.8175 1.8860
5.3228 1.2488 1.8860
5.2053 1.6721 1.8860
5.0543 2.0846 1.8860
4.8706 2.4836 1.8860
4.6555 2.8667 1.8860
4.4104 3.2311 1.8860
4.1367 3.5748 1.8860
3.9409 4.0014 1.9373
4.9254 0.8924 1.8860
4.8379 1.2850 1.8860
4.7191 1.6692 1.8860
4.5699 2.0427 1.8860
4.3911 2.4029 1.8860
4.1841 2.7477 1.8860
3.9522 3.0765 1.8871
3.9241 3.5961 2.0054
3.6823 3.9636 2.0384
3.3522 4.2464 2.0384
3.0005 4.5018 2.0384
2.6294 4.7282 2.0384
2.2413 4.9240 2.0384
0.6738 1.8644 0.7469
0.5220 1.9127 0.7470
0.3668 1.9486 0.7471
0.2092 1.9718 0.7471
0.1370 5.4084 2.0384
-0.2977 5.4019 2.0384
-0.2677 1.9647 0.7471
-0.4245 1.9367 0.7470
-0.5786 1.8962 0.7470
-0.7288 1.8434 0.7469
-2.3867 4.8552 2.0384
-2.7688 4.6479 2.0384
-3.1330 4.4107 2.0384
-3.4769 4.1449 2.0384
-3.7985 3.8524 2.0384
-4.0955 3.5350 2.0384
-4.3660 3.1948 2.0384
-4.6084 2.8340 2.0384
-4.8211 2.4549 2.0384
-5.0026 2.0599 2.0384
-5.1518 1.6517 2.0384
-5.2678 1.2328 2.0384
-5.3498 0.8059 2.0384
-5.3972 0.3738 2.0384
-5.4098 -0.0607 2.0384
-5.3874 -0.4948 2.0384
-5.3303 -0.9257 2.0384
-5.2388 -1.3506 2.0384
-5.1135 -1.7668 2.0384
-4.9551 -2.1717 2.0384
-4.7648 -2.5625 2.0384
-4.5437 -2.9367 2.0384
-4.2933 -3.2920 2.0384
-4.0151 -3.6260 2.0384
-3.7111 -3.9367 2.0384
-3.3831 -4.2219 2.0384
-3.0332 -4.4798 2.0384
-2.6638 -4.7089 2.0384
-2.2771 -4.9075 2.0384
-0.6811 -1.8424 0.7401
-0.5309 -1.8909 0.7400
-0.3773 -1.9273 0.7399
-0.2214 -1.9512 0.7399
-0.0640 -1.9626 0.7399
0.0937 -1.9614 0.7399
0.2509 -1.9477 0.7399
0.4065 -1.9214 0.7399
0.5595 -1.8827 0.7400
0.7089 -1.8319 0.7401
2.3512 -4.8725 2.0384
2.7348 -4.6680 2.0384
3.1007 -4.4334 2.0384
3.4466 -4.1701 2.0384
3.7703 -3.8800 2.0384
3.8650 -3.3855 1.9359
4.0180 -2.9853 1.8860
4.2447 -2.6531 1.8860
4.4440 -2.3038 1.8860
4.6146 -1.9396 1.8860
4.7554 -1.5629 1.8860
4.8655 -1.1761 1.8860
4.9442 -0.7817 1.8860
4.9910 -0.3822 1.8860
5.0056 0.0197 1.8860
4.9879 0.4215 1.8860
4.9379 0.8205 1.8860
4.8561 1.2143 1.8860
4.7429 1.6002 1.8860
4.5992 1.9758 1.8860
4.4257 2.3387 1.8860
4.2237 2.6864 1.8860
3.9944 3.0168 1.8860
3.9276 3.4953 1.9810
3.7397 3.9095 2.0384
3.4137 4.1971 2.0384
3.0658 4.4576 2.0384
2.6980 4.6894 2.0384
2.3128 4.8908 2.0384
0.7009 1.8543 0.7469
0.5498 1.9048 0.7470
0.3951 1.9430 0.7471
0.2379 1.9686 0.7471
0.2158 5.4058 2.0384
-0.2189 5.4057 2.0384
-0.2390 1.9684 0.7471
-0.3962 1.9428 0.7471
-0.5509 1.9045 0.7470
-0.7019 1.8539 0.7469
-2.3156 4.8895 2.0384
-2.7007 4.6878 2.0384
-3.0683 4.4559 2.0384
-3.4161 4.1952 2.0384
-3.7419 3.9074 2.0384
-4.0435 3.5944 2.0384
-4.3190 3.2581 2.0384
-4.5666 2.9009 2.0384
-4.7848 2.5249 2.0384
-4.9720 2.1327 2.0384
-5.1272 1.7266 2.0384
-5.2493 1.3094 2.0384
-5.3374 0.8838 2.0384
-5.3912 0.4524 2.0384
-5.4101 0.0182 2.0384
-5.3941 -0.4162 2.0384
-5.3433 -0.8479 2.0384
-5.2579 -1.2741 2.0384
-5.1387 -1.6921 2.0384
-4.9862 -2.0992 2.0384
-4.8016 -2.4927 2.0384
-4.5860 -2.8701 2.0384
-4.3408 -3.2290 2.0384
-4.0676 -3.5671 2.0384
-3.7681 -3.8821 2.0384
-3.4442 -4.1721 2.0384
-3.0982 -4.4351 2.0384
-2.7321 -4.6696 2.0384
-2.3484 -4.8738 2.0384
-0.7079 -1.8323 0.7401
-0.5584 -1.8830 0.7400
-0.4054 -1.9216 0.7399
-0.2498 -1.9478 0.7399
-0.0926 -1.9615 0.7399
0.0651 -1.9626 0.7399
0.2225 -1.9511 0.7399
0.3784 -1.9271 0.7399
0.5320 -1.8906 0.7400
0.6821 -1.8420 0.7401
2.2799 -4.9062 2.0384
2.6665 -4.7074 2.0384
3.0358 -4.4781 2.0384
3.3855 -4.2199 2.0384
3.7133 -3.9345 2.0384
3.8598 -3.4817 1.9585
3.9740 -3.0436 1.8860
4.2055 -2.7147 1.8860
4.4099 -2.3683 1.8860
4.5858 -2.0067 1.8860
4.7321 -1.6321 1.8860
4.8478 -1.2469 1.8860
4.9323 -0.8537 1.8860
4.9849 -0.4550 1.8860
5.0053 -0.0533 1.8860
4.9935 0.3487 1.8860
4.9494 0.7485 1.8860
4.8733 1.1434 1.8860
4.7658 1.5309 1.8860
4.6275 1.9086 1.8860
4.4593 2.2739 1.8860
4.2624 2.6246 1.8860
4.0379 2.9583 1.8860
3.9309 3.3969 1.9574
3.7963 3.8546 2.0384
4.5343 0.8216 1.8860
4.4537 1.1829 1.8860
4.3444 1.5367 1.8860
4.2070 1.8805 1.8860
4.0424 2.2121 1.8860
3.9287 2.5800 1.9237
3.9139 3.0466 2.0299
3.6719 3.3649 2.0384
3.3899 3.6489 2.0384
3.0860 3.9092 2.0384
2.7622 4.1444 2.0384
2.4206 4.3527 2.0384
0.7557 1.6602 0.7465
0.6200 1.7157 0.7466
0.4804 1.7601 0.7467
0.3375 1.7932 0.7468
0.1925 1.8146 0.7468
0.0462 1.8242 0.7468
-0.1004 1.8220 0.7468
-0.2463 1.8080 0.7468
-0.3907 1.7823 0.7468
-0.5324 1.7450 0.7467
-0.6707 1.6964 0.7466
-2.1972 4.4697 2.0384
-2.5489 4.2788 2.0384
-2.8842 4.0604 2.0384
-3.2008 3.8158 2.0384
-3.4968 3.5465 2.0384
-3.7703 3.2543 2.0384
-4.0193 2.9411 2.0384
-4.2425 2.6090 2.0384
-4.4382 2.2600 2.0384
-4.6053 1.8964 2.0384
-4.7427 1.5205 2.0384
-4.8495 1.1348 2.0384
-4.9249 0.7419 2.0384
-4.9686 0.3441 2.0384
-4.9802 -0.0559 2.0384
-4.9596 -0.4555 2.0384
-4.9070 -0.8522 2.0384
-4.8228 -1.2434 2.0384
-4.7074 -1.6266 2.0384
-4.5616 -1.9992 2.0384
-4.3864 -2.3590 2.0384
-4.1829 -2.7035 2.0384
-3.9523 -3.0306 2.0384
-3.6963 -3.3381 2.0384
-3.4164 -3.6241 2.0384
-3.1144 -3.8866 2.0384
-2.7923 -4.1241 2.0384
-2.4522 -4.3349 2.0384
-0.7615 -1.6411 0.7405
-0.6272 -1.6967 0.7403
-0.4889 -1.7414 0.7403
-0.3475 -1.7749 0.7402
-0.2039 -1.7970 0.7402
-0.0590 -1.8075 0.7401
0.0863 -1.8064 0.7402
0.2311 -1.7937 0.7402
0.3744 -1.7694 0.7402
0.5152 -1.7338 0.7403
0.6529 -1.6871 0.7404
2.1645 -4.4856 2.0384
2.5176 -4.2973 2.0384
2.8545 -4.0813 2.0384
3.1729 -3.8390 2.0384
3.4709 -3.5719 2.0384
3.7464 -3.2817 2.0384
3.8639 -2.8709 1.9701
3.9076 -2.4424 1.8860
4.0911 -2.1209 1.8860
4.2481 -1.7856 1.8860
4.3778 -1.4388 1.8860
4.4791 -1.0827 1.8860
4.5516 -0.7196 1.8860
4.5947 -0.3519 1.8860
4.6081 0.0181 1.8860
4.5918 0.3880 1.8860
4.5458 0.7554 1.8860
4.4705 1.1179 1.8860
4.3663 1.4732 1.8860
4.2340 1.8189 1.8860
4.0743 2.1530 1.8860
3.9310 2.5003 1.9067
3.9168 2.9583 2.0089
3.7205 3.3111 2.0384
3.4427 3.5991 2.0384
3.1427 3.8638 2.0384
2.8223 4.1036 2.0384
2.4838 4.3170 2.0384
0.7798 1.6489 0.7465
0.6450 1.7064 0.7466
0.5060 1.7529 0.7467
0.3636 1.7880 0.7468
0.2189 1.8115 0.7468
0.0728 1.8233 0.7468
-0.0738 1.8233 0.7468
-0.2200 1.8114 0.7468
-0.3646 1.7878 0.7468
-0.5069 1.7526 0.7467
-0.6459 1.7061 0.7466
-2.1318 4.5012 2.0384
-2.4862 4.3156 2.0384
-2.8247 4.1020 2.0384
-3.1449 3.8620 2.0384
-3.4448 3.5971 2.0384
-3.7224 3.3089 2.0384
-3.9760 2.9994 2.0384
-4.2040 2.6706 2.0384
-4.4048 2.3244 2.0384
-4.5772 1.9633 2.0384
-4.7200 1.5895 2.0384
-4.8324 1.2055 2.0384
-4.9136 0.8136 2.0384
-4.9631 0.4165 2.0384
-4.9805 0.0167 2.0384
-4.9657 -0.3832 2.0384
-4.9190 -0.7806 2.0384
-4.8404 -1.1729 2.0384
-4.7306 -1.5577 2.0384
-4.5903 -1.9325 2.0384
-4.4203 -2.2948 2.0384
-4.2218 -2.6422 2.0384
-3.9961 -2.9726 2.0384
-3.7446 -3.2839 2.0384
-3.4688 -3.5739 2.0384
-3.1707 -3.8408 2.0384
-2.8522 -4.0829 2.0384
-2.5152 -4.2987 2.0384
-0.7854 -1.6299 0.7405
-0.6519 -1.6874 0.7404
-0.5143 -1.7341 0.7403
-0.3733 -1.7696 0.7402
-0.2301 -1.7938 0.7402
-0.0853 -1.8064 0.7402
0.0600 -1.8075 0.7402
0.2049 -1.7968 0.7402
0.3485 -1.7747 0.7402
0.4899 -1.7411 0.7403
0.6282 -1.6964 0.7404
0.7624 -1.6407 0.7405
2.4547 -4.3336 2.0384
2.7947 -4.1225 2.0384
3.1166 -3.8848 2.0384
3.4184 -3.6220 2.0384
3.6982 -3.3360 2.0384
3.8594 -2.9559 1.9896
3.8878 -2.5094 1.8939
4.0597 -2.1803 1.8860
4.2216 -1.8473 1.8860
4.3563 -1.5025 1.8860
4.4629 -1.1479 1.8860
4.5406 -0.7859 1.8860
4.5891 -0.4188 1.8860
4.6079 -0.0491 1.8860
4.5969 0.3210 1.8860
4.5563 0.6890 1.8860
4.4863 1.0526 1.8860
4.3873 1.4093 1.8860
4.2600 1.7570 1.8860
4.1052 2.0933 1.8860
3.9392 2.4256 1.8933
3.9197 2.8716 1.9887
3.7684 3.2565 2.0384
3.4948 3.5485 2.0384
4.1935 0.7598 1.8860
4.1190 1.0940 1.8860
4.0179 1.4212 1.8860
3.9242 1.7542 1.9022
3.9147 2.1423 1.9748
3.8502 2.5284 2.0384
3.6348 2.8294 2.0384
3.3959 3.1121 2.0384
3.1351 3.3746 2.0384
2.8541 3.6154 2.0384
2.5546 3.8329 2.0384
2.2387 4.0256 2.0384
0.6987 1.5349 0.7463
0.5733 1.5863 0.7464
0.4441 1.6273 0.7465
0.3121 1.6578 0.7465
0.1780 1.6776 0.7466
0.0427 1.6865 0.7466
-0.0928 1.6845 0.7466
-0.2277 1.6716 0.7466
-0.3612 1.6478 0.7465
-0.4923 1.6133 0.7464
-0.6201 1.5684 0.7464
-0.7439 1.5134 0.7463
-2.3573 3.9573 2.0384
-2.6674 3.7553 2.0384
-2.9603 3.5290 2.0384
-3.2340 3.2800 2.0384
-3.4869 3.0097 2.0384
-3.7173 2.7201 2.0384
-3.9236 2.4129 2.0384
-4.1047 2.0901 2.0384
-4.2592 1.7538 2.0384
-4.3863 1.4063 2.0384
-4.4850 1.0496 2.0384
-4.5548 0.6861 2.0384
-4.5952 0.3183 2.0384
-4.6059 -0.0517 2.0384
-4.5869 -0.4213 2.0384
-4.5383 -0.7882 2.0384
-4.4603 -1.1499 2.0384
-4.3536 -1.5043 2.0384
-4.2188 -1.8490 2.0384
-4.0568 -2.1817 2.0384
-3.8685 -2.5003 2.0384
-3.6553 -2.8028 2.0384
-3.4185 -3.0872 2.0384
-3.1596 -3.3517 2.0384
-2.8803 -3.5945 2.0384
-2.5825 -3.8142 2.0384
-2.2679 -4.0092 2.0384
-0.7045 -1.5182 0.7407
-0.5802 -1.5697 0.7406
-0.4523 -1.6110 0.7405
-0.3215 -1.6420 0.7405
-0.1886 -1.6625 0.7404
-0.0545 -1.6722 0.7404
0.0799 -1.6712 0.7404
0.2138 -1.6594 0.7404
0.3463 -1.6370 0.7405
0.4767 -1.6041 0.7405
0.6040 -1.5608 0.7406
0.7274 -1.5075 0.7407
2.3284 -3.9744 2.0384
2.6400 -3.7746 2.0384
2.9345 -3.5505 2.0384
3.2100 -3.3034 2.0384
3.4649 -3.0350 2.0384
3.6973 -2.7471 2.0384
3.8604 -2.4130 2.0146
3.8795 -2.0112 1.9338
3.9289 -1.6513 1.8860
4.0566 -1.3332 1.8896
4.1425 -1.0013 1.8860
4.2095 -0.6655 1.8860
4.2494 -0.3254 1.8860
4.2618 0.0168 1.8860
4.2467 0.3588 1.8860
4.2042 0.6986 1.8860
4.1345 1.0339 1.8860
4.0382 1.3624 1.8860
3.9314 1.6890 1.8935
3.9167 2.0697 1.9604
3.8866 2.4721 2.0384
3.6756 2.7761 2.0384
3.4409 3.0622 2.0384
3.1840 3.3286 2.0384
2.9065 3.5734 2.0384
2.6102 3.7952 2.0384
2.2971 3.9925 2.0384
0.7209 1.5245 0.7463
0.5963 1.5777 0.7464
0.4678 1.6206 0.7465
0.3362 1.6531 0.7465
0.2024 1.6748 0.7466
0.0673 1.6857 0.7466
-0.0683 1.6857 0.7466
-0.2034 1.6747 0.7466
-0.3371 1.6529 0.7465
-0.4687 1.6204 0.7465
-0.5972 1.5773 0.7464
-0.7218 1.5241 0.7463
-2.2994 3.9912 2.0384
-2.6124 3.7938 2.0384
-2.9085 3.5718 2.0384
-3.1859 3.3268 2.0384
-3.4427 3.0603 2.0384
-3.6772 2.7740 2.0384
-3.8881 2.4698 2.0384
-4.0738 2.1497 2.0384
-4.2332 1.8158 2.0384
-4.3653 1.4700 2.0384
-4.4692 1.1149 2.0384
-4.5443 0.7525 2.0384
-4.5901 0.3852 2.0384
-4.6062 0.0155 2.0384
-4.5925 -0.3544 2.0384
-4.5493 -0.7219 2.0384
-4.4766 -1.0848 2.0384
-4.3751 -1.4407 2.0384
-4.2453 -1.7873 2.0384
-4.0881 -2.1223 2.0384
-3.9046 -2.4437 2.0384
-3.6958 -2.7492 2.0384
-3.4631 -3.0370 2.0384
-3.2082 -3.3053 2.0384
-2.9324 -3.5521 2.0384
-2.6378 -3.7761 2.0384
-2.3262 -3.9757 2.0384
-0.7266 -1.5078 0.7407
-0.6031 -1.5611 0.7406
-0.4758 -1.6043 0.7405
-0.3454 -1.6372 0.7405
-0.2128 -1.6595 0.7404
-0.0789 -1.6712 0.7404
0.0555 -1.6722 0.7404
0.1896 -1.6624 0.7404
0.3224 -1.6419 0.7405
0.4532 -1.6108 0.7405
0.5811 -1.5694 0.7406
0.7054 -1.5179 0.7407
2.2702 -4.0079 2.0384
2.5847 -3.8127 2.0384
2.8824 -3.5929 2.0384
3.1615 -3.3499 2.0384
3.4203 -3.0852 2.0384
3.6569 -2.8007 2.0384
3.8565 -2.4895 2.0313
3.8763 -2.0818 1.9471
3.9044 -1.7084 1.8860
4.0289 -1.3895 1.8860
4.1275 -1.0616 1.8860
4.1994 -0.7268 1.8860
4.2442 -0.3873 1.8860
4.2616 -0.0454 1.8860
4.2515 0.2969 1.8860
4.2139 0.6372 1.8860
4.1491 0.9735 1.8860
4.0576 1.3034 1.8860
3.9399 1.6251 1.8860
3.9185 1.9981 1.9465
3.9071 2.4058 2.0305
3.7157 2.7222 2.0384
3.4852 3.0117 2.0384
3.2322 3.2818 2.0384
3.9173 0.7098 1.8975
3.9118 1.0390 1.9291
3.9068 1.3819 1.9752
3.8993 1.7430 2.0358
3.7517 2.0530 2.0384
3.5748 2.3476 2.0384
3.3748 2.6270 2.0384
3.1530 2.8894 2.0384
2.9108 3.1332 2.0384
2.6499 3.3568 2.0384
2.3719 3.5587 2.0384
0.7607 1.3679 0.7460
0.6485 1.4247 0.7461
0.5321 1.4724 0.7462
0.4122 1.5105 0.7463
0.2896 1.5388 0.7463
0.1652 1.5571 0.7463
0.0396 1.5654 0.7464
-0.0862 1.5635 0.7464
-0.2114 1.5515 0.7463
-0.3352 1.5295 0.7463
-0.4569 1.4975 0.7462
-0.5756 1.4558 0.7462
-0.6905 1.4047 0.7461
-2.1887 3.6742 2.0384
-2.4766 3.4866 2.0384
-2.7485 3.2765 2.0384
-3.0027 3.0453 2.0384
-3.2375 2.7944 2.0384
-3.4514 2.5255 2.0384
-3.6430 2.2403 2.0384
-3.8111 1.9406 2.0384
-3.9545 1.6284 2.0384
-4.0725 1.3057 2.0384
-4.1642 0.9745 2.0384
-4.2290 0.6370 2.0384
-4.2665 0.2955 2.0384
-4.2764 -0.0480 2.0384
-4.2588 -0.3911 2.0384
-4.2136 -0.7318 2.0384
-4.1413 -1.0677 2.0384
-4.0422 -1.3967 2.0384
-3.9170 -1.7167 2.0384
-3.7665 -2.0256 2.0384
-3.5918 -2.3214 2.0384
-3.3938 -2.6023 2.0384
-3.1739 -2.8664 2.0384
-2.9336 -3.1119 2.0384
-2.6743 -3.3374 2.0384
-2.3977 -3.5413 2.0384
-0.7654 -1.3531 0.7410
-0.6543 -1.4100 0.7409
-0.5389 -1.4578 0.7408
-0.4201 -1.4962 0.7407
-0.2986 -1.5250 0.7407
-0.1752 -1.5440 0.7406
-0.0507 -1.5530 0.7406
0.0742 -1.5521 0.7406
0.1986 -1.5412 0.7406
0.3217 -1.5203 0.7407
0.4427 -1.4897 0.7407
0.5609 -1.4495 0.7408
0.6756 -1.4000 0.7409
2.1619 -3.6900 2.0384
2.4511 -3.5046 2.0384
2.7245 -3.2965 2.0384
2.9804 -3.0671 2.0384
3.2170 -2.8179 2.0384
3.4328 -2.5505 2.0384
3.6265 -2.2668 2.0384
3.7968 -1.9683 2.0384
3.8710 -1.6271 2.0014
3.8843 -1.2766 1.9488
3.8950 -0.9415 1.9099
3.9130 -0.6186 1.8882
3.9454 -0.3022 1.8860
3.9569 0.0155 1.8860
3.9429 0.3331 1.8860
3.9202 0.6514 1.8941
3.9125 0.9783 1.9222
3.9079 1.3185 1.9658
3.9009 1.6759 2.0236
3.7812 1.9981 2.0384
3.6086 2.2952 2.0384
3.4127 2.5775 2.0384
3.1948 2.8432 2.0384
2.9562 3.0905 2.0384
2.6986 3.3178 2.0384
2.4235 3.5237 2.0384
0.7805 1.3566 0.7460
0.6692 1.4151 0.7461
0.5535 1.4644 0.7462
0.4342 1.5043 0.7463
0.3120 1.5344 0.7463
0.1879 1.5546 0.7463
0.0625 1.5647 0.7464
-0.0634 1.5646 0.7464
-0.1888 1.5544 0.7463
-0.3129 1.5342 0.7463
-0.4350 1.5040 0.7462
-0.5543 1.4641 0.7462
-0.6700 1.4147 0.7461
-2.1349 3.7057 2.0384
-2.4255 3.5224 2.0384
-2.7004 3.3163 2.0384
-2.9580 3.0888 2.0384
-3.1964 2.8413 2.0384
-3.4142 2.5756 2.0384
-3.6099 2.2932 2.0384
-3.7824 1.9960 2.0384
-3.9304 1.6859 2.0384
-4.0530 1.3649 2.0384
-4.1495 1.0351 2.0384
-4.2192 0.6986 2.0384
-4.2617 0.3577 2.0384
-4.2767 0.0144 2.0384
-4.2640 -0.3290 2.0384
-4.2238 -0.6703 2.0384
-4.1564 -1.0072 2.0384
-4.0621 -1.3376 2.0384
-3.9416 -1.6594 2.0384
-3.7957 -1.9705 2.0384
-3.6252 -2.2688 2.0384
-3.4314 -2.5526 2.0384
-3.2154 -2.8198 2.0384
-2.9786 -3.0688 2.0384
-2.7227 -3.2980 2.0384
-2.4491 -3.5060 2.0384
-0.7851 -1.3419 0.7410
-0.6748 -1.4004 0.7409
-0.5601 -1.4498 0.7408
-0.4418 -1.4900 0.7407
-0.3208 -1.5205 0.7407
-0.1977 -1.5413 0.7406
-0.0733 -1.5521 0.7406
0.0515 -1.5530 0.7406
0.1761 -1.5439 0.7406
0.2995 -1.5249 0.7407
0.4209 -1.4960 0.7407
0.5397 -1.4575 0.7408
0.6551 -1.4097 0.7409
0.7662 -1.3527 0.7410
2.3998 -3.5399 2.0384
2.6762 -3.3359 2.0384
2.9354 -3.1102 2.0384
3.1756 -2.8645 2.0384
3.3953 -2.6004 2.0384
3.5931 -2.3194 2.0384
3.7677 -2.0235 2.0384
3.8682 -1.6927 2.0125
3.8821 -1.3389 1.9573
3.8932 -1.0014 1.9160
3.9095 -0.6766 1.8911
3.9406 -0.3597 1.8860
3.9567 -0.0422 1.8860
3.9473 0.2757 1.8860
3.9227 0.5932 1.8909
3.9131 0.9181 1.9157
3.9089 1.2557 1.9569
3.9024 1.6095 2.0120
3.8099 1.9428 2.0384
3.6417 2.2424 2.0384
3.4499 2.5275 2.0384
3.2359 2.7963 2.0384
3.0009 3.0470 2.0384
3.8910 0.7050 2.0232
3.8504 1.0227 2.0384
3.7559 1.3285 2.0384
3.6371 1.6257 2.0384
3.4949 1.9125 2.0384
3.3301 2.1869 2.0384
3.1437 2.4472 2.0384
2.9371 2.6916 2.0384
2.7116 2.9187 2.0384
2.4685 3.1270 2.0384
2.2095 3.3151 2.0384
0.7084 1.2739 0.7458
0.6040 1.3269 0.7459
0.4955 1.3712 0.7460
0.3839 1.4067 0.7461
0.2697 1.4331 0.7461
0.1538 1.4502 0.7461
0.0369 1.4579 0.7462
-0.0802 1.4561 0.7462
-0.1969 1.4449 0.7461
-0.3122 1.4244 0.7461
-0.4255 1.3946 0.7460
-0.5361 1.3558 0.7460
-0.6431 1.3083 0.7459
-0.7460 1.2522 0.7458
-2.3071 3.2480 2.0384
-2.5604 3.0522 2.0384
-2.7971 2.8368 2.0384
-3.0158 2.6031 2.0384
-3.2151 2.3526 2.0384
-3.3936 2.0869 2.0384
-3.5502 1.8077 2.0384
-3.6838 1.5169 2.0384
-3.7937 1.2163 2.0384
-3.8791 0.9078 2.0384
-3.9395 0.5934 2.0384
-3.9744 0.2753 2.0384
-3.9837 -0.0447 2.0384
-3.9672 -0.3644 2.0384
-3.9252 -0.6817 2.0384
-3.8578 -0.9946 2.0384
-3.7655 -1.3011 2.0384
-3.6489 -1.5992 2.0384
-3.5087 -1.8870 2.0384
-3.3459 -2.1625 2.0384
-3.1615 -2.4242 2.0384
-2.9567 -2.6702 2.0384
-2.7328 -2.8989 2.0384
-2.4912 -3.1089 2.0384
-2.2336 -3.2989 2.0384
-0.7132 -1.2608 0.7412
-0.6096 -1.3138 0.7411
-0.5021 -1.3584 0.7410
-0.3914 -1.3942 0.7409
-0.2782 -1.4210 0.7409
-0.1632 -1.4387 0.7408
-0.0472 -1.4471 0.7408
0.0691 -1.4462 0.7408
0.1850 -1.4360 0.7408
0.2997 -1.4166 0.7409
0.4125 -1.3881 0.7409
0.5227 -1.3506 0.7410
0.6295 -1.3045 0.7411
0.7323 -1.2499 0.7412
2.2833 -3.2647 2.0384
2.5380 -3.0708 2.0384
2.7764 -2.8572 2.0384
2.9968 -2.6250 2.0384
3.1979 -2.3760 2.0384
3.3783 -2.1116 2.0384
3.5369 -1.8336 2.0384
3.6727 -1.5437 2.0384
3.7848 -1.2439 2.0384
3.8713 -0.9358 2.0378
3.8799 -0.6134 2.0098
3.8860 -0.2976 1.9941
3.8899 0.0153 1.9903
3.8917 0.3288 1.9983
3.8913 0.6466 2.0183
3.8649 0.9665 2.0384
3.7749 1.2736 2.0384
3.6604 1.5725 2.0384
3.5224 1.8613 2.0384
3.3616 2.1381 2.0384
3.1791 2.4011 2.0384
2.9761 2.6485 2.0384
2.7538 2.8789 2.0384
2.5138 3.0907 2.0384
2.2576 3.2825 2.0384
0.7269 1.2634 0.7458
0.6232 1.3179 0.7459
0.5155 1.3638 0.7460
0.4044 1.4009 0.7461
0.2906 1.4290 0.7461
0.1750 1.4478 0.7461
0.0582 1.4572 0.7462
-0.0590 1.4571 0.7462
-0.1758 1.4477 0.7461
-0.2914 1.4288 0.7461
-0.4052 1.4007 0.7461
-0.5162 1.3635 0.7460
-0.6240 1.3175 0.7459
-0.7276 1.2630 0.7458
-2.2595 3.2812 2.0384
-2.5156 3.0893 2.0384
-2.7555 2.8773 2.0384
-2.9776 2.6468 2.0384
-3.1805 2.3992 2.0384
-3.3628 2.1362 2.0384
-3.5234 1.8593 2.0384
-3.6613 1.5705 2.0384
-3.7756 1.2715 2.0384
-3.8655 0.9642 2.0384
-3.9304 0.6508 2.0384
-3.9700 0.3332 2.0384
-3.9839 0.0134 2.0384
-3.9721 -0.3065 2.0384
-3.9347 -0.6244 2.0384
-3.8719 -0.9382 2.0384
-3.7840 -1.2461 2.0384
-3.6718 -1.5458 2.0384
-3.5359 -1.8356 2.0384
-3.3771 -2.1135 2.0384
-3.1965 -2.3778 2.0384
-2.9953 -2.6267 2.0384
-2.7747 -2.8587 2.0384
-2.5363 -3.0723 2.0384
-2.2815 -3.2660 2.0384
-0.7315 -1.2503 0.7412
-0.6287 -1.3048 0.7411
-0.5219 -1.3509 0.7410
-0.4117 -1.3883 0.7409
-0.2989 -1.4168 0.7409
-0.1842 -1.4362 0.7408
-0.0683 -1.4463 0.7408
0.0480 -1.4471 0.7408
0.1641 -1.4386 0.7408
0.2790 -1.4208 0.7409
0.3922 -1.3939 0.7409
0.5029 -1.3581 0.7410
0.6104 -1.3135 0.7411
0.7139 -1.2604 0.7412
2.2355 -3.2976 2.0384
2.4930 -3.1075 2.0384
2.7344 -2.8973 2.0384
2.9582 -2.6685 2.0384
3.1629 -2.4223 2.0384
3.3471 -2.1606 2.0384
3.5098 -1.8849 2.0384
3.6498 -1.5971 2.0384
3.7662 -1.2989 2.0384
3.8583 -0.9924 2.0384
3.8785 -0.6713 2.0140
3.8851 -0.3546 1.9961
3.8894 -0.0414 1.9901
3.8915 0.2718 1.9960
3.8915 0.5884 2.0138
3.8786 0.9100 2.0384
3.7930 1.2184 2.0384
3.6830 1.5190 2.0384
3.5491 1.8098 2.0384
3.3924 2.0889 2.0384
3.2138 2.3545 2.0384
3.0144 2.6049 2.0384
2.7955 2.8384 2.0384
3.6621 0.6635 2.0384
3.5970 0.9554 2.0384
3.5087 1.2411 2.0384
3.3977 1.5188 2.0384
3.2648 1.7866 2.0384
3.1109 2.0429 2.0384
2.9368 2.2861 2.0384
2.7438 2.5145 2.0384
2.5331 2.7266 2.0384
2.3060 2.9212 2.0384
0.7550 1.1327 0.7456
0.6617 1.1898 0.7457
0.5641 1.2393 0.7458
0.4628 1.2807 0.7458
0.3585 1.3138 0.7459
0.2519 1.3384 0.7459
0.1437 1.3544 0.7460
0.0345 1.3616 0.7460
-0.0749 1.3600 0.7460
-0.1839 1.3495 0.7460
-0.2916 1.3303 0.7459
-0.3974 1.3025 0.7459
-0.5007 1.2663 0.7458
-0.6006 1.2219 0.7457
-0.6967 1.1696 0.7456
-2.1552 3.0342 2.0384
-2.3918 2.8514 2.0384
-2.6130 2.6501 2.0384
-2.8173 2.4318 2.0384
-3.0035 2.1978 2.0384
-3.1702 1.9496 2.0384
-3.3165 1.6888 2.0384
-3.4414 1.4171 2.0384
-3.5440 1.1362 2.0384
-3.6238 0.8480 2.0384
-3.6802 0.5544 2.0384
-3.7128 0.2572 2.0384
-3.7215 -0.0417 2.0384
-3.7061 -0.3404 2.0384
-3.6668 -0.6368 2.0384
-3.6039 -0.9291 2.0384
-3.5176 -1.2155 2.0384
-3.4087 -1.4939 2.0384
-3.2778 -1.7628 2.0384
-3.1257 -2.0202 2.0384
-2.9534 -2.2646 2.0384
-2.7621 -2.4944 2.0384
-2.5529 -2.7081 2.0384
-2.3273 -2.9043 2.0384
-0.7589 -1.1209 0.7414
-0.6664 -1.1780 0.7413
-0.5696 -1.2276 0.7412
-0.4692 -1.2692 0.7411
-0.3657 -1.3027 0.7411
-0.2600 -1.3278 0.7410
-0.1525 -1.3443 0.7410
-0.0441 -1.3522 0.7410
0.0646 -1.3514 0.7410
0.1729 -1.3418 0.7410
0.2801 -1.3237 0.7410
0.3854 -1.2970 0.7411
0.4884 -1.2620 0.7412
0.5882 -1.2189 0.7412
0.6842 -1.1679 0.7413
0.7759 -1.1093 0.7414
2.3710 -2.8687 2.0384
2.5936 -2.6691 2.0384
2.7995 -2.4523 2.0384
2.9874 -2.2196 2.0384
3.1559 -1.9726 2.0384
3.3041 -1.7129 2.0384
3.4310 -1.4421 2.0384
3.5357 -1.1620 2.0384
3.6175 -0.8744 2.0384
3.6760 -0.5812 2.0384
3.7108 -0.2842 2.0384
3.7217 0.0146 2.0384
3.7085 0.3134 2.0384
3.6714 0.6101 2.0384
3.6105 0.9028 2.0384
3.5264 1.1898 2.0384
3.4195 1.4690 2.0384
3.2905 1.7388 2.0384
3.1403 1.9974 2.0384
2.9698 2.2430 2.0384
2.7802 2.4742 2.0384
2.5726 2.6894 2.0384
2.3484 2.8873 2.0384
0.7714 1.1216 0.7455
0.6789 1.1800 0.7457
0.5821 1.2309 0.7457
0.4814 1.2738 0.7458
0.3777 1.3084 0.7459
0.2714 1.3346 0.7459
0.1634 1.3522 0.7460
0.0543 1.3609 0.7460
-0.0551 1.3609 0.7460
-0.1642 1.3521 0.7460
-0.2722 1.3345 0.7459
-0.3784 1.3082 0.7459
-0.4822 1.2735 0.7458
-0.5828 1.2305 0.7457
-0.6796 1.1796 0.7456
-0.7720 1.1211 0.7455
-2.3500 2.8859 2.0384
-2.5741 2.6879 2.0384
-2.7816 2.4726 2.0384
-2.9711 2.2413 2.0384
-3.1415 1.9956 2.0384
-3.2915 1.7369 2.0384
-3.4203 1.4671 2.0384
-3.5271 1.1878 2.0384
-3.6111 0.9008 2.0384
-3.6717 0.6080 2.0384
-3.7087 0.3112 2.0384
-3.7217 0.0125 2.0384
-3.7107 -0.2863 2.0384
-3.6757 -0.5833 2.0384
-3.6170 -0.8765 2.0384
-3.5350 -1.1640 2.0384
-3.4301 -1.4441 2.0384
-3.3031 -1.7148 2.0384
-3.1548 -1.9744 2.0384
-2.9861 -2.2213 2.0384
-2.7981 -2.4539 2.0384
-2.5921 -2.6706 2.0384
-2.3694 -2.8701 2.0384
-0.7752 -1.1097 0.7414
-0.6835 -1.1682 0.7413
-0.5875 -1.2192 0.7412
-0.4876 -1.2623 0.7412
-0.3847 -1.2972 0.7411
-0.2793 -1.3239 0.7410
-0.1721 -1.3419 0.7410
-0.0638 -1.3514 0.7410
0.0449 -1.3522 0.7410
0.1533 -1.3442 0.7410
0.2607 -1.3276 0.7410
0.3665 -1.3025 0.7411
0.4699 -1.2690 0.7411
0.5703 -1.2273 0.7412
0.6671 -1.1777 0.7413
0.7596 -1.1205 0.7414
2.3289 -2.9030 2.0384
2.5545 -2.7066 2.0384
2.7635 -2.4928 2.0384
2.9547 -2.2629 2.0384
3.1268 -2.0184 2.0384
3.2788 -1.7609 2.0384
3.4096 -1.4920 2.0384
3.5183 -1.2134 2.0384
3.6044 -0.9271 2.0384
3.6672 -0.6347 2.0384
3.7063 -0.3383 2.0384
3.7215 -0.0396 2.0384
3.7127 0.2593 2.0384
3.6799 0.5565 2.0384
3.6233 0.8501 2.0384
3.5434 1.1382 2.0384
3.4406 1.4190 2.0384
3.3155 1.6907 2.0384
3.1691 1.9514 2.0384
3.0022 2.1995 2.0384
2.8160 2.4334 2.0384
2.6115 2.6516 2.0384
3.4293 0.6214 2.0384
3.3684 0.8946 2.0384
3.2857 1.1622 2.0384
3.1818 1.4222 2.0384
3.0573 1.6730 2.0384
2.9131 1.9131 2.0384
2.7501 2.1408 2.0384
2.5694 2.3547 2.0384
2.3721 2.5533 2.0384
0.7896 1.0002 0.7453
0.7068 1.0605 0.7454
0.6195 1.1140 0.7455
0.5281 1.1603 0.7456
0.4333 1.1990 0.7457
0.3357 1.2301 0.7457
0.2359 1.2531 0.7458
0.1345 1.2680 0.7458
0.0323 1.2748 0.7458
-0.0702 1.2732 0.7458
-0.1721 1.2635 0.7458
-0.2730 1.2455 0.7458
-0.3721 1.2195 0.7457
-0.4688 1.1856 0.7457
-0.5624 1.1440 0.7456
-0.6523 1.0950 0.7455
-0.7380 1.0390 0.7454
-2.2398 2.6701 2.0384
-2.4469 2.4817 2.0384
-2.6383 2.2772 2.0384
-2.8126 2.0581 2.0384
-2.9687 1.8256 2.0384
-3.1057 1.5814 2.0384
-3.2226 1.3270 2.0384
-3.3188 1.0640 2.0384
-3.3935 0.7941 2.0384
-3.4463 0.5191 2.0384
-3.4768 0.2408 2.0384
-3.4849 -0.0391 2.0384
-3.4705 -0.3187 2.0384
-3.4337 -0.5963 2.0384
-3.3748 -0.8701 2.0384
-3.2940 -1.1382 2.0384
-3.1920 -1.3989 2.0384
-3.0694 -1.6507 2.0384
-2.9270 -1.8918 2.0384
-2.7657 -2.1206 2.0384
-2.5865 -2.3359 2.0384
-2.3906 -2.5359 2.0384
-2.1793 -2.7197 2.0384
-0.7108 -1.0498 0.7415
-0.6242 -1.1034 0.7414
-0.5335 -1.1498 0.7414
-0.4394 -1.1888 0.7413
-0.3426 -1.2201 0.7412
-0.2435 -1.2436 0.7412
-0.1429 -1.2591 0.7412
-0.0413 -1.2665 0.7411
0.0605 -1.2657 0.7411
0.1619 -1.2568 0.7412
0.2623 -1.2398 0.7412
0.3610 -1.2148 0.7412
0.4574 -1.1820 0.7413
0.5509 -1.1416 0.7414
0.6408 -1.0938 0.7415
0.7267 -1.0390 0.7416
2.2203 -2.6864 2.0384
2.4288 -2.4994 2.0384
2.6216 -2.2964 2.0384
2.7975 -2.0785 2.0384
2.9553 -1.8472 2.0384
3.0941 -1.6040 2.0384
3.2129 -1.3504 2.0384
3.3109 -1.0881 2.0384
3.3876 -0.8188 2.0384
3.4424 -0.5442 2.0384
3.4750 -0.2661 2.0384
3.4851 0.0137 2.0384
3.4728 0.2935 2.0384
3.4380 0.5713 2.0384
3.3810 0.8454 2.0384
3.3023 1.1142 2.0384
3.2022 1.3757 2.0384
3.0814 1.6283 2.0384
2.9407 1.8704 2.0384
2.7811 2.1004 2.0384
2.6035 2.3169 2.0384
2.4091 2.5185 2.0384
2.1991 2.7037 2.0384
0.7222 1.0501 0.7454
0.6357 1.1048 0.7455
0.5450 1.1524 0.7456
0.4507 1.1926 0.7457
0.3536 1.2250 0.7457
0.2541 1.2495 0.7458
0.1530 1.2659 0.7458
0.0509 1.2742 0.7458
-0.0516 1.2741 0.7458
-0.1537 1.2658 0.7458
-0.2548 1.2494 0.7458
-0.3543 1.2248 0.7457
-0.4514 1.1923 0.7457
-0.5456 1.1521 0.7456
-0.6363 1.1045 0.7455
-0.7228 1.0497 0.7454
-2.2006 2.7025 2.0384
-2.4105 2.5171 2.0384
-2.6048 2.3155 2.0384
-2.7823 2.0989 2.0384
-2.9418 1.8687 2.0384
-3.0823 1.6265 2.0384
-3.2029 1.3738 2.0384
-3.3029 1.1123 2.0384
-3.3815 0.8435 2.0384
-3.4383 0.5693 2.0384
-3.4729 0.2915 2.0384
-3.4851 0.0117 2.0384
-3.4748 -0.2681 2.0384
-3.4421 -0.5462 2.0384
-3.3871 -0.8208 2.0384
-3.3103 -1.0900 2.0384
-3.2121 -1.3523 2.0384
-3.0932 -1.6058 2.0384
-2.9543 -1.8489 2.0384
-2.7963 -2.0801 2.0384
-2.6203 -2.2979 2.0384
-2.4274 -2.5008 2.0384
-2.2187 -2.6876 2.0384
-0.7261 -1.0394 0.7416
-0.6402 -1.0942 0.7415
-0.5502 -1.1419 0.7414
-0.4567 -1.1823 0.7413
-0.3603 -1.2150 0.7412
-0.2616 -1.2400 0.7412
-0.1612 -1.2569 0.7412
-0.0598 -1.2658 0.7411
0.0420 -1.2665 0.7411
0.1436 -1.2590 0.7412
0.2442 -1.2435 0.7412
0.3433 -1.2199 0.7412
0.4401 -1.1886 0.7413
0.5342 -1.1495 0.7414
0.6248 -1.1030 0.7415
0.7114 -1.0494 0.7416
2.1809 -2.7185 2.0384
2.3921 -2.5346 2.0384
2.5878 -2.3344 2.0384
2.7669 -2.1191 2.0384
2.9281 -1.8901 2.0384
3.0704 -1.6489 2.0384
3.1928 -1.3971 2.0384
3.2947 -1.1363 2.0384
3.3753 -0.8681 2.0384
3.4341 -0.5943 2.0384
3.4707 -0.3168 2.0384
3.4849 -0.0371 2.0384
3.4767 0.2428 2.0384
3.4460 0.5211 2.0384
3.3930 0.7961 2.0384
3.3181 1.0659 2.0384
3.2219 1.3288 2.0384
3.1048 1.5832 2.0384
2.9677 1.8273 2.0384
2.8114 2.0597 2.0384
2.6370 2.2787 2.0384
2.4455 2.4831 2.0384
3.2179 0.5830 2.0384
3.1607 0.8395 2.0384
3.0831 1.0905 2.0384
2.9856 1.3345 2.0384
2.8688 1.5699 2.0384
2.7336 1.7951 2.0384
2.5806 2.0088 2.0384
2.4110 2.2095 2.0384
2.2259 2.3959 2.0384
0.7408 0.9384 0.7452
0.6632 0.9950 0.7453
0.5812 1.0452 0.7454
0.4955 1.0886 0.7455
0.4065 1.1249 0.7456
0.3149 1.1540 0.7456
0.2213 1.1756 0.7456
0.1262 1.1896 0.7457
0.0303 1.1960 0.7457
-0.0658 1.1945 0.7457
-0.1615 1.1853 0.7457
-0.2561 1.1685 0.7456
-0.3491 1.1441 0.7456
-0.4398 1.1123 0.7455
-0.5276 1.0733 0.7455
-0.6120 1.0274 0.7454
-0.6924 0.9748 0.7453
-0.7683 0.9159 0.7452
-2.2961 2.3287 2.0384
-2.4756 2.1369 2.0384
-2.6392 1.9312 2.0384
-2.7857 1.7131 2.0384
-2.9142 1.4839 2.0384
-3.0240 1.2452 2.0384
-3.1142 0.9984 2.0384
-3.1843 0.7452 2.0384
-3.2338 0.4872 2.0384
-3.2625 0.2260 2.0384
-3.2701 -0.0367 2.0384
-3.2566 -0.2991 2.0384
-3.2221 -0.5596 2.0384
-3.1668 -0.8164 2.0384
-3.0910 -1.0680 2.0384
-2.9953 -1.3127 2.0384
-2.8802 -1.5489 2.0384
-2.7466 -1.7752 2.0384
-2.5952 -1.9899 2.0384
-2.4271 -2.1919 2.0384
-2.2433 -2.3796 2.0384
-0.7442 -0.9287 0.7418
-0.6671 -0.9853 0.7417
-0.5858 -1.0355 0.7416
-0.5007 -1.0791 0.7415
-0.4124 -1.1157 0.7414
-0.3215 -1.1451 0.7414
-0.2285 -1.1672 0.7413
-0.1341 -1.1817 0.7413
-0.0388 -1.1887 0.7413
0.0568 -1.1879 0.7413
0.1520 -1.1796 0.7413
0.2462 -1.1636 0.7413
0.3388 -1.1402 0.7414
0.4293 -1.1094 0.7414
0.5170 -1.0714 0.7415
0.6014 -1.0266 0.7416
0.6820 -0.9751 0.7417
0.7582 -0.9173 0.7418
2.2791 -2.3454 2.0384
2.4600 -2.1548 2.0384
2.6250 -1.9504 2.0384
2.7731 -1.7334 2.0384
2.9033 -1.5051 2.0384
3.0148 -1.2672 2.0384
3.1068 -1.0211 2.0384
3.1788 -0.7684 2.0384
3.2302 -0.5107 2.0384
3.2608 -0.2497 2.0384
3.2703 0.0129 2.0384
3.2587 0.2754 2.0384
3.2261 0.5361 2.0384
3.1726 0.7933 2.0384
3.0987 1.0455 2.0384
3.0048 1.2909 2.0384
2.8914 1.5279 2.0384
2.7594 1.7551 2.0384
2.6096 1.9710 2.0384
2.4430 2.1741 2.0384
2.2606 2.3632 2.0384
0.7544 0.9275 0.7452
0.6776 0.9852 0.7453
0.5964 1.0366 0.7454
0.5113 1.0812 0.7455
0.4229 1.1189 0.7455
0.3317 1.1493 0.7456
0.2384 1.1723 0.7456
0.1435 1.1877 0.7457
0.0477 1.1954 0.7457
-0.0484 1.1954 0.7457
-0.1442 1.1876 0.7457
-0.2391 1.1721 0.7456
-0.3324 1.1491 0.7456
-0.4235 1.1186 0.7455
-0.5119 1.0809 0.7455
-0.5970 1.0362 0.7454
-0.6781 0.9848 0.7453
-0.7549 0.9270 0.7452
-2.2619 2.3619 2.0384
-2.4442 2.1727 2.0384
-2.6107 1.9695 2.0384
-2.7604 1.7535 2.0384
-2.8923 1.5263 2.0384
-3.0055 1.2892 2.0384
-3.0993 1.0437 2.0384
-3.1731 0.7915 2.0384
-3.2264 0.5342 2.0384
-3.2588 0.2735 2.0384
-3.2703 0.0110 2.0384
-3.2606 -0.2516 2.0384
-3.2299 -0.5125 2.0384
-3.1783 -0.7702 2.0384
-3.1062 -1.0228 2.0384
-3.0141 -1.2689 2.0384
-2.9025 -1.5068 2.0384
-2.7722 -1.7349 2.0384
-2.6239 -1.9519 2.0384
-2.4588 -2.1562 2.0384
-2.2777 -2.3467 2.0384
-0.7576 -0.9178 0.7418
-0.6814 -0.9755 0.7417
-0.6008 -1.0269 0.7416
-0.5164 -1.0717 0.7415
-0.4287 -1.1096 0.7414
-0.3382 -1.1403 0.7414
-0.2455 -1.1637 0.7413
-0.1513 -1.1796 0.7413
-0.0561 -1.1880 0.7413
0.0395 -1.1886 0.7413
0.1348 -1.1817 0.7413
0.2292 -1.1671 0.7413
0.3222 -1.1450 0.7414
0.4131 -1.1155 0.7414
0.5013 -1.0788 0.7415
0.5864 -1.0352 0.7416
0.6677 -0.9849 0.7417
0.7447 -0.9283 0.7418
2.2446 -2.3784 2.0384
2.4283 -2.1905 2.0384
2.5963 -1.9885 2.0384
2.7476 -1.7736 2.0384
2.8811 -1.5473 2.0384
2.9960 -1.3110 2.0384
3.0916 -1.0663 2.0384
3.1672 -0.8146 2.0384
3.2224 -0.5577 2.0384
3.2568 -0.2972 2.0384
3.2701 -0.0348 2.0384
3.2624 0.2278 2.0384
3.2335 0.4890 2.0384
3.1838 0.7470 2.0384
3.1136 1.0002 2.0384
3.0233 1.2469 2.0384
2.9134 1.4856 2.0384
2.7847 1.7147 2.0384
2.6381 1.9327 2.0384
2.4744 2.1383 2.0384
2.2948 2.3300 2.0384
3.0248 0.5481 2.0384
2.9710 0.7891 2.0384
2.8981 1.0251 2.0384
2.8064 1.2544 2.0384
2.6967 1.4757 2.0384
2.5695 1.6874 2.0384
2.4257 1.8882 2.0384
2.2663 2.0769 2.0384
0.7647 0.8231 0.7450
0.6962 0.8820 0.7451
0.6233 0.9351 0.7452
0.5463 0.9823 0.7453
0.4657 1.0231 0.7454
0.3821 1.0572 0.7454
0.2960 1.0846 0.7455
0.2080 1.1049 0.7455
0.1186 1.1180 0.7455
0.0285 1.1240 0.7455
-0.0619 1.1226 0.7455
-0.1518 1.1140 0.7455
-0.2407 1.0982 0.7455
-0.3281 1.0753 0.7455
-0.4133 1.0454 0.7454
-0.4959 1.0087 0.7453
-0.5752 0.9656 0.7453
-0.6508 0.9162 0.7452
-0.7221 0.8608 0.7451
-2.1583 2.1889 2.0384
-2.3271 2.0086 2.0384
-2.4808 1.8153 2.0384
-2.6185 1.6103 2.0384
-2.7393 1.3949 2.0384
-2.8425 1.1705 2.0384
-2.9273 0.9385 2.0384
-2.9932 0.7005 2.0384
-3.0397 0.4579 2.0384
-3.0667 0.2124 2.0384
-3.0738 -0.0345 2.0384
-3.0611 -0.2811 2.0384
-3.0287 -0.5260 2.0384
-2.9767 -0.7674 2.0384
-2.9055 -1.0039 2.0384
-2.8155 -1.2339 2.0384
-2.7074 -1.4560 2.0384
-2.5817 -1.6686 2.0384
-2.4394 -1.8705 2.0384
-2.2814 -2.0603 2.0384
-0.7675 -0.8142 0.7420
-0.6996 -0.8731 0.7419
-0.6272 -0.9263 0.7418
-0.5507 -0.9735 0.7417
-0.4707 -1.0145 0.7416
-0.3877 -1.0489 0.7415
-0.3023 -1.0766 0.7415
-0.2148 -1.0973 0.7415
-0.1261 -1.1110 0.7414
-0.0365 -1.1175 0.7414
0.0534 -1.1168 0.7414
0.1429 -1.1090 0.7414
0.2314 -1.0940 0.7415
0.3185 -1.0719 0.7415
0.4036 -1.0430 0.7416
0.4861 -1.0073 0.7416
0.5654 -0.9651 0.7417
0.6412 -0.9167 0.7418
0.7128 -0.8624 0.7419
0.7798 -0.8025 0.7420
2.3124 -2.0255 2.0384
2.4675 -1.8333 2.0384
2.6067 -1.6293 2.0384
2.7291 -1.4148 2.0384
2.8339 -1.1911 2.0384
2.9204 -0.9598 2.0384
2.9880 -0.7223 2.0384
3.0363 -0.4800 2.0384
3.0651 -0.2347 2.0384
3.0740 0.0121 2.0384
3.0631 0.2588 2.0384
3.0325 0.5039 2.0384
2.9822 0.7457 2.0384
2.9127 0.9827 2.0384
2.8244 1.2134 2.0384
2.7179 1.4362 2.0384
2.5938 1.6498 2.0384
2.4530 1.8527 2.0384
2.2964 2.0436 2.0384
0.7766 0.8119 0.7450
0.7090 0.8717 0.7451
0.6368 0.9259 0.7452
0.5605 0.9742 0.7453
0.4805 1.0162 0.7454
0.3974 1.0515 0.7454
0.3118 1.0801 0.7455
0.2241 1.1017 0.7455
0.1349 1.1162 0.7455
0.0448 1.1234 0.7455
-0.0455 1.1234 0.7455
-0.1355 1.1161 0.7455
-0.2247 1.1016 0.7455
-0.3124 1.0799 0.7455
-0.3980 1.0513 0.7454
-0.4811 1.0159 0.7453
-0.5611 0.9739 0.7453
-0.6373 0.9256 0.7452
-0.7095 0.8713 0.7451
-0.7770 0.8114 0.7450
-2.2975 2.0423 2.0384
-2.4541 1.8513 2.0384
-2.5948 1.6483 2.0384
-2.7187 1.4347 2.0384
-2.8251 1.2118 2.0384
-2.9133 0.9811 2.0384
-2.9826 0.7440 2.0384
-3.0327 0.5022 2.0384
-3.0633 0.2571 2.0384
-3.0740 0.0103 2.0384
-3.0649 -0.2365 2.0384
-3.0360 -0.4818 2.0384
-2.9876 -0.7240 2.0384
-2.9198 -0.9615 2.0384
-2.8332 -1.1927 2.0384
-2.7283 -1.4164 2.0384
-2.6058 -1.6308 2.0384
-2.4665 -1.8347 2.0384
-2.3112 -2.0268 2.0384
-0.7794 -0.8029 0.7420
-0.7123 -0.8628 0.7419
-0.6406 -0.9171 0.7418
-0.5649 -0.9654 0.7417
-0.4855 -1.0075 0.7416
-0.4030 -1.0432 0.7416
-0.3179 -1.0721 0.7415
-0.2308 -1.0941 0.7415
-0.1422 -1.1091 0.7414
-0.0527 -1.1169 0.7414
0.0371 -1.1175 0.7414
0.1267 -1.1109 0.7414
0.2155 -1.0972 0.7415
0.3029 -1.0764 0.7415
0.3883 -1.0487 0.7416
0.4713 -1.0142 0.7416
0.5513 -0.9732 0.7417
0.6277 -0.9259 0.7418
0.7001 -0.8727 0.7419
0.7680 -0.8138 0.7420
2.2826 -2.0590 2.0384
2.4405 -1.8691 2.0384
2.5827 -1.6672 2.0384
2.7082 -1.4544 2.0384
2.8162 -1.2323 2.0384
2.9061 -1.0023 2.0384
2.9771 -0.7657 2.0384
3.0290 -0.5243 2.0384
3.0613 -0.2794 2.0384
3.0739 -0.0327 2.0384
3.0666 0.2141 2.0384
3.0395 0.4596 2.0384
2.9928 0.7022 2.0384
2.9267 0.9402 2.0384
2.8418 1.1721 2.0384
2.7385 1.3964 2.0384
2.6176 1.6118 2.0384
2.4798 1.8167 2.0384
2.3259 2.0099 2.0384
0.7883 0.8004 0.7450
2.8474 0.5159 2.0384
2.7968 0.7428 2.0384
2.7281 0.9650 2.0384
2.6419 1.1809 2.0384
2.5385 1.3892 2.0384
2.4188 1.5885 2.0384
2.2835 1.7775 2.0384
0.7795 0.7144 0.7448
0.7198 0.7748 0.7449
0.6553 0.8301 0.7450
0.5866 0.8802 0.7451
0.5141 0.9245 0.7452
0.4383 0.9629 0.7453
0.3596 0.9951 0.7453
0.2786 1.0208 0.7454
0.1957 1.0399 0.7454
0.1116 1.0523 0.7454
0.0268 1.0579 0.7454
-0.0582 1.0566 0.7454
-0.1429 1.0485 0.7454
-0.2266 1.0336 0.7454
-0.3088 1.0120 0.7453
-0.3890 0.9839 0.7453
-0.4667 0.9494 0.7452
-0.5414 0.9088 0.7451
-0.6125 0.8623 0.7451
-0.6797 0.8103 0.7450
-0.7424 0.7530 0.7449
-2.1906 1.8908 2.0384
-2.3353 1.7088 2.0384
-2.4650 1.5159 2.0384
-2.5787 1.3131 2.0384
-2.6758 1.1018 2.0384
-2.7556 0.8834 2.0384
-2.8176 0.6594 2.0384
-2.8615 0.4310 2.0384
-2.8868 0.1999 2.0384
-2.8936 -0.0325 2.0384
-2.8816 -0.2646 2.0384
-2.8511 -0.4951 2.0384
-2.8021 -0.7224 2.0384
-2.7351 -0.9451 2.0384
-2.6504 -1.1616 2.0384
-2.5486 -1.3706 2.0384
-2.4303 -1.5708 2.0384
-2.2964 -1.7608 2.0384
-0.7819 -0.7062 0.7422
-0.7226 -0.7665 0.7421
-0.6587 -0.8220 0.7420
-0.5905 -0.8721 0.7419
-0.5185 -0.9166 0.7418
-0.4432 -0.9551 0.7417
-0.3651 -0.9876 0.7417
-0.2846 -1.0136 0.7416
-0.2023 -1.0331 0.7416
-0.1187 -1.0460 0.7416
-0.0343 -1.0521 0.7415
0.0503 -1.0515 0.7415
0.1345 -1.0441 0.7416
0.2179 -1.0300 0.7416
0.2999 -1.0092 0.7416
0.3800 -0.9819 0.7417
0.4576 -0.9483 0.7417
0.5323 -0.9086 0.7418
0.6036 -0.8631 0.7419
0.6711 -0.8119 0.7420
0.7342 -0.7555 0.7421
2.1767 -1.9067 2.0384
2.3228 -1.7258 2.0384
2.4538 -1.5338 2.0384
2.5691 -1.3318 2.0384
2.6677 -1.1213 2.0384
2.7491 -0.9035 2.0384
2.8128 -0.6799 2.0384
2.8583 -0.4519 2.0384
2.8853 -0.2210 2.0384
2.8937 0.0114 2.0384
2.8835 0.2436 2.0384
2.8546 0.4744 2.0384
2.8073 0.7020 2.0384
2.7419 0.9251 2.0384
2.6588 1.1422 2.0384
2.5585 1.3520 2.0384
2.4417 1.5530 2.0384
2.3092 1.7440 2.0384
0.7898 0.7029 0.7448
0.7310 0.7642 0.7449
0.6673 0.8205 0.7450
0.5994 0.8715 0.7451
0.5276 0.9169 0.7452
0.4523 0.9564 0.7452
0.3741 0.9897 0.7453
0.2934 1.0166 0.7454
0.2109 1.0370 0.7454
0.1270 1.0506 0.7454
0.0422 1.0574 0.7454
-0.0428 1.0574 0.7454
-0.1276 1.0505 0.7454
-0.2115 1.0368 0.7454
-0.2940 1.0165 0.7453
-0.3746 0.9895 0.7453
-0.4528 0.9561 0.7452
-0.5281 0.9166 0.7452
-0.5999 0.8712 0.7451
-0.6678 0.8201 0.7450
-0.7314 0.7637 0.7449
-2.1628 1.9225 2.0384
-2.3101 1.7427 2.0384
-2.4426 1.5516 2.0384
-2.5593 1.3505 2.0384
-2.6594 1.1407 2.0384
-2.7424 0.9235 2.0384
-2.8077 0.7004 2.0384
-2.8549 0.4727 2.0384
-2.8836 0.2420 2.0384
-2.8937 0.0097 2.0384
-2.8852 -0.2226 2.0384
-2.8580 -0.4535 2.0384
-2.8124 -0.6815 2.0384
-2.7486 -0.9051 2.0384
-2.6670 -1.1228 2.0384
-2.5683 -1.3333 2.0384
-2.4530 -1.5352 2.0384
-2.3218 -1.7271 2.0384
-2.1757 -1.9080 2.0384
-0.7337 -0.7559 0.7421
-0.6706 -0.8123 0.7420
-0.6031 -0.8634 0.7419
-0.5318 -0.9089 0.7418
-0.4571 -0.9486 0.7417
-0.3794 -0.9821 0.7417
-0.2993 -1.0094 0.7416
-0.2173 -1.0301 0.7416
-0.1339 -1.0442 0.7416
-0.0497 -1.0515 0.7415
0.0349 -1.0521 0.7415
0.1193 -1.0460 0.7416
0.2029 -1.0330 0.7416
0.2852 -1.0135 0.7416
0.3656 -0.9874 0.7417
0.4437 -0.9549 0.7417
0.5190 -0.9163 0.7418
0.5910 -0.8718 0.7419
0.6591 -0.8216 0.7420
0.7231 -0.7661 0.7421
0.7824 -0.7057 0.7422
2.2974 -1.7595 2.0384
2.4312 -1.5694 2.0384
2.5494 -1.3691 2.0384
2.6511 -1.1601 2.0384
2.7356 -0.9435 2.0384
2.8025 -0.7208 2.0384
2.8514 -0.4935 2.0384
2.8818 -0.2630 2.0384
2.8936 -0.0308 2.0384
2.8867 0.2016 2.0384
2.8612 0.4327 2.0384
2.8173 0.6610 2.0384
2.7551 0.8850 2.0384
2.6752 1.1034 2.0384
2.5779 1.3145 2.0384
2.4641 1.5173 2.0384
2.3343 1.7102 2.0384
2.1895 1.8921 2.0384
0.7420 0.7534 0.7449
2.6836 0.4863 2.0384
2.6359 0.7001 2.0384
2.5712 0.9095 2.0384
2.4899 1.1130 2.0384
2.3925 1.3093 2.0384
2.2797 1.4971 2.0384
0.7862 0.6120 0.7446
0.7346 0.6732 0.7447
0.6783 0.7301 0.7448
0.6176 0.7823 0.7449
0.5528 0.8295 0.7450
0.4845 0.8713 0.7451
0.4130 0.9074 0.7452
0.3389 0.9377 0.7452
0.2625 0.9620 0.7453
0.1845 0.9800 0.7453
0.1052 0.9916 0.7453
0.0252 0.9969 0.7453
-0.0549 0.9957 0.7453
-0.1346 0.9881 0.7453
-0.2135 0.9740 0.7453
-0.2910 0.9537 0.7452
-0.3666 0.9272 0.7452
-0.4398 0.8947 0.7451
-0.5102 0.8564 0.7451
-0.5772 0.8126 0.7450
-0.6405 0.7636 0.7449
-0.6996 0.7096 0.7448
-0.7542 0.6510 0.7447
-2.2010 1.6106 2.0384
-2.3232 1.4287 2.0384
-2.4304 1.2376 2.0384
-2.5219 1.0384 2.0384
-2.5971 0.8327 2.0384
-2.6556 0.6215 2.0384
-2.6969 0.4063 2.0384
-2.7208 0.1884 2.0384
-2.7272 -0.0306 2.0384
-2.7159 -0.2494 2.0384
-2.6871 -0.4667 2.0384
-2.6410 -0.6809 2.0384
-2.5778 -0.8907 2.0384
-2.4980 -1.0948 2.0384
-2.4020 -1.2918 2.0384
-2.2906 -1.4804 2.0384
-2.1643 -1.6595 2.0384
-0.7370 -0.6656 0.7422
-0.6811 -0.7225 0.7421
-0.6208 -0.7748 0.7420
-0.5566 -0.8220 0.7420
-0.4887 -0.8640 0.7419
-0.4178 -0.9003 0.7418
-0.3441 -0.9309 0.7418
-0.2683 -0.9555 0.7417
-0.1907 -0.9739 0.7417
-0.1119 -0.9860 0.7417
-0.0324 -0.9918 0.7417
0.0474 -0.9912 0.7417
0.1268 -0.9842 0.7417
0.2054 -0.9709 0.7417
0.2827 -0.9513 0.7417
0.3582 -0.9256 0.7418
0.4314 -0.8939 0.7418
0.5018 -0.8565 0.7419
0.5690 -0.8135 0.7420
0.6325 -0.7653 0.7421
0.6920 -0.7122 0.7422
0.7471 -0.6544 0.7423
2.1892 -1.6266 2.0384
2.3127 -1.4456 2.0384
2.4213 -1.2552 2.0384
2.5143 -1.0568 2.0384
2.5910 -0.8515 2.0384
2.6510 -0.6408 2.0384
2.6939 -0.4259 2.0384
2.7194 -0.2083 2.0384
2.7273 0.0107 2.0384
2.7177 0.2296 2.0384
2.6904 0.4471 2.0384
2.6459 0.6616 2.0384
2.5842 0.8719 2.0384
2.5059 1.0765 2.0384
2.4114 1.2742 2.0384
2.3013 1.4637 2.0384
2.1764 1.6438 2.0384
0.7443 0.6624 0.7447
0.6888 0.7201 0.7448
0.6289 0.7732 0.7449
0.5649 0.8213 0.7450
0.4972 0.8641 0.7451
0.4262 0.9013 0.7451
0.3525 0.9327 0.7452
0.2765 0.9580 0.7452
0.1987 0.9772 0.7453
0.1196 0.9900 0.7453
0.0398 0.9964 0.7453
-0.0403 0.9964 0.7453
-0.1202 0.9899 0.7453
-0.1993 0.9770 0.7453
-0.2771 0.9579 0.7452
-0.3530 0.9325 0.7452
-0.4267 0.9010 0.7451
-0.4976 0.8638 0.7451
-0.5653 0.8210 0.7450
-0.6293 0.7728 0.7449
-0.6892 0.7197 0.7448
-0.7447 0.6620 0.7447
-2.1773 1.6425 2.0384
-2.3021 1.4624 2.0384
-2.4121 1.2729 2.0384
-2.5065 1.0751 2.0384
-2.5847 0.8704 2.0384
-2.6462 0.6601 2.0384
-2.6907 0.4455 2.0384
-2.7178 0.2281 2.0384
-2.7273 0.0092 2.0384
-2.7193 -0.2098 2.0384
-2.6936 -0.4274 2.0384
-2.6506 -0.6423 2.0384
-2.5905 -0.8530 2.0384
-2.5137 -1.0582 2.0384
-2.4206 -1.2566 2.0384
-2.3119 -1.4469 2.0384
-2.1883 -1.6278 2.0384
-0.7467 -0.6548 0.7423
-0.6916 -0.7125 0.7422
-0.6321 -0.7657 0.7421
-0.5685 -0.8138 0.7420
-0.5013 -0.8568 0.7419
-0.4309 -0.8942 0.7418
-0.3577 -0.9258 0.7418
-0.2822 -0.9515 0.7417
-0.2049 -0.9710 0.7417
-0.1262 -0.9843 0.7417
-0.0468 -0.9912 0.7417
0.0329 -0.9918 0.7417
0.1124 -0.9859 0.7417
0.1912 -0.9738 0.7417
0.2688 -0.9553 0.7417
0.3446 -0.9307 0.7418
0.4183 -0.9001 0.7418
0.4892 -0.8637 0.7419
0.5571 -0.8217 0.7420
0.6213 -0.7744 0.7421
0.6816 -0.7222 0.7422
0.7374 -0.6652 0.7423
2.1653 -1.6583 2.0384
2.2914 -1.4791 2.0384
2.4028 -1.2904 2.0384
2.4986 -1.0933 2.0384
2.5783 -0.8892 2.0384
2.6414 -0.6794 2.0384
2.6874 -0.4651 2.0384
2.7161 -0.2479 2.0384
2.7272 -0.0290 2.0384
2.7207 0.1900 2.0384
2.6967 0.4078 2.0384
2.6552 0.6230 2.0384
2.5967 0.8341 2.0384
2.5213 1.0399 2.0384
2.4297 1.2390 2.0384
2.3224 1.4300 2.0384
2.2001 1.6118 2.0384
0.7539 0.6515 0.7447
0.6993 0.7100 0.7448
2.5318 0.4587 2.0384
2.4868 0.6605 2.0384
2.4257 0.8580 2.0384
2.3490 1.0500 2.0384
2.2571 1.2352 2.0384
0.7854 0.5158 0.7444
0.7416 0.5773 0.7445
0.6930 0.6350 0.7447
0.6398 0.6887 0.7448
0.5826 0.7380 0.7448
0.5215 0.7824 0.7449
0.4570 0.8219 0.7450
0.3896 0.8560 0.7451
0.3197 0.8845 0.7451
0.2476 0.9074 0.7452
0.1740 0.9244 0.7452
0.0992 0.9354 0.7452
0.0238 0.9404 0.7452
-0.0518 0.9392 0.7452
-0.1270 0.9320 0.7452
-0.2014 0.9188 0.7452
-0.2745 0.8996 0.7451
-0.3458 0.8746 0.7451
-0.4149 0.8440 0.7450
-0.4812 0.8079 0.7450
-0.5445 0.7666 0.7449
-0.6042 0.7203 0.7448
-0.6600 0.6694 0.7447
-0.7115 0.6141 0.7446
-0.7584 0.5549 0.7445
-2.1917 1.3478 2.0384
-2.2929 1.1675 2.0384
-2.3792 0.9797 2.0384
-2.4502 0.7855 2.0384
-2.5053 0.5863 2.0384
-2.5443 0.3833 2.0384
-2.5669 0.1778 2.0384
-2.5728 -0.0289 2.0384
-2.5622 -0.2353 2.0384
-2.5351 -0.4403 2.0384
-2.4915 -0.6423 2.0384
-2.4319 -0.8403 2.0384
-2.3566 -1.0328 2.0384
-2.2661 -1.2187 2.0384
-2.1609 -1.3967 2.0384
-0.7437 -0.5702 0.7424
-0.6954 -0.6280 0.7423
-0.6427 -0.6817 0.7422
-0.5858 -0.7310 0.7421
-0.5251 -0.7756 0.7420
-0.4611 -0.8152 0.7420
-0.3942 -0.8495 0.7419
-0.3247 -0.8783 0.7419
-0.2531 -0.9015 0.7418
-0.1799 -0.9189 0.7418
-0.1056 -0.9303 0.7418
-0.0305 -0.9358 0.7418
0.0447 -0.9352 0.7418
0.1196 -0.9286 0.7418
0.1938 -0.9161 0.7418
0.2667 -0.8976 0.7418
0.3380 -0.8733 0.7419
0.4070 -0.8435 0.7419
0.4734 -0.8081 0.7420
0.5368 -0.7676 0.7421
0.5968 -0.7221 0.7422
0.6529 -0.6719 0.7422
0.7049 -0.6174 0.7423
0.7523 -0.5589 0.7425
2.1819 -1.3638 2.0384
2.2843 -1.1842 2.0384
2.3720 -0.9970 2.0384
2.4444 -0.8034 2.0384
2.5010 -0.6045 2.0384
2.5414 -0.4018 2.0384
2.5655 -0.1965 2.0384
2.5730 0.0101 2.0384
2.5639 0.2166 2.0384
2.5382 0.4218 2.0384
2.4961 0.6242 2.0384
2.4380 0.8226 2.0384
2.3641 1.0156 2.0384
2.2749 1.2021 2.0384
2.1711 1.3809 2.0384
0.7499 0.5664 0.7445
0.7021 0.6249 0.7446
0.6498 0.6793 0.7447
0.5932 0.7294 0.7448
0.5328 0.7747 0.7449
0.4690 0.8151 0.7450
0.4020 0.8502 0.7450
0.3325 0.8798 0.7451
0.2608 0.9037 0.7451
0.1875 0.9217 0.7452
0.1129 0.9339 0.7452
0.0375 0.9399 0.7452
-0.0381 0.9399 0.7452
-0.1134 0.9338 0.7452
-0.1880 0.9216 0.7452
-0.2613 0.9035 0.7451
-0.3330 0.8796 0.7451
-0.4025 0.8499 0.7450
-0.4694 0.8148 0.7450
-0.5333 0.7744 0.7449
-0.5936 0.7290 0.7448
-0.6502 0.6789 0.7447
-0.7025 0.6245 0.7446
-0.7502 0.5660 0.7445
-2.1718 1.3797 2.0384
-2.2756 1.2008 2.0384
-2.3647 1.0143 2.0384
-2.4384 0.8212 2.0384
-2.4965 0.6228 2.0384
-2.5384 0.4203 2.0384
-2.5640 0.2152 2.0384
-2.5730 0.0087 2.0384
-2.5654 -0.1979 2.0384
-2.5412 -0.4032 2.0384
-2.5006 -0.6060 2.0384
-2.4439 -0.8047 2.0384
-2.3714 -0.9984 2.0384
-2.2836 -1.1855 2.0384
-2.1811 -1.3650 2.0384
-0.7519 -0.5593 0.7424
-0.7045 -0.6178 0.7423
-0.6525 -0.6723 0.7422
-0.5964 -0.7224 0.7421
-0.5364 -0.7679 0.7421
-0.4730 -0.8084 0.7420
-0.4065 -0.8437 0.7419
-0.3375 -0.8735 0.7419
-0.2662 -0.8977 0.7418
-0.1933 -0.9162 0.7418
-0.1191 -0.9287 0.7418
-0.0442 -0.9353 0.7418
0.0311 -0.9358 0.7418
0.1061 -0.9303 0.7418
0.1804 -0.9188 0.7418
0.2536 -0.9014 0.7418
0.3252 -0.8782 0.7419
0.3947 -0.8493 0.7419
0.4616 -0.8149 0.7420
