ply
format ascii 1.0
element vertex 2152
property float32 x
property float32 y
property float32 z
end_header
8.6229 2.8047 0.4261
10.0536 12.1040 0.7602
-18.2181 7.9834 1.0825
-17.9045 6.1833 1.0328
-17.6150 4.5361 0.9932
-17.3500 3.0059 0.9624
-17.1002 1.5615 0.9390
-16.8610 0.1783 0.9221
-16.6219 -1.1640 0.9108
-16.3918 -2.4841 0.9054
-16.1616 -3.7993 0.9055
-15.9284 -5.1264 0.9109
-15.6942 -6.4854 0.9224
-15.4493 -7.8933 0.9398
-15.1886 -9.3714 0.9637
-14.9114 -10.9480 0.9954
-14.6176 -12.6611 1.0365
12.9727 -5.7326 0.6668
11.8802 -0.1642 0.5554
8.5900 2.7327 0.4235
10.1652 12.0787 0.7624
-18.1908 7.8326 1.6382
-17.8797 6.0463 1.5631
-17.5937 4.4100 1.5035
-17.3300 2.8875 1.4573
-17.0798 1.4485 1.4222
-16.8413 0.0692 1.3974
-16.6032 -1.2708 1.3812
-16.3732 -2.5900 1.3741
-16.1429 -3.9057 1.3755
-15.9093 -5.2347 1.3853
-15.6747 -6.5971 1.4045
-15.4289 -8.0102 1.4331
-15.1675 -9.4957 1.4722
-14.8887 -11.0818 1.5233
-14.5925 -12.8073 1.5894
12.6695 -5.5005 1.0395
11.5884 -0.0853 0.8692
8.6175 2.8025 0.6819
11.3161 5.8242 0.9612
10.5531 6.5543 0.9404
9.9790 12.0120 1.1959
-18.2172 7.9839 1.6450
-17.9036 6.1836 1.5685
-17.6156 4.5367 1.5078
-17.3506 3.0063 1.4606
-17.0994 1.5615 1.4246
-16.8602 0.1782 1.3990
-16.6217 -1.1642 1.3821
-16.3916 -2.4844 1.3744
-16.1615 -3.7998 1.3750
-15.9282 -5.1271 1.3842
-15.6940 -6.4861 1.4027
-15.4490 -7.8943 1.4305
-15.1891 -9.3731 1.4686
-14.9119 -10.9500 1.5187
-14.6175 -12.6630 1.5835
12.6033 -5.5688 1.0371
11.6155 -0.1606 0.8712
8.5888 2.7320 0.6782
10.5508 6.4588 0.9362
10.0603 11.9520 1.1960
-13.7656 12.2851 2.0386
-14.6832 11.1190 2.0386
-15.5056 9.8869 2.0386
-16.2285 8.5964 2.0386
-16.1634 6.9601 1.9558
-16.0751 5.4366 1.8876
-16.4366 4.1203 1.8862
-16.7070 2.7839 1.8862
-16.8729 1.4310 1.8862
-16.8405 0.0691 1.8759
-16.6030 -1.2710 1.8544
-16.3731 -2.5904 1.8452
-16.1427 -3.9062 1.8474
-15.9091 -5.2354 1.8613
-15.6613 -6.5923 1.8862
-15.1009 -7.8410 1.8862
-14.4439 -9.0440 1.8862
-13.6939 -10.1940 1.8862
-12.9574 -11.3737 1.9013
-12.6457 -13.0443 1.9992
-11.8106 -14.3277 2.0386
-10.6461 -15.2679 2.0386
-9.4081 -16.1156 2.0386
-8.1036 -16.8648 2.0386
-6.7402 -17.5102 2.0386
-5.3258 -18.0469 2.0386
-3.8692 -18.4705 2.0386
-2.3789 -18.7774 2.0386
-0.8644 -18.9646 2.0386
0.6649 -19.0298 2.0386
2.1989 -18.9715 2.0386
3.7277 -18.7890 2.0386
5.2410 -18.4824 2.0386
6.7287 -18.0527 2.0386
8.1803 -17.5017 2.0386
9.5858 -16.8323 2.0386
10.9351 -16.0480 2.0386
11.3158 -14.0339 1.8880
12.4228 -13.0959 1.8862
13.5001 -12.1137 1.8915
14.6064 -11.1241 1.9110
15.6293 -10.0275 1.9296
16.5561 -8.8307 1.9470
13.0072 -5.6465 1.4696
18.0736 -6.1728 1.9774
18.6428 -4.7341 1.9899
19.0736 -3.2396 2.0005
5.2191 -0.4594 0.5416
5.2486 -0.0387 0.5426
5.2430 0.3838 0.5436
5.2022 0.8049 0.5446
5.1265 1.2217 0.5456
5.0161 1.6311 0.5466
4.8719 2.0301 0.5476
4.6947 2.4159 0.5486
4.4859 2.7857 0.5496
4.2469 3.1367 0.5505
3.9795 3.4664 0.5514
3.6857 3.7725 0.5523
10.5136 12.6532 1.7267
10.4836 14.9089 1.9178
9.1356 15.5065 1.8988
7.7861 16.0388 1.8862
6.4535 16.5655 1.8862
5.4973 18.3531 2.0386
3.9925 18.6802 2.0386
2.4707 18.8840 2.0386
0.9419 18.9644 2.0386
-0.5838 18.9220 2.0386
-2.0968 18.7580 2.0386
-3.5874 18.4746 2.0386
-5.0466 18.0746 2.0386
-6.4654 17.5615 2.0386
-7.8354 16.9394 2.0386
-9.1484 16.2130 2.0386
-10.3971 15.3875 2.0386
-11.5742 14.4686 2.0386
-12.6732 13.4625 2.0386
-13.6879 12.3757 2.0386
-14.6129 11.2151 2.0386
-15.4432 9.9881 2.0386
-16.1742 8.7020 2.0386
-16.1854 7.0940 1.9638
-16.0288 5.5371 1.8862
-16.4104 4.2267 1.8862
-16.6892 2.8919 1.8862
-16.8635 1.5401 1.8862
-16.8594 0.1782 1.8781
-16.6216 -1.1644 1.8556
-16.3915 -2.4848 1.8455
-16.1613 -3.8002 1.8468
-15.9280 -5.1277 1.8597
-15.6938 -6.4869 1.8852
-15.1495 -7.7423 1.8862
-14.5002 -8.9492 1.8862
-13.7575 -10.1038 1.8862
-12.9853 -11.2508 1.8950
-12.6721 -12.9035 1.9905
-11.9007 -14.2484 2.0386
-10.7424 -15.1958 2.0386
-9.5101 -16.0510 2.0386
-8.2107 -16.8084 2.0386
-6.8517 -17.4623 2.0386
-5.4411 -18.0078 2.0386
-3.9875 -18.4407 2.0386
-2.4996 -18.7571 2.0386
-0.9867 -18.9540 2.0386
0.5417 -19.0291 2.0386
2.0758 -18.9808 2.0386
3.6054 -18.8083 2.0386
5.1203 -18.5116 2.0386
6.6104 -18.0917 2.0386
8.0653 -17.5504 2.0386
9.4748 -16.8903 2.0386
10.8290 -16.1151 2.0386
11.3389 -14.2499 1.9075
12.3358 -13.1735 1.8862
13.4080 -12.1883 1.8899
14.5205 -11.2076 1.9095
15.5505 -10.1194 1.9282
16.4855 -8.9303 1.9457
12.8855 -5.6928 1.4601
18.0221 -6.2855 1.9763
18.6021 -4.8518 1.9890
19.0443 -3.3613 1.9998
5.2152 -0.4931 0.5415
5.2475 -0.0726 0.5425
5.2447 0.3499 0.5435
5.2068 0.7712 0.5445
5.1338 1.1885 0.5455
5.0262 1.5986 0.5465
4.8847 1.9985 0.5475
4.7101 2.3855 0.5485
4.5038 2.7566 0.5495
4.2672 3.1092 0.5504
4.0020 3.4408 0.5513
3.7102 3.7489 0.5522
10.2860 12.2179 1.6760
10.5900 14.8555 1.9193
9.2451 15.4632 1.9004
7.8913 15.9917 1.8862
6.5619 16.5273 1.8862
5.6067 18.2877 2.0349
4.1141 18.6584 2.0386
2.5933 18.8722 2.0386
1.0647 18.9625 2.0386
-0.4617 18.9299 2.0386
-1.9760 18.7756 2.0386
-3.4688 18.5017 2.0386
-4.9308 18.1110 2.0386
-6.3531 17.6068 2.0386
-7.7273 16.9933 2.0386
-9.0453 16.2751 2.0386
-10.2994 15.4573 2.0386
-11.4825 14.5458 2.0386
-10.9351 9.7605 2.0386
-11.6683 8.8371 2.0386
-12.3259 7.8604 2.0386
-12.9041 6.8362 2.0386
-13.3999 5.7710 2.0386
-13.8105 4.6712 2.0386
-14.1336 3.5434 2.0386
-14.3675 2.3943 2.0386
-14.5108 1.2307 2.0386
-14.5628 0.0597 2.0386
-14.5232 -1.1120 2.0386
-14.3921 -2.2773 2.0386
-14.1702 -3.4293 2.0386
-13.8587 -4.5612 2.0386
-13.4593 -5.6662 2.0386
-12.9740 -6.7376 2.0386
-12.4056 -7.7688 2.0386
-11.7572 -8.7536 2.0386
-11.0323 -9.6857 2.0386
-10.2350 -10.5593 2.0386
-9.3698 -11.3688 2.0386
-8.4416 -12.1088 2.0386
-7.4558 -12.7744 2.0386
-6.4183 -13.3609 2.0386
-5.3351 -13.8643 2.0386
-4.2128 -14.2808 2.0386
-3.0582 -14.6073 2.0386
-1.8785 -14.8408 2.0386
-0.6810 -14.9795 2.0386
0.5265 -15.0216 2.0386
1.7363 -14.9663 2.0386
2.9405 -14.8131 2.0386
4.1311 -14.5625 2.0386
5.3001 -14.2154 2.0386
6.4394 -13.7736 2.0386
7.5413 -13.2393 2.0386
8.5980 -12.6157 2.0386
9.6020 -11.9064 2.0386
10.5463 -11.1159 2.0386
10.5698 -9.4830 1.8862
11.3142 -8.6157 1.8862
11.9856 -7.6888 1.8862
12.6207 -6.7309 1.8925
13.2150 -5.7361 1.9042
13.7193 -4.6852 1.9148
14.1271 -3.5870 1.9239
4.1894 -0.7115 0.5607
4.1276 -0.3633 0.5466
4.1173 -0.0304 0.5432
4.1116 0.3009 0.5439
4.0784 0.6309 0.5447
4.0180 0.9574 0.5455
3.9308 1.2780 0.5463
3.8172 1.5905 0.5471
3.7233 1.9158 0.5546
3.6600 2.2725 0.5714
3.5925 2.6530 0.5931
3.5194 3.0651 0.6209
3.4388 3.5193 0.6557
9.0219 10.8559 1.8846
8.1110 11.5326 1.8862
7.1430 12.1217 1.8862
6.4812 13.3473 1.9935
5.4971 14.1060 2.0386
4.3355 14.4687 2.0386
3.1512 14.7357 2.0386
1.9519 14.9058 2.0386
0.7457 14.9786 2.0386
-0.4597 14.9544 2.0386
-1.6565 14.8339 2.0386
-2.8370 14.6186 2.0386
-3.9940 14.3106 2.0386
-5.1202 13.9123 2.0386
-6.2090 13.4268 2.0386
-7.2536 12.8578 2.0386
-8.2479 12.2092 2.0386
-9.1862 11.4855 2.0386
-10.0629 10.6914 2.0386
-10.8731 9.8322 2.0386
-11.6122 8.9133 2.0386
-12.2759 7.9406 2.0386
-12.8607 6.9200 2.0386
-13.3632 5.8579 2.0386
-13.7807 4.7606 2.0386
-14.1109 3.6348 2.0386
-14.3520 2.4872 2.0386
-14.5027 1.3245 2.0386
-14.5620 0.1538 2.0386
-14.5297 -1.0180 2.0386
-14.4060 -2.1841 2.0386
-14.1913 -3.3375 2.0386
-13.8870 -4.4712 2.0386
-13.4945 -5.5786 2.0386
-13.0161 -6.6529 2.0386
-12.4543 -7.6876 2.0386
-11.8121 -8.6764 2.0386
-11.0932 -9.6130 2.0386
-10.3016 -10.4915 2.0386
-9.4416 -11.3063 2.0386
-8.5183 -12.0521 2.0386
-7.5370 -12.7238 2.0386
-6.5034 -13.3168 2.0386
-5.4236 -13.8271 2.0386
-4.3042 -14.2507 2.0386
-3.1519 -14.5845 2.0386
-1.9739 -14.8256 2.0386
-0.7777 -14.9719 2.0386
0.4294 -15.0218 2.0386
1.6393 -14.9743 2.0386
2.8443 -14.8290 2.0386
4.0362 -14.5862 2.0386
5.2072 -14.2468 2.0386
6.3492 -13.8125 2.0386
7.4544 -13.2856 2.0386
8.5150 -12.6690 2.0386
9.5235 -11.9665 2.0386
10.4728 -11.1823 2.0386
10.5304 -9.5711 1.8904
11.2571 -8.6876 1.8862
11.9346 -7.7653 1.8862
12.5693 -6.8081 1.8915
13.1705 -5.8181 1.9033
13.6823 -4.7714 1.9140
14.0981 -3.6767 1.9233
4.1945 -0.7403 0.5620
4.1325 -0.3907 0.5476
4.1166 -0.0569 0.5431
4.1130 0.2743 0.5439
4.0821 0.6045 0.5447
4.0239 0.9314 0.5455
3.9388 1.2525 0.5463
3.8273 1.5657 0.5470
3.7282 1.8880 0.5535
3.6652 2.2431 0.5698
3.5981 2.6214 0.5912
3.5255 3.0307 0.6184
3.4456 3.4810 0.6526
9.0982 10.8050 1.8856
8.1867 11.4818 1.8862
7.2224 12.0774 1.8862
6.5116 13.1923 1.9762
5.5891 14.0728 2.0386
4.4297 14.4431 2.0386
3.2469 14.7178 2.0386
2.0486 14.8957 2.0386
0.8426 14.9764 2.0386
-0.3631 14.9599 2.0386
-1.5609 14.8471 2.0386
-2.7430 14.6394 2.0386
-3.9021 14.3387 2.0386
-5.0311 13.9475 2.0386
-6.1231 13.4690 2.0386
-7.1715 12.9065 2.0386
-8.1701 12.2641 2.0386
-9.1131 11.5462 2.0386
-9.0578 8.0860 2.0386
-9.6675 7.3228 2.0386
-10.2145 6.5147 2.0386
-10.6957 5.6669 2.0386
-11.1084 4.7847 2.0386
-11.4503 3.8733 2.0386
-11.7192 2.9384 2.0386
-11.9139 1.9856 2.0386
-12.0332 1.0207 2.0386
-12.0763 0.0494 2.0386
-12.0430 -0.9223 2.0386
-11.9336 -1.8885 2.0386
-11.7485 -2.8437 2.0386
-11.4888 -3.7817 2.0386
-11.1559 -4.6971 2.0386
-10.7517 -5.5843 2.0386
-10.2784 -6.4376 2.0386
-9.7388 -7.2519 2.0386
-9.1359 -8.0221 2.0386
-8.4731 -8.7431 2.0386
-7.7543 -9.4105 2.0386
-6.9837 -10.0197 2.0386
-6.1659 -10.5668 2.0386
-5.3058 -11.0480 2.0386
-4.4084 -11.4599 2.0386
-3.4794 -11.7996 2.0386
-2.5244 -12.0645 2.0386
-1.5494 -12.2525 2.0386
-0.5606 -12.3619 2.0386
0.4357 -12.3916 2.0386
1.4332 -12.3409 2.0386
2.4251 -12.2096 2.0386
3.4051 -11.9983 2.0386
4.3665 -11.7077 2.0386
5.3029 -11.3395 2.0386
6.2077 -10.8957 2.0386
7.0749 -10.3789 2.0386
7.8983 -9.7921 2.0386
8.6722 -9.1392 2.0386
9.3911 -8.4242 2.0386
10.0498 -7.6518 2.0386
9.9597 -6.3884 1.9076
10.3333 -5.5103 1.8862
10.7512 -4.6661 1.8862
11.0985 -3.7898 1.8862
11.3727 -2.8875 1.8862
4.1894 -0.7114 0.6829
4.1276 -0.3633 0.6658
4.0685 -0.0300 0.6537
4.0111 0.2935 0.6463
3.9546 0.6117 0.6433
3.8984 0.9288 0.6445
3.8416 1.2488 0.6501
3.7835 1.5762 0.6601
3.7233 1.9155 0.6750
3.6601 2.2722 0.6952
3.5926 2.6526 0.7216
3.5195 3.0647 0.7551
3.4389 3.5188 0.7972
7.4382 8.9486 1.8884
7.0615 10.0382 1.9950
6.3571 10.7855 2.0386
5.4599 11.2411 2.0386
4.5304 11.6218 2.0386
3.5749 11.9254 2.0386
2.5997 12.1503 2.0386
1.6115 12.2956 2.0386
0.6168 12.3608 2.0386
-0.3781 12.3458 2.0386
-1.3667 12.2513 2.0386
-2.3426 12.0783 2.0386
-3.2998 11.8284 2.0386
-4.2323 11.5035 2.0386
-5.1344 11.1061 2.0386
-6.0006 10.6391 2.0386
-6.8256 10.1058 2.0386
-7.6046 9.5096 2.0386
-8.3329 8.8547 2.0386
-9.0063 8.1452 2.0386
-9.6208 7.3858 2.0386
-10.1730 6.5812 2.0386
-10.6596 5.7364 2.0386
-11.0779 4.8566 2.0386
-11.4255 3.9474 2.0386
-11.7004 3.0141 2.0386
-11.9011 2.0626 2.0386
-12.0264 1.0984 2.0386
-12.0756 0.1275 2.0386
-12.0485 -0.8443 2.0386
-11.9452 -1.8113 2.0386
-11.7661 -2.7675 2.0386
-11.5123 -3.7072 2.0386
-11.1853 -4.6246 2.0386
-10.7867 -5.5142 2.0386
-10.3189 -6.3705 2.0386
-9.7845 -7.1881 2.0386
-9.1865 -7.9620 2.0386
-8.5284 -8.6871 2.0386
-7.8139 -9.3591 2.0386
-7.0474 -9.9730 2.0386
-6.2332 -10.5252 2.0386
-5.3763 -11.0118 2.0386
-4.4817 -11.4295 2.0386
-3.5550 -11.7751 2.0386
-2.6019 -12.0461 2.0386
-1.6283 -12.2403 2.0386
-0.6404 -12.3560 2.0386
0.3556 -12.3922 2.0386
1.3532 -12.3479 2.0386
2.3459 -12.2231 2.0386
3.3270 -12.0182 2.0386
4.2902 -11.7340 2.0386
5.2288 -11.3719 2.0386
6.1364 -10.9341 2.0386
7.0068 -10.4230 2.0386
7.8340 -9.8418 2.0386
8.6120 -9.1940 2.0386
9.3355 -8.4838 2.0386
9.9992 -7.7158 2.0386
9.9754 -6.4897 1.9188
10.2968 -5.5765 1.8862
10.7202 -4.7352 1.8862
11.0733 -3.8612 1.8862
11.3534 -2.9606 1.8862
4.1945 -0.7402 0.6845
4.1325 -0.3907 0.6669
4.0732 -0.0563 0.6545
4.0156 0.2678 0.6467
3.9592 0.5862 0.6434
3.9029 0.9033 0.6443
3.8462 1.2229 0.6495
3.7883 1.5495 0.6592
3.7283 1.8877 0.6736
3.6653 2.2428 0.6934
3.5982 2.6210 0.7192
3.5256 3.0302 0.7521
3.4457 3.4805 0.7935
7.4882 8.8914 1.8862
7.0826 9.9312 1.9825
6.4276 10.7457 2.0386
5.5333 11.2073 2.0386
4.6061 11.5940 2.0386
3.6524 11.9039 2.0386
2.6786 12.1352 2.0386
1.6912 12.2869 2.0386
0.6967 12.3585 2.0386
-0.2984 12.3500 2.0386
-1.2877 12.2618 2.0386
-2.2649 12.0951 2.0386
-3.2238 11.8512 2.0386
-4.1585 11.5323 2.0386
-5.0633 11.1406 2.0386
-5.9325 10.6791 2.0386
-6.7610 10.1510 2.0386
-7.5438 9.5597 2.0386
-7.7197 6.8925 2.0386
-8.2408 6.2430 2.0386
-8.7085 5.5549 2.0386
-9.1200 4.8326 2.0386
-9.4729 4.0807 2.0386
-9.7653 3.3036 2.0386
-9.9955 2.5064 2.0386
-10.1620 1.6937 2.0386
-10.2639 0.8706 2.0386
-10.3007 0.0422 2.0386
-10.2721 -0.7868 2.0386
-10.1783 -1.6109 2.0386
-10.0197 -2.4255 2.0386
-9.7973 -3.2254 2.0386
-9.5125 -4.0054 2.0386
-9.1665 -4.7616 2.0386
-8.7616 -5.4885 2.0386
-8.3002 -6.1816 2.0386
-7.7848 -6.8367 2.0386
-7.2185 -7.4498 2.0386
-6.6046 -8.0167 2.0386
-5.9468 -8.5337 2.0386
-5.2490 -8.9974 2.0386
-4.5154 -9.4047 2.0386
-3.7505 -9.7528 2.0386
-2.9591 -10.0391 2.0386
-2.1460 -10.2616 2.0386
-1.3163 -10.4185 2.0386
-0.4754 -10.5085 2.0386
0.3715 -10.5307 2.0386
1.2188 -10.4845 2.0386
2.0610 -10.3701 2.0386
2.8925 -10.1877 2.0386
3.7078 -9.9382 2.0386
4.5014 -9.6231 2.0386
5.2679 -9.2441 2.0386
6.0022 -8.8035 2.0386
6.6991 -8.3039 2.0386
7.3537 -7.7485 2.0386
7.9616 -7.1409 2.0386
8.5184 -6.4850 2.0386
9.0202 -5.7851 2.0386
9.4635 -5.0459 2.0386
9.5529 -4.1456 1.9781
9.4167 -3.2152 1.8891
9.6338 -2.4456 1.8862
4.1894 -0.7114 0.8062
4.1276 -0.3633 0.7860
4.0685 -0.0300 0.7718
4.0111 0.2935 0.7630
3.9547 0.6116 0.7594
3.8984 0.9286 0.7608
3.8416 1.2487 0.7673
3.7836 1.5760 0.7791
3.7234 1.9153 0.7965
3.6601 2.2719 0.8203
3.5927 2.6523 0.8512
3.5196 3.0643 0.8905
3.4390 3.5183 0.9400
6.8122 8.1939 2.0386
6.1231 8.7025 2.0386
5.3960 9.1527 2.0386
4.6359 9.5419 2.0386
3.8479 9.8677 2.0386
3.0374 10.1283 2.0386
2.2098 10.3224 2.0386
1.3707 10.4488 2.0386
0.5255 10.5072 2.0386
-0.3203 10.4976 2.0386
-1.1612 10.4202 2.0386
-1.9918 10.2760 2.0386
-2.8070 10.0661 2.0386
-3.6016 9.7922 2.0386
-4.3706 9.4564 2.0386
-5.1093 9.0610 2.0386
-5.8134 8.6088 2.0386
-6.4784 8.1027 2.0386
-7.1004 7.5462 2.0386
-7.6757 6.9429 2.0386
-8.2009 6.2966 2.0386
-8.6730 5.6115 2.0386
-9.0891 4.8918 2.0386
-9.4468 4.1421 2.0386
-9.7441 3.3669 2.0386
-9.9793 2.5710 2.0386
-10.1510 1.7594 2.0386
-10.2581 0.9370 2.0386
-10.3002 0.1088 2.0386
-10.2768 -0.7203 2.0386
-10.1881 -1.5453 2.0386
-10.0348 -2.3606 2.0386
-9.8175 -3.1618 2.0386
-9.5375 -3.9439 2.0386
-9.1965 -4.7019 2.0386
-8.7963 -5.4313 2.0386
-8.3393 -6.1272 2.0386
-7.8281 -6.7856 2.0386
-7.2658 -7.4022 2.0386
-6.6556 -7.9729 2.0386
-6.0011 -8.4941 2.0386
-5.3064 -8.9622 2.0386
-4.5755 -9.3742 2.0386
-3.8130 -9.7271 2.0386
-3.0235 -10.0185 2.0386
-2.2119 -10.2461 2.0386
-1.3834 -10.4084 2.0386
-0.5432 -10.5038 2.0386
0.3034 -10.5314 2.0386
1.1509 -10.4908 2.0386
1.9937 -10.3818 2.0386
2.8262 -10.2048 2.0386
3.6430 -9.9607 2.0386
4.4386 -9.6508 2.0386
5.2075 -9.2768 2.0386
5.9445 -8.8411 2.0386
6.6446 -8.3461 2.0386
7.3028 -7.7950 2.0386
7.9146 -7.1915 2.0386
8.4757 -6.5393 2.0386
8.9821 -5.8428 2.0386
9.4301 -5.1066 2.0386
9.5652 -4.2245 1.9864
9.4233 -3.2855 1.8947
9.6175 -2.5077 1.8862
4.1945 -0.7401 0.8081
4.1325 -0.3906 0.7874
4.0732 -0.0564 0.7727
4.0157 0.2677 0.7635
3.9592 0.5862 0.7595
3.9029 0.9031 0.7605
3.8462 1.2228 0.7666
3.7883 1.5493 0.7779
3.7283 1.8875 0.7949
3.6654 2.2425 0.8181
3.5983 2.6207 0.8484
3.5257 3.0298 0.8870
3.4458 3.4800 0.9356
6.8657 8.1507 2.0386
6.1799 8.6638 2.0386
5.4556 9.1188 2.0386
4.6980 9.5129 2.0386
3.9121 9.8439 2.0386
3.1032 10.1099 2.0386
2.2768 10.3093 2.0386
1.4384 10.4412 2.0386
0.5934 10.5051 2.0386
-0.2525 10.5009 2.0386
-1.0940 10.4289 2.0386
-1.9257 10.2900 2.0386
-2.7423 10.0853 2.0386
-3.5386 9.8165 2.0386
-4.3099 9.4856 2.0386
-5.0513 9.0949 2.0386
-5.7582 8.6471 2.0386
-6.4265 8.1453 2.0386
-6.7164 5.9976 2.0386
-7.1707 5.4330 2.0386
-7.5785 4.8348 2.0386
-7.9374 4.2065 2.0386
-8.2454 3.5523 2.0386
-8.5005 2.8761 2.0386
-8.7012 2.1821 2.0386
-8.8465 1.4746 2.0386
-8.9354 0.7580 2.0386
-8.9674 0.0366 2.0386
-8.9424 -0.6850 2.0386
-8.8604 -1.4026 2.0386
-8.7219 -2.1117 2.0386
-8.5278 -2.8078 2.0386
-8.2790 -3.4868 2.0386
-7.9772 -4.1444 2.0386
-7.6239 -4.7764 2.0386
-7.2214 -5.3790 2.0386
-6.7720 -5.9483 2.0386
-6.2783 -6.4807 2.0386
-5.7434 -6.9726 2.0386
-5.1703 -7.4210 2.0386
-4.5627 -7.8229 2.0386
-3.9241 -8.1754 2.0386
-3.2586 -8.4763 2.0386
-2.5702 -8.7234 2.0386
-1.8632 -8.9148 2.0386
-1.1422 -9.0492 2.0386
-0.4117 -9.1254 2.0386
0.3236 -9.1426 2.0386
1.0590 -9.1006 2.0386
1.7896 -8.9993 2.0386
2.5107 -8.8392 2.0386
3.2174 -8.6210 2.0386
3.9050 -8.3460 2.0386
4.5690 -8.0157 2.0386
5.2047 -7.6322 2.0386
5.8079 -7.1979 2.0386
6.3743 -6.7154 2.0386
6.9001 -6.1879 2.0386
7.3816 -5.6188 2.0386
7.8155 -5.0118 2.0386
8.1986 -4.3709 2.0386
8.5283 -3.7005 2.0386
8.8022 -3.0050 2.0386
9.0185 -2.2892 2.0386
4.1894 -0.7113 0.9308
4.1276 -0.3633 0.9075
4.0685 -0.0300 0.8911
4.0111 0.2934 0.8810
3.9547 0.6115 0.8768
3.8985 0.9285 0.8783
3.8417 1.2485 0.8858
3.7836 1.5758 0.8993
3.7234 1.9150 0.9193
3.6602 2.2716 0.9466
3.5927 2.6519 0.9821
3.5197 3.0639 1.0274
3.4391 3.5178 1.0843
5.9069 7.1037 2.0386
5.3104 7.5459 2.0386
4.6808 7.9378 2.0386
4.0224 8.2770 2.0386
3.3396 8.5614 2.0386
2.6369 8.7893 2.0386
1.9192 8.9596 2.0386
1.1911 9.0714 2.0386
0.4574 9.1240 2.0386
-0.2771 9.1176 2.0386
-1.0077 9.0523 2.0386
-1.7297 8.9289 2.0386
-2.4385 8.7484 2.0386
-3.1297 8.5121 2.0386
-3.7989 8.2217 2.0386
-4.4420 7.8794 2.0386
-5.0551 7.4875 2.0386
-5.6345 7.0485 2.0386
-6.1765 6.5654 2.0386
-6.6780 6.0413 2.0386
-7.1359 5.4796 2.0386
-7.5475 4.8840 2.0386
-7.9105 4.2580 2.0386
-8.2226 3.6057 2.0386
-8.4820 2.9311 2.0386
-8.6872 2.2384 2.0386
-8.8369 1.5318 2.0386
-8.9303 0.8157 2.0386
-8.9670 0.0946 2.0386
-8.9465 -0.6272 2.0386
-8.8691 -1.3453 2.0386
-8.7351 -2.0552 2.0386
-8.5454 -2.7525 2.0386
-8.3010 -3.4330 2.0386
-8.0033 -4.0924 2.0386
-7.6542 -4.7267 2.0386
-7.2555 -5.3318 2.0386
-6.8097 -5.9040 2.0386
-6.3195 -6.4394 2.0386
-5.7878 -6.9347 2.0386
-5.2177 -7.3867 2.0386
-4.6126 -7.7924 2.0386
-3.9764 -8.1490 2.0386
-3.3129 -8.4541 2.0386
-2.6262 -8.7055 2.0386
-1.9206 -8.9015 2.0386
-1.2005 -9.0405 2.0386
-0.4706 -9.1214 2.0386
0.2645 -9.1434 2.0386
1.0000 -9.1062 2.0386
1.7312 -9.0096 2.0386
2.4532 -8.8542 2.0386
3.1613 -8.6406 2.0386
3.8506 -8.3701 2.0386
4.5166 -8.0442 2.0386
5.1548 -7.6650 2.0386
5.7607 -7.2346 2.0386
6.3303 -6.7558 2.0386
6.8595 -6.2318 2.0386
7.3447 -5.6659 2.0386
7.7825 -5.0618 2.0386
8.1698 -4.4235 2.0386
8.5038 -3.7553 2.0386
8.7823 -3.0617 2.0386
9.0033 -2.3473 2.0386
4.1945 -0.7401 0.9330
4.1325 -0.3906 0.9091
4.0732 -0.0564 0.8922
4.0157 0.2677 0.8815
3.9592 0.5861 0.8769
3.9030 0.9030 0.8780
3.8463 1.2226 0.8850
3.7884 1.5491 0.8980
3.7284 1.8872 0.9175
3.6654 2.2422 0.9441
3.5983 2.6203 0.9790
3.5258 3.0294 1.0233
3.4459 3.4795 1.0792
5.9532 7.0661 2.0386
5.3596 7.5122 2.0386
4.7325 7.9083 2.0386
4.0762 8.2517 2.0386
3.3952 8.5406 2.0386
2.6940 8.7732 2.0386
1.9773 8.9481 2.0386
1.2498 9.0646 2.0386
0.5164 9.1220 2.0386
-0.2182 9.1203 2.0386
-0.9493 9.0598 2.0386
-1.6722 8.9410 2.0386
-2.3822 8.7650 2.0386
-3.0749 8.5331 2.0386
-3.7461 8.2470 2.0386
-4.3915 7.9088 2.0386
-5.0071 7.5207 2.0386
-5.5893 7.0854 2.0386
-5.9350 5.3006 2.0386
-6.3371 4.8021 2.0386
-6.6982 4.2737 2.0386
-7.0160 3.7186 2.0386
-7.2887 3.1405 2.0386
-7.5146 2.5428 2.0386
-7.6924 1.9293 2.0386
-7.8210 1.3038 2.0386
-7.8997 0.6702 2.0386
-7.9281 0.0323 2.0386
-7.9058 -0.6058 2.0386
-7.8331 -1.2402 2.0386
-7.7104 -1.8670 2.0386
-7.5383 -2.4824 2.0386
-7.3179 -3.0824 2.0386
-7.0505 -3.6635 2.0386
-6.7377 -4.2218 2.0386
-6.3813 -4.7540 2.0386
-5.9835 -5.2566 2.0386
-5.5466 -5.7263 2.0386
-5.0732 -6.1602 2.0386
-4.5663 -6.5555 2.0386
-4.0290 -6.9095 2.0386
-3.4644 -7.2198 2.0386
-2.8762 -7.4843 2.0386
-2.2681 -7.7012 2.0386
-1.6437 -7.8690 2.0386
-1.0071 -7.9862 2.0386
-0.3623 -8.0521 2.0386
0.2864 -8.0660 2.0386
0.9351 -8.0276 2.0386
1.5793 -7.9369 2.0386
2.2149 -7.7944 2.0386
2.8376 -7.6008 2.0386
3.4433 -7.3572 2.0386
4.0280 -7.0651 2.0386
4.5877 -6.7261 2.0386
5.1186 -6.3425 2.0386
5.6170 -5.9166 2.0386
6.0796 -5.4512 2.0386
6.5031 -4.9493 2.0386
6.8846 -4.4142 2.0386
7.2214 -3.8495 2.0386
7.5113 -3.2588 2.0386
7.7521 -2.6462 2.0386
7.9422 -2.0158 2.0386
4.1894 -0.7112 1.0570
4.1276 -0.3633 1.0305
4.0685 -0.0301 1.0119
4.0111 0.2933 1.0004
3.9547 0.6114 0.9956
3.8985 0.9284 0.9973
3.8417 1.2484 1.0057
3.7837 1.5756 1.0210
3.7235 1.9148 1.0437
3.6603 2.2713 1.0745
3.5928 2.6516 1.1147
3.5197 3.0635 1.1659
3.4392 3.5173 1.2304
5.2064 6.2601 2.0386
4.6815 6.6508 2.0386
4.1272 6.9972 2.0386
3.5473 7.2974 2.0386
2.9457 7.5493 2.0386
2.3266 7.7516 2.0386
1.6938 7.9031 2.0386
1.0517 8.0030 2.0386
0.4045 8.0508 2.0386
-0.2436 8.0465 2.0386
-0.8885 7.9902 2.0386
-1.5261 7.8826 2.0386
-2.1522 7.7244 2.0386
-2.7629 7.5169 2.0386
-3.3544 7.2616 2.0386
-3.9230 6.9603 2.0386
-4.4651 6.6149 2.0386
-4.9776 6.2279 2.0386
-5.4572 5.8017 2.0386
-5.9010 5.3392 2.0386
-6.3063 4.8433 2.0386
-6.6707 4.3172 2.0386
-6.9921 3.7641 2.0386
-7.2685 3.1877 2.0386
-7.4982 2.5914 2.0386
-7.6799 1.9790 2.0386
-7.8125 1.3544 2.0386
-7.8953 0.7213 2.0386
-7.9276 0.0836 2.0386
-7.9095 -0.5546 2.0386
-7.8408 -1.1895 2.0386
-7.7220 -1.8171 2.0386
-7.5539 -2.4335 2.0386
-7.3374 -3.0350 2.0386
-7.0737 -3.6176 2.0386
-6.7645 -4.1779 2.0386
-6.4115 -4.7123 2.0386
-6.0169 -5.2174 2.0386
-5.5830 -5.6899 2.0386
-5.1125 -6.1268 2.0386
-4.6082 -6.5252 2.0386
-4.0732 -6.8826 2.0386
-3.5107 -7.1966 2.0386
-2.9243 -7.4648 2.0386
-2.3175 -7.6856 2.0386
-1.6943 -7.8573 2.0386
-1.0586 -7.9787 2.0386
-0.4143 -8.0488 2.0386
0.2343 -8.0668 2.0386
0.8831 -8.0326 2.0386
1.5278 -7.9461 2.0386
2.1642 -7.8078 2.0386
2.7882 -7.6182 2.0386
3.3954 -7.3786 2.0386
3.9819 -7.0903 2.0386
4.5438 -6.7550 2.0386
5.0771 -6.3749 2.0386
5.5783 -5.9523 2.0386
6.0438 -5.4900 2.0386
6.4706 -4.9909 2.0386
6.8556 -4.4583 2.0386
7.1961 -3.8958 2.0386
7.4898 -3.3071 2.0386
7.7346 -2.6961 2.0386
7.9288 -2.0670 2.0386
4.1945 -0.7400 1.0594
4.1325 -0.3906 1.0324
4.0732 -0.0564 1.0131
4.0157 0.2676 1.0011
3.9592 0.5860 0.9957
3.9030 0.9029 0.9970
3.8463 1.2225 1.0048
3.7884 1.5489 1.0195
3.7284 1.8870 1.0416
3.6655 2.2419 1.0717
3.5984 2.6200 1.1111
3.5259 3.0290 1.1614
3.4460 3.4790 1.2246
5.2472 6.2269 2.0386
4.7248 6.6206 2.0386
4.1727 6.9711 2.0386
3.5947 7.2750 2.0386
2.9948 7.5309 2.0386
2.3768 7.7372 2.0386
1.7450 7.8928 2.0386
1.1035 7.9969 2.0386
0.4566 8.0489 2.0386
-0.1917 8.0487 2.0386
-0.8370 7.9966 2.0386
-1.4752 7.8931 2.0386
-2.1024 7.7389 2.0386
-2.7145 7.5354 2.0386
-3.3077 7.2838 2.0386
-3.8782 6.9861 2.0386
-4.4227 6.6442 2.0386
-4.9376 6.2605 2.0386
-5.3083 4.7416 2.0386
-5.6685 4.2961 2.0386
-5.9919 3.8236 2.0386
-6.2767 3.3272 2.0386
-6.5210 2.8100 2.0386
-6.7234 2.2753 2.0386
-6.8827 1.7264 2.0386
-6.9980 1.1667 2.0386
-7.0685 0.5997 2.0386
-7.0938 0.0289 2.0386
-7.0738 -0.5421 2.0386
-7.0086 -1.1098 2.0386
-6.8986 -1.6707 2.0386
-6.7443 -2.2213 2.0386
-6.5468 -2.7581 2.0386
-6.3072 -3.2777 2.0386
-6.0269 -3.7770 2.0386
-5.7076 -4.2528 2.0386
-5.3512 -4.7019 2.0386
-4.9600 -5.1216 2.0386
-4.5361 -5.5092 2.0386
-4.0824 -5.8620 2.0386
-3.6014 -6.1778 2.0386
-3.0963 -6.4545 2.0386
-2.5702 -6.6902 2.0386
-2.0263 -6.8832 2.0386
-1.4680 -7.0322 2.0386
-0.8990 -7.1360 2.0386
-0.3229 -7.1939 2.0386
0.2567 -7.2054 2.0386
0.8360 -7.1701 2.0386
1.4112 -7.0882 2.0386
1.9786 -6.9600 2.0386
2.5343 -6.7863 2.0386
3.0748 -6.5680 2.0386
3.5963 -6.3064 2.0386
4.0954 -6.0032 2.0386
4.5688 -5.6602 2.0386
5.0131 -5.2796 2.0386
5.4253 -4.8639 2.0386
5.8027 -4.4157 2.0386
6.1427 -3.9380 2.0386
6.4428 -3.4340 2.0386
6.7010 -2.9069 2.0386
6.9154 -2.3604 2.0386
7.0848 -1.7980 2.0386
4.1894 -0.7112 1.1849
4.1276 -0.3632 1.1553
4.0685 -0.0301 1.1344
4.0112 0.2933 1.1215
3.9547 0.6113 1.1161
3.8985 0.9283 1.1180
3.8418 1.2482 1.1274
3.7837 1.5754 1.1444
3.7236 1.9145 1.1698
3.6603 2.2710 1.2043
3.5929 2.6512 1.2492
3.5198 3.0630 1.3065
3.4393 3.5167 1.3785
4.6476 5.5872 2.0386
4.1796 5.9365 2.0386
3.6853 6.2465 2.0386
3.1680 6.5152 2.0386
2.6312 6.7410 2.0386
2.0786 6.9225 2.0386
1.5137 7.0587 2.0386
0.9404 7.1489 2.0386
0.3623 7.1926 2.0386
-0.2168 7.1897 2.0386
-0.7932 7.1404 2.0386
-1.3631 7.0451 2.0386
-1.9229 6.9046 2.0386
-2.4691 6.7200 2.0386
-2.9983 6.4926 2.0386
-3.5070 6.2238 2.0386
-3.9923 5.9157 2.0386
-4.4510 5.5701 2.0386
-4.8804 5.1895 2.0386
-5.2779 4.7762 2.0386
-5.6409 4.3329 2.0386
-5.9674 3.8625 2.0386
-6.2553 3.3679 2.0386
-6.5029 2.8522 2.0386
-6.7087 2.3188 2.0386
-6.8715 1.7709 2.0386
-6.9904 1.2119 2.0386
-7.0645 0.6454 2.0386
-7.0935 0.0748 2.0386
-7.0771 -0.4963 2.0386
-7.0155 -1.0644 2.0386
-6.9091 -1.6260 2.0386
-6.7583 -2.1775 2.0386
-6.5643 -2.7156 2.0386
-6.3280 -3.2367 2.0386
-6.0509 -3.7378 2.0386
-5.7346 -4.2155 2.0386
-5.3812 -4.6669 2.0386
-4.9926 -5.0891 2.0386
-4.5713 -5.4793 2.0386
-4.1199 -5.8350 2.0386
-3.6410 -6.1539 2.0386
-3.1377 -6.4338 2.0386
-2.6131 -6.6728 2.0386
-2.0705 -6.8693 2.0386
-1.5133 -7.0218 2.0386
-0.9450 -7.1294 2.0386
-0.3693 -7.1910 2.0386
0.2102 -7.2062 2.0386
0.7896 -7.1746 2.0386
1.3653 -7.0965 2.0386
1.9334 -6.9720 2.0386
2.4902 -6.8019 2.0386
3.0320 -6.5871 2.0386
3.5552 -6.3289 2.0386
4.0563 -6.0290 2.0386
4.5318 -5.6891 2.0386
4.9785 -5.3115 2.0386
5.3935 -4.8985 2.0386
5.7738 -4.4528 2.0386
6.1168 -3.9774 2.0386
6.4202 -3.4753 2.0386
6.6818 -2.9500 2.0386
6.8999 -2.4049 2.0386
7.0729 -1.8436 2.0386
4.1945 -0.7399 1.1877
4.1325 -0.3906 1.1574
4.0732 -0.0564 1.1358
4.0157 0.2676 1.1222
3.9593 0.5859 1.1162
3.9030 0.9028 1.1176
3.8464 1.2223 1.1263
3.7884 1.5487 1.1428
3.7285 1.8867 1.1674
3.6655 2.2416 1.2011
3.5985 2.6196 1.2452
3.5259 3.0286 1.3014
3.4461 3.4785 1.3721
4.6840 5.5575 2.0386
4.2182 5.9099 2.0386
3.7258 6.2231 2.0386
3.2103 6.4952 2.0386
2.6750 6.7244 2.0386
2.1235 6.9096 2.0386
1.5594 7.0495 2.0386
0.9866 7.1434 2.0386
0.4088 7.1908 2.0386
-0.1704 7.1917 2.0386
-0.7471 7.1460 2.0386
-1.3176 7.0544 2.0386
-1.8784 6.9176 2.0386
-2.4258 6.7364 2.0386
-2.9565 6.5124 2.0386
-3.4670 6.2469 2.0386
-3.9543 5.9418 2.0386
-4.4153 5.5992 2.0386
-4.7939 4.2828 2.0386
-5.1195 3.8806 2.0386
-5.4120 3.4540 2.0386
-5.6695 3.0057 2.0386
-5.8904 2.5386 2.0386
-6.0735 2.0556 2.0386
-6.2176 1.5597 2.0386
-6.3219 1.0541 2.0386
-6.3856 0.5418 2.0386
-6.4085 0.0261 2.0386
-6.3904 -0.4898 2.0386
-6.3314 -1.0027 2.0386
-6.2318 -1.5094 2.0386
-6.0922 -2.0068 2.0386
-5.9135 -2.4916 2.0386
-5.6968 -2.9609 2.0386
-5.4433 -3.4118 2.0386
-5.1545 -3.8413 2.0386
-4.8323 -4.2466 2.0386
-4.4785 -4.6253 2.0386
-4.0954 -4.9749 2.0386
-3.6854 -5.2931 2.0386
-3.2508 -5.5777 2.0386
-2.7945 -5.8269 2.0386
-2.3192 -6.0391 2.0386
-1.8281 -6.2126 2.0386
-1.3241 -6.3464 2.0386
-0.8105 -6.4395 2.0386
-0.2905 -6.4910 2.0386
0.2324 -6.5006 2.0386
0.7550 -6.4681 2.0386
1.2737 -6.3935 2.0386
1.7853 -6.2772 2.0386
2.2863 -6.1199 2.0386
2.7734 -5.9224 2.0386
3.2433 -5.6860 2.0386
3.6930 -5.4121 2.0386
4.1194 -5.1024 2.0386
4.5195 -4.7590 2.0386
4.8908 -4.3839 2.0386
5.2306 -3.9797 2.0386
5.5366 -3.5490 2.0386
5.8067 -3.0946 2.0386
6.0391 -2.6195 2.0386
6.2322 -2.1269 2.0386
6.3846 -1.6201 2.0386
4.1894 -0.7111 1.3149
4.1276 -0.3632 1.2821
4.0685 -0.0301 1.2589
4.0112 0.2932 1.2445
3.9548 0.6112 1.2385
3.8985 0.9281 1.2406
3.8418 1.2480 1.2509
3.7838 1.5752 1.2698
3.7236 1.9143 1.2978
3.6604 2.2707 1.3360
3.5930 2.6508 1.3858
3.4777 3.0259 1.4318
3.4395 3.5162 1.5290
4.1908 5.0370 2.0386
3.7692 5.3524 2.0386
3.3238 5.6324 2.0386
2.8576 5.8753 2.0386
2.3739 6.0796 2.0386
1.8756 6.2439 2.0386
1.3663 6.3675 2.0386
0.8492 6.4496 2.0386
0.3277 6.4897 2.0386
-0.1949 6.4878 2.0386
-0.7150 6.4440 2.0386
-1.2295 6.3587 2.0386
-1.7350 6.2326 2.0386
-2.2282 6.0665 2.0386
-2.7062 5.8617 2.0386
-3.1658 5.6197 2.0386
-3.6043 5.3419 2.0386
-4.0189 5.0303 2.0386
-4.4070 4.6869 2.0386
-4.7663 4.3139 2.0386
-5.0946 3.9138 2.0386
-5.3898 3.4891 2.0386
-5.6501 3.0424 2.0386
-5.8741 2.5767 2.0386
-6.0602 2.0949 2.0386
-6.2075 1.5999 2.0386
-6.3150 1.0949 2.0386
-6.3820 0.5831 2.0386
-6.4082 0.0676 2.0386
-6.3934 -0.4485 2.0386
-6.3376 -0.9617 2.0386
-6.2413 -1.4691 2.0386
-6.1049 -1.9673 2.0386
-5.9293 -2.4532 2.0386
-5.7155 -2.9239 2.0386
-5.4649 -3.3763 2.0386
-5.1790 -3.8076 2.0386
-4.8593 -4.2150 2.0386
-4.5081 -4.5960 2.0386
-4.1272 -4.9480 2.0386
-3.7192 -5.2687 2.0386
-3.2865 -5.5561 2.0386
-2.8319 -5.8083 2.0386
-2.3580 -6.0234 2.0386
-1.8680 -6.2001 2.0386
-1.3650 -6.3372 2.0386
-0.8520 -6.4335 2.0386
-0.3324 -6.4884 2.0386
0.1904 -6.5014 2.0386
0.7131 -6.4722 2.0386
1.2323 -6.4010 2.0386
1.7445 -6.2881 2.0386
2.2465 -6.1340 2.0386
2.7348 -5.9397 2.0386
3.2063 -5.7064 2.0386
3.6577 -5.4354 2.0386
4.0860 -5.1286 2.0386
4.4884 -4.7877 2.0386
4.8621 -4.4151 2.0386
5.2045 -4.0132 2.0386
5.5133 -3.5845 2.0386
5.7864 -3.1319 2.0386
6.0219 -2.6584 2.0386
6.2182 -2.1671 2.0386
6.3739 -1.6613 2.0386
4.1945 -0.7399 1.3180
4.1325 -0.3905 1.2843
4.0732 -0.0564 1.2604
4.0157 0.2675 1.2453
3.9593 0.5858 1.2387
3.9031 0.9026 1.2401
3.8464 1.2221 1.2498
3.7885 1.5485 1.2680
3.7285 1.8865 1.2952
3.6656 2.2413 1.3326
3.5986 2.6193 1.3813
3.4862 2.9939 1.4272
3.4462 3.4780 1.5219
4.2235 5.0102 2.0386
3.8039 5.3284 2.0386
3.3604 5.6113 2.0386
2.8958 5.8572 2.0386
2.4133 6.0646 2.0386
1.9161 6.2322 2.0386
1.4075 6.3591 2.0386
0.8909 6.4445 2.0386
0.3696 6.4880 2.0386
-0.1530 6.4895 2.0386
-0.6734 6.4490 2.0386
-1.1885 6.3670 2.0386
-1.6948 6.2442 2.0386
-2.1891 6.0813 2.0386
-2.6685 5.8796 2.0386
-3.1297 5.6405 2.0386
-3.5700 5.3655 2.0386
-3.9866 5.0565 2.0386
-4.3633 3.8987 2.0386
-4.6600 3.5328 2.0386
-4.9265 3.1446 2.0386
-5.1612 2.7366 2.0386
-5.3625 2.3114 2.0386
-5.5294 1.8716 2.0386
-5.6607 1.4202 2.0386
-5.7557 0.9598 2.0386
-5.8138 0.4933 2.0386
-5.8346 0.0237 2.0386
-5.8181 -0.4460 2.0386
-5.7643 -0.9131 2.0386
-5.6735 -1.3744 2.0386
-5.5462 -1.8272 2.0386
-5.3834 -2.2686 2.0386
-5.1858 -2.6958 2.0386
-4.9547 -3.1061 2.0386
-4.6916 -3.4969 2.0386
-4.3980 -3.8657 2.0386
-4.0757 -4.2102 2.0386
-3.7268 -4.5280 2.0386
-3.3533 -4.8172 2.0386
-2.9576 -5.0758 2.0386
-2.5421 -5.3022 2.0386
-0.7683 -2.0012 0.7425
-1.6624 -5.6522 2.0386
-1.2038 -5.7734 2.0386
-0.7365 -5.8575 2.0386
-0.2635 -5.9039 2.0386
0.2121 -5.9120 2.0386
0.6873 -5.8819 2.0386
1.1589 -5.8136 2.0386
1.6239 -5.7073 2.0386
0.7511 -2.0099 0.7365
2.5219 -5.3838 2.0386
2.9488 -5.1685 2.0386
3.3573 -4.9192 2.0386
3.7446 -4.6374 2.0386
4.1080 -4.3249 2.0386
4.4451 -3.9838 2.0386
4.7536 -3.6163 2.0386
5.0314 -3.2247 2.0386
5.2767 -2.8117 2.0386
5.4876 -2.3800 2.0386
5.6629 -1.9324 2.0386
5.8012 -1.4719 2.0386
4.1894 -0.7111 1.4471
4.1276 -0.3632 1.4110
4.0686 -0.0301 1.3855
4.0112 0.2932 1.3697
3.9548 0.6112 1.3631
3.8986 0.9280 1.3654
3.8418 1.2478 1.3767
3.7838 1.5750 1.3974
3.7237 1.9140 1.4282
3.6605 2.2704 1.4701
3.5930 2.6505 1.5248
3.4173 2.9728 1.5479
3.4396 3.5157 1.6821
3.8098 4.5781 2.0386
3.4268 4.8652 2.0386
3.0222 5.1201 2.0386
2.5987 5.3414 2.0386
2.1590 5.5275 2.0386
1.7062 5.6775 2.0386
1.2432 5.7904 2.0386
0.7730 5.8655 2.0386
0.2987 5.9026 2.0386
-0.1765 5.9014 2.0386
-0.6497 5.8621 2.0386
-1.1178 5.7850 2.0386
-1.5778 5.6707 2.0386
-2.0268 5.5201 2.0386
-2.4619 5.3342 2.0386
-2.8805 5.1144 2.0386
-3.2798 4.8619 2.0386
-3.6574 4.5786 2.0386
-4.0109 4.2663 2.0386
-4.3382 3.9271 2.0386
-4.6373 3.5630 2.0386
-4.9063 3.1765 2.0386
-5.1435 2.7700 2.0386
-5.3476 2.3461 2.0386
-5.5173 1.9074 2.0386
-5.6515 1.4568 2.0386
-5.7494 0.9970 2.0386
-5.8105 0.5309 2.0386
-5.8343 0.0615 2.0386
-5.8208 -0.4084 2.0386
-5.7700 -0.8757 2.0386
-5.6821 -1.3376 2.0386
-5.5578 -1.7912 2.0386
-5.3977 -2.2336 2.0386
-5.2029 -2.6620 2.0386
-4.9745 -3.0738 2.0386
-4.7139 -3.4663 2.0386
-4.4227 -3.8369 2.0386
-4.1026 -4.1834 2.0386
-3.7557 -4.5035 2.0386
-3.3841 -4.7951 2.0386
-2.9901 -5.0562 2.0386
-2.5761 -5.2853 2.0386
-0.7812 -1.9962 0.7425
-1.6988 -5.6409 2.0386
-1.2410 -5.7650 2.0386
-0.7743 -5.8521 2.0386
-0.3016 -5.9015 2.0386
0.1739 -5.9128 2.0386
0.6492 -5.8857 2.0386
1.1212 -5.8204 2.0386
1.5869 -5.7172 2.0386
0.7381 -2.0147 0.7365
2.4869 -5.3996 2.0386
2.9152 -5.1871 2.0386
3.3253 -4.9404 2.0386
3.7143 -4.6611 2.0386
4.0798 -4.3511 2.0386
4.4191 -4.0122 2.0386
4.7300 -3.6467 2.0386
5.0103 -3.2570 2.0386
5.2582 -2.8456 2.0386
5.4720 -2.4153 2.0386
5.6501 -1.9689 2.0386
5.7915 -1.5093 2.0386
4.1945 -0.7398 1.4505
4.1325 -0.3905 1.4135
4.0732 -0.0564 1.3872
4.0158 0.2675 1.3706
3.9593 0.5857 1.3633
3.9031 0.9025 1.3648
3.8464 1.2220 1.3754
3.7885 1.5483 1.3954
3.7286 1.8862 1.4253
3.6657 2.2410 1.4663
3.5986 2.6189 1.5199
3.4271 2.9426 1.5436
3.4463 3.4774 1.6743
3.8395 4.5537 2.0386
3.4584 4.8433 2.0386
3.0554 5.1009 2.0386
2.6333 5.3249 2.0386
2.1949 5.5139 2.0386
1.7430 5.6668 2.0386
1.2807 5.7827 2.0386
0.8110 5.8609 2.0386
0.3369 5.9010 2.0386
-0.1384 5.9029 2.0386
-0.6119 5.8666 2.0386
-1.0805 5.7925 2.0386
-1.5413 5.6812 2.0386
-1.9912 5.5335 2.0386
-2.4276 5.3504 2.0386
-2.8475 5.1332 2.0386
-3.2485 4.8834 2.0386
-3.6279 4.6025 2.0386
-3.9971 3.5721 2.0386
-4.2692 3.2370 2.0386
-4.5136 2.8814 2.0386
-4.7287 2.5076 2.0386
-4.9134 2.1181 2.0386
-5.0664 1.7151 2.0386
-5.1869 1.3014 2.0386
-5.2740 0.8795 2.0386
-5.3273 0.4520 2.0386
-5.3464 0.0217 2.0386
-5.3312 -0.4088 2.0386
-5.2818 -0.8368 2.0386
-5.1985 -1.2595 2.0386
-5.0818 -1.6744 2.0386
-4.9323 -2.0788 2.0386
-4.7511 -2.4702 2.0386
-4.5392 -2.8460 2.0386
-4.2979 -3.2040 2.0386
-4.0287 -3.5417 2.0386
-3.7333 -3.8571 2.0386
-3.4134 -4.1480 2.0386
-3.0710 -4.4127 2.0386
-2.7083 -4.6493 2.0386
-2.3276 -4.8563 2.0386
-0.7035 -1.8330 0.7426
-0.5538 -1.8836 0.7419
-0.4005 -1.9221 0.7412
-0.2447 -1.9482 0.7405
-0.0873 -1.9617 0.7399
0.0707 -1.9626 0.7392
0.2282 -1.9509 0.7386
0.3843 -1.9266 0.7381
0.5380 -1.8899 0.7375
0.6882 -1.8410 0.7370
2.3085 -4.9270 2.0386
2.6991 -4.7296 2.0386
3.0727 -4.5011 2.0386
3.4268 -4.2430 2.0386
3.7591 -3.9569 2.0386
4.0673 -3.6447 2.0386
4.3494 -3.3083 2.0386
4.6033 -2.9500 2.0386
4.8275 -2.5720 2.0386
5.0203 -2.1771 2.0386
5.1805 -1.7676 2.0386
5.3069 -1.3464 2.0386
4.1894 -0.7110 1.5820
4.1276 -0.3632 1.5425
4.0068 -0.0297 1.4916
4.0112 0.2931 1.4973
3.9548 0.6111 1.4900
3.8986 0.9279 1.4925
3.8419 1.2477 1.5049
3.7839 1.5747 1.5274
3.7237 1.9138 1.5610
3.6605 2.2701 1.6068
3.5931 2.6501 1.6665
3.3977 2.9553 1.6819
3.4397 3.5151 1.8382
3.4867 4.1890 2.0386
3.1365 4.4520 2.0386
2.7664 4.6856 2.0386
2.3790 4.8884 2.0386
0.7218 1.8473 0.7444
0.5710 1.8993 0.7451
0.4166 1.9390 0.7458
0.2594 1.9661 0.7464
0.2742 5.4041 2.0386
-0.1610 5.4034 2.0386
-0.2181 1.9704 0.7483
-0.3758 1.9461 0.7489
-0.5310 1.9092 0.7494
-0.6826 1.8599 0.7499
-2.2544 4.8859 2.0386
-2.6379 4.6848 2.0386
-3.0039 4.4539 2.0386
-3.3500 4.1946 2.0386
-3.6741 3.9087 2.0386
-3.9741 3.5981 2.0386
-4.2484 3.2647 2.0386
-4.4950 2.9107 2.0386
-4.7126 2.5383 2.0386
-4.8997 2.1499 2.0386
-5.0553 1.7479 2.0386
-5.1784 1.3350 2.0386
-5.2682 0.9136 2.0386
-5.3242 0.4865 2.0386
-5.3461 0.0563 2.0386
-5.3337 -0.3743 2.0386
-5.2870 -0.8026 2.0386
-5.2064 -1.2258 2.0386
-5.0924 -1.6415 2.0386
-4.9455 -2.0468 2.0386
-4.7668 -2.4393 2.0386
-4.5574 -2.8165 2.0386
-4.3184 -3.1760 2.0386
-4.0513 -3.5154 2.0386
-3.7579 -3.8326 2.0386
-3.4399 -4.1256 2.0386
-3.0993 -4.3925 2.0386
-2.7382 -4.6314 2.0386
-2.3588 -4.8408 2.0386
-0.7153 -1.8284 0.7426
-0.5659 -1.8800 0.7419
-0.4129 -1.9195 0.7412
-0.2573 -1.9466 0.7406
-0.1000 -1.9611 0.7399
0.0580 -1.9630 0.7393
0.2156 -1.9523 0.7387
0.3718 -1.9290 0.7381
0.5258 -1.8933 0.7376
0.6763 -1.8454 0.7371
2.2765 -4.9414 2.0386
2.6683 -4.7466 2.0386
3.0434 -4.5206 2.0386
3.3992 -4.2648 2.0386
3.7333 -3.9809 2.0386
4.0435 -3.6707 2.0386
4.3277 -3.3361 2.0386
4.5840 -2.9795 2.0386
4.8106 -2.6031 2.0386
5.0060 -2.2094 2.0386
5.1688 -1.8009 2.0386
5.2980 -1.3806 2.0386
4.1945 -0.7397 1.5857
4.1325 -0.3905 1.5452
4.0164 -0.0557 1.4953
4.0158 0.2674 1.4983
3.9593 0.5856 1.4902
3.9031 0.9024 1.4920
3.8465 1.2218 1.5035
3.7886 1.5481 1.5252
3.7287 1.8860 1.5579
3.6657 2.2407 1.6026
3.5987 2.6185 1.6611
3.4069 2.9248 1.6770
3.4465 3.4769 1.8297
3.5139 4.1667 2.0386
3.1654 4.4319 2.0386
2.7968 4.6679 2.0386
2.4107 4.8733 2.0386
0.7337 1.8425 0.7443
0.5833 1.8956 0.7450
0.4291 1.9363 0.7457
0.2721 1.9644 0.7464
0.3091 5.4026 2.0386
-0.1260 5.4047 2.0386
-0.2054 1.9718 0.7483
-0.3632 1.9485 0.7489
-0.5186 1.9126 0.7494
-0.6706 1.8643 0.7499
-2.2229 4.9007 2.0386
-2.6077 4.7021 2.0386
-2.9752 4.4735 2.0386
-3.3230 4.2164 2.0386
-3.6815 3.2905 2.0386
-3.9322 2.9819 2.0386
-4.1575 2.6545 2.0386
-4.3559 2.3102 2.0386
-4.5261 1.9513 2.0386
-4.6672 1.5802 2.0386
-4.7782 1.1990 2.0386
-4.8585 0.8103 2.0386
-4.9077 0.4165 2.0386
-4.9253 0.0200 2.0386
-4.9112 -0.3767 2.0386
-4.8657 -0.7710 2.0386
-4.7888 -1.1605 2.0386
-4.6812 -1.5427 2.0386
-4.5434 -1.9152 2.0386
-4.3764 -2.2757 2.0386
-4.1810 -2.6219 2.0386
-3.9586 -2.9515 2.0386
-3.7104 -3.2625 2.0386
-3.4381 -3.5528 2.0386
-3.1432 -3.8206 2.0386
-2.8278 -4.0641 2.0386
-2.4936 -4.2818 2.0386
-0.7813 -1.6306 0.7433
-0.6476 -1.6881 0.7426
-0.5097 -1.7347 0.7420
-0.3686 -1.7702 0.7414
-0.2251 -1.7942 0.7407
-0.0802 -1.8067 0.7402
0.0653 -1.8075 0.7396
0.2104 -1.7967 0.7390
0.3542 -1.7743 0.7385
0.4957 -1.7405 0.7380
0.6340 -1.6954 0.7376
0.7684 -1.6394 0.7371
2.4843 -4.3521 2.0386
2.8279 -4.1416 2.0386
3.1536 -3.9040 2.0386
3.4592 -3.6405 2.0386
3.7426 -3.3531 2.0386
4.0019 -3.0435 2.0386
4.2353 -2.7138 2.0386
4.4414 -2.3660 2.0386
4.6187 -2.0026 2.0386
4.7659 -1.6259 2.0386
4.8821 -1.2385 2.0386
4.1894 -0.7109 1.7196
4.1277 -0.3631 1.6767
3.9647 -0.0294 1.6044
3.9953 0.2919 1.6212
3.9548 0.6110 1.6197
3.8987 0.9277 1.6224
3.8419 1.2475 1.6357
3.7839 1.5745 1.6602
3.7238 1.9135 1.6967
3.6606 2.2697 1.7464
3.5932 2.6497 1.8112
3.4309 2.9836 1.8457
3.5105 3.5868 2.0386
3.2088 3.8544 2.0386
2.8868 4.0965 2.0386
2.5464 4.3118 2.0386
2.1900 4.4987 2.0386
0.6645 1.6999 0.7443
0.5257 1.7478 0.7449
0.3836 1.7843 0.7456
0.2389 1.8093 0.7462
0.0927 1.8224 0.7468
-0.0541 1.8238 0.7474
-0.2005 1.8132 0.7479
-0.3456 1.7909 0.7485
-0.4884 1.7569 0.7490
-0.6280 1.7115 0.7494
-0.7634 1.6551 0.7498
-2.4289 4.3147 2.0386
-2.7661 4.1022 2.0386
-3.0850 3.8636 2.0386
-3.3837 3.6005 2.0386
-3.6603 3.3144 2.0386
-3.9130 3.0074 2.0386
-4.1404 2.6814 2.0386
-4.3410 2.3384 2.0386
-4.5135 1.9807 2.0386
-4.6570 1.6104 2.0386
-4.7704 1.2299 2.0386
-4.8532 0.8417 2.0386
-4.9049 0.4482 2.0386
-4.9250 0.0519 2.0386
-4.9135 -0.3449 2.0386
-4.8705 -0.7395 2.0386
-4.7962 -1.1294 2.0386
-4.6910 -1.5123 2.0386
-4.5556 -1.8857 2.0386
-4.3908 -2.2473 2.0386
-4.1977 -2.5946 2.0386
-3.9774 -2.9257 2.0386
-3.7312 -3.2382 2.0386
-3.4608 -3.5303 2.0386
-3.1677 -3.8000 2.0386
-2.8538 -4.0455 2.0386
-2.5211 -4.2653 2.0386
-2.1716 -4.4579 2.0386
-0.6585 -1.6839 0.7427
-0.5210 -1.7314 0.7420
-0.3801 -1.7677 0.7414
-0.2367 -1.7927 0.7408
-0.0918 -1.8061 0.7402
0.0536 -1.8079 0.7396
0.1988 -1.7980 0.7391
0.3427 -1.7765 0.7385
0.4844 -1.7436 0.7380
0.6231 -1.6995 0.7376
0.7578 -1.6443 0.7372
2.4560 -4.3678 2.0386
2.8010 -4.1596 2.0386
3.1282 -3.9240 2.0386
3.4354 -3.6626 2.0386
3.7207 -3.3770 2.0386
3.9820 -3.0691 2.0386
4.2176 -2.7409 2.0386
4.4259 -2.3946 2.0386
4.6055 -2.0323 2.0386
4.7552 -1.6566 2.0386
4.8739 -1.2699 2.0386
4.1944 -0.7397 1.7237
4.1325 -0.3905 1.6797
3.9741 -0.0551 1.6083
3.9815 0.2651 1.6148
3.9594 0.5855 1.6199
3.9032 0.9022 1.6218
3.8465 1.2216 1.6343
3.7886 1.5479 1.6579
3.7287 1.8857 1.6933
3.6658 2.2404 1.7419
3.5988 2.6181 1.8054
3.4358 2.9491 1.8379
3.5337 3.5643 2.0386
3.2338 3.8338 2.0386
2.9133 4.0781 2.0386
2.5743 4.2955 2.0386
2.2192 4.4848 2.0386
0.6754 1.6956 0.7442
0.5370 1.7444 0.7449
0.3951 1.7818 0.7455
0.2506 1.8077 0.7461
0.1045 1.8218 0.7468
-0.0423 1.8241 0.7473
-0.1888 1.8145 0.7479
-0.3340 1.7931 0.7484
-0.4770 1.7601 0.7489
-0.6169 1.7156 0.7494
-0.7527 1.6600 0.7498
-2.4010 4.3306 2.0386
-2.7396 4.1203 2.0386
-3.0601 3.8837 2.0386
-3.4061 3.0449 2.0386
-3.6383 2.7595 2.0386
-3.8469 2.4565 2.0386
-4.0305 2.1379 2.0386
-4.1882 1.8059 2.0386
-4.3188 1.4624 2.0386
-4.4216 1.1097 2.0386
-4.4960 0.7499 2.0386
-4.5415 0.3854 2.0386
-4.5578 0.0185 2.0386
-4.5448 -0.3486 2.0386
-4.5026 -0.7136 2.0386
-4.4314 -1.0740 2.0386
-4.3317 -1.4277 2.0386
-4.2041 -1.7725 2.0386
-4.0494 -2.1060 2.0386
-3.8685 -2.4263 2.0386
-3.6625 -2.7312 2.0386
-3.4327 -3.0189 2.0386
-3.1806 -3.2874 2.0386
-2.9077 -3.5350 2.0386
-2.6157 -3.7602 2.0386
-2.3064 -3.9614 2.0386
-0.7226 -1.5085 0.7433
-0.5989 -1.5617 0.7427
-0.4714 -1.6049 0.7421
-0.3408 -1.6377 0.7415
-0.2081 -1.6599 0.7410
-0.0740 -1.6715 0.7404
0.0606 -1.6722 0.7399
0.1949 -1.6622 0.7394
0.3279 -1.6415 0.7389
0.4588 -1.6102 0.7384
0.5868 -1.5685 0.7380
0.7111 -1.5167 0.7376
2.2973 -4.0235 2.0386
2.6149 -3.8287 2.0386
2.9158 -3.6088 2.0386
3.1981 -3.3652 2.0386
3.4599 -3.0994 2.0386
3.6995 -2.8131 2.0386
3.9152 -2.5082 2.0386
4.1055 -2.1868 2.0386
4.2692 -1.8509 2.0386
4.4052 -1.5027 2.0386
4.5125 -1.1446 2.0386
4.5905 -0.7789 2.0386
4.1277 -0.3631 1.8141
3.9641 -0.0294 1.7355
4.0032 0.2924 1.7574
3.9549 0.6109 1.7524
3.8987 0.9276 1.7552
3.8420 1.2473 1.7697
3.7840 1.5743 1.7961
3.7238 1.9132 1.8355
3.9502 2.4489 2.0386
3.7389 2.7567 2.0386
3.5036 3.0462 2.0386
3.2457 3.3156 2.0386
2.9670 3.5631 2.0386
2.6694 3.7872 2.0386
2.3548 3.9863 2.0386
0.7388 1.5172 0.7436
0.6146 1.5717 0.7442
0.4863 1.6159 0.7448
0.3548 1.6497 0.7454
0.2211 1.6727 0.7460
0.0859 1.6849 0.7465
-0.0498 1.6861 0.7471
-0.1852 1.6764 0.7476
-0.3193 1.6557 0.7481
-0.4513 1.6243 0.7485
-0.5804 1.5824 0.7490
-0.7056 1.5302 0.7494
-2.2466 3.9919 2.0386
-2.5587 3.7955 2.0386
-2.8539 3.5749 2.0386
-3.1304 3.3316 2.0386
-3.3865 3.0670 2.0386
-3.6205 2.7830 2.0386
-3.8310 2.4814 2.0386
-4.0167 2.1641 2.0386
-4.1765 1.8330 2.0386
-4.3093 1.4904 2.0386
-4.4144 1.1383 2.0386
-4.4911 0.7790 2.0386
-4.5389 0.4148 2.0386
-4.5576 0.0480 2.0386
-4.5469 -0.3192 2.0386
-4.5070 -0.6844 2.0386
-4.4382 -1.0453 2.0386
-4.3408 -1.3996 2.0386
-4.2154 -1.7452 2.0386
-4.0628 -2.0797 2.0386
-3.8839 -2.4011 2.0386
-3.6799 -2.7073 2.0386
-3.4520 -2.9965 2.0386
-3.2016 -3.2666 2.0386
-2.9303 -3.5159 2.0386
-2.6398 -3.7430 2.0386
-2.3318 -3.9461 2.0386
-0.7323 -1.5038 0.7433
-0.6090 -1.5578 0.7427
-0.4817 -1.6018 0.7422
-0.3514 -1.6354 0.7416
-0.2188 -1.6585 0.7410
-0.0848 -1.6709 0.7404
0.0498 -1.6726 0.7399
0.1841 -1.6634 0.7394
0.3173 -1.6436 0.7389
0.4484 -1.6131 0.7385
0.5767 -1.5722 0.7380
0.7013 -1.5212 0.7376
2.2712 -4.0380 2.0386
2.5899 -3.8453 2.0386
2.8923 -3.6274 2.0386
3.1762 -3.3856 2.0386
3.4397 -3.1215 2.0386
3.6811 -2.8368 2.0386
3.8988 -2.5334 2.0386
4.0912 -2.2132 2.0386
4.2571 -1.8783 2.0386
4.3953 -1.5311 2.0386
4.5050 -1.1737 2.0386
4.5853 -0.8085 2.0386
4.1325 -0.3904 1.8173
3.9752 -0.0551 1.7405
3.9857 0.2653 1.7489
3.9594 0.5854 1.7526
3.9032 0.9021 1.7546
3.8466 1.2214 1.7681
3.7887 1.5477 1.7935
3.7288 1.8854 1.8318
3.9661 2.4235 2.0386
3.7568 2.7326 2.0386
3.5233 3.0237 2.0386
3.2672 3.2947 2.0386
2.9901 3.5441 2.0386
2.6939 3.7701 2.0386
2.3807 3.9713 2.0386
0.7486 1.5124 0.7436
0.6247 1.5677 0.7442
0.4967 1.6128 0.7448
0.3655 1.6474 0.7454
0.2319 1.6713 0.7459
0.0968 1.6843 0.7465
-0.0389 1.6864 0.7470
-0.1743 1.6776 0.7476
-0.3086 1.6578 0.7481
-0.4408 1.6273 0.7485
-0.5701 1.5862 0.7489
-0.6957 1.5348 0.7493
-2.2208 4.0066 2.0386
-2.5342 3.8122 2.0386
-2.8309 3.5935 2.0386
-3.1634 2.8285 2.0386
-3.3792 2.5634 2.0386
-3.5731 2.2820 2.0386
-3.7438 1.9861 2.0386
-3.8903 1.6777 2.0386
-4.0117 1.3586 2.0386
-4.1073 1.0309 2.0386
-4.1765 0.6967 2.0386
-4.2187 0.3580 2.0386
-4.2338 0.0171 2.0386
-4.2218 -0.3239 2.0386
-4.1825 -0.6630 2.0386
-4.1163 -0.9978 2.0386
-4.0237 -1.3264 2.0386
-3.9050 -1.6466 2.0386
-3.7612 -1.9565 2.0386
-3.5930 -2.2539 2.0386
-3.4016 -2.5371 2.0386
-3.1881 -2.8042 2.0386
-2.9537 -3.0535 2.0386
-2.7001 -3.2834 2.0386
-2.4288 -3.4924 2.0386
-0.7814 -1.3425 0.7439
-0.6708 -1.4010 0.7433
-0.5560 -1.4504 0.7428
-0.4376 -1.4905 0.7422
-0.3163 -1.5210 0.7417
-0.1930 -1.5416 0.7411
-0.0685 -1.5524 0.7406
0.0565 -1.5531 0.7401
0.1812 -1.5438 0.7396
0.3047 -1.5245 0.7392
0.4263 -1.4954 0.7388
0.5452 -1.4567 0.7384
0.6606 -1.4086 0.7380
0.7718 -1.3514 0.7377
2.4274 -3.5535 2.0386
2.7066 -3.3493 2.0386
2.9685 -3.1230 2.0386
3.2114 -2.8762 2.0386
3.4336 -2.6105 2.0386
3.6336 -2.3275 2.0386
3.8102 -2.0292 2.0386
3.9620 -1.7175 2.0386
4.0881 -1.3944 2.0386
4.1877 -1.0621 2.0386
4.2599 -0.7227 2.0386
4.3045 -0.3786 2.0386
4.0497 -0.0301 1.9106
4.3094 0.3147 2.0386
4.2697 0.6594 2.0386
4.2022 0.9996 2.0386
4.1073 1.3333 2.0386
3.9858 1.6580 2.0386
3.8385 1.9718 2.0386
3.6662 2.2725 2.0386
3.4703 2.5582 2.0386
3.2520 2.8269 2.0386
3.0128 3.0770 2.0386
2.7542 3.3069 2.0386
2.4781 3.5150 2.0386
0.7969 1.3486 0.7431
0.6860 1.4083 0.7436
0.5706 1.4588 0.7442
0.4516 1.4999 0.7447
0.3296 1.5312 0.7453
0.2054 1.5526 0.7458
0.0800 1.5639 0.7463
-0.0460 1.5650 0.7468
-0.1716 1.5560 0.7473
-0.2962 1.5368 0.7478
-0.4187 1.5077 0.7482
-0.5385 1.4688 0.7486
-0.6547 1.4203 0.7489
-0.7667 1.3627 0.7493
-2.3760 3.5253 2.0386
-2.6503 3.3206 2.0386
-2.9072 3.0946 2.0386
-3.1452 2.8490 2.0386
-3.3627 2.5853 2.0386
-3.5583 2.3051 2.0386
-3.7309 2.0104 2.0386
-3.8795 1.7029 2.0386
-4.0029 1.3846 2.0386
-4.1006 1.0575 2.0386
-4.1719 0.7237 2.0386
-4.2163 0.3853 2.0386
-4.2336 0.0445 2.0386
-4.2237 -0.2966 2.0386
-4.1867 -0.6359 2.0386
-4.1226 -0.9711 2.0386
-4.0321 -1.3003 2.0386
-3.9155 -1.6213 2.0386
-3.7737 -1.9320 2.0386
-3.6074 -2.2305 2.0386
-3.4178 -2.5149 2.0386
-3.2060 -2.7834 2.0386
-2.9733 -3.0342 2.0386
-2.7212 -3.2657 2.0386
-2.4512 -3.4764 2.0386
-2.1651 -3.6650 2.0386
-0.6799 -1.3966 0.7434
-0.5654 -1.4468 0.7428
-0.4472 -1.4876 0.7422
-0.3261 -1.5189 0.7417
-0.2030 -1.5403 0.7412
-0.0785 -1.5519 0.7407
0.0465 -1.5534 0.7402
0.1712 -1.5449 0.7397
0.2949 -1.5264 0.7392
0.4166 -1.4981 0.7388
0.5358 -1.4602 0.7384
0.6515 -1.4128 0.7381
0.7630 -1.3563 0.7377
2.4043 -3.5689 2.0386
2.6848 -3.3665 2.0386
2.9482 -3.1420 2.0386
3.1926 -2.8968 2.0386
3.4166 -2.6325 2.0386
3.6184 -2.3508 2.0386
3.7969 -2.0537 2.0386
3.9508 -1.7429 2.0386
4.0790 -1.4207 2.0386
4.1807 -1.0890 2.0386
4.2552 -0.7502 2.0386
4.3019 -0.4064 2.0386
4.0766 -0.0566 1.9234
4.3113 0.2869 2.0386
4.2739 0.6318 2.0386
4.2086 0.9725 2.0386
4.1160 1.3068 2.0386
3.9966 1.6323 2.0386
3.8512 1.9471 2.0386
3.6810 2.2489 2.0386
3.4869 2.5358 2.0386
3.2703 2.8060 2.0386
3.0327 3.0577 2.0386
2.7757 3.2892 2.0386
2.5009 3.4991 2.0386
2.2103 3.6860 2.0386
0.6951 1.4038 0.7436
0.5801 1.4551 0.7441
0.4613 1.4969 0.7447
0.3395 1.5291 0.7452
0.2155 1.5512 0.7458
0.0901 1.5633 0.7463
-0.0359 1.5653 0.7468
-0.1616 1.5571 0.7473
-0.2862 1.5387 0.7477
-0.4090 1.5104 0.7482
-0.5290 1.4723 0.7485
-0.6456 1.4246 0.7489
-0.7579 1.3676 0.7492
-2.3532 3.5408 2.0386
-2.6289 3.3378 2.0386
-2.9476 2.6360 2.0386
-3.1488 2.3890 2.0386
-3.3295 2.1268 2.0386
-3.4887 1.8511 2.0386
-3.6254 1.5636 2.0386
-3.7386 1.2663 2.0386
-3.8277 0.9608 2.0386
-3.8922 0.6493 2.0386
-3.9316 0.3337 2.0386
-3.9457 0.0159 2.0386
-3.9344 -0.3019 2.0386
-3.8978 -0.6179 2.0386
-3.8361 -0.9301 2.0386
-3.7497 -1.2363 2.0386
-3.6390 -1.5347 2.0386
-3.5049 -1.8235 2.0386
-3.3481 -2.1006 2.0386
-3.1696 -2.3645 2.0386
-2.9705 -2.6133 2.0386
-2.7520 -2.8456 2.0386
-2.5156 -3.0597 2.0386
-2.2627 -3.2543 2.0386
-0.7279 -1.2509 0.7438
-0.6249 -1.3054 0.7433
-0.5179 -1.3515 0.7428
-0.4075 -1.3888 0.7423
-0.2945 -1.4172 0.7418
-0.1797 -1.4365 0.7413
-0.0636 -1.4465 0.7408
0.0529 -1.4471 0.7404
0.1690 -1.4385 0.7399
0.2841 -1.4205 0.7395
0.3974 -1.3934 0.7391
0.5082 -1.3573 0.7387
0.6157 -1.3125 0.7384
0.7193 -1.2591 0.7381
2.2610 -3.3091 2.0386
2.5210 -3.1188 2.0386
2.7647 -2.9081 2.0386
2.9908 -2.6782 2.0386
3.1976 -2.4307 2.0386
3.3838 -2.1672 2.0386
3.5481 -1.8893 2.0386
3.6894 -1.5991 2.0386
3.8067 -1.2982 2.0386
3.8994 -0.9888 2.0386
3.9666 -0.6729 2.0386
4.0081 -0.3526 2.0386
4.0235 -0.0299 2.0386
4.0126 0.2930 2.0386
3.9757 0.6139 2.0386
3.9129 0.9307 2.0386
3.8247 1.2413 2.0386
3.7116 1.5437 2.0386
3.5745 1.8359 2.0386
3.4142 2.1159 2.0386
3.2319 2.3820 2.0386
3.0287 2.6323 2.0386
2.8060 2.8653 2.0386
2.5654 3.0794 2.0386
2.3083 3.2734 2.0386
0.7424 1.2560 0.7431
0.6391 1.3116 0.7436
0.5317 1.3586 0.7441
0.4208 1.3968 0.7446
0.3071 1.4260 0.7452
0.1915 1.4459 0.7456
0.0747 1.4564 0.7461
-0.0426 1.4575 0.7466
-0.1597 1.4491 0.7470
-0.2756 1.4312 0.7475
-0.3897 1.4041 0.7479
-0.5013 1.3679 0.7482
-0.6096 1.3228 0.7486
-0.7138 1.2691 0.7489
