ply
format ascii 1.0
element vertex 2176
property float32 x
property float32 y
property float32 z
end_header
-6.1306 -3.6586 2.2399
-5.8175 -4.1381 2.2399
-5.4670 -4.5912 2.2399
-5.0813 -5.0147 2.2399
-4.6629 -5.4060 2.2399
-4.2145 -5.7624 2.2399
-3.7389 -6.0818 2.2399
-3.2392 -6.3620 2.2399
-2.7187 -6.6012 2.2399
-2.1807 -6.7979 2.2399
-1.6286 -6.9509 2.2399
-1.0661 -7.0591 2.2399
-0.4967 -7.1218 2.2399
0.0759 -7.1387 2.2399
0.6480 -7.1097 2.2399
1.2160 -7.0348 2.2399
1.7761 -6.9147 2.2399
2.3248 -6.7500 2.2399
2.8585 -6.5419 2.2399
3.3738 -6.2917 2.2399
3.8243 -5.9341 2.2150
4.0410 -5.2857 2.0875
4.4518 -4.9447 2.0875
4.8339 -4.5718 2.0875
5.1849 -4.1695 2.0875
5.5025 -3.7404 2.0875
5.7847 -3.2872 2.0875
6.0293 -2.8127 2.0874
6.2452 -2.3238 2.0907
6.4195 -1.8179 2.0933
6.5507 -1.2986 2.0953
6.6377 -0.7697 2.0965
6.6799 -0.2350 2.0971
6.6768 0.3013 2.0970
6.6285 0.8353 2.0961
6.5354 1.3630 2.0946
6.3983 1.8806 2.0924
6.2184 2.3843 2.0895
6.0014 2.8724 2.0875
5.7518 3.3443 2.0875
5.4651 3.7947 2.0875
5.1433 4.2207 2.0875
4.7884 4.6195 2.0875
4.4026 4.9885 2.0875
3.9884 5.3254 2.0875
3.8077 6.0390 2.2399
3.3112 6.3248 2.2399
2.7935 6.5699 2.2399
2.2577 6.7727 2.2399
1.7075 6.9320 2.2399
1.1462 7.0466 2.2399
0.5775 7.1158 2.2399
0.0051 7.1391 2.2399
-0.5673 7.1166 2.2399
-1.1360 7.0482 2.2399
-1.6975 6.9344 2.2399
-2.2480 6.7760 2.2399
-2.7840 6.5740 2.2399
-3.3021 6.3296 2.2399
-3.7990 6.0444 2.2399
-4.2714 5.7204 2.2399
-4.7163 5.3595 2.2399
-5.1308 4.9641 2.2399
-5.5123 4.5368 2.2399
-5.8583 4.0802 2.2399
-6.1665 3.5974 2.2399
-6.4351 3.0914 2.2399
-6.6623 2.5655 2.2399
-6.8465 2.0231 2.2399
-6.9867 1.4677 2.2399
-7.0818 0.9028 2.2399
-7.1314 0.3321 2.2399
-7.1351 -0.2408 2.2399
-7.0928 -0.8121 2.2399
-7.0049 -1.3781 2.2399
-6.8718 -1.9353 2.2399
-6.6945 -2.4800 2.2399
-6.4741 -3.0088 2.2399
-6.2121 -3.5182 2.2399
-5.9100 -4.0050 2.2399
-5.5699 -4.4659 2.2399
-5.1939 -4.8981 2.2399
-4.7844 -5.2987 2.2399
-4.3442 -5.6653 2.2399
-3.8760 -5.9953 2.2399
-3.3828 -6.2868 2.2399
-2.8679 -6.5378 2.2399
-2.3345 -6.7467 2.2399
-1.7860 -6.9121 2.2399
-1.2261 -7.0331 2.2399
-0.6583 -7.1087 2.2399
-0.0862 -7.1386 2.2399
0.4864 -7.1226 2.2399
1.0559 -7.0606 2.2399
1.6186 -6.9532 2.2399
2.1709 -6.8011 2.2399
2.7092 -6.6051 2.2399
-0.3046 -6.4862 2.2399
0.2164 -6.4897 2.2399
0.7361 -6.4515 2.2399
1.2510 -6.3717 2.2399
1.7578 -6.2509 2.2399
0.7442 -2.0113 0.7398
2.7343 -5.8896 2.2399
3.1977 -5.6514 2.2399
3.6405 -5.3768 2.2399
3.8525 -4.8088 2.1255
4.1501 -4.4043 2.0875
4.4899 -4.0573 2.0875
4.8007 -3.6843 2.0875
5.0807 -3.2875 2.0875
5.3279 -2.8696 2.0875
5.5408 -2.4332 2.0875
5.7181 -1.9811 2.0875
5.8585 -1.5163 2.0875
5.9569 -1.0409 2.0860
6.0240 -0.5602 2.0870
6.0505 -0.0754 2.0873
6.0362 0.4098 2.0870
5.9812 0.8921 2.0861
5.8945 1.3697 2.0875
5.7657 1.8379 2.0875
5.5998 2.2943 2.0875
5.3978 2.7358 2.0875
5.1611 3.1598 2.0875
4.8911 3.5634 2.0875
4.5897 3.9441 2.0875
4.2587 4.2994 2.0875
3.9523 4.6888 2.1154
3.7735 5.2844 2.2399
3.3376 5.5699 2.2399
2.8803 5.8195 2.2399
2.4044 6.0318 2.2399
1.9131 6.2051 2.2399
1.4094 6.3385 2.2399
0.8967 6.4311 2.2399
0.3782 6.4823 2.2399
-0.1427 6.4918 2.2399
-0.6628 6.4594 2.2399
-1.1785 6.3855 2.2399
-1.6867 6.2704 2.2399
-2.1840 6.1150 2.2399
-2.6673 5.9202 2.2399
-3.1333 5.6873 2.2399
-3.5792 5.4178 2.2399
-4.0021 5.1134 2.2399
-4.3992 4.7760 2.2399
-4.7679 4.4079 2.2399
-5.1060 4.0115 2.2399
-5.4112 3.5892 2.2399
-5.6815 3.1438 2.2399
-5.9153 2.6781 2.2399
-6.1110 2.1952 2.2399
-6.2673 1.6982 2.2399
-6.3833 1.1903 2.2399
-6.4582 0.6746 2.2399
-6.4915 0.1547 2.2399
-6.4830 -0.3663 2.2399
-6.4327 -0.8849 2.2399
-6.3411 -1.3978 2.2399
-6.2086 -1.9017 2.2399
-6.0361 -2.3934 2.2399
-5.8248 -2.8696 2.2399
-5.5760 -3.3274 2.2399
-5.2913 -3.7637 2.2399
-4.9725 -4.1759 2.2399
-4.6217 -4.5611 2.2399
-4.2411 -4.9169 2.2399
-3.8332 -5.2412 2.2399
-3.4006 -5.5316 2.2399
-2.9462 -5.7865 2.2399
-2.4728 -6.0040 2.2399
-1.9834 -6.1830 2.2399
-1.4813 -6.3221 2.2399
-0.9697 -6.4205 2.2399
-0.4518 -6.4776 2.2399
0.0690 -6.4930 2.2399
0.5894 -6.4665 2.2399
1.1060 -6.3984 2.2399
1.6154 -6.2892 2.2399
0.6983 -2.0276 0.7397
2.5999 -5.9501 2.2399
3.0686 -5.7225 2.2399
3.5175 -5.4581 2.2399
3.8400 -5.0228 2.1810
4.0491 -4.4973 2.0875
4.3966 -4.1582 2.0875
4.7159 -3.7923 2.0875
5.0047 -3.4020 2.0875
5.2614 -2.9898 2.0875
5.4842 -2.5583 2.0875
5.6716 -2.1104 2.0875
5.8226 -1.6489 2.0875
5.9360 -1.1768 2.0875
6.0091 -0.6968 2.0868
6.0471 -0.2128 2.0873
6.0444 0.2727 2.0872
6.0009 0.7562 2.0864
5.9241 1.2355 2.0875
5.8059 1.7065 2.0875
5.6504 2.1665 2.0875
5.4585 2.6126 2.0875
5.2315 3.0418 2.0875
4.9708 3.4515 2.0875
4.6780 3.8389 2.0875
4.3552 4.2016 2.0875
4.0043 4.5373 2.0875
3.8925 5.1973 2.2399
3.4632 5.4927 2.2399
3.0117 5.7527 2.2399
2.5408 5.9756 2.2399
2.0535 6.1601 2.2399
1.5530 6.3049 2.2399
1.0425 6.4091 2.2399
0.5253 6.4720 2.2399
0.0047 6.4933 2.2399
-0.5159 6.4728 2.2399
-1.0333 6.4106 2.2399
-1.5439 6.3071 2.2399
-2.0446 6.1630 2.2399
-2.5322 5.9792 2.2399
-3.0034 5.7570 2.2399
-3.4553 5.4977 2.2399
-3.8850 5.2029 2.2399
-4.2896 4.8747 2.2399
-4.6666 4.5151 2.2399
-5.0136 4.1264 2.2399
-5.3283 3.7111 2.2399
-5.6087 3.2720 2.2399
-5.8530 2.8118 2.2399
-6.0596 2.3334 2.2399
-6.2271 1.8401 2.2399
-6.3546 1.3349 2.2399
-6.4412 0.8211 2.2399
-6.4863 0.3020 2.2399
-6.4896 -0.2190 2.2399
-6.4512 -0.7386 2.2399
-6.3712 -1.2535 2.2399
-6.2502 -1.7602 2.2399
-6.0889 -2.2529 2.2399
-5.8885 -2.7366 2.2399
-5.6501 -3.1999 2.2399
-5.3754 -3.6426 2.2399
-5.0660 -4.0619 2.2399
-4.7240 -4.4550 2.2399
-4.3516 -4.8194 2.2399
-3.9512 -5.1528 2.2399
-3.5254 -5.4529 2.2399
-3.0768 -5.7181 2.2399
-2.6085 -5.9464 2.2399
-0.7012 -2.0266 0.7397
-1.6245 -6.2868 2.2399
-1.1152 -6.3968 2.2399
-0.5987 -6.4657 2.2399
-0.0784 -6.4928 2.2399
0.4424 -6.4782 2.2399
0.9604 -6.4219 2.2399
1.4722 -6.3242 2.2399
1.9745 -6.1858 2.2399
2.4641 -6.0076 2.2399
-0.0921 -1.9615 0.7399
0.0655 -1.9626 0.7399
0.2226 -1.9511 0.7399
0.3783 -1.9271 0.7399
0.5317 -1.8907 0.7400
0.6816 -1.8422 0.7401
2.5034 -5.3922 2.2399
2.9277 -5.1741 2.2399
3.3331 -4.9227 2.2399
3.7170 -4.6396 2.2399
3.8607 -4.0972 2.1210
4.1107 -3.7147 2.0875
4.3953 -3.3732 2.0875
4.6516 -3.0099 2.0875
4.8780 -2.6273 2.0875
5.0729 -2.2277 2.0875
5.2352 -1.8138 2.0875
5.3638 -1.3882 2.0875
5.4578 -0.9537 2.0875
5.5167 -0.5131 2.0875
5.5401 -0.0691 2.0875
5.5278 0.3753 2.0875
5.4799 0.8173 2.0875
5.3967 1.2541 2.0875
5.2788 1.6827 2.0875
5.1269 2.1005 2.0875
4.9420 2.5048 2.0875
4.7252 2.8930 2.0875
4.4781 3.2625 2.0875
4.2021 3.6111 2.0875
3.9456 3.9833 2.1124
3.8316 4.5455 2.2399
3.4548 4.8381 2.2399
3.0558 5.0995 2.2399
2.6371 5.3281 2.2399
0.7340 1.8414 0.7469
0.5841 1.8945 0.7470
0.4304 1.9355 0.7470
0.2738 1.9639 0.7471
0.3463 5.9349 2.2399
-0.1307 5.9435 2.2399
-0.2024 1.9726 0.7471
-0.3599 1.9499 0.7471
-0.5150 1.9146 0.7470
-0.6668 1.8669 0.7469
-2.4420 5.4203 2.2399
-2.8687 5.2070 2.2399
-3.2770 4.9603 2.2399
-3.6641 4.6816 2.2399
-4.0277 4.3727 2.2399
-4.3653 4.0357 2.2399
-4.6748 3.6727 2.2399
-4.9542 3.2861 2.2399
-5.2018 2.8783 2.2399
-5.4158 2.4520 2.2399
-5.5949 2.0099 2.2399
-5.7381 1.5548 2.2399
-5.8443 1.0898 2.2399
-5.9128 0.6177 2.2399
-5.9433 0.1416 2.2399
-5.9355 -0.3353 2.2399
-5.8895 -0.8102 2.2399
-5.8056 -1.2797 2.2399
-5.6843 -1.7411 2.2399
-5.5264 -2.1913 2.2399
-5.3329 -2.6273 2.2399
-5.1051 -3.0464 2.2399
-4.8444 -3.4459 2.2399
-4.5526 -3.8232 2.2399
-4.2314 -4.1759 2.2399
-3.8829 -4.5017 2.2399
-3.5095 -4.7986 2.2399
-3.1135 -5.0645 2.2399
-2.6974 -5.2978 2.2399
-0.7481 -1.8164 0.7401
-0.6000 -1.8702 0.7400
-0.4480 -1.9121 0.7400
-0.2933 -1.9418 0.7399
-0.1366 -1.9589 0.7399
0.0209 -1.9636 0.7399
0.1782 -1.9556 0.7399
0.3345 -1.9351 0.7399
0.4886 -1.9022 0.7400
0.6396 -1.8571 0.7401
2.3803 -5.4476 2.2399
2.8094 -5.2393 2.2399
3.2205 -4.9971 2.2399
3.6107 -4.7229 2.2399
3.8501 -4.2764 2.1680
4.0315 -3.8126 2.0907
4.3176 -3.4721 2.0875
4.5821 -3.1147 2.0875
4.8171 -2.7373 2.0875
5.0210 -2.3423 2.0875
5.1927 -1.9322 2.0875
5.3309 -1.5096 2.0875
5.4347 -1.0774 2.0875
5.5036 -0.6381 2.0875
5.5371 -0.1948 2.0875
5.5349 0.2497 2.0875
5.4970 0.6927 2.0875
5.4238 1.1312 2.0875
5.3156 1.5624 2.0875
5.1733 1.9836 2.0875
4.9976 2.3920 2.0875
4.7897 2.7849 2.0875
4.5510 3.1600 2.0875
4.2830 3.5147 2.0875
3.9874 3.8468 2.0875
3.9274 4.4502 2.2363
3.5638 4.7584 2.2399
3.1708 5.0288 2.2399
2.7574 5.2669 2.2399
0.7756 1.8242 0.7468
0.6270 1.8807 0.7469
0.4742 1.9251 0.7470
0.3183 1.9571 0.7471
0.4809 5.9255 2.2399
0.0043 5.9450 2.2399
-0.4724 5.9262 2.2399
-0.3155 1.9576 0.7471
-0.4714 1.9258 0.7470
-0.6242 1.8816 0.7469
-0.7730 1.8252 0.7468
-2.7498 5.2708 2.2399
-3.1635 5.0334 2.2399
-3.5569 4.7635 2.2399
-3.9274 4.4630 2.2399
-4.2726 4.1338 2.2399
-4.5902 3.7779 2.2399
-4.8784 3.3977 2.2399
-5.1351 2.9957 2.2399
-5.3587 2.5743 2.2399
-5.5479 2.1364 2.2399
-5.7013 1.6847 2.2399
-5.8180 1.2222 2.2399
-5.8973 0.7517 2.2399
-5.9385 0.2765 2.2399
-5.9416 -0.2005 2.2399
-5.9064 -0.6761 2.2399
-5.8332 -1.1476 2.2399
-5.7224 -1.6116 2.2399
-5.5747 -2.0652 2.2399
-5.3912 -2.5055 2.2399
-5.1730 -2.9297 2.2399
-4.9214 -3.3350 2.2399
-4.6382 -3.7189 2.2399
-4.3251 -4.0788 2.2399
-3.9841 -4.4124 2.2399
-3.6176 -4.7176 2.2399
-3.2277 -4.9925 2.2399
-2.8170 -5.2352 2.2399
-2.3882 -5.4442 2.2399
-0.6423 -1.8562 0.7401
-0.4913 -1.9015 0.7400
-0.3373 -1.9346 0.7399
-0.1811 -1.9553 0.7399
-0.0237 -1.9635 0.7399
0.1338 -1.9591 0.7399
0.2905 -1.9422 0.7399
0.4453 -1.9128 0.7400
0.5973 -1.8711 0.7400
0.7455 -1.8175 0.7401
-0.0848 -1.8065 0.7402
0.0603 -1.8074 0.7402
0.2050 -1.7968 0.7402
0.3484 -1.7747 0.7402
0.4896 -1.7412 0.7403
0.6277 -1.6965 0.7404
0.7618 -1.6410 0.7405
2.6952 -4.7632 2.2399
3.0684 -4.5318 2.2399
3.4219 -4.2712 2.2399
3.7533 -3.9831 2.2399
3.8649 -3.4925 2.1320
4.0463 -3.1053 2.0875
4.2823 -2.7709 2.0875
4.4906 -2.4186 2.0875
4.6701 -2.0508 2.0875
4.8195 -1.6698 2.0875
4.9378 -1.2780 2.0875
5.0244 -0.8780 2.0875
5.0786 -0.4723 2.0875
5.1001 -0.0636 2.0875
5.0888 0.3455 2.0875
5.0447 0.7524 2.0875
4.9682 1.1545 2.0875
4.8596 1.5491 2.0875
4.7198 1.9337 2.0875
4.5495 2.3059 2.0875
4.3500 2.6632 2.0875
4.1225 3.0034 2.0875
3.9371 3.3834 2.1246
3.8515 3.8883 2.2399
3.5273 4.1846 2.2399
3.1805 4.4539 2.2399
2.8131 4.6946 2.2399
2.4277 4.9050 2.2399
0.6755 1.6945 0.7466
0.5375 1.7434 0.7467
0.3960 1.7811 0.7468
0.2520 1.8072 0.7468
0.1063 1.8217 0.7468
-0.0401 1.8243 0.7468
-0.1863 1.8152 0.7468
-0.3312 1.7943 0.7468
-0.4739 1.7619 0.7467
-0.6136 1.7180 0.7466
-0.7493 1.6631 0.7465
-2.6409 4.7936 2.2399
-3.0168 4.5664 2.2399
-3.3732 4.3098 2.2399
-3.7079 4.0255 2.2399
-4.0187 3.7152 2.2399
-4.3036 3.3811 2.2399
-4.5608 3.0252 2.2399
-4.7887 2.6497 2.2399
-4.9857 2.2573 2.2399
-5.1506 1.8503 2.2399
-5.2824 1.4313 2.2399
-5.3802 1.0032 2.2399
-5.4433 0.5686 2.2399
-5.4713 0.1304 2.2399
-5.4642 -0.3087 2.2399
-5.4218 -0.7458 2.2399
-5.3446 -1.1781 2.2399
-5.2329 -1.6029 2.2399
-5.0876 -2.0172 2.2399
-4.9095 -2.4187 2.2399
-4.6997 -2.8045 2.2399
-4.4597 -3.1723 2.2399
-4.1910 -3.5196 2.2399
-3.8954 -3.8443 2.2399
-3.5746 -4.1442 2.2399
-3.2308 -4.4175 2.2399
-2.8662 -4.6623 2.2399
-2.4832 -4.8771 2.2399
-0.6889 -1.6727 0.7404
-0.5525 -1.7224 0.7403
-0.4126 -1.7610 0.7402
-0.2701 -1.7882 0.7402
-0.1258 -1.8041 0.7402
0.0192 -1.8083 0.7401
0.1642 -1.8010 0.7402
0.3080 -1.7821 0.7402
0.4500 -1.7518 0.7403
0.5890 -1.7103 0.7403
0.7244 -1.6578 0.7404
2.5863 -4.8232 2.2399
2.9647 -4.6003 2.2399
3.3240 -4.3478 2.2399
3.6619 -4.0673 2.2399
3.8559 -3.6468 2.1721
3.9748 -3.1964 2.0875
4.2182 -2.8674 2.0875
4.4346 -2.5200 2.0875
4.6223 -2.1563 2.0875
4.7803 -1.7788 2.0875
4.9075 -1.3898 2.0875
5.0032 -0.9918 2.0875
5.0666 -0.5875 2.0875
5.0974 -0.1794 2.0875
5.0954 0.2299 2.0875
5.0605 0.6377 2.0875
4.9931 1.0414 2.0875
4.8935 1.4383 2.0875
4.7625 1.8261 2.0875
4.6007 2.2020 2.0875
4.4094 2.5638 2.0875
4.1896 2.9091 2.0875
3.9508 3.2421 2.0917
3.9217 3.7834 2.2302
3.6214 4.1034 2.2399
3.2808 4.3806 2.2399
2.9190 4.6295 2.2399
2.5384 4.8486 2.2399
0.7138 1.6787 0.7466
0.5770 1.7307 0.7467
0.4364 1.7716 0.7467
0.2929 1.8010 0.7468
0.1476 1.8188 0.7468
0.0013 1.8248 0.7468
-0.1450 1.8190 0.7468
-0.2904 1.8014 0.7468
-0.4338 1.7722 0.7467
-0.5745 1.7315 0.7467
-0.7113 1.6797 0.7466
-2.5314 4.8523 2.2399
-2.9123 4.6337 2.2399
-3.2744 4.3853 2.2399
-3.6155 4.1086 2.2399
-3.9333 3.8055 2.2399
-4.2257 3.4779 2.2399
-4.4910 3.1279 2.2399
-4.7273 2.7578 2.2399
-4.9332 2.3699 2.2399
-5.1073 1.9667 2.2399
-5.2486 1.5509 2.2399
-5.3560 1.1251 2.2399
-5.4290 0.6920 2.2399
-5.4670 0.2546 2.2399
-5.4698 -0.1846 2.2399
-5.4374 -0.6225 2.2399
-5.3700 -1.0565 2.2399
-5.2680 -1.4836 2.2399
-5.1321 -1.9012 2.2399
-4.9631 -2.3066 2.2399
-4.7622 -2.6971 2.2399
-4.5306 -3.0702 2.2399
-4.2699 -3.4236 2.2399
-3.9816 -3.7549 2.2399
-3.6678 -4.0620 2.2399
-3.3303 -4.3430 2.2399
-2.9714 -4.5961 2.2399
-2.5933 -4.8195 2.2399
-0.7267 -1.6567 0.7404
-0.5915 -1.7094 0.7403
-0.4525 -1.7512 0.7403
-0.3106 -1.7817 0.7402
-0.1668 -1.8008 0.7402
-0.0218 -1.8083 0.7401
0.1232 -1.8043 0.7402
0.2675 -1.7886 0.7402
0.4101 -1.7616 0.7402
0.5500 -1.7232 0.7403
0.6865 -1.6737 0.7404
-0.0785 -1.6713 0.7404
0.0558 -1.6722 0.7404
0.1897 -1.6624 0.7404
0.3224 -1.6419 0.7405
0.4530 -1.6109 0.7405
0.5807 -1.5695 0.7406
0.7048 -1.5181 0.7407
2.4926 -4.4053 2.2399
2.8378 -4.1912 2.2399
3.1647 -3.9502 2.2399
3.4712 -3.6838 2.2399
3.7554 -3.3936 2.2399
3.8658 -2.9667 2.1564
3.9604 -2.5627 2.0875
4.1531 -2.2369 2.0875
4.3191 -1.8967 2.0875
4.4573 -1.5443 2.0875
4.5667 -1.1819 2.0875
4.6468 -0.8120 2.0875
4.6969 -0.4368 2.0875
4.7168 -0.0588 2.0875
4.7064 0.3196 2.0875
4.6656 0.6959 2.0875
4.5948 1.0677 2.0875
4.4944 1.4327 2.0875
4.3651 1.7884 2.0875
4.2076 2.1326 2.0875
4.0231 2.4631 2.0875
3.9270 2.8610 2.1501
3.8389 3.2989 2.2399
3.5620 3.5961 2.2399
3.2622 3.8701 2.2399
2.9414 4.1192 2.2399
2.6017 4.3418 2.2399
0.7480 1.5114 0.7463
0.6245 1.5667 0.7464
0.4970 1.6119 0.7464
0.3662 1.6467 0.7465
0.2330 1.6708 0.7466
0.0983 1.6842 0.7466
-0.0371 1.6867 0.7466
-0.1722 1.6782 0.7466
-0.3062 1.6589 0.7465
-0.4382 1.6289 0.7465
-0.5673 1.5884 0.7464
-0.6927 1.5376 0.7463
-2.4425 4.4333 2.2399
-2.7900 4.2232 2.2399
-3.1197 3.9859 2.2399
-3.4292 3.7229 2.2399
-3.7166 3.4360 2.2399
-3.9802 3.1270 2.2399
-4.2181 2.7978 2.2399
-4.4288 2.4506 2.2399
-4.6110 2.0876 2.2399
-4.7636 1.7112 2.2399
-4.8854 1.3238 2.2399
-4.9758 0.9278 2.2399
-5.0342 0.5259 2.2399
-5.0602 0.1206 2.2399
-5.0535 -0.2855 2.2399
-5.0144 -0.6898 2.2399
-4.9429 -1.0896 2.2399
-4.8397 -1.4824 2.2399
-4.7052 -1.8657 2.2399
-4.5405 -2.2369 2.2399
-4.3465 -2.5937 2.2399
-4.1246 -2.9339 2.2399
-3.8761 -3.2551 2.2399
-3.6026 -3.5554 2.2399
-3.3060 -3.8328 2.2399
-2.9880 -4.0855 2.2399
-2.6508 -4.3119 2.2399
-0.7595 -1.4916 0.7407
-0.6373 -1.5475 0.7406
-0.5112 -1.5934 0.7405
-0.3817 -1.6291 0.7405
-0.2499 -1.6544 0.7404
-0.1164 -1.6690 0.7404
0.0178 -1.6730 0.7404
0.1519 -1.6662 0.7404
0.2850 -1.6487 0.7404
0.4163 -1.6207 0.7405
0.5449 -1.5823 0.7406
0.6701 -1.5337 0.7407
2.3920 -4.4607 2.2399
2.7419 -4.2546 2.2399
3.0742 -4.0211 2.2399
3.3867 -3.7616 2.2399
3.6774 -3.4780 2.2399
3.8580 -3.1025 2.1908
3.9012 -2.6519 2.0875
4.1013 -2.3306 2.0875
4.2749 -1.9943 2.0875
4.4211 -1.6451 2.0875
4.5387 -1.2853 2.0875
4.6272 -0.9173 2.0875
4.6858 -0.5433 2.0875
4.7143 -0.1659 2.0875
4.7124 0.2126 2.0875
4.6802 0.5898 2.0875
4.6179 0.9631 2.0875
4.5258 1.3302 2.0875
4.4045 1.6888 2.0875
4.2550 2.0365 2.0875
4.0780 2.3711 2.0875
3.9316 2.7299 2.1181
3.9128 3.2109 2.2399
3.6427 3.5143 2.2399
3.3493 3.7950 2.2399
3.0342 4.0513 2.2399
2.6996 4.2816 2.2399
0.7821 1.4939 0.7462
0.6599 1.5520 0.7463
0.5334 1.6001 0.7464
0.4034 1.6379 0.7465
0.2708 1.6651 0.7465
0.1365 1.6815 0.7466
0.0012 1.6871 0.7466
-0.1340 1.6817 0.7466
-0.2684 1.6655 0.7465
-0.4011 1.6385 0.7465
-0.5311 1.6009 0.7464
-0.6577 1.5530 0.7463
-2.3412 4.4876 2.2399
-2.6934 4.2855 2.2399
-3.0284 4.0557 2.2399
-3.3438 3.7999 2.2399
-3.6377 3.5195 2.2399
-3.9081 3.2165 2.2399
-4.1535 2.8928 2.2399
-4.3720 2.5505 2.2399
-4.5624 2.1918 2.2399
-4.7235 1.8189 2.2399
-4.8541 1.4344 2.2399
-4.9535 1.0406 2.2399
-5.0210 0.6400 2.2399
-5.0561 0.2354 2.2399
-5.0587 -0.1707 2.2399
-5.0287 -0.5757 2.2399
-4.9664 -0.9771 2.2399
-4.8721 -1.3721 2.2399
-4.7464 -1.7583 2.2399
-4.5901 -2.1332 2.2399
-4.4043 -2.4944 2.2399
-4.1901 -2.8395 2.2399
-3.9490 -3.1663 2.2399
-3.6824 -3.4727 2.2399
-3.3921 -3.7568 2.2399
-3.0800 -4.0166 2.2399
-2.7480 -4.2506 2.2399
-2.3984 -4.4573 2.2399
-0.6723 -1.5327 0.7407
-0.5472 -1.5815 0.7406
-0.4186 -1.6201 0.7405
-0.2874 -1.6483 0.7404
-0.1543 -1.6660 0.7404
-0.0202 -1.6730 0.7404
0.1140 -1.6692 0.7404
0.2475 -1.6548 0.7404
0.3794 -1.6297 0.7405
0.5089 -1.5942 0.7405
0.6351 -1.5484 0.7406
-0.0729 -1.5522 0.7406
0.0518 -1.5530 0.7406
0.1761 -1.5439 0.7406
0.2994 -1.5249 0.7407
0.4207 -1.4961 0.7407
0.5393 -1.4577 0.7408
0.6546 -1.4099 0.7409
0.7656 -1.3531 0.7410
2.6348 -3.8914 2.2399
2.9383 -3.6676 2.2399
3.2229 -3.4202 2.2399
3.4868 -3.1508 2.2399
3.7282 -2.8611 2.2399
3.8637 -2.5001 2.1935
3.8847 -2.0922 2.1030
4.0101 -1.7610 2.0875
4.1384 -1.4338 2.0875
4.2400 -1.0974 2.0875
4.3144 -0.7539 2.0875
4.3609 -0.4056 2.0875
4.3794 -0.0546 2.0875
4.3697 0.2967 2.0875
4.3318 0.6461 2.0875
4.2661 0.9913 2.0875
4.1729 1.3302 2.0875
4.0528 1.6605 2.0875
3.9297 1.9915 2.0999
3.9152 2.3970 2.1881
3.7983 2.7673 2.2399
3.5642 3.0629 2.2399
3.3072 3.3388 2.2399
3.0289 3.5933 2.2399
2.7310 3.8245 2.2399
2.4156 4.0312 2.2399
0.6943 1.4029 0.7461
0.5797 1.4542 0.7462
0.4613 1.4962 0.7462
0.3399 1.5284 0.7463
0.2162 1.5509 0.7463
0.0912 1.5632 0.7464
-0.0344 1.5655 0.7464
-0.1598 1.5577 0.7463
-0.2842 1.5398 0.7463
-0.4067 1.5120 0.7463
-0.5266 1.4743 0.7462
-0.6430 1.4272 0.7461
-0.7553 1.3709 0.7460
-2.5904 3.9211 2.2399
-2.8965 3.7008 2.2399
-3.1839 3.4566 2.2399
-3.4508 3.1902 2.2399
-3.6954 2.9033 2.2399
-3.9163 2.5977 2.2399
-4.1120 2.2753 2.2399
-4.2812 1.9383 2.2399
-4.4228 1.5888 2.2399
-4.5359 1.2291 2.2399
-4.6199 0.8614 2.2399
-4.6741 0.4883 2.2399
-4.6982 0.1119 2.2399
-4.6920 -0.2651 2.2399
-4.6557 -0.6404 2.2399
-4.5893 -1.0117 2.2399
-4.4934 -1.3763 2.2399
-4.3686 -1.7322 2.2399
-4.2157 -2.0770 2.2399
-4.0356 -2.4082 2.2399
-3.8295 -2.7240 2.2399
-3.5988 -3.0222 2.2399
-3.3449 -3.3011 2.2399
-3.0695 -3.5586 2.2399
-2.7743 -3.7932 2.2399
-2.4612 -4.0035 2.2399
-0.7053 -1.3853 0.7409
-0.5919 -1.4372 0.7408
-0.4747 -1.4799 0.7407
-0.3545 -1.5130 0.7407
-0.2320 -1.5365 0.7406
-0.1081 -1.5501 0.7406
0.0165 -1.5538 0.7406
0.1410 -1.5475 0.7406
0.2647 -1.5312 0.7407
0.3866 -1.5052 0.7407
0.5061 -1.4695 0.7408
0.6224 -1.4243 0.7409
0.7347 -1.3700 0.7410
2.5458 -3.9502 2.2399
2.8543 -3.7334 2.2399
3.1444 -3.4925 2.2399
3.4143 -3.2292 2.2399
3.6622 -2.9450 2.2399
3.8570 -2.6219 2.2229
3.8792 -2.2043 2.1266
3.9691 -1.8516 2.0875
4.1048 -1.5274 2.0875
4.2140 -1.1934 2.0875
4.2962 -0.8516 2.0875
4.3506 -0.5045 2.0875
4.3770 -0.1540 2.0875
4.3753 0.1974 2.0875
4.3454 0.5476 2.0875
4.2875 0.8942 2.0875
4.2020 1.2351 2.0875
4.0894 1.5680 2.0875
3.9506 1.8908 2.0875
3.9190 2.2787 2.1607
3.8602 2.6803 2.2399
3.6329 2.9812 2.2399
3.3821 3.2629 2.2399
3.1097 3.5235 2.2399
2.8171 3.7615 2.2399
2.5065 3.9753 2.2399
0.7260 1.3867 0.7460
0.6125 1.4406 0.7461
0.4951 1.4853 0.7462
0.3745 1.5203 0.7463
0.2514 1.5455 0.7463
0.1267 1.5608 0.7464
0.0011 1.5659 0.7464
-0.1244 1.5609 0.7464
-0.2492 1.5459 0.7463
-0.3723 1.5208 0.7463
-0.4930 1.4860 0.7462
-0.6105 1.4415 0.7461
-0.7240 1.3877 0.7460
-2.5008 3.9789 2.2399
-2.8117 3.7656 2.2399
-3.1046 3.5280 2.2399
-3.3774 3.2677 2.2399
-3.6286 2.9864 2.2399
-3.8563 2.6859 2.2399
-4.0593 2.3681 2.2399
-4.2361 2.0350 2.2399
-4.3856 1.6888 2.2399
-4.5069 1.3318 2.2399
-4.5991 0.9661 2.2399
-4.6618 0.5943 2.2399
-4.6944 0.2186 2.2399
-4.6968 -0.1585 2.2399
-4.6690 -0.5346 2.2399
-4.6111 -0.9072 2.2399
-4.5235 -1.2740 2.2399
-4.4068 -1.6325 2.2399
-4.2617 -1.9806 2.2399
-4.0892 -2.3159 2.2399
-3.8904 -2.6363 2.2399
-3.6665 -2.9398 2.2399
-3.4190 -3.2242 2.2399
-3.1495 -3.4880 2.2399
-2.8597 -3.7293 2.2399
-2.5515 -3.9466 2.2399
-0.7366 -1.3690 0.7410
-0.6244 -1.4234 0.7409
-0.5082 -1.4687 0.7408
-0.3888 -1.5046 0.7407
-0.2669 -1.5309 0.7407
-0.1433 -1.5473 0.7406
-0.0188 -1.5538 0.7406
0.1059 -1.5503 0.7406
0.2298 -1.5368 0.7406
0.3523 -1.5136 0.7407
0.4726 -1.4806 0.7408
0.5898 -1.4381 0.7408
-0.0679 -1.4463 0.7408
0.0483 -1.4471 0.7408
0.1641 -1.4386 0.7408
0.2790 -1.4208 0.7409
0.3920 -1.3940 0.7409
0.5026 -1.3582 0.7410
0.6099 -1.3137 0.7411
0.7134 -1.2607 0.7412
2.4544 -3.6250 2.2399
2.7372 -3.4166 2.2399
3.0023 -3.1861 2.2399
3.2481 -2.9351 2.2399
3.4730 -2.6653 2.2399
3.6755 -2.3782 2.2399
3.8543 -2.0759 2.2399
3.8769 -1.7025 2.1665
3.8916 -1.3483 2.1073
3.9498 -1.0223 2.0875
4.0190 -0.7023 2.0875
4.0675 -0.3783 2.0901
4.0796 -0.0509 2.0875
4.0747 0.2767 2.0896
4.0353 0.6019 2.0875
3.9741 0.9235 2.0875
3.9188 1.2491 2.1045
3.9117 1.6026 2.1629
3.9016 1.9775 2.2381
3.7336 2.2859 2.2399
3.5383 2.5779 2.2399
3.3203 2.8533 2.2399
3.0808 3.1103 2.2399
2.8215 3.3473 2.2399
2.5441 3.5627 2.2399
0.7492 1.2503 0.7458
0.6466 1.3065 0.7459
0.5399 1.3543 0.7460
0.4296 1.3934 0.7460
0.3165 1.4234 0.7461
0.2014 1.4443 0.7461
0.0849 1.4558 0.7462
-0.0321 1.4580 0.7462
-0.1488 1.4507 0.7461
-0.2647 1.4340 0.7461
-0.3788 1.4081 0.7461
-0.4904 1.3731 0.7460
-0.5988 1.3292 0.7459
-0.7034 1.2767 0.7458
-2.4131 3.6527 2.2399
-2.6982 3.4474 2.2399
-2.9659 3.2200 2.2399
-3.2145 2.9718 2.2399
-3.4425 2.7045 2.2399
-3.6482 2.4198 2.2399
-3.8305 2.1195 2.2399
-3.9881 1.8056 2.2399
-4.1200 1.4800 2.2399
-4.2254 1.1449 2.2399
-4.3036 0.8025 2.2399
-4.3541 0.4548 2.2399
-4.3766 0.1043 2.2399
-4.3708 -0.2470 2.2399
-4.3370 -0.5966 2.2399
-4.2752 -0.9424 2.2399
-4.1858 -1.2821 2.2399
-4.0696 -1.6136 2.2399
-3.9271 -1.9347 2.2399
-3.7593 -2.2433 2.2399
-3.5674 -2.5375 2.2399
-3.3524 -2.8154 2.2399
-3.1159 -3.0751 2.2399
-2.8593 -3.3150 2.2399
-2.5843 -3.5336 2.2399
-0.7587 -1.2341 0.7412
-0.6572 -1.2908 0.7411
-0.5515 -1.3391 0.7410
-0.4423 -1.3789 0.7409
-0.3303 -1.4098 0.7409
-0.2162 -1.4317 0.7408
-0.1007 -1.4444 0.7408
0.0154 -1.4478 0.7408
0.1314 -1.4419 0.7408
0.2466 -1.4268 0.7409
0.3602 -1.4025 0.7409
0.4716 -1.3692 0.7410
0.5799 -1.3272 0.7410
0.6845 -1.2766 0.7411
2.3715 -3.6798 2.2399
2.6589 -3.4778 2.2399
2.9292 -3.2535 2.2399
3.1806 -3.0081 2.2399
3.4115 -2.7434 2.2399
3.6205 -2.4611 2.2399
3.8062 -2.1629 2.2399
3.8722 -1.8064 2.1862
3.8877 -1.4466 2.1224
3.9256 -1.1117 2.0875
4.0021 -0.7934 2.0875
4.0528 -0.4699 2.0875
4.0774 -0.1435 2.0875
4.0758 0.1839 2.0875
4.0479 0.5101 2.0875
3.9940 0.8330 2.0875
3.9268 1.1542 2.0942
3.9140 1.5007 2.1448
3.9048 1.8689 2.2149
3.7846 2.2005 2.2399
3.5959 2.4969 2.2399
3.3842 2.7771 2.2399
3.1506 3.0395 2.2399
2.8968 3.2824 2.2399
2.6243 3.5040 2.2399
0.7774 1.2329 0.7458
0.6761 1.2915 0.7459
0.5705 1.3417 0.7460
0.4611 1.3832 0.7460
0.3488 1.4159 0.7461
0.2341 1.4394 0.7461
0.1180 1.4535 0.7462
0.0010 1.4583 0.7462
-0.1159 1.4537 0.7462
-0.2320 1.4397 0.7461
-0.3467 1.4164 0.7461
-0.4591 1.3839 0.7460
-0.5685 1.3425 0.7459
-0.6743 1.2924 0.7459
-2.3296 3.7065 2.2399
-2.6192 3.5078 2.2399
-2.8921 3.2865 2.2399
-3.1462 3.0441 2.2399
-3.3802 2.7820 2.2399
-3.5923 2.5020 2.2399
-3.7814 2.2060 2.2399
-3.9461 1.8957 2.2399
-4.0854 1.5732 2.2399
-4.1983 1.2406 2.2399
-4.2843 0.9000 2.2399
-4.3427 0.5536 2.2399
-4.3731 0.2036 2.2399
-4.3753 -0.1477 2.2399
-4.3494 -0.4980 2.2399
-4.2955 -0.8451 2.2399
-4.2139 -1.1867 2.2399
-4.1052 -1.5208 2.2399
-3.9700 -1.8450 2.2399
-3.8093 -2.1574 2.2399
-3.6241 -2.4559 2.2399
-3.4155 -2.7385 2.2399
-3.1849 -3.0036 2.2399
-2.9339 -3.2492 2.2399
-2.6639 -3.4740 2.2399
-2.3768 -3.6764 2.2399
-0.6864 -1.2755 0.7411
-0.5818 -1.3263 0.7410
-0.4735 -1.3685 0.7410
-0.3623 -1.4020 0.7409
-0.2487 -1.4264 0.7408
-0.1335 -1.4417 0.7408
-0.0175 -1.4478 0.7408
0.0987 -1.4445 0.7408
0.2142 -1.4320 0.7408
0.3283 -1.4103 0.7409
0.4404 -1.3796 0.7409
0.5496 -1.3399 0.7410
-0.0635 -1.3514 0.7410
0.0451 -1.3522 0.7410
0.1534 -1.3442 0.7410
0.2607 -1.3276 0.7410
0.3663 -1.3026 0.7411
0.4696 -1.2691 0.7411
0.5699 -1.2275 0.7412
0.6665 -1.1780 0.7413
0.7590 -1.1209 0.7414
2.5570 -3.1917 2.2399
2.8047 -2.9764 2.2399
3.0343 -2.7420 2.2399
3.2444 -2.4899 2.2399
3.4336 -2.2217 2.2399
3.6006 -1.9393 2.2399
3.7445 -1.6443 2.2399
3.8643 -1.3388 2.2399
3.8789 -1.0039 2.1945
3.8883 -0.6794 2.1619
3.8952 -0.3622 2.1426
3.8996 -0.0486 2.1360
3.9018 0.2649 2.1419
3.9016 0.5819 2.1606
3.8990 0.9060 2.1924
3.8940 1.2412 2.2385
3.7844 1.5505 2.2399
3.6479 1.8489 2.2399
3.4879 2.1354 2.2399
3.3054 2.4082 2.2399
3.1017 2.6655 2.2399
2.8780 2.9056 2.2399
2.6358 3.1270 2.2399
0.7910 1.1077 0.7455
0.6998 1.1678 0.7456
0.6040 1.2203 0.7457
0.5042 1.2649 0.7458
0.4012 1.3014 0.7459
0.2956 1.3294 0.7459
0.1881 1.3489 0.7460
0.0793 1.3597 0.7460
-0.0299 1.3617 0.7460
-0.1390 1.3549 0.7460
-0.2472 1.3393 0.7459
-0.3538 1.3151 0.7459
-0.4580 1.2824 0.7458
-0.5593 1.2414 0.7458
-0.6570 1.1924 0.7457
-0.7503 1.1358 0.7456
-2.5206 3.2205 2.2399
-2.7707 3.0081 2.2399
-3.0030 2.7762 2.2399
-3.2159 2.5265 2.2399
-3.4081 2.2606 2.2399
-3.5784 1.9800 2.2399
-3.7256 1.6868 2.2399
-3.8489 1.3826 2.2399
-3.9473 1.0696 2.2399
-4.0204 0.7497 2.2399
-4.0675 0.4249 2.2399
-4.0885 0.0974 2.2399
-4.0831 -0.2307 2.2399
-4.0515 -0.5573 2.2399
-3.9938 -0.8804 2.2399
-3.9103 -1.1977 2.2399
-3.8017 -1.5074 2.2399
-3.6686 -1.8074 2.2399
-3.5119 -2.0957 2.2399
-3.3326 -2.3705 2.2399
-3.1318 -2.6301 2.2399
-2.9108 -2.8727 2.2399
-2.6711 -3.0968 2.2399
-2.4143 -3.3010 2.2399
-0.7089 -1.1531 0.7413
-0.6141 -1.2061 0.7413
-0.5153 -1.2513 0.7412
-0.4133 -1.2884 0.7411
-0.3087 -1.3173 0.7411
-0.2020 -1.3378 0.7410
-0.0941 -1.3496 0.7410
0.0144 -1.3528 0.7410
0.1228 -1.3473 0.7410
0.2304 -1.3332 0.7410
0.3366 -1.3105 0.7411
0.4406 -1.2794 0.7411
0.5418 -1.2401 0.7412
0.6396 -1.1928 0.7413
0.7333 -1.1378 0.7414
2.4839 -3.2489 2.2399
2.7364 -3.0393 2.2399
2.9713 -2.8102 2.2399
3.1870 -2.5629 2.2399
3.3822 -2.2991 2.2399
3.5557 -2.0205 2.2399
3.7062 -1.7289 2.2399
3.8329 -1.4262 2.2399
3.8758 -1.0976 2.2063
3.8859 -0.7703 2.1698
3.8935 -0.4515 2.1468
3.8986 -0.1372 2.1366
3.9014 0.1760 2.1390
3.9019 0.4917 2.1540
3.9000 0.8134 2.1820
3.8957 1.1450 2.2239
3.8186 1.4642 2.2399
3.6889 1.7656 2.2399
3.5355 2.0557 2.2399
3.3593 2.3325 2.2399
3.1614 2.5944 2.2399
2.9433 2.8395 2.2399
2.7061 3.0663 2.2399
2.4516 3.2734 2.2399
0.7261 1.1515 0.7456
0.6315 1.2062 0.7457
0.5328 1.2531 0.7458
0.4307 1.2919 0.7459
0.3257 1.3224 0.7459
0.2187 1.3443 0.7460
0.1102 1.3575 0.7460
0.0010 1.3620 0.7460
-0.1082 1.3577 0.7460
-0.2167 1.3446 0.7460
-0.3238 1.3228 0.7459
-0.4288 1.2925 0.7459
-0.5310 1.2538 0.7458
-0.6297 1.2071 0.7457
-0.7244 1.1526 0.7456
-2.4469 3.2769 2.2399
-2.7017 3.0702 2.2399
-2.9392 2.8437 2.2399
-3.1577 2.5989 2.2399
-3.3559 2.3374 2.2399
-3.5325 2.0608 2.2399
-3.6864 1.7709 2.2399
-3.8165 1.4696 2.2399
-3.9220 1.1589 2.2399
-4.0023 0.8407 2.2399
-4.0568 0.5172 2.2399
-4.0852 0.1902 2.2399
-4.0873 -0.1379 2.2399
-4.0631 -0.4652 2.2399
-4.0127 -0.7895 2.2399
-3.9365 -1.1087 2.2399
-3.8350 -1.4207 2.2399
-3.7087 -1.7236 2.2399
-3.5586 -2.0154 2.2399
-3.3855 -2.2942 2.2399
-3.1907 -2.5583 2.2399
-2.9753 -2.8058 2.2399
-2.7408 -3.0354 2.2399
-2.4886 -3.2454 2.2399
-0.7349 -1.1367 0.7414
-0.6413 -1.1918 0.7413
-0.5436 -1.2393 0.7412
-0.4425 -1.2788 0.7411
-0.3385 -1.3100 0.7411
-0.2324 -1.3329 0.7410
-0.1247 -1.3472 0.7410
-0.0163 -1.3528 0.7410
0.0922 -1.3498 0.7410
0.2001 -1.3381 0.7410
0.3068 -1.3178 0.7411
0.4115 -1.2890 0.7411
0.5135 -1.2520 0.7412
-0.0594 -1.2658 0.7411
0.0422 -1.2665 0.7411
0.1436 -1.2590 0.7412
0.2441 -1.2435 0.7412
0.3431 -1.2200 0.7412
0.4398 -1.1887 0.7413
0.5338 -1.1497 0.7414
0.6243 -1.1033 0.7415
0.7108 -1.0499 0.7416
2.3945 -2.9888 2.2399
2.6264 -2.7872 2.2399
2.8414 -2.5677 2.2399
3.0381 -2.3316 2.2399
3.2153 -2.0805 2.2399
3.3718 -1.8160 2.2399
3.5065 -1.5398 2.2399
3.6187 -1.2537 2.2399
3.7075 -0.9595 2.2399
3.7725 -0.6592 2.2399
3.8132 -0.3546 2.2399
3.8294 -0.0477 2.2399
3.8209 0.2594 2.2399
3.7878 0.5650 2.2399
3.7303 0.8668 2.2399
3.6488 1.1631 2.2399
3.5438 1.4519 2.2399
3.4160 1.7314 2.2399
3.2662 1.9997 2.2399
3.0953 2.2551 2.2399
2.9046 2.4960 2.2399
2.6951 2.7209 2.2399
2.4683 2.9282 2.2399
0.7406 1.0371 0.7454
0.6552 1.0933 0.7455
0.5655 1.1425 0.7456
0.4721 1.1843 0.7457
0.3756 1.2184 0.7457
0.2768 1.2447 0.7458
0.1761 1.2629 0.7458
0.0743 1.2730 0.7458
-0.0280 1.2749 0.7458
-0.1302 1.2685 0.7458
-0.2314 1.2539 0.7458
-0.3312 1.2313 0.7457
-0.4288 1.2007 0.7457
-0.5237 1.1623 0.7456
-0.6151 1.1164 0.7455
-0.7025 1.0634 0.7454
-2.3604 3.0158 2.2399
-2.5946 2.8169 2.2399
-2.8121 2.5998 2.2399
-3.0115 2.3659 2.2399
-3.1915 2.1169 2.2399
-3.3509 1.8542 2.2399
-3.4888 1.5795 2.2399
-3.6042 1.2947 2.2399
-3.6964 1.0016 2.2399
-3.7648 0.7020 2.2399
-3.8090 0.3979 2.2399
-3.8286 0.0912 2.2399
-3.8236 -0.2160 2.2399
-3.7940 -0.5219 2.2399
-3.7399 -0.8244 2.2399
-3.6618 -1.1216 2.2399
-3.5601 -1.4116 2.2399
-3.4354 -1.6925 2.2399
-3.2887 -1.9625 2.2399
-3.1207 -2.2198 2.2399
-2.9327 -2.4629 2.2399
-2.7258 -2.6901 2.2399
-2.5014 -2.9000 2.2399
-0.7485 -1.0234 0.7416
-0.6639 -1.0800 0.7415
-0.5751 -1.1296 0.7414
-0.4827 -1.1720 0.7413
-0.3871 -1.2068 0.7413
-0.2891 -1.2339 0.7412
-0.1892 -1.2530 0.7412
-0.0882 -1.2641 0.7412
0.0135 -1.2671 0.7411
0.1150 -1.2620 0.7412
0.2158 -1.2487 0.7412
0.3153 -1.2275 0.7412
0.4127 -1.1983 0.7413
0.5075 -1.1615 0.7413
0.5991 -1.1172 0.7414
0.6868 -1.0657 0.7415
0.7701 -1.0073 0.7416
2.5624 -2.8461 2.2399
2.7824 -2.6315 2.2399
2.9844 -2.4000 2.2399
3.1672 -2.1530 2.2399
3.3297 -1.8921 2.2399
3.4706 -1.6191 2.2399
3.5893 -1.3356 2.2399
3.6848 -1.0435 2.2399
3.7566 -0.7447 2.2399
3.8042 -0.4411 2.2399
3.8273 -0.1347 2.2399
3.8258 0.1726 2.2399
3.7997 0.4788 2.2399
3.7490 0.7819 2.2399
3.6743 1.0800 2.2399
3.5759 1.3711 2.2399
3.4544 1.6534 2.2399
3.3107 1.9250 2.2399
3.1457 2.1843 2.2399
2.9605 2.4294 2.2399
2.7562 2.6590 2.2399
2.5341 2.8714 2.2399
0.7639 1.0200 0.7454
0.6798 1.0781 0.7455
0.5912 1.1293 0.7456
0.4988 1.1732 0.7456
0.4032 1.2095 0.7457
0.3050 1.2381 0.7458
0.2047 1.2586 0.7458
0.1032 1.2710 0.7458
0.0009 1.2752 0.7458
-0.1013 1.2711 0.7458
-0.2029 1.2589 0.7458
-0.3032 1.2385 0.7458
-0.4015 1.2101 0.7457
-0.4971 1.1739 0.7456
-0.5896 1.1302 0.7456
-0.6782 1.0791 0.7455
-0.7625 1.0211 0.7454
-2.5300 2.8751 2.2399
-2.7523 2.6629 2.2399
-2.9570 2.4337 2.2399
-3.1426 2.1888 2.2399
-3.3080 1.9298 2.2399
-3.4520 1.6584 2.2399
-3.5739 1.3762 2.2399
-3.6727 1.0853 2.2399
-3.7479 0.7873 2.2399
-3.7990 0.4843 2.2399
-3.8256 0.1781 2.2399
-3.8275 -0.1292 2.2399
-3.8048 -0.4356 2.2399
-3.7577 -0.7393 2.2399
-3.6863 -1.0382 2.2399
-3.5912 -1.3304 2.2399
-3.4730 -1.6140 2.2399
-3.3324 -1.8873 2.2399
-3.1703 -2.1484 2.2399
-2.9879 -2.3957 2.2399
-2.7862 -2.6275 2.2399
-2.5665 -2.8424 2.2399
-0.7716 -1.0062 0.7416
-0.6883 -1.0647 0.7415
-0.6007 -1.1163 0.7414
-0.5092 -1.1607 0.7413
-0.4144 -1.1977 0.7413
-0.3170 -1.2270 0.7412
-0.2176 -1.2484 0.7412
-0.1168 -1.2618 0.7412
-0.0153 -1.2671 0.7411
0.0863 -1.2642 0.7412
0.1874 -1.2533 0.7412
0.2873 -1.2343 0.7412
0.3854 -1.2074 0.7413
0.4810 -1.1727 0.7413
-0.0558 -1.1880 0.7413
0.0396 -1.1886 0.7413
0.1348 -1.1816 0.7413
0.2291 -1.1671 0.7413
0.3220 -1.1450 0.7414
0.4128 -1.1156 0.7414
0.5009 -1.0790 0.7415
0.5859 -1.0355 0.7416
0.6671 -0.9853 0.7417
0.7441 -0.9288 0.7418
2.4645 -2.6154 2.2399
2.6663 -2.4094 2.2399
2.8509 -2.1878 2.2399
3.0171 -1.9522 2.2399
3.1639 -1.7041 2.2399
3.2903 -1.4449 2.2399
3.3956 -1.1764 2.2399
3.4790 -0.9004 2.2399
3.5400 -0.6186 2.2399
3.5782 -0.3327 2.2399
3.5933 -0.0448 2.2399
3.5854 0.2434 2.2399
3.5543 0.5301 2.2399
3.5004 0.8134 2.2399
3.4239 1.0914 2.2399
3.3254 1.3624 2.2399
3.2054 1.6246 2.2399
3.0648 1.8764 2.2399
2.9045 2.1161 2.2399
2.7255 2.3422 2.2399
2.5290 2.5531 2.2399
0.7705 0.9141 0.7452
0.6948 0.9731 0.7453
0.6147 1.0258 0.7454
0.5305 1.0719 0.7455
0.4429 1.1111 0.7455
0.3524 1.1431 0.7456
0.2597 1.1677 0.7456
0.1652 1.1848 0.7457
0.0697 1.1943 0.7457
-0.0263 1.1960 0.7457
-0.1221 1.1901 0.7457
-0.2171 1.1764 0.7456
-0.3107 1.1551 0.7456
-0.4023 1.1264 0.7455
-0.4913 1.0905 0.7455
-0.5771 1.0474 0.7454
-0.6591 0.9977 0.7453
-0.7369 0.9415 0.7452
-2.4347 2.6432 2.2399
-2.6387 2.4395 2.2399
-2.8258 2.2201 2.2399
-2.9947 1.9864 2.2399
-3.1444 1.7399 2.2399
-3.2737 1.4822 2.2399
-3.3820 1.2149 2.2399
-3.4685 0.9399 2.2399
-3.5327 0.6587 2.2399
-3.5742 0.3734 2.2399
-3.5926 0.0856 2.2399
-3.5879 -0.2027 2.2399
-3.5601 -0.4897 2.2399
-3.5094 -0.7736 2.2399
-3.4360 -1.0524 2.2399
-3.3406 -1.3246 2.2399
-3.2237 -1.5881 2.2399
-3.0859 -1.8415 2.2399
-2.9284 -2.0830 2.2399
-2.7519 -2.3111 2.2399
-2.5578 -2.5243 2.2399
-0.7773 -0.9012 0.7418
-0.7025 -0.9605 0.7417
-0.6231 -1.0136 0.7416
-0.5398 -1.0602 0.7415
-0.4530 -1.0999 0.7414
-0.3633 -1.1326 0.7414
-0.2713 -1.1580 0.7413
-0.1776 -1.1760 0.7413
-0.0827 -1.1864 0.7413
0.0126 -1.1892 0.7413
0.1080 -1.1844 0.7413
0.2026 -1.1720 0.7413
0.2959 -1.1520 0.7414
0.3873 -1.1247 0.7414
0.4763 -1.0901 0.7415
0.5622 -1.0485 0.7416
0.6446 -1.0001 0.7416
0.7228 -0.9454 0.7417
2.4045 -2.6707 2.2399
2.6109 -2.4693 2.2399
2.8004 -2.2520 2.2399
2.9720 -2.0203 2.2399
3.1244 -1.7755 2.2399
3.2567 -1.5192 2.2399
3.3680 -1.2532 2.2399
3.4577 -0.9792 2.2399
3.5250 -0.6988 2.2399
3.5697 -0.4139 2.2399
3.5914 -0.1264 2.2399
3.5900 0.1620 2.2399
3.5654 0.4493 2.2399
3.5179 0.7337 2.2399
3.4478 1.0134 2.2399
3.3554 1.2866 2.2399
3.2415 1.5514 2.2399
3.1066 1.8063 2.2399
2.9518 2.0496 2.2399
2.7780 2.2797 2.2399
2.5863 2.4951 2.2399
0.7910 0.8963 0.7451
0.7167 0.9570 0.7452
0.6378 1.0115 0.7453
0.5547 1.0595 0.7454
0.4680 1.1007 0.7455
0.3783 1.1348 0.7456
0.2861 1.1615 0.7456
0.1921 1.1808 0.7457
0.0968 1.1924 0.7457
0.0009 1.1963 0.7457
-0.0951 1.1925 0.7457
-0.1904 1.1810 0.7457
-0.2844 1.1619 0.7456
-0.3766 1.1353 0.7456
-0.4664 1.1014 0.7455
-0.5532 1.0603 0.7454
-0.6363 1.0124 0.7453
-0.7153 0.9580 0.7452
-2.3740 2.6978 2.2399
-2.5827 2.4988 2.2399
-2.7747 2.2837 2.2399
-2.9489 2.0539 2.2399
-3.1040 1.8108 2.2399
-3.2392 1.5561 2.2399
-3.3536 1.2914 2.2399
-3.4463 1.0184 2.2399
-3.5169 0.7388 2.2399
-3.5648 0.4544 2.2399
-3.5897 0.1671 2.2399
-3.5916 -0.1212 2.2399
-3.5703 -0.4088 2.2399
-3.5260 -0.6937 2.2399
-3.4591 -0.9742 2.2399
-3.3698 -1.2484 2.2399
-3.2589 -1.5145 2.2399
-3.1270 -1.7709 2.2399
-2.9749 -2.0160 2.2399
-2.8037 -2.2480 2.2399
-2.6144 -2.4655 2.2399
-2.4083 -2.6672 2.2399
-0.7241 -0.9443 0.7417
-0.6460 -0.9992 0.7416
-0.5637 -1.0477 0.7415
-0.4779 -1.0894 0.7415
-0.3890 -1.1241 0.7414
-0.2976 -1.1516 0.7414
-0.2043 -1.1717 0.7413
-0.1097 -1.1842 0.7413
-0.0144 -1.1892 0.7413
0.0810 -1.1865 0.7413
0.1759 -1.1762 0.7413
0.2697 -1.1584 0.7413
0.3617 -1.1331 0.7414
0.4514 -1.1006 0.7415
-0.0524 -1.1169 0.7414
0.0373 -1.1175 0.7414
0.1267 -1.1109 0.7414
0.2154 -1.0972 0.7415
0.3027 -1.0765 0.7415
0.3881 -1.0488 0.7415
0.4710 -1.0144 0.7416
0.5508 -0.9735 0.7417
0.6272 -0.9263 0.7418
0.6995 -0.8731 0.7419
0.7674 -0.8144 0.7420
2.5062 -2.2648 2.2399
2.6798 -2.0565 2.2399
2.8360 -1.8351 2.2399
2.9740 -1.6018 2.2399
3.0929 -1.3582 2.2399
3.1918 -1.1058 2.2399
3.2702 -0.8464 2.2399
3.3275 -0.5815 2.2399
3.3634 -0.3128 2.2399
3.3777 -0.0421 2.2399
3.3702 0.2288 2.2399
3.3410 0.4983 2.2399
3.2903 0.7646 2.2399
3.2184 1.0259 2.2399
3.1258 1.2807 2.2399
3.0130 1.5271 2.2399
2.8809 1.7638 2.2399
2.7302 1.9891 2.2399
2.5619 2.2016 2.2399
0.7906 0.7982 0.7450
0.7242 0.8591 0.7451
0.6530 0.9145 0.7452
0.5777 0.9641 0.7453
0.4986 1.0074 0.7453
0.4163 1.0442 0.7454
0.3312 1.0743 0.7455
0.2440 1.0975 0.7455
0.1553 1.1135 0.7455
0.0655 1.1224 0.7455
-0.0247 1.1241 0.7455
-0.1148 1.1184 0.7455
-0.2041 1.1056 0.7455
-0.2920 1.0856 0.7455
-0.3781 1.0587 0.7454
-0.4617 1.0248 0.7454
-0.5424 0.9844 0.7453
-0.6195 0.9377 0.7452
-0.6926 0.8849 0.7451
-0.7612 0.8264 0.7450
-2.4804 2.2931 2.2399
-2.6562 2.0868 2.2399
-2.8150 1.8672 2.2399
-2.9556 1.6355 2.2399
-3.0773 1.3932 2.2399
-3.1791 1.1420 2.2399
-3.2604 0.8835 2.2399
-3.3207 0.6192 2.2399
-3.3597 0.3510 2.2399
-3.3770 0.0805 2.2399
-3.3726 -0.1905 2.2399
-3.3464 -0.4603 2.2399
-3.2988 -0.7272 2.2399
-3.2298 -0.9893 2.2399
-3.1401 -1.2451 2.2399
-3.0302 -1.4928 2.2399
-2.9007 -1.7310 2.2399
-2.7526 -1.9580 2.2399
-2.5868 -2.1723 2.2399
-2.4043 -2.3728 2.2399
-0.7308 -0.8472 0.7419
-0.6604 -0.9030 0.7418
-0.5858 -0.9529 0.7417
-0.5075 -0.9967 0.7416
-0.4259 -1.0341 0.7416
-0.3416 -1.0648 0.7415
-0.2551 -1.0887 0.7415
-0.1670 -1.1056 0.7414
-0.0778 -1.1154 0.7414
0.0119 -1.1180 0.7414
0.1015 -1.1135 0.7414
0.1904 -1.1018 0.7415
0.2782 -1.0831 0.7415
0.3642 -1.0573 0.7415
0.4478 -1.0248 0.7416
0.5286 -0.9857 0.7417
0.6060 -0.9403 0.7418
0.6795 -0.8888 0.7418
0.7487 -0.8315 0.7420
2.4542 -2.3211 2.2399
2.6324 -2.1169 2.2399
2.7936 -1.8990 2.2399
2.9369 -1.6689 2.2399
3.0612 -1.4280 2.2399
3.1659 -1.1780 2.2399
3.2501 -0.9204 2.2399
3.3135 -0.6569 2.2399
3.3555 -0.3891 2.2399
3.3759 -0.1188 2.2399
3.3745 0.1523 2.2399
3.3514 0.4223 2.2399
3.3068 0.6897 2.2399
3.2409 0.9526 2.2399
3.1541 1.2093 2.2399
3.0469 1.4583 2.2399
2.9202 1.6979 2.2399
2.7747 1.9266 2.2399
2.6113 2.1429 2.2399
2.4311 2.3453 2.2399
0.7435 0.8424 0.7450
0.6736 0.8994 0.7451
0.5994 0.9507 0.7452
0.5213 0.9958 0.7453
0.4398 1.0345 0.7454
0.3555 1.0665 0.7454
0.2689 1.0916 0.7455
0.1805 1.1097 0.7455
0.0910 1.1206 0.7455
0.0008 1.1243 0.7455
-0.0893 1.1208 0.7455
-0.1789 1.1100 0.7455
-0.2673 1.0920 0.7455
-0.3540 1.0670 0.7454
-0.4384 1.0351 0.7454
-0.5199 0.9965 0.7453
-0.5980 0.9515 0.7452
-0.6723 0.9004 0.7451
-0.7422 0.8435 0.7450
-2.4277 2.3488 2.2399
-2.6082 2.1466 2.2399
-2.7719 1.9306 2.2399
-2.9178 1.7021 2.2399
-3.0448 1.4627 2.2399
-3.1523 1.2139 2.2399
-3.2395 0.9573 2.2399
-3.3058 0.6944 2.2399
-3.3508 0.4272 2.2399
-3.3743 0.1571 2.2399
-3.3760 -0.1139 2.2399
-3.3560 -0.3842 2.2399
-3.3144 -0.6521 2.2399
-3.2515 -0.9157 2.2399
-3.1676 -1.1735 2.2399
-3.0633 -1.4237 2.2399
-2.9393 -1.6646 2.2399
-2.7964 -1.8950 2.2399
-2.6354 -2.1131 2.2399
-2.4575 -2.3176 2.2399
-0.7499 -0.8305 0.7419
-0.6808 -0.8878 0.7418
-0.6073 -0.9394 0.7417
-0.5300 -0.9849 0.7417
-0.4493 -1.0242 0.7416
-0.3657 -1.0568 0.7415
-0.2797 -1.0826 0.7415
-0.1920 -1.1015 0.7414
-0.1031 -1.1134 0.7414
-0.0135 -1.1180 0.7414
0.0762 -1.1155 0.7414
0.1654 -1.1058 0.7414
0.2535 -1.0891 0.7415
0.3400 -1.0653 0.7415
0.4244 -1.0347 0.7416
-0.0494 -1.0516 0.7415
0.0351 -1.0521 0.7415
0.1193 -1.0459 0.7416
0.2028 -1.0330 0.7416
0.2850 -1.0135 0.7416
0.3654 -0.9875 0.7417
0.4434 -0.9551 0.7417
0.5186 -0.9165 0.7418
0.5905 -0.8721 0.7419
0.6586 -0.8220 0.7420
0.7225 -0.7667 0.7421
0.7817 -0.7064 0.7422
2.5226 -1.9359 2.2399
2.6697 -1.7275 2.2399
2.7996 -1.5078 2.2399
2.9115 -1.2785 2.2399
3.0046 -1.0410 2.2399
3.0784 -0.7967 2.2399
3.1324 -0.5474 2.2399
3.1662 -0.2944 2.2399
3.1796 -0.0396 2.2399
3.1725 0.2154 2.2399
3.1451 0.4691 2.2399
3.0973 0.7197 2.2399
3.0297 0.9658 2.2399
2.9425 1.2055 2.2399
2.8363 1.4376 2.2399
2.7119 1.6604 2.2399
2.5701 1.8724 2.2399
2.4117 2.0725 2.2399
0.7442 0.7513 0.7449
0.6816 0.8086 0.7450
0.6147 0.8608 0.7451
0.5437 0.9074 0.7452
0.4693 0.9482 0.7452
0.3918 0.9828 0.7453
0.3117 1.0111 0.7453
0.2297 1.0329 0.7454
0.1461 1.0481 0.7454
0.0616 1.0564 0.7454
-0.0233 1.0580 0.7454
-0.1080 1.0527 0.7454
-0.1921 1.0406 0.7454
-0.2749 1.0218 0.7454
-0.3559 0.9964 0.7453
-0.4346 0.9646 0.7453
-0.5105 0.9266 0.7452
-0.5831 0.8826 0.7451
-0.6519 0.8329 0.7450
-0.7164 0.7778 0.7449
-0.7764 0.7178 0.7448
-2.5005 1.9645 2.2399
-2.6499 1.7577 2.2399
-2.7823 1.5395 2.2399
-2.8968 1.3115 2.2399
-2.9926 1.0750 2.2399
-3.0692 0.8316 2.2399
-3.1260 0.5829 2.2399
-3.1626 0.3304 2.2399
-3.1789 0.0757 2.2399
-3.1748 -0.1794 2.2399
-3.1502 -0.4333 2.2399
-3.1053 -0.6845 2.2399
-3.0404 -0.9313 2.2399
-2.9560 -1.1721 2.2399
-2.8525 -1.4053 2.2399
-2.7306 -1.6295 2.2399
-2.5912 -1.8431 2.2399
-2.4351 -2.0450 2.2399
-0.7498 -0.7400 0.7421
-0.6880 -0.7976 0.7420
-0.6218 -0.8501 0.7419
-0.5515 -0.8971 0.7418
-0.4778 -0.9384 0.7417
-0.4010 -0.9736 0.7417
-0.3216 -1.0025 0.7416
-0.2402 -1.0250 0.7416
-0.1572 -1.0409 0.7416
-0.0732 -1.0502 0.7415
0.0112 -1.0526 0.7415
0.0956 -1.0484 0.7415
0.1793 -1.0374 0.7416
0.2619 -1.0197 0.7416
0.3428 -0.9955 0.7416
0.4216 -0.9649 0.7417
0.4976 -0.9280 0.7418
0.5705 -0.8852 0.7419
0.6397 -0.8368 0.7419
0.7048 -0.7829 0.7420
0.7655 -0.7240 0.7422
2.4780 -1.9927 2.2399
2.6298 -1.7876 2.2399
2.7647 -1.5710 2.2399
2.8817 -1.3443 2.2399
2.9802 -1.1089 2.2399
3.0595 -0.8664 2.2399
3.1192 -0.6183 2.2399
3.1587 -0.3663 2.2399
3.1779 -0.1118 2.2399
3.1766 0.1433 2.2399
3.1549 0.3976 2.2399
3.1129 0.6492 2.2399
3.0508 0.8967 2.2399
2.9691 1.1384 2.2399
2.8682 1.3728 2.2399
2.7489 1.5984 2.2399
2.6119 1.8136 2.2399
2.4581 2.0172 2.2399
0.7610 0.7341 0.7448
0.6998 0.7929 0.7449
0.6340 0.8466 0.7450
0.5642 0.8948 0.7451
0.4907 0.9372 0.7452
0.4140 0.9737 0.7453
0.3346 1.0038 0.7453
0.2531 1.0274 0.7454
0.1699 1.0445 0.7454
0.0856 1.0548 0.7454
0.0008 1.0582 0.7454
-0.0841 1.0549 0.7454
-0.1684 1.0447 0.7454
-0.2516 1.0278 0.7454
-0.3332 1.0043 0.7453
-0.4126 0.9742 0.7453
-0.4893 0.9379 0.7452
-0.5629 0.8956 0.7451
-0.6328 0.8475 0.7450
-0.6986 0.7939 0.7449
-0.7599 0.7352 0.7448
-2.4552 2.0207 2.2399
-2.6093 1.8174 2.2399
-2.7466 1.6023 2.2399
-2.8663 1.3769 2.2399
-2.9674 1.1427 2.2399
-3.0495 0.9011 2.2399
-3.1119 0.6537 2.2399
-3.1543 0.4021 2.2399
-3.1764 0.1479 2.2399
-3.1780 -0.1073 2.2399
-3.1592 -0.3617 2.2399
-3.1200 -0.6138 2.2399
-3.0608 -0.8620 2.2399
-2.9818 -1.1046 2.2399
-2.8836 -1.3402 2.2399
-2.7669 -1.5670 2.2399
-2.6324 -1.7838 2.2399
-2.4809 -1.9891 2.2399
-0.7665 -0.7228 0.7421
-0.7060 -0.7819 0.7420
-0.6409 -0.8358 0.7419
-0.5718 -0.8844 0.7418
-0.4990 -0.9273 0.7418
-0.4230 -0.9642 0.7417
-0.3443 -0.9950 0.7416
-0.2634 -1.0193 0.7416
-0.1808 -1.0371 0.7416
-0.0971 -1.0482 0.7415
-0.0127 -1.0526 0.7415
0.0717 -1.0503 0.7415
0.1557 -1.0412 0.7416
0.2387 -1.0254 0.7416
0.3202 -1.0030 0.7416
0.3996 -0.9742 0.7417
-0.0465 -0.9912 0.7417
0.0331 -0.9918 0.7417
0.1125 -0.9859 0.7417
0.1912 -0.9738 0.7417
0.2687 -0.9554 0.7417
0.3444 -0.9308 0.7418
0.4180 -0.9003 0.7418
0.4888 -0.8639 0.7419
0.5566 -0.8220 0.7420
0.6208 -0.7749 0.7421
0.6810 -0.7227 0.7422
0.7368 -0.6659 0.7423
2.3775 -1.8246 2.2399
2.5162 -1.6281 2.2399
2.6386 -1.4211 2.2399
2.7441 -1.2050 2.2399
2.8318 -0.9811 2.2399
2.9014 -0.7509 2.2399
2.9522 -0.5159 2.2399
2.9841 -0.2775 2.2399
2.9967 -0.0374 2.2399
2.9901 0.2030 2.2399
2.9642 0.4421 2.2399
2.9192 0.6784 2.2399
2.8554 0.9102 2.2399
2.7732 1.1362 2.2399
2.6732 1.3549 2.2399
2.5560 1.5649 2.2399
2.4223 1.7648 2.2399
0.7557 0.6494 0.7447
0.7013 0.7080 0.7448
0.6423 0.7620 0.7449
0.5792 0.8112 0.7450
0.5124 0.8551 0.7451
0.4422 0.8935 0.7451
0.3692 0.9262 0.7452
0.2938 0.9528 0.7452
0.2164 0.9734 0.7453
0.1377 0.9876 0.7453
0.0581 0.9955 0.7453
-0.0219 0.9970 0.7453
-0.1018 0.9920 0.7453
-0.1810 0.9806 0.7453
-0.2590 0.9629 0.7452
-0.3354 0.9390 0.7452
-0.4095 0.9090 0.7451
-0.4811 0.8732 0.7451
-0.5495 0.8317 0.7450
-0.6143 0.7849 0.7449
-0.6752 0.7330 0.7448
-0.7317 0.6764 0.7447
-2.3567 1.8515 2.2399
-2.4975 1.6566 2.2399
-2.6223 1.4510 2.2399
-2.7302 1.2361 2.2399
-2.8205 1.0132 2.2399
-2.8927 0.7838 2.2399
-2.9462 0.5494 2.2399
-2.9808 0.3114 2.2399
-2.9961 0.0714 2.2399
-2.9922 -0.1691 2.2399
-2.9690 -0.4084 2.2399
-2.9267 -0.6451 2.2399
-2.8656 -0.8777 2.2399
-2.7860 -1.1047 2.2399
-2.6884 -1.3245 2.2399
-2.5736 -1.5358 2.2399
-2.4422 -1.7371 2.2399
-0.7606 -0.6387 0.7423
-0.7068 -0.6975 0.7422
-0.6485 -0.7519 0.7421
-0.5861 -0.8013 0.7420
-0.5199 -0.8457 0.7419
-0.4504 -0.8845 0.7418
-0.3780 -0.9177 0.7418
-0.3031 -0.9450 0.7417
-0.2264 -0.9662 0.7417
-0.1482 -0.9812 0.7417
-0.0690 -0.9899 0.7417
0.0106 -0.9923 0.7417
0.0901 -0.9882 0.7417
0.1690 -0.9779 0.7417
0.2469 -0.9612 0.7417
0.3232 -0.9384 0.7418
0.3974 -0.9095 0.7418
0.4691 -0.8748 0.7419
0.5378 -0.8344 0.7419
0.6030 -0.7887 0.7420
0.6644 -0.7379 0.7421
0.7215 -0.6824 0.7422
0.7740 -0.6224 0.7423
2.4786 -1.6848 2.2399
2.6057 -1.4807 2.2399
2.7160 -1.2670 2.2399
2.8088 -1.0452 2.2399
2.8836 -0.8166 2.2399
2.9398 -0.5828 2.2399
2.9770 -0.3452 2.2399
2.9951 -0.1054 2.2399
2.9939 0.1351 2.2399
2.9735 0.3747 2.2399
2.9339 0.6119 2.2399
2.8753 0.8451 2.2399
2.7983 1.0730 2.2399
2.7033 1.2939 2.2399
2.5909 1.5064 2.2399
2.4617 1.7093 2.2399
0.7702 0.6320 0.7446
0.7171 0.6919 0.7448
0.6595 0.7472 0.7449
0.5975 0.7978 0.7450
0.5317 0.8432 0.7450
0.4624 0.8832 0.7451
0.3901 0.9175 0.7452
0.3153 0.9459 0.7452
0.2385 0.9682 0.7453
0.1601 0.9843 0.7453
0.0807 0.9939 0.7453
0.0007 0.9972 0.7453
-0.0792 0.9941 0.7453
-0.1587 0.9845 0.7453
-0.2371 0.9686 0.7453
-0.3140 0.9464 0.7452
-0.3888 0.9181 0.7452
-0.4611 0.8839 0.7451
-0.5304 0.8440 0.7450
-0.5963 0.7986 0.7449
-0.6584 0.7482 0.7449
-0.7161 0.6929 0.7447
-0.7693 0.6331 0.7446
-2.4593 1.7129 2.2399
-2.5887 1.5102 2.2399
-2.7014 1.2978 2.2399
-2.7968 1.0770 2.2399
-2.8741 0.8493 2.2399
-2.9330 0.6161 2.2399
-2.9729 0.3790 2.2399
-2.9937 0.1394 2.2399
-2.9953 -0.1011 2.2399
-2.9775 -0.3409 2.2399
-2.9406 -0.5785 2.2399
-2.8848 -0.8124 2.2399
-2.8103 -1.0411 2.2399
-2.7178 -1.2631 2.2399
-2.6078 -1.4769 2.2399
-2.4810 -1.6813 2.2399
-0.7749 -0.6213 0.7423
-0.7225 -0.6813 0.7422
-0.6654 -0.7370 0.7421
-0.6041 -0.7879 0.7420
-0.5390 -0.8337 0.7419
-0.4703 -0.8741 0.7419
-0.3987 -0.9089 0.7418
-0.3245 -0.9379 0.7417
-0.2483 -0.9608 0.7417
-0.1704 -0.9776 0.7417
-0.0915 -0.9881 0.7417
-0.0120 -0.9922 0.7417
0.0676 -0.9900 0.7417
0.1468 -0.9814 0.7417
0.2250 -0.9665 0.7417
0.3018 -0.9454 0.7417
0.3766 -0.9183 0.7418
-0.0439 -0.9353 0.7418
0.0312 -0.9358 0.7418
0.1061 -0.9303 0.7418
0.1804 -0.9188 0.7418
0.2535 -0.9014 0.7418
0.3250 -0.8782 0.7419
0.3944 -0.8494 0.7419
0.4612 -0.8151 0.7420
0.5252 -0.7756 0.7421
0.5857 -0.7311 0.7421
0.6425 -0.6819 0.7422
0.6952 -0.6282 0.7423
0.7435 -0.5706 0.7424
0.7869 -0.5092 0.7425
2.4893 -1.3407 2.2399
2.5888 -1.1368 2.2399
2.6716 -0.9256 2.2399
2.7372 -0.7084 2.2399
2.7852 -0.4867 2.2399
2.8152 -0.2618 2.2399
2.8272 -0.0352 2.2399
2.8209 0.1916 2.2399
2.7965 0.4171 2.2399
2.7540 0.6400 2.2399
2.6938 0.8587 2.2399
2.6163 1.0719 2.2399
2.5220 1.2782 2.2399
2.4113 1.4763 2.2399
0.7596 0.5534 0.7445
0.7128 0.6126 0.7446
0.6615 0.6679 0.7447
0.6059 0.7188 0.7448
0.5464 0.7652 0.7449
0.4833 0.8066 0.7450
0.4172 0.8429 0.7450
0.3483 0.8736 0.7451
0.2771 0.8988 0.7451
0.2042 0.9182 0.7452
0.1299 0.9316 0.7452
0.0548 0.9391 0.7452
-0.0207 0.9404 0.7452
-0.0960 0.9357 0.7452
-0.1707 0.9250 0.7452
-0.2443 0.9083 0.7451
-0.3163 0.8857 0.7451
-0.3863 0.8575 0.7451
-0.4538 0.8236 0.7450
-0.5183 0.7845 0.7449
-0.5795 0.7404 0.7448
-0.6369 0.6914 0.7447
-0.6902 0.6381 0.7446
-0.7390 0.5806 0.7445
-2.3562 1.5628 2.2399
-2.4739 1.3689 2.2399
-2.5757 1.1661 2.2399
-2.6609 0.9559 2.2399
-2.7290 0.7395 2.2399
-2.7795 0.5183 2.2399
-2.8121 0.2938 2.2399
-2.8266 0.0674 2.2399
-2.8229 -0.1595 2.2399
-2.8010 -0.3853 2.2399
-2.7611 -0.6086 2.2399
-2.7034 -0.8281 2.2399
-2.6283 -1.0421 2.2399
-2.5363 -1.2495 2.2399
-2.4280 -1.4489 2.2399
-0.7637 -0.5432 0.7425
-0.7176 -0.6026 0.7424
-0.6669 -0.6581 0.7423
-0.6119 -0.7094 0.7422
-0.5530 -0.7561 0.7421
-0.4905 -0.7979 0.7420
-0.4249 -0.8346 0.7419
-0.3566 -0.8659 0.7419
-0.2860 -0.8916 0.7418
-0.2136 -0.9117 0.7418
-0.1398 -0.9258 0.7418
-0.0651 -0.9340 0.7418
0.0100 -0.9362 0.7418
0.0850 -0.9324 0.7418
0.1595 -0.9226 0.7418
0.2329 -0.9069 0.7418
0.3049 -0.8854 0.7419
0.3750 -0.8581 0.7419
0.4426 -0.8254 0.7420
0.5074 -0.7873 0.7420
0.5689 -0.7442 0.7421
0.6269 -0.6962 0.7422
0.6807 -0.6438 0.7423
0.7303 -0.5873 0.7424
0.7751 -0.5269 0.7425
2.4582 -1.3969 2.2399
2.5623 -1.1953 2.2399
2.6499 -0.9860 2.2399
2.7204 -0.7704 2.2399
2.7734 -0.5498 2.2399
2.8086 -0.3257 2.2399
2.8256 -0.0994 2.2399
2.8245 0.1274 2.2399
2.8052 0.3535 2.2399
2.7678 0.5773 2.2399
2.7126 0.7973 2.2399
2.6400 1.0122 2.2399
2.5503 1.2206 2.2399
2.4442 1.4212 2.2399
0.7719 0.5360 0.7445
0.7265 0.5962 0.7446
0.6765 0.6526 0.7447
0.6221 0.7049 0.7448
0.5636 0.7526 0.7449
0.5015 0.7954 0.7449
0.4362 0.8331 0.7450
0.3680 0.8655 0.7451
0.2974 0.8923 0.7451
0.2250 0.9133 0.7452
0.1510 0.9284 0.7452
0.0761 0.9376 0.7452
0.0007 0.9407 0.7452
-0.0747 0.9377 0.7452
-0.1497 0.9286 0.7452
-0.2236 0.9136 0.7452
-0.2962 0.8927 0.7451
