ply
format ascii 1.0
element vertex 2165
property float32 x
property float32 y
property float32 z
end_header
-10.3663 -6.7560 2.0384
-9.7889 -7.5685 2.0384
-9.1480 -8.3318 2.0384
-8.4477 -9.0411 2.0384
-7.6926 -9.6917 2.0384
-6.8875 -10.2794 2.0384
-6.0378 -10.8005 2.0384
-5.1489 -11.2514 2.0384
-4.2266 -11.6293 2.0384
-3.2769 -11.9318 2.0384
-2.3059 -12.1568 2.0384
-0.8168 -7.6133 1.2614
-0.2004 -7.6188 1.2556
0.4142 -7.6243 1.2579
1.0352 -7.6299 1.2685
2.6450 -12.0875 2.0384
3.6094 -11.8354 2.0384
4.2100 -10.6462 1.8860
5.0533 -10.2728 1.8860
4.0183 -6.7382 1.2924
6.6748 -9.3832 1.8970
7.4554 -8.8715 1.9090
8.1938 -8.2918 1.9204
8.8834 -7.6473 1.9310
9.5178 -6.9424 1.9407
10.0912 -6.1816 1.9495
10.5979 -5.3706 1.9573
11.0330 -4.5154 1.9639
11.3920 -3.6227 1.9693
11.6714 -2.6997 1.9735
11.8683 -1.7542 1.9764
11.9806 -0.7938 1.9780
12.0072 0.1731 1.9783
11.9478 1.1383 1.9772
11.8031 2.0938 1.9748
11.5775 3.0321 1.9716
11.2553 3.9399 1.9645
10.8104 4.7925 1.9481
10.3570 5.6294 1.9420
9.8347 6.4215 1.9349
9.2483 7.1631 1.9271
8.6031 7.8490 1.9185
7.9049 8.4746 1.9092
7.1597 9.0362 1.8993
6.3739 9.5304 1.8888
5.5779 9.9977 1.8860
4.7551 10.4142 1.8860
4.0132 11.0716 1.9400
3.2667 11.9345 2.0384
2.2956 12.1588 2.0384
1.3095 12.3041 2.0384
0.3149 12.3696 2.0384
-0.6818 12.3548 2.0384
-1.6739 12.2598 2.0384
-2.6553 12.0853 2.0384
-3.6194 11.8324 2.0384
-4.5600 11.5026 2.0384
-5.4710 11.0983 2.0384
-6.3466 10.6220 2.0384
-7.1809 10.0767 2.0384
-7.9687 9.4660 2.0384
-8.7047 8.7939 2.0384
-9.3843 8.0648 2.0384
-10.0030 7.2832 2.0384
-10.5567 6.4545 2.0384
-11.0420 5.5838 2.0384
-11.4556 4.6770 2.0384
-11.7949 3.7398 2.0384
-12.0576 2.7783 2.0384
-12.2421 1.7988 2.0384
-12.3472 0.8076 2.0384
-12.3721 -0.1888 2.0384
-12.3168 -1.1840 2.0384
-12.1815 -2.1716 2.0384
-11.9672 -3.1450 2.0384
-11.6752 -4.0980 2.0384
-11.3075 -5.0244 2.0384
-10.8664 -5.9182 2.0384
-10.3548 -6.7736 2.0384
-9.7760 -7.5849 2.0384
-9.1338 -8.3473 2.0384
-8.4323 -9.0554 2.0384
-7.6761 -9.7047 2.0384
-6.8701 -10.2911 2.0384
-6.0195 -10.8109 2.0384
-5.1298 -11.2601 2.0384
-4.2069 -11.6365 2.0384
-3.2566 -11.9373 2.0384
-2.2852 -12.1607 2.0384
-0.8037 -7.6134 1.2612
-0.1875 -7.6189 1.2555
0.4272 -7.6244 1.2580
1.0484 -7.6300 1.2688
2.6655 -12.0830 2.0384
3.6294 -11.8293 2.0384
4.2281 -10.6391 1.8860
5.0707 -10.2643 1.8860
4.0297 -6.7313 1.2924
6.6916 -9.3732 1.8973
7.4714 -8.8600 1.9093
8.2088 -8.2788 1.9206
8.8973 -7.6331 1.9312
9.5306 -6.9269 1.9409
-7.7884 -7.0694 2.0384
-7.1941 -7.6733 2.0384
-6.5531 -8.2275 2.0384
-5.8697 -8.7282 2.0384
-5.1481 -9.1723 2.0384
-4.3931 -9.5569 2.0384
-3.6097 -9.8795 2.0384
-2.8028 -10.1380 2.0384
-1.9777 -10.3307 2.0384
-0.8298 -7.6131 1.4841
-0.2134 -7.6186 1.4770
0.4012 -7.6241 1.4796
1.0220 -7.6296 1.4918
2.2310 -10.2790 2.0384
3.0511 -10.0661 2.0384
3.7879 -9.6264 2.0048
4.2808 -8.7399 1.8860
3.9760 -6.6931 1.5087
5.6277 -7.9397 1.8860
6.2626 -7.4779 1.8903
6.8786 -6.9845 1.8998
7.4529 -6.4380 1.9086
7.9806 -5.8419 1.9167
8.4570 -5.2003 1.9240
8.8777 -4.5178 1.9304
9.2387 -3.7993 1.9359
9.5367 -3.0505 1.9404
9.7687 -2.2771 1.9439
9.9327 -1.4853 1.9463
10.0269 -0.6815 1.9477
10.0504 0.1278 1.9479
10.0031 0.9359 1.9470
9.8853 1.7363 1.9451
9.6984 2.5223 1.9420
9.4441 3.2879 1.9380
9.1256 4.0271 1.9330
8.7359 4.7291 1.9251
8.2812 5.3871 1.9146
7.7941 6.0156 1.9080
7.2573 6.5986 1.9009
6.6752 7.1320 1.8931
6.0529 7.6127 1.8848
5.4240 8.0803 1.8860
4.7560 8.4906 1.8860
4.0572 8.8459 1.8860
3.6013 9.8826 2.0384
2.7942 10.1404 2.0384
1.9689 10.3324 2.0384
1.1309 10.4574 2.0384
0.2855 10.5144 2.0384
-0.5617 10.5033 2.0384
-1.4053 10.4240 2.0384
-2.2397 10.2771 2.0384
-3.0596 10.0635 2.0384
-3.8597 9.7846 2.0384
-4.6347 9.4422 2.0384
-5.3797 9.0385 2.0384
-6.0897 8.5762 2.0384
-6.7602 8.0582 2.0384
-7.3869 7.4879 2.0384
-7.9656 6.8691 2.0384
-8.4926 6.2056 2.0384
-8.9646 5.5020 2.0384
-9.3783 4.7626 2.0384
-9.7312 3.9923 2.0384
-10.0210 3.1961 2.0384
-10.2457 2.3791 2.0384
-10.4040 1.5468 2.0384
-10.4947 0.7043 2.0384
-10.5173 -0.1427 2.0384
-10.4717 -0.9887 2.0384
-10.3582 -1.8284 2.0384
-10.1774 -2.6561 2.0384
-9.9306 -3.4667 2.0384
-9.6194 -4.2545 2.0384
-9.2457 -5.0152 2.0384
-8.8120 -5.7431 2.0384
-8.3212 -6.4337 2.0384
-7.7764 -7.0826 2.0384
-7.1811 -7.6855 2.0384
-6.5392 -8.2386 2.0384
-5.8548 -8.7382 2.0384
-5.1325 -9.1811 2.0384
-4.3769 -9.5644 2.0384
-3.5929 -9.8856 2.0384
-2.7856 -10.1428 2.0384
-1.9601 -10.3341 2.0384
-0.8168 -7.6132 1.4839
-0.2004 -7.6187 1.4770
0.4142 -7.6242 1.4797
1.0352 -7.6298 1.4922
2.2484 -10.2752 2.0384
3.0682 -10.0609 2.0384
3.7897 -9.5834 1.9972
4.2956 -8.7326 1.8860
3.9860 -6.6840 1.5082
5.6411 -7.9302 1.8860
6.2760 -7.4681 1.8905
6.8911 -6.9735 1.9000
7.4645 -6.4259 1.9088
7.9912 -5.8288 1.9169
8.4664 -5.1863 1.9241
8.8859 -4.5030 1.9305
9.2456 -3.7839 1.9360
9.5422 -3.0344 1.9405
9.7729 -2.2606 1.9440
9.9354 -1.4684 1.9464
10.0281 -0.6644 1.9477
10.0501 0.1449 1.9479
10.0013 0.9529 1.9470
9.8821 1.7530 1.9450
9.6937 2.5387 1.9420
9.4380 3.3037 1.9379
9.1183 4.0424 1.9330
8.7266 4.7432 1.9248
8.2715 5.4008 1.9144
7.7833 6.0284 1.9079
7.2455 6.6103 1.9007
6.6625 7.1427 1.8929
6.0394 7.6222 1.8846
5.4102 8.0895 1.8860
4.7416 8.4987 1.8860
4.0422 8.8528 1.8860
3.5845 9.8887 2.0384
2.7769 10.1451 2.0384
1.9514 10.3357 2.0384
1.1131 10.4593 2.0384
0.2677 10.5149 2.0384
-0.5795 10.5023 2.0384
-1.4230 10.4216 2.0384
-2.2572 10.2733 2.0384
-3.0767 10.0583 2.0384
-3.8763 9.7780 2.0384
-4.6507 9.4343 2.0384
-5.3950 9.0293 2.0384
-6.1043 8.5658 2.0384
-6.7739 8.0467 2.0384
-7.3996 7.4754 2.0384
-7.9772 6.8556 2.0384
-8.5032 6.1912 2.0384
-8.9739 5.4867 2.0384
-9.3864 4.7466 2.0384
-9.7380 3.9757 2.0384
-10.0264 3.1791 2.0384
-10.2497 2.3617 2.0384
-10.4066 1.5291 2.0384
-10.4959 0.6865 2.0384
-10.5171 -0.1605 2.0384
-10.4700 -1.0065 2.0384
-10.3551 -1.8459 2.0384
-10.1729 -2.6734 2.0384
-9.9247 -3.4835 2.0384
-9.6121 -4.2709 2.0384
-9.2372 -5.0309 2.0384
-8.8023 -5.7580 2.0384
-8.3103 -6.4478 2.0384
-7.7643 -7.0958 2.0384
-7.1680 -7.6977 2.0384
-6.5252 -8.2497 2.0384
-5.8400 -8.7481 2.0384
-5.1169 -9.1898 2.0384
-4.3607 -9.5718 2.0384
-3.5761 -9.8917 2.0384
-2.7683 -10.1475 2.0384
-1.9426 -10.3374 2.0384
-0.8037 -7.6133 1.4836
-0.1875 -7.6188 1.4769
0.4272 -7.6243 1.4799
1.0484 -7.6299 1.4925
2.2659 -10.2713 2.0384
3.0852 -10.0557 2.0384
3.7916 -9.5406 1.9896
4.3104 -8.7253 1.8860
3.9959 -6.6748 1.5076
5.6546 -7.9206 1.8860
6.2894 -7.4582 1.8907
6.9036 -6.9625 1.9002
7.4761 -6.4138 1.9090
8.0018 -5.8157 1.9170
-6.7632 -6.1389 2.0384
-6.2472 -6.6633 2.0384
-5.6906 -7.1445 2.0384
-5.0971 -7.5793 2.0384
-4.4705 -7.9650 2.0384
-3.8149 -8.2990 2.0384
-3.1345 -8.5791 2.0384
-2.4338 -8.8036 2.0384
-1.7174 -8.9709 2.0384
-0.8298 -7.6130 1.7091
-0.2134 -7.6185 1.7009
0.4012 -7.6240 1.7038
1.0219 -7.6295 1.7179
1.9373 -8.9260 2.0384
2.6495 -8.7411 2.0384
3.3444 -8.4995 2.0384
3.8192 -7.7974 1.9377
3.9567 -6.6606 1.7289
4.8869 -6.8947 1.8860
5.4260 -6.4789 1.8860
5.9262 -6.0174 1.8848
6.4168 -5.5430 1.8924
6.8672 -5.0268 1.8993
7.2732 -4.4724 1.9055
7.6314 -3.8836 1.9110
7.9386 -3.2647 1.9156
8.1920 -2.6204 1.9195
8.3892 -1.9555 1.9224
8.5285 -1.2753 1.9245
8.6085 -0.5851 1.9256
8.6286 0.1097 1.9258
8.5885 0.8036 1.9251
8.4886 1.4909 1.9234
8.3299 2.1664 1.9208
8.1139 2.8248 1.9174
7.8425 3.4609 1.9131
7.5183 4.0699 1.9079
7.1441 4.6474 1.9020
6.7225 5.1885 1.8952
6.2587 5.6906 1.8878
5.7749 6.1700 1.8860
5.2595 6.6148 1.8860
4.7100 7.0167 1.8860
4.1300 7.3730 1.8860
3.8078 8.3022 2.0384
3.1272 8.5818 2.0384
2.4264 8.8056 2.0384
1.7097 8.9724 2.0384
0.9820 9.0809 2.0384
0.2479 9.1304 2.0384
-0.4878 9.1208 2.0384
-1.2203 9.0519 2.0384
-1.9449 8.9243 2.0384
-2.6569 8.7388 2.0384
-3.3517 8.4966 2.0384
-4.0247 8.1993 2.0384
-4.6716 7.8488 2.0384
-5.2881 7.4473 2.0384
-5.8704 6.9975 2.0384
-6.4146 6.5023 2.0384
-6.9171 5.9649 2.0384
-7.3748 5.3888 2.0384
-7.7846 4.7777 2.0384
-8.1439 4.1357 2.0384
-8.4503 3.4668 2.0384
-8.7019 2.7754 2.0384
-8.8971 2.0660 2.0384
-9.0345 1.3432 2.0384
-9.1133 0.6116 2.0384
-9.1330 -0.1239 2.0384
-9.0934 -0.8586 2.0384
-8.9948 -1.5877 2.0384
-8.8378 -2.3065 2.0384
-8.6235 -3.0104 2.0384
-8.3532 -3.6947 2.0384
-8.0287 -4.3550 2.0384
-7.6521 -4.9871 2.0384
-7.2259 -5.5869 2.0384
-6.7528 -6.1503 2.0384
-6.2358 -6.6739 2.0384
-5.6784 -7.1541 2.0384
-5.0842 -7.5880 2.0384
-4.4569 -7.9726 2.0384
-3.8008 -8.3055 2.0384
-3.1200 -8.5844 2.0384
-2.4189 -8.8077 2.0384
-1.7021 -8.9738 2.0384
-0.8168 -7.6131 1.7088
-0.2004 -7.6186 1.7008
0.4142 -7.6241 1.7040
1.0352 -7.6296 1.7183
1.9525 -8.9227 2.0384
2.6643 -8.7366 2.0384
3.3589 -8.4938 2.0384
3.8206 -7.7668 1.9317
3.9666 -6.6515 1.7283
4.8986 -6.8864 1.8860
5.4370 -6.4697 1.8860
5.9369 -6.0079 1.8850
6.4268 -5.5325 1.8925
6.8762 -5.0155 1.8994
7.2813 -4.4603 1.9056
7.6384 -3.8709 1.9111
7.9445 -3.2514 1.9157
8.1967 -2.6066 1.9195
8.3927 -1.9413 1.9225
8.5308 -1.2609 1.9245
8.6096 -0.5705 1.9256
8.6284 0.1244 1.9258
8.5870 0.8181 1.9251
8.4859 1.5053 1.9234
8.3259 2.1805 1.9208
8.1087 2.8384 1.9173
7.8362 3.4740 1.9130
7.5109 4.0824 1.9078
7.1357 4.6592 1.9019
6.7089 5.1963 1.8938
6.2486 5.7008 1.8877
5.7644 6.1798 1.8860
5.2483 6.6238 1.8860
4.6981 7.0247 1.8860
4.1174 7.3800 1.8860
3.7937 8.3087 2.0384
3.1127 8.5871 2.0384
2.4114 8.8097 2.0384
1.6945 8.9753 2.0384
0.9666 9.0825 2.0384
0.2324 9.1309 2.0384
-0.5033 9.1200 2.0384
-1.2357 9.0499 2.0384
-1.9601 8.9210 2.0384
-2.6717 8.7343 2.0384
-3.3661 8.4910 2.0384
-4.0386 8.1925 2.0384
-4.6849 7.8408 2.0384
-5.3008 7.4383 2.0384
-5.8823 6.9876 2.0384
-6.4256 6.4914 2.0384
-6.9272 5.9532 2.0384
-7.3839 5.3763 2.0384
-7.7927 4.7645 2.0384
-8.1509 4.1218 2.0384
-8.4562 3.4524 2.0384
-8.7066 2.7606 2.0384
-8.9006 2.0509 2.0384
-9.0368 1.3278 2.0384
-9.1143 0.5961 2.0384
-9.1328 -0.1394 2.0384
-9.0919 -0.8740 2.0384
-8.9921 -1.6030 2.0384
-8.8339 -2.3215 2.0384
-8.6183 -3.0250 2.0384
-8.3469 -3.7088 2.0384
-8.0213 -4.3687 2.0384
-7.6437 -5.0001 2.0384
-7.2164 -5.5991 2.0384
-6.7423 -6.1618 2.0384
-6.2245 -6.6845 2.0384
-5.6663 -7.1638 2.0384
-5.0713 -7.5966 2.0384
-4.4434 -7.9801 2.0384
-3.7867 -8.3119 2.0384
-3.1054 -8.5897 2.0384
-2.4040 -8.8118 2.0384
-1.6869 -8.9767 2.0384
-0.8037 -7.6132 1.7085
-0.1875 -7.6187 1.7008
0.4272 -7.6242 1.7042
1.0484 -7.6297 1.7187
1.9676 -8.9194 2.0384
2.6791 -8.7320 2.0384
3.3733 -8.4881 2.0384
3.8220 -7.7366 1.9258
3.9770 -6.6432 1.7279
4.9103 -6.8780 1.8860
5.4480 -6.4605 1.8860
5.9476 -5.9983 1.8852
6.4367 -5.5221 1.8927
6.8852 -5.0042 1.8996
-5.9677 -5.4167 2.0384
-5.5124 -5.8796 2.0384
-5.0213 -6.3042 2.0384
-4.4976 -6.6879 2.0384
-3.9447 -7.0282 2.0384
-3.3662 -7.3229 2.0384
-2.7659 -7.5701 2.0384
-2.1476 -7.7681 2.0384
-1.5154 -7.9158 2.0384
-0.8733 -8.0121 2.0384
-0.2256 -8.0564 2.0384
0.4236 -8.0484 2.0384
1.0700 -7.9882 2.0384
1.7095 -7.8761 2.0384
2.3379 -7.7130 2.0384
2.9511 -7.4998 2.0384
3.5452 -7.2379 2.0384
3.8396 -6.4635 1.9014
4.3121 -6.0837 1.8860
4.7878 -5.7169 1.8860
5.2324 -5.3130 1.8860
5.6431 -4.8746 1.8860
6.0170 -4.4045 1.8860
6.3702 -3.9171 1.8914
6.6816 -3.4002 1.8961
6.9484 -2.8575 1.9002
7.1684 -2.2930 1.9035
7.3396 -1.7109 1.9061
7.4604 -1.1156 1.9079
7.5299 -0.5118 1.9088
7.5474 0.0960 1.9090
7.5126 0.7029 1.9084
7.4261 1.3043 1.9069
7.2885 1.8956 1.9047
7.1010 2.4722 1.9017
6.8655 3.0297 1.8980
6.5838 3.5641 1.8935
6.2586 4.0714 1.8884
5.9032 4.5562 1.8860
5.5173 5.0165 1.8860
5.0956 5.4443 1.8860
4.6409 5.8368 1.8860
4.1561 6.1914 1.8860
3.9387 7.0316 2.0384
3.3600 7.3258 2.0384
2.7594 7.5724 2.0384
2.1410 7.7700 2.0384
1.5087 7.9171 2.0384
0.8665 8.0128 2.0384
0.2188 8.0566 2.0384
-0.4304 8.0480 2.0384
-1.0768 7.9873 2.0384
-1.7162 7.8747 2.0384
-2.3444 7.7110 2.0384
-2.9575 7.4973 2.0384
-3.5513 7.2349 2.0384
-4.1221 6.9256 2.0384
-4.6662 6.5714 2.0384
-5.1799 6.1745 2.0384
-5.6601 5.7375 2.0384
-6.1036 5.2633 2.0384
-6.5074 4.7550 2.0384
-6.8690 4.2158 2.0384
-7.1860 3.6492 2.0384
-7.4564 3.0590 2.0384
-7.6785 2.4489 2.0384
-7.8507 1.8230 2.0384
-7.9719 1.1852 2.0384
-8.0414 0.5397 2.0384
-8.0588 -0.1093 2.0384
-8.0238 -0.7576 2.0384
-7.9368 -1.4010 2.0384
-7.7983 -2.0352 2.0384
-7.6092 -2.6563 2.0384
-7.3707 -3.2601 2.0384
-7.0844 -3.8428 2.0384
-6.7521 -4.4006 2.0384
-6.3760 -4.9297 2.0384
-5.9585 -5.4269 2.0384
-5.5024 -5.8889 2.0384
-5.0106 -6.3127 2.0384
-4.4862 -6.6955 2.0384
-3.9327 -7.0349 2.0384
-3.3537 -7.3286 2.0384
-2.7530 -7.5748 2.0384
-2.1344 -7.7718 2.0384
-1.5019 -7.9183 2.0384
-0.8597 -8.0135 2.0384
-0.2119 -8.0567 2.0384
0.4372 -8.0477 2.0384
1.0836 -7.9864 2.0384
1.7228 -7.8732 2.0384
2.3510 -7.7090 2.0384
2.9638 -7.4948 2.0384
3.5574 -7.2319 2.0384
3.8433 -6.4451 1.8978
4.3225 -6.0764 1.8860
4.7975 -5.7088 1.8860
5.2414 -5.3041 1.8860
5.6514 -4.8650 1.8860
6.0246 -4.3944 1.8860
6.3772 -3.9065 1.8915
6.6877 -3.3890 1.8962
6.9536 -2.8458 1.9003
7.1725 -2.2809 1.9036
7.3427 -1.6984 1.9061
7.4624 -1.1029 1.9079
7.5308 -0.4990 1.9089
7.5472 0.1088 1.9090
7.5113 0.7156 1.9084
7.4237 1.3169 1.9069
7.2850 1.9079 1.9047
7.0966 2.4841 1.9016
6.8600 3.0412 1.8979
6.5774 3.5751 1.8934
6.2513 4.0817 1.8883
5.8954 4.5662 1.8860
5.5088 5.0259 1.8860
5.0864 5.4530 1.8860
4.6310 5.8447 1.8860
4.1455 6.1984 1.8860
3.9268 7.0382 2.0384
3.3475 7.3315 2.0384
2.7466 7.5771 2.0384
2.1278 7.7736 2.0384
1.4952 7.9196 2.0384
0.8529 8.0143 2.0384
0.2051 8.0569 2.0384
-0.4441 8.0473 2.0384
-1.0903 7.9854 2.0384
-1.7295 7.8718 2.0384
-2.3575 7.7070 2.0384
-2.9702 7.4923 2.0384
-3.5636 7.2289 2.0384
-4.1339 6.9186 2.0384
-4.6773 6.5635 2.0384
-5.1904 6.1657 2.0384
-5.6698 5.7279 2.0384
-6.1125 5.2530 2.0384
-6.5154 4.7440 2.0384
-6.8761 4.2041 2.0384
-7.1922 3.6370 2.0384
-7.4616 3.0464 2.0384
-7.6826 2.4359 2.0384
-7.8537 1.8096 2.0384
-7.9739 1.1716 2.0384
-8.0423 0.5260 2.0384
-8.0586 -0.1230 2.0384
-8.0225 -0.7712 2.0384
-7.9344 -1.4144 2.0384
-7.7949 -2.0485 2.0384
-7.6047 -2.6692 2.0384
-7.3652 -3.2726 2.0384
-7.0779 -3.8548 2.0384
-6.7446 -4.4120 2.0384
-6.3676 -4.9406 2.0384
-5.9493 -5.4370 2.0384
-5.4924 -5.8983 2.0384
-4.9998 -6.3212 2.0384
-4.4748 -6.7031 2.0384
-3.9208 -7.0415 2.0384
-3.3413 -7.3343 2.0384
-2.7401 -7.5794 2.0384
-2.1212 -7.7754 2.0384
-1.4885 -7.9209 2.0384
-0.8461 -8.0150 2.0384
-0.1983 -8.0571 2.0384
0.4509 -8.0469 2.0384
1.0971 -7.9845 2.0384
1.7362 -7.8703 2.0384
2.3640 -7.7050 2.0384
2.9765 -7.4897 2.0384
3.5697 -7.2259 2.0384
3.8470 -6.4263 1.8943
4.3328 -6.0691 1.8860
4.8072 -5.7006 1.8860
5.2504 -5.2952 1.8860
5.6596 -4.8554 1.8860
6.0327 -4.3846 1.8862
-5.3317 -4.8395 2.0384
-4.9248 -5.2529 2.0384
-4.4861 -5.6322 2.0384
-4.0182 -5.9750 2.0384
-3.5242 -6.2791 2.0384
-3.0074 -6.5424 2.0384
-2.4711 -6.7632 2.0384
-1.9187 -6.9402 2.0384
-1.3539 -7.0721 2.0384
-0.7802 -7.1581 2.0384
-0.2016 -7.1977 2.0384
0.3784 -7.1905 2.0384
0.9559 -7.1368 2.0384
1.5273 -7.0367 2.0384
2.0887 -6.8909 2.0384
2.6365 -6.7004 2.0384
3.1673 -6.4665 2.0384
3.6775 -6.1906 2.0384
3.8611 -5.4475 1.8902
4.2775 -5.1076 1.8860
4.6747 -4.7467 1.8860
5.0416 -4.3550 1.8860
5.3758 -3.9351 1.8860
5.6751 -3.4897 1.8860
5.9326 -3.0191 1.8844
6.1681 -2.5366 1.8880
6.3621 -2.0351 1.8910
6.5130 -1.5182 1.8932
6.6196 -0.9899 1.8948
6.6808 -0.4541 1.8957
6.6962 0.0851 1.8958
6.6657 0.6237 1.8952
6.5894 1.1574 1.8940
6.4682 1.6822 1.8920
6.3030 2.1943 1.8894
6.0951 2.6897 1.8860
5.8588 3.1716 1.8860
5.5845 3.6329 1.8860
5.2740 4.0706 1.8860
4.9292 4.4818 1.8860
4.5525 4.8641 1.8860
4.1462 5.2147 1.8860
3.9477 5.8810 2.0052
3.5189 6.2821 2.0384
3.0018 6.5449 2.0384
2.4653 6.7653 2.0384
1.9128 6.9418 2.0384
1.3478 7.0732 2.0384
0.7742 7.1588 2.0384
0.1955 7.1978 2.0384
-0.3845 7.1902 2.0384
-0.9620 7.1359 2.0384
-1.5332 7.0354 2.0384
-2.0945 6.8891 2.0384
-2.6422 6.6982 2.0384
-3.1728 6.4638 2.0384
-3.6828 6.1875 2.0384
-4.1688 5.8710 2.0384
-4.6278 5.5164 2.0384
-5.0568 5.1260 2.0384
-5.4530 4.7023 2.0384
-5.8138 4.2482 2.0384
-6.1368 3.7665 2.0384
-6.4201 3.2603 2.0384
-6.6617 2.7330 2.0384
-6.8600 2.1879 2.0384
-7.0139 1.6287 2.0384
-7.1222 1.0589 2.0384
-7.1843 0.4822 2.0384
-7.1998 -0.0977 2.0384
-7.1686 -0.6768 2.0384
-7.0909 -1.2516 2.0384
-6.9671 -1.8183 2.0384
-6.7982 -2.3732 2.0384
-6.5851 -2.9126 2.0384
-6.3293 -3.4332 2.0384
-6.0324 -3.9315 2.0384
-5.6964 -4.4043 2.0384
-5.3234 -4.8485 2.0384
-4.9159 -5.2612 2.0384
-4.4765 -5.6398 2.0384
-4.0080 -5.9819 2.0384
-3.5136 -6.2851 2.0384
-2.9963 -6.5475 2.0384
-2.4596 -6.7674 2.0384
-1.9069 -6.9434 2.0384
-1.3418 -7.0744 2.0384
-0.7681 -7.1594 2.0384
-0.1893 -7.1980 2.0384
0.3906 -7.1899 2.0384
0.9681 -7.1351 2.0384
1.5392 -7.0341 2.0384
2.1004 -6.8873 2.0384
2.6479 -6.6959 2.0384
3.1783 -6.4611 2.0384
3.6880 -6.1843 2.0384
3.8643 -5.4323 1.8873
4.2862 -5.1003 1.8860
4.6828 -4.7388 1.8860
5.0490 -4.3465 1.8860
5.3825 -3.9260 1.8860
5.6810 -3.4800 1.8860
5.9380 -3.0091 1.8845
6.1726 -2.5262 1.8881
6.3657 -2.0243 1.8910
6.5157 -1.5072 1.8933
6.6213 -0.9786 1.8948
6.6816 -0.4427 1.8957
6.6961 0.0965 1.8958
6.6645 0.6349 1.8952
6.5873 1.1685 1.8939
6.4651 1.6932 1.8920
6.2990 2.2049 1.8893
6.0904 2.7000 1.8860
5.8534 3.1815 1.8860
5.5783 3.6423 1.8860
5.2671 4.0795 1.8860
4.9216 4.4902 1.8860
4.5443 4.8718 1.8860
4.1374 5.2217 1.8860
3.9470 5.9016 2.0099
3.5082 6.2880 2.0384
2.9907 6.5500 2.0384
2.4538 6.7695 2.0384
1.9010 6.9450 2.0384
1.3358 7.0755 2.0384
0.7620 7.1601 2.0384
0.1832 7.1982 2.0384
-0.3967 7.1896 2.0384
-0.9741 7.1343 2.0384
-1.5452 7.0328 2.0384
-2.1062 6.8856 2.0384
-2.6536 6.6937 2.0384
-3.1837 6.4584 2.0384
-3.6932 6.1812 2.0384
-4.1788 5.8639 2.0384
-4.6372 5.5085 2.0384
-5.0655 5.1174 2.0384
-5.4610 4.6931 2.0384
-5.8210 4.2383 2.0384
-6.1432 3.7560 2.0384
-6.4256 3.2494 2.0384
-6.6663 2.7217 2.0384
-6.8637 2.1763 2.0384
-7.0166 1.6168 2.0384
-7.1240 1.0468 2.0384
-7.1851 0.4700 2.0384
-7.1997 -0.1099 2.0384
-7.1675 -0.6890 2.0384
-7.0887 -1.2637 2.0384
-6.9640 -1.8301 2.0384
-6.7941 -2.3847 2.0384
-6.5801 -2.9238 2.0384
-6.3235 -3.4440 2.0384
-6.0257 -3.9418 2.0384
-5.6889 -4.4140 2.0384
-5.3152 -4.8575 2.0384
-4.9070 -5.2696 2.0384
-4.4669 -5.6474 2.0384
-3.9979 -5.9887 2.0384
-3.5029 -6.2910 2.0384
-2.9852 -6.5526 2.0384
-2.4481 -6.7716 2.0384
-1.8951 -6.9466 2.0384
-1.3298 -7.0766 2.0384
-0.7559 -7.1607 2.0384
-0.1771 -7.1983 2.0384
0.4028 -7.1892 2.0384
0.9802 -7.1335 2.0384
1.5511 -7.0314 2.0384
2.1121 -6.8838 2.0384
2.6593 -6.6914 2.0384
3.1892 -6.4557 2.0384
3.6985 -6.1780 2.0384
3.8709 -5.4221 1.8860
4.2948 -5.0930 1.8860
4.6908 -4.7308 1.8860
5.0564 -4.3379 1.8860
5.3891 -3.9169 1.8860
-4.8107 -4.3666 2.0384
-4.4436 -4.7396 2.0384
-4.0477 -5.0819 2.0384
-3.6255 -5.3912 2.0384
-3.1798 -5.6655 2.0384
-2.7135 -5.9031 2.0384
-2.2296 -6.1023 2.0384
-1.7312 -6.2620 2.0384
-1.2216 -6.3810 2.0384
-0.7040 -6.4586 2.0384
-0.1819 -6.4943 2.0384
0.3414 -6.4879 2.0384
0.8625 -6.4394 2.0384
1.3780 -6.3491 2.0384
1.8846 -6.2175 2.0384
2.3789 -6.0457 2.0384
2.8578 -5.8346 2.0384
3.3181 -5.5856 2.0384
3.7569 -5.3005 2.0384
3.8692 -4.6200 1.8907
4.2179 -4.2829 1.8860
4.5490 -3.9295 1.8860
4.8505 -3.5506 1.8860
5.1205 -3.1487 1.8860
5.3573 -2.7263 1.8860
5.5594 -2.2863 1.8860
5.7254 -1.8314 1.8860
5.8542 -1.3646 1.8860
5.9450 -0.8890 1.8860
5.9941 -0.4074 1.8850
6.0078 0.0764 1.8851
5.9806 0.5596 1.8846
5.9205 1.0399 1.8860
5.8176 1.5130 1.8860
5.6770 1.9764 1.8860
5.4995 2.4269 1.8860
5.2863 2.8617 1.8860
5.0388 3.2779 1.8860
4.7586 3.6728 1.8860
4.4476 4.0439 1.8860
4.1156 4.3973 1.8897
3.9415 4.9572 1.9870
3.6210 5.3943 2.0384
3.1750 5.6682 2.0384
2.7085 5.9054 2.0384
2.2244 6.1042 2.0384
1.7259 6.2635 2.0384
1.2161 6.3821 2.0384
0.6985 6.4592 2.0384
0.1764 6.4945 2.0384
-0.3469 6.4876 2.0384
-0.8680 6.4386 2.0384
-1.3834 6.3479 2.0384
-1.8899 6.2159 2.0384
-2.3840 6.0437 2.0384
-2.8627 5.8322 2.0384
-3.3229 5.5828 2.0384
-3.7614 5.2973 2.0384
-4.1756 4.9773 2.0384
-4.5627 4.6251 2.0384
-4.9201 4.2428 2.0384
-5.2457 3.8331 2.0384
-5.5372 3.3984 2.0384
-5.7927 2.9417 2.0384
-6.0107 2.4655 2.0384
-6.1897 1.9741 2.0384
-6.3285 1.4695 2.0384
-6.4263 0.9554 2.0384
-6.4823 0.4351 2.0384
-6.4963 -0.0881 2.0384
-6.4681 -0.6107 2.0384
-6.3980 -1.1293 2.0384
-6.2863 -1.6406 2.0384
-6.1339 -2.1412 2.0384
-5.9416 -2.6280 2.0384
-5.7108 -3.0977 2.0384
-5.4430 -3.5473 2.0384
-5.1398 -3.9739 2.0384
-4.8032 -4.3747 2.0384
-4.4355 -4.7471 2.0384
-4.0391 -5.0887 2.0384
-3.6164 -5.3973 2.0384
-3.1702 -5.6709 2.0384
-2.7035 -5.9077 2.0384
-2.2192 -6.1061 2.0384
-1.7206 -6.2649 2.0384
-1.2107 -6.3831 2.0384
-0.6930 -6.4598 2.0384
-0.1708 -6.4946 2.0384
0.3525 -6.4873 2.0384
0.8735 -6.4379 2.0384
1.3888 -6.3467 2.0384
1.8951 -6.2143 2.0384
2.3892 -6.0416 2.0384
2.8677 -5.8297 2.0384
3.3276 -5.5800 2.0384
3.7659 -5.2941 2.0384
3.8718 -4.6073 1.8882
4.2252 -4.2757 1.8860
4.5556 -3.9218 1.8860
4.8565 -3.5424 1.8860
5.1259 -3.1400 1.8860
5.3620 -2.7172 1.8860
5.5633 -2.2768 1.8860
5.7285 -1.8217 1.8860
5.8565 -1.3547 1.8860
5.9465 -0.8789 1.8860
5.9948 -0.3972 1.8850
6.0077 0.0866 1.8851
5.9796 0.5697 1.8846
5.9187 1.0499 1.8860
5.8150 1.5229 1.8860
5.6736 1.9860 1.8860
5.4953 2.4362 1.8860
5.2814 2.8707 1.8860
5.0332 3.2864 1.8860
4.7524 3.6809 1.8860
4.4407 4.0514 1.8860
4.1002 4.3957 1.8860
3.9409 4.9738 1.9910
3.6118 5.4004 2.0384
3.1654 5.6736 2.0384
2.6985 5.9100 2.0384
2.2140 6.1080 2.0384
1.7152 6.2664 2.0384
1.2053 6.3841 2.0384
0.6875 6.4604 2.0384
0.1653 6.4948 2.0384
-0.3580 6.4870 2.0384
-0.8789 6.4372 2.0384
-1.3942 6.3455 2.0384
-1.9004 6.2127 2.0384
-2.3943 6.0396 2.0384
-2.8726 5.8273 2.0384
-3.3323 5.5772 2.0384
-3.7704 5.2909 2.0384
-4.1841 4.9702 2.0384
-4.5705 4.6173 2.0384
-4.9273 4.2345 2.0384
-5.2522 3.8242 2.0384
-5.5429 3.3890 2.0384
-5.7977 2.9319 2.0384
-6.0149 2.4556 2.0384
-6.1930 1.9636 2.0384
-6.3310 1.4588 2.0384
-6.4279 0.9445 2.0384
-6.4830 0.4240 2.0384
-6.4961 -0.0991 2.0384
-6.4671 -0.6217 2.0384
-6.3960 -1.1402 2.0384
-6.2835 -1.6513 2.0384
-6.1302 -2.1517 2.0384
-5.9372 -2.6381 2.0384
-5.7056 -3.1074 2.0384
-5.4369 -3.5566 2.0384
-5.1330 -3.9826 2.0384
-4.7958 -4.3829 2.0384
-4.4275 -4.7547 2.0384
-4.0304 -5.0956 2.0384
-3.6072 -5.4035 2.0384
-3.1606 -5.6762 2.0384
-2.6935 -5.9122 2.0384
-2.2089 -6.1099 2.0384
-1.7099 -6.2678 2.0384
-1.1999 -6.3851 2.0384
-0.6821 -6.4610 2.0384
-0.1598 -6.4949 2.0384
0.3635 -6.4867 2.0384
0.8844 -6.4364 2.0384
1.3996 -6.3443 2.0384
1.9057 -6.2111 2.0384
2.3994 -6.0376 2.0384
2.8776 -5.8248 2.0384
3.3371 -5.5743 2.0384
3.7749 -5.2877 2.0384
3.8751 -4.5952 1.8860
4.2324 -4.2685 1.8860
4.5623 -3.9140 1.8860
4.8625 -3.5341 1.8860
-4.3755 -3.9716 2.0384
-4.0416 -4.3108 2.0384
-3.6815 -4.6222 2.0384
-3.2976 -4.9035 2.0384
-2.8922 -5.1530 2.0384
-2.4681 -5.3691 2.0384
-0.7359 -2.0143 0.7398
-1.5746 -5.6955 2.0384
-1.1111 -5.8038 2.0384
-0.6403 -5.8744 2.0384
-0.1654 -5.9068 2.0384
0.3106 -5.9010 2.0384
0.7845 -5.8569 2.0384
1.2534 -5.7747 2.0384
1.7141 -5.6551 2.0384
2.1637 -5.4988 2.0384
2.5993 -5.3068 2.0384
3.0180 -5.0804 2.0384
3.4171 -4.8210 2.0384
3.7940 -4.5303 2.0384
3.8663 -3.9265 1.9007
4.1375 -3.5740 1.8860
4.4117 -3.2294 1.8860
4.6573 -2.8638 1.8860
4.8727 -2.4797 1.8860
5.0565 -2.0794 1.8860
5.2074 -1.6657 1.8860
5.3246 -1.2412 1.8860
5.4072 -0.8086 1.8860
5.4548 -0.3707 1.8860
5.4669 0.0695 1.8860
5.4436 0.5093 1.8860
5.3849 0.9458 1.8860
5.2913 1.3762 1.8860
5.1634 1.7976 1.8860
5.0020 2.2074 1.8860
4.8081 2.6028 1.8860
4.5830 2.9813 1.8860
4.3282 3.3406 1.8860
4.0452 3.6781 1.8860
3.9339 4.2032 1.9859
3.6776 4.6253 2.0384
3.2934 4.9063 2.0384
2.8878 5.1555 2.0384
2.4635 5.3712 2.0384
2.0232 5.5520 2.0384
1.5697 5.6968 2.0384
1.1061 5.8047 2.0384
0.6353 5.8749 2.0384
0.1604 5.9070 2.0384
-0.3156 5.9007 2.0384
-0.7895 5.8562 2.0384
-1.2583 5.7736 2.0384
-1.7189 5.6536 2.0384
-2.1684 5.4969 2.0384
-2.6038 5.3046 2.0384
-3.0223 5.0778 2.0384
-3.4212 4.8181 2.0384
-3.7979 4.5271 2.0384
-4.1499 4.2067 2.0384
-4.4751 3.8590 2.0384
-4.7711 3.4863 2.0384
-5.0363 3.0910 2.0384
-5.2687 2.6756 2.0384
-5.4670 2.2429 2.0384
-5.6298 1.7955 2.0384
-5.7560 1.3366 2.0384
-5.8449 0.8690 2.0384
-5.8959 0.3957 2.0384
-5.9086 -0.0801 2.0384
-5.8830 -0.5554 2.0384
-5.8192 -1.0272 2.0384
-5.7176 -1.4922 2.0384
-5.5790 -1.9476 2.0384
-5.4041 -2.3903 2.0384
-5.1942 -2.8175 2.0384
-4.9506 -3.2264 2.0384
-4.6748 -3.6144 2.0384
-4.3687 -3.9790 2.0384
-4.0343 -4.3177 2.0384
-3.6737 -4.6283 2.0384
-3.2892 -4.9091 2.0384
-2.8834 -5.1579 2.0384
-2.4589 -5.3732 2.0384
-0.7325 -2.0155 0.7398
-1.5649 -5.6982 2.0384
-1.1012 -5.8056 2.0384
-0.6303 -5.8754 2.0384
-0.1554 -5.9071 2.0384
0.3206 -5.9005 2.0384
0.7944 -5.8555 2.0384
1.2632 -5.7726 2.0384
1.7237 -5.6522 2.0384
2.1730 -5.4951 2.0384
2.6083 -5.3024 2.0384
3.0266 -5.0752 2.0384
3.4253 -4.8152 2.0384
3.8017 -4.5238 2.0384
3.8686 -3.9149 1.8986
4.1435 -3.5670 1.8860
4.4172 -3.2219 1.8860
4.6622 -2.8559 1.8860
4.8769 -2.4714 1.8860
5.0600 -2.0709 1.8860
5.2103 -1.6569 1.8860
5.3267 -1.2321 1.8860
5.4086 -0.7994 1.8860
5.4554 -0.3615 1.8860
5.4668 0.0788 1.8860
5.4427 0.5186 1.8860
5.3833 0.9550 1.8860
5.2890 1.3851 1.8860
5.1603 1.8064 1.8860
4.9982 2.2159 1.8860
4.8036 2.6109 1.8860
4.5779 2.9891 1.8860
4.3225 3.3479 1.8860
4.0390 3.6849 1.8860
3.9335 4.2169 1.9893
3.6698 4.6315 2.0384
3.2851 4.9119 2.0384
2.8791 5.1604 2.0384
2.4544 5.3753 2.0384
2.0138 5.5555 2.0384
1.5601 5.6995 2.0384
1.0963 5.8066 2.0384
0.6253 5.8760 2.0384
0.1504 5.9073 2.0384
-0.3256 5.9002 2.0384
-0.7994 5.8548 2.0384
-1.2681 5.7715 2.0384
-1.7285 5.6507 2.0384
-2.1777 5.4933 2.0384
-2.6128 5.3002 2.0384
-3.0309 5.0727 2.0384
-3.4294 4.8123 2.0384
-3.8056 4.5206 2.0384
-4.1571 4.1996 2.0384
-4.4816 3.8514 2.0384
-4.7771 3.4782 2.0384
-5.0415 3.0824 2.0384
-5.2733 2.6666 2.0384
-5.4708 2.2336 2.0384
-5.6328 1.7860 2.0384
-5.7583 1.3268 2.0384
-5.8464 0.8590 2.0384
-5.8966 0.3857 2.0384
-5.9085 -0.0902 2.0384
-5.8820 -0.5654 2.0384
-5.8174 -1.0370 2.0384
-5.7151 -1.5019 2.0384
-5.5757 -1.9570 2.0384
-5.4001 -2.3994 2.0384
-5.1894 -2.8263 2.0384
-4.9451 -3.2348 2.0384
-4.6687 -3.6224 2.0384
-4.3620 -3.9864 2.0384
-4.0270 -4.3245 2.0384
-3.6658 -4.6347 2.0384
-3.2809 -4.9147 2.0384
-2.8747 -5.1628 2.0384
-2.4498 -5.3774 2.0384
-0.7291 -2.0168 0.7398
-1.5552 -5.7008 2.0384
-1.0913 -5.8075 2.0384
-0.6204 -5.8765 2.0384
-0.1454 -5.9074 2.0384
0.3306 -5.8999 2.0384
0.8044 -5.8542 2.0384
1.2730 -5.7704 2.0384
1.7333 -5.6492 2.0384
2.1824 -5.4914 2.0384
2.6173 -5.2979 2.0384
3.0352 -5.0701 2.0384
3.4334 -4.8094 2.0384
3.8094 -4.5174 2.0384
3.8709 -3.9038 1.8964
4.1496 -3.5599 1.8860
4.4226 -3.2144 1.8860
-4.0060 -3.6362 2.0384
-3.7003 -3.9468 2.0384
-3.3706 -4.2318 2.0384
-3.0191 -4.4894 2.0384
-2.6480 -4.7178 2.0384
-2.2596 -4.9157 2.0384
-0.6741 -1.8449 0.7401
-0.5233 -1.8930 0.7400
-0.3692 -1.9288 0.7399
-0.2128 -1.9522 0.7399
-0.0550 -1.9629 0.7399
0.1032 -1.9610 0.7399
0.2607 -1.9464 0.7399
0.4166 -1.9192 0.7399
0.5697 -1.8796 0.7400
0.7193 -1.8279 0.7401
2.3798 -4.8586 2.0384
2.7631 -4.6513 2.0384
3.1285 -4.4138 2.0384
3.4736 -4.1477 2.0384
3.7962 -3.8547 2.0384
3.8674 -3.3407 1.9255
4.0421 -2.9588 1.8874
4.2640 -2.6220 1.8860
4.4612 -2.2703 1.8860
4.6295 -1.9038 1.8860
4.7677 -1.5250 1.8860
4.8750 -1.1364 1.8860
4.9506 -0.7403 1.8860
4.9941 -0.3394 1.8860
5.0053 0.0637 1.8860
4.9839 0.4663 1.8860
4.9302 0.8659 1.8860
4.8445 1.2600 1.8860
4.7274 1.6458 1.8860
4.5796 2.0210 1.8860
4.4020 2.3830 1.8860
4.1960 2.7296 1.8860
3.9627 3.0585 1.8860
3.9250 3.5688 1.9988
3.6970 3.9500 2.0384
3.3670 4.2347 2.0384
3.0153 4.4920 2.0384
2.6439 4.7201 2.0384
2.2555 4.9176 2.0384
0.6787 1.8626 0.7469
0.5267 1.9114 0.7470
0.3712 1.9477 0.7471
0.2132 1.9714 0.7471
0.1469 5.4082 2.0384
-0.2889 5.4024 2.0384
-0.2649 1.9651 0.7471
-0.4222 1.9373 0.7470
-0.5767 1.8968 0.7470
-0.7274 1.8440 0.7469
-2.3839 4.8566 2.0384
-2.7671 4.6490 2.0384
-3.1323 4.4112 2.0384
-3.4772 4.1448 2.0384
-3.7995 3.8515 2.0384
-4.0972 3.5332 2.0384
-4.3682 3.1919 2.0384
-4.6110 2.8300 2.0384
-4.8238 2.4497 2.0384
-5.0053 2.0535 2.0384
-5.1543 1.6439 2.0384
-5.2699 1.2237 2.0384
-5.3513 0.7956 2.0384
-5.3980 0.3623 2.0384
-5.4097 -0.0734 2.0384
-5.3862 -0.5085 2.0384
-5.3278 -0.9404 2.0384
-5.2348 -1.3662 2.0384
-5.1079 -1.7831 2.0384
-4.9478 -2.1884 2.0384
-4.7556 -2.5796 2.0384
-4.5325 -2.9540 2.0384
-4.2800 -3.3092 2.0384
-3.9998 -3.6430 2.0384
-3.6936 -3.9531 2.0384
-3.3635 -4.2375 2.0384
-3.0115 -4.4945 2.0384
-2.6399 -4.7223 2.0384
-2.2513 -4.9195 2.0384
-0.6710 -1.8461 0.7401
-0.5201 -1.8939 0.7400
-0.3660 -1.9294 0.7399
-0.2095 -1.9525 0.7399
-0.0516 -1.9630 0.7399
0.1065 -1.9608 0.7399
0.2640 -1.9459 0.7399
0.4198 -1.9185 0.7399
0.5729 -1.8787 0.7400
0.7224 -1.8267 0.7401
2.3880 -4.8546 2.0384
2.7710 -4.6466 2.0384
3.1360 -4.4085 2.0384
3.4807 -4.1418 2.0384
3.8027 -3.8482 2.0384
3.8679 -3.3298 1.9230
4.0442 -2.9499 1.8860
4.2685 -2.6148 1.8860
4.4651 -2.2627 1.8860
4.6327 -1.8960 1.8860
4.7703 -1.5169 1.8860
4.8769 -1.1281 1.8860
4.9519 -0.7319 1.8860
4.9947 -0.3309 1.8860
5.0051 0.0722 1.8860
4.9831 0.4748 1.8860
4.9287 0.8743 1.8860
4.8424 1.2682 1.8860
4.7246 1.6538 1.8860
4.5761 2.0287 1.8860
4.3980 2.3905 1.8860
4.1913 2.7367 1.8860
3.9575 3.0652 1.8860
3.9246 3.5806 2.0016
3.6903 3.9562 2.0384
3.3599 4.2404 2.0384
3.0077 4.4971 2.0384
2.6359 4.7246 2.0384
2.2471 4.9214 2.0384
0.6756 1.8637 0.7469
0.5234 1.9123 0.7470
0.3679 1.9484 0.7471
0.2098 1.9718 0.7471
0.1377 5.4084 2.0384
-0.2981 5.4019 2.0384
-0.2682 1.9646 0.7471
-0.4255 1.9365 0.7470
-0.5799 1.8958 0.7470
-0.7305 1.8427 0.7469
-2.3921 4.8526 2.0384
-2.7749 4.6443 2.0384
-3.1398 4.4059 2.0384
-3.4842 4.1389 2.0384
-3.8060 3.8450 2.0384
-4.1031 3.5262 2.0384
-4.3736 3.1845 2.0384
-4.6158 2.8221 2.0384
-4.8279 2.4415 2.0384
-5.0088 2.0449 2.0384
-5.1571 1.6352 2.0384
-5.2720 1.2148 2.0384
-5.3527 0.7865 2.0384
-5.3986 0.3531 2.0384
-5.4095 -0.0826 2.0384
-5.3853 -0.5177 2.0384
-5.3262 -0.9495 2.0384
-5.2325 -1.3751 2.0384
-5.1048 -1.7918 2.0384
-4.9440 -2.1968 2.0384
-4.7512 -2.5876 2.0384
-4.5275 -2.9617 2.0384
-4.2744 -3.3165 2.0384
-3.9936 -3.6497 2.0384
-3.6869 -3.9593 2.0384
-3.3563 -4.2432 2.0384
-3.0038 -4.4996 2.0384
-2.6319 -4.7268 2.0384
-2.2429 -4.9233 2.0384
-0.6678 -1.8472 0.7401
-0.5169 -1.8948 0.7400
-0.3627 -1.9300 0.7399
-0.2062 -1.9529 0.7399
-0.0483 -1.9631 0.7399
0.1099 -1.9606 0.7399
0.2673 -1.9455 0.7399
0.4231 -1.9178 0.7399
0.5761 -1.8777 0.7400
0.7255 -1.8255 0.7401
2.3962 -4.8505 2.0384
2.7789 -4.6419 2.0384
3.1435 -4.4032 2.0384
3.4877 -4.1359 2.0384
3.8093 -3.8418 2.0384
3.8685 -3.3190 1.9204
4.0492 -2.9430 1.8860
-3.6879 -3.3475 2.0384
-3.4065 -3.6334 2.0384
-3.1030 -3.8958 2.0384
-2.7794 -4.1329 2.0384
-2.4377 -4.3432 2.0384
-0.7556 -1.6438 0.7404
-0.6208 -1.6991 0.7403
-0.4820 -1.7433 0.7403
-0.3401 -1.7763 0.7402
-0.1960 -1.7978 0.7402
-0.0506 -1.8077 0.7401
0.0950 -1.8060 0.7402
0.2401 -1.7925 0.7402
0.3836 -1.7675 0.7402
0.5247 -1.7310 0.7403
0.6624 -1.6834 0.7404
2.1908 -4.4728 2.0384
2.5437 -4.2820 2.0384
2.8801 -4.0633 2.0384
3.1978 -3.8184 2.0384
3.4948 -3.5486 2.0384
3.7690 -3.2558 2.0384
3.8661 -2.8300 1.9609
3.9254 -2.4138 1.8860
4.1070 -2.0900 1.8860
4.2619 -1.7526 1.8860
4.3891 -1.4039 1.8860
4.4879 -1.0461 1.8860
4.5575 -0.6815 1.8860
4.5976 -0.3125 1.8860
4.6078 0.0586 1.8860
4.5881 0.4293 1.8860
4.5387 0.7972 1.8860
4.4598 1.1599 1.8860
4.3520 1.5151 1.8860
4.2159 1.8605 1.8860
4.0525 2.1938 1.8860
3.9294 2.5562 1.9186
3.9147 3.0214 2.0239
3.6850 3.3506 2.0384
3.4034 3.6363 2.0384
3.0997 3.8984 2.0384
2.7758 4.1353 2.0384
2.4340 4.3453 2.0384
0.7604 1.6580 0.7465
0.6246 1.7140 0.7466
0.4847 1.7589 0.7467
0.3416 1.7924 0.7468
0.1962 1.8142 0.7468
0.0495 1.8241 0.7468
-0.0974 1.8222 0.7468
-0.2438 1.8083 0.7468
-0.3885 1.7827 0.7468
-0.5307 1.7455 0.7467
-0.6694 1.6969 0.7466
-2.1946 4.4710 2.0384
-2.5473 4.2798 2.0384
-2.8835 4.0609 2.0384
-3.2010 3.8156 2.0384
-3.4978 3.5456 2.0384
-3.7718 3.2526 2.0384
-4.0214 2.9385 2.0384
-4.2448 2.6052 2.0384
-4.4407 2.2551 2.0384
-4.6078 1.8904 2.0384
-4.7450 1.5134 2.0384
-4.8515 1.1265 2.0384
-4.9264 0.7324 2.0384
-4.9694 0.3335 2.0384
-4.9801 -0.0675 2.0384
-4.9585 -0.4682 2.0384
-4.9047 -0.8658 2.0384
-4.8191 -1.2577 2.0384
-4.7023 -1.6415 2.0384
-4.5549 -2.0147 2.0384
-4.3779 -2.3747 2.0384
-4.1726 -2.7194 2.0384
-3.9402 -3.0465 2.0384
-3.6822 -3.3537 2.0384
-3.4003 -3.6392 2.0384
-3.0964 -3.9011 2.0384
-2.7723 -4.1376 2.0384
-2.4303 -4.3473 2.0384
-0.7528 -1.6451 0.7404
-0.6179 -1.7001 0.7403
-0.4790 -1.7441 0.7403
-0.3370 -1.7769 0.7402
-0.1929 -1.7982 0.7402
-0.0476 -1.8078 0.7401
0.0981 -1.8058 0.7402
0.2431 -1.7921 0.7402
0.3866 -1.7668 0.7402
0.5276 -1.7301 0.7403
0.6652 -1.6823 0.7404
2.1984 -4.4691 2.0384
2.5510 -4.2777 2.0384
2.8870 -4.0584 2.0384
3.2043 -3.8129 2.0384
3.5008 -3.5426 2.0384
3.7746 -3.2494 2.0384
3.8666 -2.8203 1.9587
3.9295 -2.4071 1.8860
4.1105 -2.0830 1.8860
4.2648 -1.7454 1.8860
4.3915 -1.3965 1.8860
4.4896 -1.0385 1.8860
4.5586 -0.6738 1.8860
4.5981 -0.3047 1.8860
4.6077 0.0664 1.8860
4.5874 0.4371 1.8860
4.5373 0.8049 1.8860
4.4578 1.1675 1.8860
4.3494 1.5225 1.8860
4.2127 1.8676 1.8860
4.0488 2.2006 1.8860
3.9292 2.5655 1.9206
3.9144 3.0318 2.0264
3.6793 3.3568 2.0384
3.3972 3.6421 2.0384
3.0931 3.9037 2.0384
2.7688 4.1400 2.0384
2.4266 4.3494 2.0384
0.7576 1.6593 0.7465
0.6217 1.7151 0.7466
0.4817 1.7598 0.7467
0.3385 1.7930 0.7468
0.1931 1.8145 0.7468
0.0464 1.8242 0.7468
-0.1005 1.8220 0.7468
-0.2469 1.8079 0.7468
-0.3915 1.7821 0.7468
-0.5337 1.7446 0.7467
-0.6723 1.6958 0.7466
-2.2022 4.4672 2.0384
-2.5546 4.2755 2.0384
-2.8904 4.0560 2.0384
-3.2075 3.8102 2.0384
-3.5038 3.5397 2.0384
-3.7773 3.2462 2.0384
-4.0263 2.9316 2.0384
-4.2492 2.5980 2.0384
-4.4446 2.2476 2.0384
-4.6110 1.8825 2.0384
-4.7476 1.5053 2.0384
-4.8534 1.1183 2.0384
-4.9276 0.7240 2.0384
-4.9699 0.3251 2.0384
-4.9800 -0.0760 2.0384
-4.9577 -0.4766 2.0384
-4.9032 -0.8741 2.0384
-4.8170 -1.2659 2.0384
-4.6995 -1.6495 2.0384
-4.5514 -2.0224 2.0384
-4.3739 -2.3822 2.0384
-4.1680 -2.7265 2.0384
-3.9350 -3.0531 2.0384
-3.6765 -3.3600 2.0384
-3.3941 -3.6450 2.0384
-3.0897 -3.9063 2.0384
-2.7653 -4.1423 2.0384
-2.4229 -4.3515 2.0384
-0.7500 -1.6463 0.7404
-0.6150 -1.7012 0.7403
-0.4760 -1.7449 0.7403
-0.3340 -1.7775 0.7402
-0.1899 -1.7985 0.7402
-0.0445 -1.8079 0.7401
0.1012 -1.8056 0.7402
0.2462 -1.7917 0.7402
0.3896 -1.7662 0.7402
0.5306 -1.7292 0.7403
0.6681 -1.6811 0.7404
2.2060 -4.4654 2.0384
2.5582 -4.2733 2.0384
2.8939 -4.0536 2.0384
3.2108 -3.8075 2.0384
3.5068 -3.5367 2.0384
3.7801 -3.2430 2.0384
3.8671 -2.8106 1.9566
-3.4107 -3.0959 2.0384
-3.1505 -3.3603 2.0384
-2.8698 -3.6030 2.0384
-2.5705 -3.8223 2.0384
-2.2545 -4.0168 2.0384
-0.6991 -1.5207 0.7407
-0.5743 -1.5719 0.7406
-0.4459 -1.6128 0.7405
-0.3146 -1.6434 0.7404
-0.1813 -1.6633 0.7404
-0.0468 -1.6724 0.7404
0.0879 -1.6708 0.7404
0.2221 -1.6583 0.7404
0.3549 -1.6352 0.7405
0.4854 -1.6014 0.7405
0.6128 -1.5574 0.7406
0.7363 -1.5032 0.7407
2.3525 -3.9602 2.0384
2.6636 -3.7580 2.0384
2.9575 -3.5314 2.0384
3.2321 -3.2819 2.0384
3.4858 -3.0111 2.0384
3.7168 -2.7208 2.0384
3.8623 -2.3750 2.0065
3.8811 -1.9751 1.9271
3.9416 -1.6209 1.8860
4.0592 -1.2984 1.8860
4.1506 -0.9675 1.8860
4.2150 -0.6303 1.8860
4.2520 -0.2890 1.8860
4.2615 0.0542 1.8860
4.2433 0.3970 1.8860
4.1976 0.7373 1.8860
4.1246 1.0727 1.8860
4.0249 1.4012 1.8860
3.9262 1.7325 1.8992
3.9154 2.1195 1.9703
3.8611 2.5118 2.0384
3.6464 2.8144 2.0384
3.4081 3.0988 2.0384
3.1476 3.3630 2.0384
2.8667 3.6055 2.0384
2.5672 3.8245 2.0384
2.2511 4.0187 2.0384
0.7031 1.5329 0.7463
0.5775 1.5847 0.7464
0.4481 1.6262 0.7465
0.3158 1.6571 0.7465
0.1814 1.6773 0.7466
0.0458 1.6865 0.7466
-0.0901 1.6847 0.7466
-0.2254 1.6719 0.7466
-0.3592 1.6482 0.7465
-0.4907 1.6138 0.7464
-0.6189 1.5689 0.7464
-0.7431 1.5138 0.7463
-2.3559 3.9582 2.0384
-2.6668 3.7557 2.0384
-2.9605 3.5289 2.0384
-3.2349 3.2792 2.0384
-3.4883 3.0081 2.0384
-3.7191 2.7176 2.0384
-3.9258 2.4095 2.0384
-4.1070 2.0856 2.0384
-4.2615 1.7483 2.0384
-4.3884 1.3996 2.0384
-4.4869 1.0419 2.0384
-4.5562 0.6774 2.0384
-4.5959 0.3084 2.0384
-4.6058 -0.0625 2.0384
-4.5858 -0.4330 2.0384
-4.5361 -0.8007 2.0384
-4.4569 -1.1632 2.0384
-4.3488 -1.5182 2.0384
-4.2126 -1.8633 2.0384
-4.0489 -2.1963 2.0384
-3.8590 -2.5150 2.0384
-3.6441 -2.8175 2.0384
-3.4055 -3.1016 2.0384
-3.1448 -3.3657 2.0384
-2.8637 -3.6079 2.0384
-2.5640 -3.8267 2.0384
-2.2477 -4.0206 2.0384
-0.6965 -1.5219 0.7407
-0.5716 -1.5728 0.7406
-0.4431 -1.6136 0.7405
-0.3118 -1.6439 0.7404
-0.1785 -1.6636 0.7404
-0.0440 -1.6725 0.7404
0.0908 -1.6706 0.7404
0.2249 -1.6580 0.7404
0.3577 -1.6346 0.7405
0.4881 -1.6006 0.7405
0.6154 -1.5563 0.7406
0.7388 -1.5019 0.7407
2.3592 -3.9562 2.0384
2.6700 -3.7534 2.0384
2.9635 -3.5264 2.0384
3.2377 -3.2764 2.0384
3.4909 -3.0052 2.0384
3.7214 -2.7144 2.0384
3.8628 -2.3662 2.0046
3.8815 -1.9670 1.9257
3.9443 -1.6142 1.8860
4.0614 -1.2915 1.8860
4.1522 -0.9604 1.8860
4.2160 -0.6231 1.8860
4.2525 -0.2818 1.8860
4.2614 0.0614 1.8860
4.2426 0.4042 1.8860
4.1963 0.7444 1.8860
4.1228 1.0797 1.8860
4.0225 1.4081 1.8860
3.9253 1.7401 1.9001
3.9151 2.1280 1.9720
3.8569 2.5183 2.0384
3.6417 2.8206 2.0384
3.4028 3.1045 2.0384
3.1419 3.3684 2.0384
2.8606 3.6103 2.0384
2.5607 3.8288 2.0384
2.2442 4.0225 2.0384
0.7005 1.5341 0.7463
0.5748 1.5857 0.7464
0.4453 1.6270 0.7465
0.3130 1.6577 0.7465
0.1785 1.6776 0.7466
0.0429 1.6865 0.7466
-0.0930 1.6845 0.7466
-0.2282 1.6715 0.7466
-0.3620 1.6476 0.7465
-0.4934 1.6130 0.7464
-0.6215 1.5679 0.7464
-0.7456 1.5125 0.7463
-2.3626 3.9542 2.0384
-2.6732 3.7512 2.0384
-2.9665 3.5239 2.0384
-3.2405 3.2737 2.0384
-3.4934 3.0022 2.0384
-3.7237 2.7113 2.0384
-3.9299 2.4028 2.0384
-4.1105 2.0787 2.0384
-4.2645 1.7411 2.0384
-4.3908 1.3922 2.0384
-4.4886 1.0343 2.0384
-4.5573 0.6696 2.0384
-4.5964 0.3006 2.0384
-4.6057 -0.0703 2.0384
-4.5851 -0.4408 2.0384
-4.5347 -0.8084 2.0384
-4.4550 -1.1708 2.0384
-4.3463 -1.5255 2.0384
-4.2094 -1.8704 2.0384
-4.0452 -2.2032 2.0384
-3.8547 -2.5216 2.0384
-3.6393 -2.8237 2.0384
-3.4002 -3.1074 2.0384
-3.1390 -3.3710 2.0384
-2.8575 -3.6127 2.0384
-2.5575 -3.8310 2.0384
-2.2408 -4.0244 2.0384
-0.6939 -1.5231 0.7407
-0.5690 -1.5738 0.7406
-0.4404 -1.6143 0.7405
-0.3090 -1.6444 0.7404
-0.1757 -1.6639 0.7404
-0.0412 -1.6726 0.7404
0.0936 -1.6705 0.7404
0.2278 -1.6576 0.7404
0.3605 -1.6340 0.7405
0.4908 -1.5998 0.7405
0.6181 -1.5553 0.7406
0.7414 -1.5007 0.7407
2.3660 -3.9522 2.0384
2.6764 -3.7489 2.0384
2.9694 -3.5213 2.0384
3.2432 -3.2709 2.0384
3.4960 -2.9992 2.0384
3.7260 -2.7081 2.0384
-3.1667 -2.8744 2.0384
-2.9251 -3.1199 2.0384
-2.6645 -3.3453 2.0384
-2.3866 -3.5489 2.0384
-0.7609 -1.3557 0.7410
-0.6492 -1.4123 0.7409
-0.5334 -1.4598 0.7408
-0.4141 -1.4979 0.7407
-0.2922 -1.5263 0.7407
-0.1684 -1.5447 0.7406
-0.0435 -1.5533 0.7406
0.0817 -1.5517 0.7406
0.2063 -1.5402 0.7406
0.3296 -1.5186 0.7407
0.4508 -1.4873 0.7407
0.5691 -1.4463 0.7408
0.6838 -1.3960 0.7409
2.1842 -3.6769 2.0384
2.4731 -3.4891 2.0384
2.7459 -3.2788 2.0384
3.0009 -3.0471 2.0384
3.2364 -2.7957 2.0384
3.4509 -2.5261 2.0384
3.6431 -2.2402 2.0384
3.8116 -1.9397 2.0384
3.8724 -1.5925 1.9957
3.8855 -1.2429 1.9444
3.8959 -0.9082 1.9067
3.9148 -0.5854 1.8867
3.9479 -0.2683 1.8860
3.9566 0.0503 1.8860
3.9398 0.3687 1.8860
3.9184 0.6882 1.8962
3.9121 1.0175 1.9266
3.9072 1.3603 1.9719
3.8999 1.7210 2.0317
3.7610 2.0360 2.0384
3.5849 2.3321 2.0384
3.3856 2.6131 2.0384
3.1643 2.8771 2.0384
2.9224 3.1224 2.0384
2.6616 3.3475 2.0384
2.3836 3.5509 2.0384
0.7649 1.3655 0.7460
0.6526 1.4229 0.7461
0.5360 1.4709 0.7462
0.4159 1.5094 0.7463
0.2931 1.5381 0.7463
0.1684 1.5568 0.7463
0.0425 1.5653 0.7464
-0.0836 1.5637 0.7464
-0.2092 1.5518 0.7463
-0.3334 1.5299 0.7463
-0.4554 1.4979 0.7462
-0.5745 1.4563 0.7462
-0.6897 1.4051 0.7461
-2.1874 3.6750 2.0384
-2.4761 3.4870 2.0384
-2.7487 3.2764 2.0384
-3.0035 3.0446 2.0384
-3.2388 2.7929 2.0384
-3.4531 2.5232 2.0384
-3.6450 2.2371 2.0384
-3.8132 1.9364 2.0384
-3.9567 1.6232 2.0384
-4.0745 1.2995 2.0384
-4.1659 0.9673 2.0384
-4.2302 0.6289 2.0384
-4.2671 0.2864 2.0384
-4.2763 -0.0580 2.0384
-4.2578 -0.4020 2.0384
-4.2116 -0.7434 2.0384
-4.1381 -1.0800 2.0384
-4.0378 -1.4095 2.0384
-3.9112 -1.7300 2.0384
-3.7593 -2.0391 2.0384
-3.5829 -2.3351 2.0384
-3.3834 -2.6159 2.0384
-3.1618 -2.8798 2.0384
-2.9198 -3.1249 2.0384
-2.6588 -3.3498 2.0384
-2.3806 -3.5529 2.0384
-0.7586 -1.3570 0.7410
-0.6468 -1.4134 0.7409
-0.5309 -1.4607 0.7408
-0.4116 -1.4986 0.7407
-0.2896 -1.5267 0.7407
-0.1658 -1.5450 0.7406
-0.0409 -1.5533 0.7406
0.0843 -1.5516 0.7406
0.2089 -1.5398 0.7406
0.3322 -1.5181 0.7407
0.4533 -1.4865 0.7407
0.5716 -1.4454 0.7408
0.6861 -1.3949 0.7409
2.1905 -3.6732 2.0384
2.4790 -3.4849 2.0384
2.7515 -3.2741 2.0384
3.0061 -3.0420 2.0384
3.2412 -2.7902 2.0384
3.4552 -2.5203 2.0384
3.6469 -2.2340 2.0384
3.8148 -1.9332 2.0384
3.8727 -1.5849 1.9944
3.8857 -1.2357 1.9434
3.8961 -0.9012 1.9060
3.9152 -0.5787 1.8864
3.9483 -0.2617 1.8860
3.9566 0.0570 1.8860
3.9391 0.3753 1.8860
3.9181 0.6952 1.8966
3.9120 1.0245 1.9275
3.9071 1.3677 1.9730
3.8997 1.7288 2.0332
3.7575 2.0424 2.0384
3.5810 2.3382 2.0384
3.3812 2.6188 2.0384
3.1594 2.8825 2.0384
2.9171 3.1274 2.0384
2.6560 3.3520 2.0384
2.3775 3.5549 2.0384
0.7626 1.3668 0.7460
0.6502 1.4240 0.7461
0.5335 1.4718 0.7462
0.4134 1.5101 0.7463
0.2905 1.5386 0.7463
0.1657 1.5571 0.7463
0.0399 1.5654 0.7464
-0.0863 1.5635 0.7464
-0.2118 1.5515 0.7463
-0.3360 1.5293 0.7463
-0.4580 1.4972 0.7462
-0.5769 1.4553 0.7462
-0.6921 1.4040 0.7461
-2.1936 3.6713 2.0384
-2.4820 3.4828 2.0384
-2.7542 3.2718 2.0384
-3.0086 3.0395 2.0384
-3.2435 2.7874 2.0384
-3.4574 2.5173 2.0384
-3.6488 2.2309 2.0384
-3.8165 1.9300 2.0384
-3.9594 1.6165 2.0384
-4.0767 1.2926 2.0384
-4.1675 0.9603 2.0384
-4.2313 0.6217 2.0384
-4.2676 0.2791 2.0384
-4.2762 -0.0652 2.0384
-4.2571 -0.4092 2.0384
-4.2103 -0.7505 2.0384
-4.1363 -1.0870 2.0384
-4.0354 -1.4164 2.0384
-3.9083 -1.7366 2.0384
-3.7558 -2.0455 2.0384
-3.5790 -2.3412 2.0384
-3.3789 -2.6217 2.0384
-3.1570 -2.8851 2.0384
-2.9145 -3.1299 2.0384
-2.6531 -3.3543 2.0384
-2.3745 -3.5569 2.0384
-0.7563 -1.3582 0.7410
-0.6444 -1.4145 0.7409
-0.5284 -1.4616 0.7408
-0.4090 -1.4993 0.7407
-0.2870 -1.5272 0.7407
-0.1631 -1.5453 0.7406
-0.0382 -1.5534 0.7406
0.0869 -1.5514 0.7406
0.2115 -1.5395 0.7406
0.3348 -1.5175 0.7407
0.4559 -1.4858 0.7407
0.5740 -1.4444 0.7408
0.6885 -1.3937 0.7409
2.1967 -3.6694 2.0384
2.4849 -3.4807 2.0384
2.7570 -3.2694 2.0384
3.0112 -3.0369 2.0384
3.2459 -2.7847 2.0384
3.4595 -2.5144 2.0384
-2.9500 -2.6776 2.0384
-2.7249 -2.9064 2.0384
-2.4821 -3.1163 2.0384
-2.2232 -3.3059 2.0384
-0.7090 -1.2632 0.7411
-0.6049 -1.3160 0.7411
-0.4970 -1.3602 0.7410
-0.3859 -1.3957 0.7409
-0.2722 -1.4221 0.7409
-0.1569 -1.4394 0.7408
-0.0405 -1.4473 0.7408
0.0761 -1.4459 0.7408
0.1922 -1.4351 0.7408
0.3071 -1.4151 0.7409
0.4201 -1.3858 0.7409
0.5303 -1.3477 0.7410
0.6371 -1.3008 0.7411
0.7398 -1.2454 0.7412
2.3038 -3.2503 2.0384
2.5579 -3.0543 2.0384
2.7955 -2.8385 2.0384
3.0149 -2.6043 2.0384
3.2147 -2.3532 2.0384
3.3937 -2.0868 2.0384
3.5506 -1.8069 2.0384
3.6846 -1.5152 2.0384
3.7946 -1.2138 2.0384
3.8723 -0.9026 2.0344
3.8806 -0.5803 2.0076
3.8865 -0.2642 1.9932
3.8902 0.0495 1.9906
3.8918 0.3641 1.9999
3.8911 0.6834 2.0214
3.8557 1.0028 2.0384
3.7625 1.3099 2.0384
3.6448 1.6085 2.0384
3.5035 1.8966 2.0384
3.3395 2.1725 2.0384
3.1538 2.4342 2.0384
2.9477 2.6801 2.0384
2.7224 2.9087 2.0384
2.4794 3.1184 2.0384
2.2204 3.3078 2.0384
0.7124 1.2717 0.7458
0.6078 1.3251 0.7459
0.4992 1.3699 0.7460
0.3874 1.4058 0.7461
0.2730 1.4325 0.7461
0.1568 1.4499 0.7461
0.0396 1.4578 0.7462
-0.0779 1.4562 0.7462
-0.1948 1.4452 0.7461
-0.3105 1.4248 0.7461
-0.4241 1.3950 0.7460
-0.5350 1.3562 0.7460
-0.6423 1.3086 0.7459
-0.7455 1.2525 0.7458
-2.3066 3.2483 2.0384
-2.5605 3.0521 2.0384
-2.7979 2.8362 2.0384
-3.0171 2.6018 2.0384
-3.2167 2.3505 2.0384
-3.3955 2.0839 2.0384
-3.5522 1.8039 2.0384
-3.6858 1.5121 2.0384
-3.7956 1.2106 2.0384
-3.8807 0.9011 2.0384
-3.9406 0.5858 2.0384
-3.9750 0.2668 2.0384
-3.9836 -0.0540 2.0384
-3.9663 -0.3745 2.0384
-3.9233 -0.6925 2.0384
-3.8548 -1.0060 2.0384
-3.7614 -1.3130 2.0384
-3.6435 -1.6115 2.0384
-3.5019 -1.8996 2.0384
-3.3377 -2.1753 2.0384
-3.1518 -2.4369 2.0384
-2.9454 -2.6826 2.0384
-2.7199 -2.9110 2.0384
-2.4768 -3.1205 2.0384
-2.2176 -3.3097 2.0384
-0.7068 -1.2644 0.7411
-0.6027 -1.3170 0.7410
-0.4947 -1.3611 0.7410
-0.3835 -1.3963 0.7409
-0.2698 -1.4226 0.7409
-0.1544 -1.4396 0.7408
-0.0381 -1.4474 0.7408
0.0785 -1.4458 0.7408
0.1947 -1.4348 0.7408
0.3095 -1.4145 0.7409
0.4224 -1.3851 0.7409
0.5326 -1.3468 0.7410
0.6393 -1.2997 0.7411
0.7420 -1.2442 0.7412
2.3093 -3.2464 2.0384
2.5631 -3.0500 2.0384
2.8003 -2.8338 2.0384
3.0193 -2.5992 2.0384
3.2187 -2.3477 2.0384
3.3972 -2.0810 2.0384
3.5537 -1.8009 2.0384
3.6871 -1.5090 2.0384
3.7966 -1.2073 2.0384
3.8725 -0.8958 2.0337
3.8808 -0.5736 2.0072
3.8866 -0.2575 1.9930
3.8903 0.0561 1.9907
3.8918 0.3708 2.0003
3.8911 0.6902 2.0220
3.8540 1.0093 2.0384
3.7602 1.3163 2.0384
3.6421 1.6146 2.0384
3.5003 1.9025 2.0384
3.3358 2.1781 2.0384
3.1497 2.4395 2.0384
2.9431 2.6851 2.0384
2.7175 2.9133 2.0384
2.4741 3.1226 2.0384
2.2148 3.3116 2.0384
0.7102 1.2730 0.7458
0.6055 1.3262 0.7459
0.4969 1.3707 0.7460
0.3850 1.4064 0.7461
0.2705 1.4329 0.7461
0.1543 1.4501 0.7461
0.0371 1.4579 0.7462
-0.0804 1.4561 0.7462
-0.1973 1.4449 0.7461
-0.3129 1.4242 0.7461
-0.4265 1.3943 0.7460
-0.5373 1.3553 0.7460
-0.6446 1.3075 0.7459
-0.7476 1.2512 0.7458
-2.3121 3.2444 2.0384
-2.5657 3.0478 2.0384
-2.8027 2.8314 2.0384
-3.0215 2.5966 2.0384
-3.2207 2.3450 2.0384
-3.3990 2.0782 2.0384
-3.5552 1.7979 2.0384
-3.6884 1.5059 2.0384
-3.7976 1.2041 2.0384
-3.8822 0.8945 2.0384
-3.9416 0.5792 2.0384
-3.9755 0.2600 2.0384
-3.9835 -0.0608 2.0384
-3.9657 -0.3812 2.0384
-3.9221 -0.6992 2.0384
-3.8531 -1.0126 2.0384
-3.7591 -1.3194 2.0384
-3.6407 -1.6177 2.0384
-3.4987 -1.9055 2.0384
-3.3340 -2.1809 2.0384
-3.1476 -2.4422 2.0384
-2.9408 -2.6876 2.0384
-2.7150 -2.9156 2.0384
-2.4715 -3.1247 2.0384
-2.2120 -3.3135 2.0384
-0.7047 -1.2656 0.7411
-0.6004 -1.3180 0.7410
-0.4924 -1.3619 0.7410
-0.3811 -1.3970 0.7409
-0.2674 -1.4231 0.7409
-0.1520 -1.4399 0.7408
-0.0356 -1.4474 0.7408
0.0810 -1.4456 0.7408
0.1971 -1.4345 0.7408
0.3119 -1.4140 0.7409
0.4248 -1.3844 0.7409
0.5349 -1.3459 0.7410
0.6415 -1.2986 0.7411
0.7441 -1.2429 0.7412
2.3148 -3.2424 2.0384
2.5683 -3.0456 2.0384
2.8051 -2.8290 2.0384
3.0237 -2.5941 2.0384
3.2227 -2.3423 2.0384
-2.7558 -2.5014 2.0384
-2.5455 -2.7151 2.0384
-2.3187 -2.9111 2.0384
-0.7554 -1.1233 0.7414
-0.6624 -1.1803 0.7413
-0.5652 -1.2296 0.7412
-0.4644 -1.2710 0.7411
-0.3605 -1.3041 0.7411
-0.2544 -1.3288 0.7410
-0.1466 -1.3450 0.7410
-0.0379 -1.3524 0.7410
0.0711 -1.3510 0.7410
0.1796 -1.3410 0.7410
0.2870 -1.3222 0.7410
0.3925 -1.2949 0.7411
0.4955 -1.2592 0.7412
0.5953 -1.2154 0.7412
0.6913 -1.1637 0.7413
0.7828 -1.1044 0.7415
2.3896 -2.8533 2.0384
2.6115 -2.6517 2.0384
2.8164 -2.4329 2.0384
3.0031 -2.1983 2.0384
3.1703 -1.9495 2.0384
3.3169 -1.6880 2.0384
3.4420 -1.4155 2.0384
3.5448 -1.1339 2.0384
3.6246 -0.8449 2.0384
3.6808 -0.5504 2.0384
3.7132 -0.2523 2.0384
3.7214 0.0473 2.0384
3.7056 0.3467 2.0384
3.6656 0.6438 2.0384
3.6019 0.9368 2.0384
3.5148 1.2237 2.0384
3.4049 1.5026 2.0384
3.2729 1.7718 2.0384
3.1197 2.0295 2.0384
2.9463 2.2740 2.0384
2.7537 2.5037 2.0384
2.5432 2.7172 2.0384
2.3163 2.9131 2.0384
0.7587 1.1302 0.7456
0.6653 1.1878 0.7457
0.5676 1.2376 0.7458
0.4662 1.2794 0.7458
0.3618 1.3129 0.7459
0.2549 1.3379 0.7459
0.1464 1.3541 0.7460
0.0370 1.3615 0.7460
-0.0727 1.3601 0.7460
-0.1820 1.3498 0.7460
-0.2900 1.3307 0.7459
-0.3961 1.3029 0.7459
-0.4997 1.2667 0.7458
-0.5999 1.2222 0.7457
-0.6963 1.1698 0.7456
-2.1547 3.0345 2.0384
-2.3920 2.8513 2.0384
-2.6137 2.6495 2.0384
-2.8185 2.4305 2.0384
-3.0050 2.1958 2.0384
-3.1720 1.9468 2.0384
-3.3184 1.6851 2.0384
-3.4432 1.4126 2.0384
-3.5458 1.1309 2.0384
-3.6253 0.8418 2.0384
-3.6813 0.5473 2.0384
-3.7134 0.2492 2.0384
-3.7214 -0.0505 2.0384
-3.7053 -0.3498 2.0384
-3.6651 -0.6469 2.0384
-3.6011 -0.9398 2.0384
-3.5138 -1.2266 2.0384
-3.4037 -1.5055 2.0384
-3.2714 -1.7745 2.0384
-3.1180 -2.0321 2.0384
-2.9443 -2.2765 2.0384
-2.7515 -2.5061 2.0384
-2.5409 -2.7194 2.0384
-2.3138 -2.9151 2.0384
-0.7535 -1.1246 0.7414
-0.6604 -1.1814 0.7413
-0.5631 -1.2306 0.7412
-0.4622 -1.2718 0.7411
-0.3583 -1.3047 0.7411
-0.2521 -1.3293 0.7410
-0.1443 -1.3452 0.7410
-0.0356 -1.3524 0.7410
0.0734 -1.3509 0.7410
0.1819 -1.3407 0.7410
0.2892 -1.3217 0.7410
0.3947 -1.2943 0.7411
