ply
format ascii 1.0
element vertex 2172
property float32 x
property float32 y
property float32 z
end_header
-4.7791 -11.5524 2.0373
-3.8355 -11.9034 2.0373
-2.8662 -12.1765 2.0373
-1.8778 -12.3699 2.0373
-0.5135 -7.3112 1.1933
0.0762 -7.3165 1.1913
0.6677 -7.3218 1.1971
2.1349 -12.3279 2.0373
3.1191 -12.1138 2.0373
3.7860 -10.9621 1.8894
4.6430 -10.5933 1.8849
5.4779 -10.1813 1.8849
6.2942 -9.7308 1.8904
4.0455 -5.2702 1.0843
7.8638 -8.6954 1.9146
8.5814 -8.0756 1.9256
9.2455 -7.3927 1.9358
9.8498 -6.6516 1.9451
10.3885 -5.8575 1.9533
10.8565 -5.0167 1.9604
11.2492 -4.1359 1.9664
11.5628 -3.2222 1.9711
11.7944 -2.2832 1.9746
11.9416 -1.3270 1.9767
12.0032 -0.3616 1.9775
11.9789 0.6048 1.9770
11.8690 1.5638 1.9751
11.6751 2.5075 1.9719
11.3993 3.4281 1.9675
11.0448 4.3181 1.9618
10.6195 5.1725 1.9558
10.1041 5.9721 1.9450
9.5080 6.7077 1.9297
8.8926 7.4139 1.9215
8.2228 8.0622 1.9126
7.5046 8.6488 1.9030
6.7441 9.1704 1.8929
5.9559 9.6378 1.8849
5.1584 10.0812 1.8849
4.3285 10.4596 1.8849
3.7521 11.6414 2.0373
2.8022 11.9026 2.0373
1.8347 12.0873 2.0373
0.8557 12.1945 2.0373
-0.1287 12.2234 2.0373
-1.1123 12.1739 2.0373
-2.0888 12.0463 2.0373
-3.0523 11.8413 2.0373
-3.9966 11.5602 2.0373
-4.9157 11.2048 2.0373
-5.8041 10.7771 2.0373
-6.6558 10.2798 2.0373
-7.4656 9.7159 2.0373
-8.2283 9.0889 2.0373
-8.9390 8.4026 2.0373
-9.5930 7.6613 2.0373
-10.1862 6.8695 2.0373
-10.7145 6.0322 2.0373
-11.1745 5.1546 2.0373
-11.5631 4.2423 2.0373
-11.8776 3.3009 2.0373
-12.1158 2.3365 2.0373
-12.2759 1.3551 2.0373
-12.3568 0.3632 2.0373
-12.3575 -0.6329 2.0373
-12.2781 -1.6268 2.0373
-12.1186 -2.6119 2.0373
-11.8801 -3.5818 2.0373
-11.5637 -4.5301 2.0373
-11.1714 -5.4505 2.0373
-10.7056 -6.3370 2.0373
-10.1692 -7.1835 2.0373
-9.5655 -7.9844 2.0373
-8.8984 -8.7343 2.0373
-8.1722 -9.4280 2.0373
-7.3916 -10.0609 2.0373
-6.5618 -10.6286 2.0373
-5.6882 -11.1273 2.0373
-4.7765 -11.5535 2.0373
-3.8328 -11.9043 2.0373
-2.8635 -12.1772 2.0373
-1.8750 -12.3704 2.0373
-0.5119 -7.3112 1.1933
0.0778 -7.3165 1.1913
0.6694 -7.3218 1.1971
2.1377 -12.3274 2.0373
3.1218 -12.1131 2.0373
3.7868 -10.9566 1.8886
4.6454 -10.5923 1.8849
5.4802 -10.1801 1.8849
6.2965 -9.7295 1.8904
4.0462 -5.2686 1.0842
7.8659 -8.6938 1.9146
8.5834 -8.0738 1.9256
9.2473 -7.3907 1.9358
7.7548 -6.2041 1.9125
8.2564 -5.5788 1.9201
8.7034 -4.9105 1.9270
9.0915 -4.2042 1.9329
9.4173 -3.4653 1.9378
9.6777 -2.6997 1.9418
9.8703 -1.9136 1.9446
9.9934 -1.1133 1.9464
10.0460 -0.3054 1.9471
10.0278 0.5035 1.9467
9.9390 1.3067 1.9452
9.7808 2.0979 1.9426
9.5548 2.8705 1.9389
9.2635 3.6187 1.9343
8.9096 4.3367 1.9287
8.4968 5.0191 1.9222
8.0289 5.6610 1.9148
7.5103 6.2581 1.9066
6.9383 6.7992 1.8958
6.3381 7.3006 1.8878
5.7184 7.7715 1.8849
5.0720 8.2028 1.8849
4.3935 8.5811 1.8849
3.9662 9.5773 2.0275
3.1969 9.9106 2.0373
2.3882 10.1335 2.0373
1.5645 10.2913 2.0373
0.7309 10.3828 2.0373
-0.1073 10.4077 2.0373
-0.9448 10.3657 2.0373
-1.7763 10.2570 2.0373
-2.5966 10.0824 2.0373
-3.4006 9.8429 2.0373
-4.1831 9.5400 2.0373
-4.9391 9.1755 2.0373
-5.6640 8.7517 2.0373
-6.3530 8.2712 2.0373
-7.0017 7.7369 2.0373
-7.6060 7.1522 2.0373
-8.1619 6.5208 2.0373
-8.6659 5.8465 2.0373
-9.1145 5.1335 2.0373
-9.5049 4.3865 2.0373
-9.8344 3.6100 2.0373
-10.1008 2.8089 2.0373
-10.3022 1.9885 2.0373
-10.4371 1.1540 2.0373
-10.5046 0.3105 2.0373
-10.5040 -0.5362 2.0373
-10.4352 -1.3808 2.0373
-10.2985 -2.2177 2.0373
-10.0946 -3.0416 2.0373
-9.8247 -3.8469 2.0373
-9.4904 -4.6283 2.0373
-9.0938 -5.3807 2.0373
-8.6373 -6.0991 2.0373
-8.1239 -6.7786 2.0373
-7.5568 -7.4147 2.0373
-6.9397 -8.0031 2.0373
-6.2766 -8.5398 2.0373
-5.5718 -9.0212 2.0373
-4.8300 -9.4440 2.0373
-4.0561 -9.8053 2.0373
-3.2551 -10.1027 2.0373
-2.4324 -10.3341 2.0373
-1.5935 -10.4979 2.0373
-0.5136 -7.3126 1.4064
0.0762 -7.3179 1.4040
0.6678 -7.3232 1.4108
1.8117 -10.4623 2.0373
2.6470 -10.2809 2.0373
3.4647 -10.0324 2.0373
3.9406 -8.9913 1.8849
4.6495 -8.6421 1.8849
5.3274 -8.2367 1.8849
4.0184 -5.2353 1.2688
6.6074 -7.3066 1.8948
7.2045 -6.7803 1.9040
7.7562 -6.2024 1.9125
8.2578 -5.5770 1.9202
8.7046 -4.9086 1.9270
9.0925 -4.2022 1.9329
9.4181 -3.4632 1.9378
9.6783 -2.6976 1.9418
9.8707 -1.9114 1.9446
9.9936 -1.1111 1.9464
10.0460 -0.3032 1.9471
10.0276 0.5057 1.9467
9.9386 1.3089 1.9452
9.7802 2.1000 1.9426
9.5541 2.8726 1.9389
9.2626 3.6207 1.9343
8.9086 4.3386 1.9287
8.4956 5.0209 1.9221
8.0276 5.6627 1.9148
7.5088 6.2597 1.9066
6.9367 6.8007 1.8958
6.3364 7.3019 1.8878
5.7167 7.7728 1.8849
5.0702 8.2040 1.8849
4.3916 8.5821 1.8849
3.9660 9.5831 2.0286
3.1947 9.9113 2.0373
2.3859 10.1340 2.0373
1.5622 10.2916 2.0373
0.7286 10.3830 2.0373
-0.1096 10.4077 2.0373
-0.9471 10.3655 2.0373
-1.7786 10.2566 2.0373
-2.5989 10.0818 2.0373
-3.4028 9.8421 2.0373
-4.1852 9.5390 2.0373
-4.9412 9.1744 2.0373
-5.6659 8.7504 2.0373
-6.3548 8.2697 2.0373
-7.0034 7.7354 2.0373
-7.6076 7.1506 2.0373
-8.1634 6.5190 2.0373
-8.6672 5.8445 2.0373
-9.1157 5.1315 2.0373
-9.5059 4.3843 2.0373
-9.8353 3.6078 2.0373
-10.1014 2.8067 2.0373
-10.3026 1.9862 2.0373
-10.4374 1.1516 2.0373
-10.5047 0.3082 2.0373
-10.5039 -0.5385 2.0373
-10.4349 -1.3831 2.0373
-10.2980 -2.2200 2.0373
-10.0939 -3.0438 2.0373
-9.8238 -3.8491 2.0373
-9.4894 -4.6304 2.0373
-9.0926 -5.3828 2.0373
-8.6360 -6.1010 2.0373
-8.1224 -6.7804 2.0373
-7.5551 -7.4164 2.0373
-6.9379 -8.0046 2.0373
-6.2747 -8.5412 2.0373
-5.5698 -9.0224 2.0373
-4.8279 -9.4450 2.0373
-4.0539 -9.8062 2.0373
-3.2528 -10.1034 2.0373
-2.4301 -10.3346 2.0373
-1.5911 -10.4983 2.0373
-0.5119 -7.3126 1.4064
0.0778 -7.3179 1.4040
0.6695 -7.3232 1.4109
1.8141 -10.4619 2.0373
2.6493 -10.2803 2.0373
3.4669 -10.0316 2.0373
3.9426 -8.9904 1.8849
4.6514 -8.6411 1.8849
5.3293 -8.2355 1.8849
4.0189 -5.2335 1.2686
6.6091 -7.3053 1.8948
7.2060 -6.7788 1.9040
7.7577 -6.2007 1.9125
6.6688 -5.3357 1.8955
7.0968 -4.7957 1.9020
7.4780 -4.2196 1.9078
7.8088 -3.6115 1.9129
8.0865 -2.9761 1.9171
8.3086 -2.3183 1.9204
8.4731 -1.6432 1.9229
8.5787 -0.9562 1.9244
8.6243 -0.2627 1.9250
8.6099 0.4318 1.9247
8.5355 1.1217 1.9234
8.4022 1.8017 1.9212
8.2111 2.4664 1.9181
7.9642 3.1107 1.9142
7.6639 3.7298 1.9094
7.3129 4.3193 1.9039
6.9146 4.8748 1.8976
6.4723 5.3927 1.8907
5.9959 5.8752 1.8849
5.5008 6.3357 1.8849
4.9708 6.7549 1.8849
4.4091 7.1303 1.8849
3.9604 7.7347 1.9545
3.4648 8.3663 2.0373
2.7794 8.6159 2.0373
2.0764 8.8100 2.0373
1.3602 8.9473 2.0373
0.6355 9.0271 2.0373
-0.0933 9.0487 2.0373
-0.8214 9.0121 2.0373
-1.5444 8.9175 2.0373
-2.2576 8.7655 2.0373
-2.9565 8.5570 2.0373
-3.6367 8.2934 2.0373
-4.2938 7.9761 2.0373
-4.9237 7.6073 2.0373
-5.5223 7.1892 2.0373
-6.0858 6.7244 2.0373
-6.6106 6.2157 2.0373
-7.0932 5.6665 2.0373
-7.5306 5.0800 2.0373
-7.9198 4.4601 2.0373
-8.2583 3.8106 2.0373
-8.5437 3.1357 2.0373
-8.7743 2.4395 2.0373
-8.9483 1.7267 2.0373
-9.0646 1.0017 2.0373
-9.1223 0.2692 2.0373
-9.1208 -0.4661 2.0373
-9.0602 -1.1993 2.0373
-8.9406 -1.9258 2.0373
-8.7627 -2.6408 2.0373
-8.5276 -3.3395 2.0373
-8.2366 -4.0174 2.0373
-7.8917 -4.6700 2.0373
-7.4949 -5.2929 2.0373
-7.0488 -5.8820 2.0373
-6.5562 -6.4335 2.0373
-6.0204 -6.9435 2.0373
-5.4448 -7.4086 2.0373
-4.8331 -7.8257 2.0373
-4.1895 -8.1920 2.0373
-3.5180 -8.5051 2.0373
-2.8232 -8.7627 2.0373
-2.1096 -8.9631 2.0373
-1.3820 -9.1050 2.0373
-0.5136 -7.3140 1.6219
0.0762 -7.3193 1.6191
0.6679 -7.3246 1.6270
1.5713 -9.0741 2.0373
2.2958 -8.9170 2.0373
3.0050 -8.7017 2.0373
3.6942 -8.4296 2.0373
4.0329 -7.4965 1.8849
4.6212 -7.1453 1.8849
3.9668 -5.1684 1.4438
5.7023 -6.3063 1.8849
6.1988 -5.8344 1.8882
6.6700 -5.3343 1.8955
7.0979 -4.7942 1.9020
7.4790 -4.2179 1.9079
7.8097 -3.6098 1.9129
8.0872 -2.9743 1.9171
8.3092 -2.3164 1.9204
8.4735 -1.6413 1.9229
8.5789 -0.9543 1.9244
8.6244 -0.2607 1.9250
8.6098 0.4337 1.9247
8.5353 1.1236 1.9234
8.4017 1.8035 1.9212
8.2105 2.4682 1.9181
7.9635 3.1124 1.9142
7.6630 3.7315 1.9094
7.3119 4.3209 1.9039
6.9134 4.8763 1.8976
6.4710 5.3941 1.8906
5.9946 5.8766 1.8849
5.4994 6.3369 1.8849
4.9693 6.7560 1.8849
4.4075 7.1313 1.8849
3.9603 7.7388 1.9553
3.4630 8.3670 2.0373
2.7775 8.6165 2.0373
2.0744 8.8104 2.0373
1.3583 8.9476 2.0373
0.6335 9.0272 2.0373
-0.0953 9.0486 2.0373
-0.8234 9.0119 2.0373
-1.5464 8.9172 2.0373
-2.2596 8.7650 2.0373
-2.9584 8.5564 2.0373
-3.6385 8.2925 2.0373
-4.2956 7.9752 2.0373
-4.9254 7.6062 2.0373
-5.5239 7.1880 2.0373
-6.0873 6.7230 2.0373
-6.6120 6.2143 2.0373
-7.0945 5.6649 2.0373
-7.5317 5.0784 2.0373
-7.9208 4.4584 2.0373
-8.2591 3.8088 2.0373
-8.5444 3.1338 2.0373
-8.7748 2.4376 2.0373
-8.9487 1.7247 2.0373
-9.0648 0.9997 2.0373
-9.1224 0.2671 2.0373
-9.1208 -0.4681 2.0373
-9.0599 -1.2014 2.0373
-8.9402 -1.9278 2.0373
-8.7621 -2.6427 2.0373
-8.5268 -3.3414 2.0373
-8.2357 -4.0192 2.0373
-7.8906 -4.6717 2.0373
-7.4937 -5.2946 2.0373
-7.0475 -5.8836 2.0373
-6.5548 -6.4349 2.0373
-6.0189 -6.9448 2.0373
-5.4432 -7.4098 2.0373
-4.8314 -7.8268 2.0373
-4.1876 -8.1930 2.0373
-3.5161 -8.5058 2.0373
-2.8212 -8.7633 2.0373
-2.1076 -8.9636 2.0373
-1.3800 -9.1053 2.0373
-0.5120 -7.3141 1.6219
0.0779 -7.3193 1.6191
0.6696 -7.3247 1.6270
1.5733 -9.0738 2.0373
2.2977 -8.9165 2.0373
3.0069 -8.7010 2.0373
3.6961 -8.4288 2.0373
4.0346 -7.4956 1.8849
4.6228 -7.1442 1.8849
3.9670 -5.1662 1.4434
5.7037 -6.3050 1.8849
6.2002 -5.8330 1.8883
6.6713 -5.3328 1.8955
5.8481 -4.6795 1.8849
6.2131 -4.1990 1.8882
6.5448 -3.6934 1.8933
6.8327 -3.1604 1.8976
7.0743 -2.6040 1.9013
7.2675 -2.0282 1.9042
7.4109 -1.4376 1.9063
7.5030 -0.8367 1.9077
7.5433 -0.2302 1.9082
7.5315 0.3773 1.9079
7.4677 0.9810 1.9068
7.3527 1.5762 1.9050
7.1875 2.1585 1.9023
6.9737 2.7234 1.8989
6.7134 3.2668 1.8948
6.4087 3.7848 1.8899
6.0625 4.2737 1.8845
5.6974 4.7466 1.8849
5.2943 5.1873 1.8849
4.8574 5.5943 1.8849
4.3896 5.9647 1.8849
3.9539 6.3937 1.9141
3.6459 7.1201 2.0373
3.0601 7.3885 2.0373
2.4548 7.6092 2.0373
1.8339 7.7808 2.0373
1.2014 7.9022 2.0373
0.5613 7.9727 2.0373
-0.0824 7.9918 2.0373
-0.7255 7.9595 2.0373
-1.3641 7.8758 2.0373
-1.9940 7.7414 2.0373
-2.6112 7.5572 2.0373
-3.2118 7.3241 2.0373
-3.7921 7.0437 2.0373
-4.3482 6.7177 2.0373
-4.8766 6.3481 2.0373
-5.3740 5.9374 2.0373
-5.8370 5.4878 2.0373
-6.2628 5.0026 2.0373
-6.6485 4.4846 2.0373
-6.9917 3.9370 2.0373
-7.2900 3.3634 2.0373
-7.5414 2.7674 2.0373
-7.7444 2.1528 2.0373
-7.8974 1.5235 2.0373
-7.9994 0.8835 2.0373
-8.0496 0.2371 2.0373
-8.0477 -0.4117 2.0373
-7.9936 -1.0586 2.0373
-7.8874 -1.6994 2.0373
-7.7299 -2.3300 2.0373
-7.5219 -2.9461 2.0373
-7.2647 -3.5438 2.0373
-6.9600 -4.1191 2.0373
-6.6096 -4.6682 2.0373
-6.2158 -5.1874 2.0373
-5.7811 -5.6733 2.0373
-5.3083 -6.1227 2.0373
-4.8006 -6.5324 2.0373
-4.2611 -6.8999 2.0373
-3.6934 -7.2226 2.0373
-3.1014 -7.4983 2.0373
-2.4888 -7.7252 2.0373
-1.8597 -7.9017 2.0373
-1.2182 -8.0267 2.0373
-0.5137 -7.3155 1.8402
0.0762 -7.3207 1.8370
0.6680 -7.3261 1.8460
1.3851 -7.9995 2.0373
2.0238 -7.8611 2.0373
2.6490 -7.6715 2.0373
3.2567 -7.4318 2.0373
3.7953 -7.0553 2.0121
4.0743 -6.3000 1.8849
3.9437 -5.1386 1.6280
5.0279 -5.5608 1.8849
5.4565 -5.1361 1.8849
5.8492 -4.6782 1.8849
6.2141 -4.1976 1.8882
6.5457 -3.6920 1.8933
6.8334 -3.1589 1.8977
7.0749 -2.6024 1.9013
7.2680 -2.0266 1.9042
7.4112 -1.4360 1.9064
7.5032 -0.8350 1.9077
7.5434 -0.2285 1.9082
7.5314 0.3790 1.9079
7.4675 0.9826 1.9068
7.3523 1.5778 1.9049
7.1870 2.1601 1.9023
6.9731 2.7250 1.8989
6.7126 3.2683 1.8947
6.4078 3.7862 1.8899
6.0615 4.2750 1.8845
5.6963 4.7479 1.8849
5.2931 5.1885 1.8849
4.8562 5.5953 1.8849
4.3883 5.9657 1.8849
3.9538 6.3968 1.9147
3.6443 7.1209 2.0373
3.0584 7.3892 2.0373
2.4531 7.6097 2.0373
1.8322 7.7812 2.0373
1.1997 7.9024 2.0373
0.5595 7.9728 2.0373
-0.0841 7.9918 2.0373
-0.7273 7.9593 2.0373
-1.3658 7.8755 2.0373
-1.9957 7.7410 2.0373
-2.6129 7.5566 2.0373
-3.2135 7.3234 2.0373
-3.7936 7.0428 2.0373
-4.3497 6.7167 2.0373
-4.8780 6.3471 2.0373
-5.3753 5.9362 2.0373
-5.8383 5.4867 2.0373
-6.2639 5.0013 2.0373
-6.6496 4.4831 2.0373
-6.9926 3.9355 2.0373
-7.2908 3.3618 2.0373
-7.5421 2.7657 2.0373
-7.7449 2.1510 2.0373
-7.8977 1.5217 2.0373
-7.9996 0.8817 2.0373
-8.0497 0.2353 2.0373
-8.0476 -0.4135 2.0373
-7.9933 -1.0604 2.0373
-7.8870 -1.7012 2.0373
-7.7294 -2.3317 2.0373
-7.5212 -2.9478 2.0373
-7.2639 -3.5454 2.0373
-6.9591 -4.1207 2.0373
-6.6086 -4.6697 2.0373
-6.2147 -5.1888 2.0373
-5.7799 -5.6746 2.0373
-5.3070 -6.1238 2.0373
-4.7991 -6.5335 2.0373
-4.2596 -6.9009 2.0373
-3.6918 -7.2234 2.0373
-3.0997 -7.4990 2.0373
-2.4870 -7.7257 2.0373
-1.8579 -7.9021 2.0373
-1.2164 -8.0270 2.0373
-0.5121 -7.3155 1.8402
0.0779 -7.3207 1.8371
0.6697 -7.3261 1.8460
1.3869 -7.9991 2.0373
2.0255 -7.8606 2.0373
2.6507 -7.6709 2.0373
3.2584 -7.4311 2.0373
3.7955 -7.0518 2.0114
4.0757 -6.2991 1.8849
3.9438 -5.1364 1.6276
5.0291 -5.5597 1.8849
5.4576 -5.1348 1.8849
5.8502 -4.6769 1.8849
5.2222 -4.1791 1.8849
5.5389 -3.7437 1.8849
5.8192 -3.2844 1.8849
6.0638 -2.8052 1.8857
6.2772 -2.3109 1.8889
6.4480 -1.7999 1.8915
6.5748 -1.2758 1.8933
6.6565 -0.7427 1.8945
6.6925 -0.2046 1.8950
6.6825 0.3344 1.8947
6.6268 0.8701 1.8938
6.5259 1.3986 1.8921
6.3807 1.9158 1.8898
6.1925 2.4180 1.8868
5.9688 2.9041 1.8849
5.7128 3.3734 1.8849
5.4201 3.8205 1.8849
5.0926 4.2424 1.8849
4.7326 4.6366 1.8849
4.3423 5.0006 1.8849
3.9491 5.3657 1.8969
3.7625 6.0838 2.0373
3.2596 6.3652 2.0373
2.7359 6.6054 2.0373
2.1948 6.8028 2.0373
1.6397 6.9563 2.0373
1.0742 7.0650 2.0373
0.5019 7.1281 2.0373
-0.0736 7.1452 2.0373
-0.6487 7.1163 2.0373
-1.2196 7.0414 2.0373
-1.7828 6.9212 2.0373
-2.3346 6.7563 2.0373
-2.8716 6.5477 2.0373
-3.3902 6.2969 2.0373
-3.8873 6.0052 2.0373
-4.3595 5.6747 2.0373
-4.8040 5.3072 2.0373
-5.2177 4.9052 2.0373
-5.5981 4.4712 2.0373
-5.9425 4.0080 2.0373
-6.2489 3.5184 2.0373
-6.5152 3.0055 2.0373
-6.7395 2.4727 2.0373
-6.9204 1.9233 2.0373
-7.0567 1.3609 2.0373
-7.1474 0.7890 2.0373
-7.1918 0.2114 2.0373
-7.1897 -0.3682 2.0373
-7.1408 -0.9461 2.0373
-7.0456 -1.5184 2.0373
-6.9044 -2.0816 2.0373
-6.7182 -2.6318 2.0373
-6.4882 -3.1654 2.0373
-6.2157 -3.6790 2.0373
-5.9024 -4.1691 2.0373
-5.5505 -4.6326 2.0373
-5.1621 -5.0662 2.0373
-4.7397 -5.4672 2.0373
-4.2861 -5.8329 2.0373
-3.8043 -6.1607 2.0373
-3.2974 -6.4486 2.0373
-2.7688 -6.6945 2.0373
-2.2218 -6.8970 2.0373
-1.6602 -7.0544 2.0373
-1.0875 -7.1659 2.0373
-0.5077 -7.2307 2.0373
0.0755 -7.2482 2.0373
0.6582 -7.2185 2.0373
1.2365 -7.1416 2.0373
1.8067 -7.0182 2.0373
2.3649 -6.8490 2.0373
2.9075 -6.6353 2.0373
3.4309 -6.3783 2.0373
3.8140 -5.8980 1.9764
3.9205 -5.1087 1.8126
4.4893 -4.9656 1.8849
4.8722 -4.5865 1.8849
5.2231 -4.1779 1.8849
5.5397 -3.7424 1.8849
5.8200 -3.2831 1.8849
6.0644 -2.8038 1.8857
6.2777 -2.3096 1.8889
6.4484 -1.7984 1.8915
6.5751 -1.2743 1.8933
6.6566 -0.7412 1.8945
6.6925 -0.2031 1.8950
6.6824 0.3359 1.8947
6.6266 0.8716 1.8938
6.5255 1.4000 1.8921
6.3802 1.9172 1.8898
6.1920 2.4193 1.8868
5.9681 2.9055 1.8849
5.7120 3.3747 1.8849
5.4192 3.8217 1.8849
5.0917 4.2436 1.8849
4.7316 4.6377 1.8849
4.3411 5.0015 1.8849
3.9487 5.3677 1.8973
3.7612 6.0847 2.0373
3.2582 6.3659 2.0373
2.7344 6.6060 2.0373
2.1933 6.8033 2.0373
1.6382 6.9567 2.0373
1.0726 7.0652 2.0373
0.5003 7.1282 2.0373
-0.0752 7.1452 2.0373
-0.6503 7.1161 2.0373
-1.2212 7.0412 2.0373
-1.7843 6.9208 2.0373
-2.3361 6.7558 2.0373
-2.8730 6.5471 2.0373
-3.3916 6.2961 2.0373
-3.8886 6.0044 2.0373
-4.3608 5.6737 2.0373
-4.8052 5.3062 2.0373
-5.2188 4.9041 2.0373
-5.5991 4.4700 2.0373
-5.9434 4.0067 2.0373
-6.2497 3.5170 2.0373
-6.5158 3.0040 2.0373
-6.7400 2.4712 2.0373
-6.9209 1.9218 2.0373
-7.0570 1.3593 2.0373
-7.1476 0.7874 2.0373
-7.1919 0.2098 2.0373
-7.1896 -0.3698 2.0373
-7.1406 -0.9477 2.0373
-7.0452 -1.5200 2.0373
-6.9040 -2.0831 2.0373
-6.7177 -2.6333 2.0373
-6.4875 -3.1668 2.0373
-6.2148 -3.6804 2.0373
-5.9015 -4.1704 2.0373
-5.5494 -4.6338 2.0373
-5.1609 -5.0674 2.0373
-4.7385 -5.4683 2.0373
-4.2849 -5.8338 2.0373
-3.8030 -6.1616 2.0373
-3.2960 -6.4493 2.0373
-2.7673 -6.6952 2.0373
-2.2203 -6.8975 2.0373
-1.6586 -7.0548 2.0373
-1.0859 -7.1662 2.0373
-0.5061 -7.2308 2.0373
0.0771 -7.2482 2.0373
0.6598 -7.2183 2.0373
1.2381 -7.1413 2.0373
1.8082 -7.0178 2.0373
2.3664 -6.8485 2.0373
2.9090 -6.6346 2.0373
3.4323 -6.3776 2.0373
3.8141 -5.8952 1.9758
3.9206 -5.1066 1.8122
4.4904 -4.9645 1.8849
4.8733 -4.5854 1.8849
5.2240 -4.1767 1.8849
4.7100 -3.7695 1.8849
4.9958 -3.3770 1.8849
5.2489 -2.9628 1.8849
5.4677 -2.5297 1.8849
5.6507 -2.0807 1.8849
5.7969 -1.6185 1.8849
5.9053 -1.1462 1.8849
5.9718 -0.6666 1.8839
6.0043 -0.1839 1.8843
5.9958 0.2997 1.8841
5.9518 0.7811 1.8849
5.8665 1.2569 1.8849
5.7434 1.7241 1.8849
5.5832 2.1797 1.8849
5.3871 2.6207 1.8849
5.1562 3.0444 1.8849
4.8923 3.4481 1.8849
4.5969 3.8291 1.8849
4.2721 4.1851 1.8849
3.9418 4.5390 1.8955
3.8290 5.2022 2.0373
3.3967 5.4920 2.0373
2.9428 5.7461 2.0373
2.4700 5.9631 2.0373
1.9815 6.1414 2.0373
1.4804 6.2801 2.0373
0.9699 6.3783 2.0373
0.4531 6.4353 2.0373
-0.0665 6.4508 2.0373
-0.5857 6.4246 2.0373
-1.1011 6.3570 2.0373
-1.6096 6.2484 2.0373
-2.1078 6.0994 2.0373
-2.5925 5.9110 2.0373
-3.0607 5.6844 2.0373
-3.5093 5.4210 2.0373
-3.9356 5.1224 2.0373
-4.3366 4.7906 2.0373
-4.7099 4.4275 2.0373
-5.0531 4.0356 2.0373
-5.3638 3.6173 2.0373
-5.6401 3.1752 2.0373
-5.8801 2.7123 2.0373
-6.0823 2.2312 2.0373
-6.2453 1.7353 2.0373
-6.3679 1.2277 2.0373
-6.4495 0.7116 2.0373
-6.4892 0.1904 2.0373
-6.4869 -0.3326 2.0373
-6.4425 -0.8539 2.0373
-6.3562 -1.3703 2.0373
-6.2286 -1.8782 2.0373
-6.0603 -2.3744 2.0373
-5.8525 -2.8557 2.0373
-5.6064 -3.3188 2.0373
-5.3237 -3.7607 2.0373
-5.0060 -4.1785 2.0373
-4.6555 -4.5695 2.0373
-4.2745 -4.9309 2.0373
-3.8653 -5.2605 2.0373
-3.4307 -5.5560 2.0373
-2.9735 -5.8155 2.0373
-2.4967 -6.0371 2.0373
-2.0035 -6.2195 2.0373
-1.4970 -6.3614 2.0373
-0.9806 -6.4619 2.0373
-0.4578 -6.5202 2.0373
0.0681 -6.5360 2.0373
0.5935 -6.5092 2.0373
1.1150 -6.4400 2.0373
1.6291 -6.3288 2.0373
2.1325 -6.1763 2.0373
2.6218 -5.9837 2.0373
3.0939 -5.7521 2.0373
3.5455 -5.4831 2.0373
3.8262 -4.9862 1.9617
4.0487 -4.4785 1.8849
4.3942 -4.1368 1.8849
4.7108 -3.7685 1.8849
4.9966 -3.3759 1.8849
5.2496 -2.9616 1.8849
5.4682 -2.5285 1.8849
5.6512 -2.0794 1.8849
5.7972 -1.6172 1.8849
5.9055 -1.1449 1.8849
5.9720 -0.6653 1.8839
6.0043 -0.1826 1.8843
5.9957 0.3010 1.8841
5.9516 0.7825 1.8849
5.8663 1.2583 1.8849
5.7430 1.7254 1.8849
5.5827 2.1809 1.8849
5.3865 2.6219 1.8849
5.1555 3.0456 1.8849
4.8915 3.4491 1.8849
4.5960 3.8301 1.8849
4.2711 4.1860 1.8849
3.9415 4.5407 1.8958
3.8278 5.2031 2.0373
3.3955 5.4927 2.0373
2.9415 5.7468 2.0373
2.4687 5.9636 2.0373
1.9802 6.1419 2.0373
1.4790 6.2805 2.0373
0.9684 6.3785 2.0373
0.4517 6.4354 2.0373
-0.0679 6.4507 2.0373
-0.5871 6.4245 2.0373
-1.1026 6.3568 2.0373
-1.6110 6.2480 2.0373
-2.1091 6.0990 2.0373
-2.5938 5.9105 2.0373
-3.0620 5.6837 2.0373
-3.5106 5.4202 2.0373
-3.9367 5.1215 2.0373
-4.3377 4.7896 2.0373
-4.7109 4.4265 2.0373
-5.0540 4.0345 2.0373
-5.3646 3.6161 2.0373
-5.6408 3.1739 2.0373
-5.8807 2.7109 2.0373
-6.0828 2.2299 2.0373
-6.2457 1.7339 2.0373
-6.3682 1.2263 2.0373
-6.4496 0.7102 2.0373
-6.4893 0.1889 2.0373
-6.4869 -0.3340 2.0373
-6.4423 -0.8554 2.0373
-6.3560 -1.3717 2.0373
-6.2282 -1.8796 2.0373
-6.0598 -2.3758 2.0373
-5.8519 -2.8570 2.0373
-5.6057 -3.3200 2.0373
-5.3228 -3.7619 2.0373
-5.0051 -4.1796 2.0373
-4.6545 -4.5705 2.0373
-4.2734 -4.9319 2.0373
-3.8641 -5.2614 2.0373
-3.4295 -5.5568 2.0373
-2.9722 -5.8161 2.0373
-2.4954 -6.0377 2.0373
-2.0021 -6.2200 2.0373
-1.4956 -6.3618 2.0373
-0.9792 -6.4621 2.0373
-0.4563 -6.5203 2.0373
0.0695 -6.5360 2.0373
0.5949 -6.5091 2.0373
1.1164 -6.4397 2.0373
1.6305 -6.3284 2.0373
2.1339 -6.1759 2.0373
2.6231 -5.9831 2.0373
3.0951 -5.7514 2.0373
3.5467 -5.4823 2.0373
3.8263 -4.9841 1.9612
4.0497 -4.4776 1.8849
4.3951 -4.1358 1.8849
4.7116 -3.7674 1.8849
4.2824 -3.4277 1.8849
4.5425 -3.0709 1.8849
4.7728 -2.6944 1.8849
4.9719 -2.3007 1.8849
5.1386 -1.8924 1.8849
5.2717 -1.4722 1.8849
5.3705 -1.0428 1.8849
5.4343 -0.6070 1.8849
5.4629 -0.1676 1.8849
5.4560 0.2724 1.8849
5.4137 0.7102 1.8849
5.3364 1.1430 1.8849
5.2247 1.5681 1.8849
5.0791 1.9826 1.8849
4.9009 2.3839 1.8849
4.6911 2.7695 1.8849
4.4511 3.1368 1.8849
4.1825 3.4836 1.8849
3.9290 3.8486 1.9053
3.8551 4.4388 2.0373
3.4841 4.7333 2.0373
3.0909 4.9971 2.0373
2.6778 5.2285 2.0373
2.2477 5.4260 2.0373
1.8032 5.5884 2.0373
1.3472 5.7147 2.0373
0.8826 5.8041 2.0373
0.4124 5.8559 2.0373
-0.0605 5.8700 2.0373
-0.5330 5.8462 2.0373
-1.0021 5.7847 2.0373
-1.4647 5.6858 2.0373
-1.9181 5.5501 2.0373
-2.3591 5.3786 2.0373
-2.7851 5.1723 2.0373
-3.1933 4.9325 2.0373
-3.5811 4.6607 2.0373
-3.9459 4.3586 2.0373
-4.2855 4.0281 2.0373
-4.5975 3.6714 2.0373
-4.8801 3.2907 2.0373
-5.1312 2.8884 2.0373
-5.3494 2.4671 2.0373
-5.5331 2.0294 2.0373
-5.6811 1.5782 2.0373
-5.7925 1.1164 2.0373
-5.8664 0.6469 2.0373
-5.9023 0.1729 2.0373
-5.9000 -0.3030 2.0373
-5.8593 -0.7770 2.0373
-5.7806 -1.2465 2.0373
-5.6643 -1.7084 2.0373
-5.5110 -2.1595 2.0373
-5.3218 -2.5971 2.0373
-5.0979 -3.0181 2.0373
-4.8406 -3.4198 2.0373
-4.5516 -3.7996 2.0373
-4.2328 -4.1549 2.0373
-3.8862 -4.4834 2.0373
-3.5141 -4.7829 2.0373
-3.1189 -5.0514 2.0373
-2.7032 -5.2872 2.0373
-2.2697 -5.4886 2.0373
-1.8213 -5.6543 2.0373
-1.3608 -5.7833 2.0373
-0.8914 -5.8745 2.0373
-0.4162 -5.9275 2.0373
0.0619 -5.9419 2.0373
0.5395 -5.9175 2.0373
1.0136 -5.8546 2.0373
1.4810 -5.7536 2.0373
0.7003 -2.0283 0.7359
2.3835 -5.4400 2.0373
2.8126 -5.2296 2.0373
3.2233 -4.9852 2.0373
3.6128 -4.7085 2.0373
3.8337 -4.2411 1.9632
3.9952 -3.7615 1.8849
4.2832 -3.4267 1.8849
4.5432 -3.0699 1.8849
4.7734 -2.6933 1.8849
4.9724 -2.2996 1.8849
5.1390 -1.8913 1.8849
5.2720 -1.4710 1.8849
5.3707 -1.0416 1.8849
5.4345 -0.6057 1.8849
5.4629 -0.1664 1.8849
5.4559 0.2736 1.8849
5.4136 0.7114 1.8849
5.3362 1.1442 1.8849
5.2243 1.5692 1.8849
5.0787 1.9837 1.8849
4.9003 2.3850 1.8849
4.6904 2.7705 1.8849
4.4504 3.1378 1.8849
4.1817 3.4845 1.8849
3.9289 3.8503 1.9057
3.8541 4.4397 2.0373
3.4831 4.7341 2.0373
3.0897 4.9978 2.0373
2.6767 5.2291 2.0373
2.2465 5.4265 2.0373
1.8020 5.5888 2.0373
1.3459 5.7150 2.0373
0.8813 5.8042 2.0373
0.4111 5.8560 2.0373
-0.0618 5.8700 2.0373
-0.5343 5.8461 2.0373
-1.0034 5.7845 2.0373
-1.4660 5.6854 2.0373
-1.9193 5.5497 2.0373
-2.3603 5.3781 2.0373
-2.7863 5.1717 2.0373
-3.1944 4.9318 2.0373
-3.5821 4.6599 2.0373
-3.9469 4.3577 2.0373
-4.2864 4.0272 2.0373
-4.5983 3.6704 2.0373
-4.8808 3.2896 2.0373
-5.1319 2.8872 2.0373
-5.3500 2.4659 2.0373
-5.5336 2.0282 2.0373
-5.6815 1.5770 2.0373
-5.7927 1.1151 2.0373
-5.8665 0.6456 2.0373
-5.9024 0.1712 2.0373
-5.8999 -0.3041 2.0373
-5.8592 -0.7783 2.0373
-5.7803 -1.2478 2.0373
-5.6639 -1.7096 2.0373
-5.5106 -2.1608 2.0373
-5.3213 -2.5983 2.0373
-5.0972 -3.0192 2.0373
-4.8398 -3.4209 2.0373
-4.5507 -3.8006 2.0373
-4.2319 -4.1558 2.0373
-3.8852 -4.4842 2.0373
-3.5130 -4.7837 2.0373
-3.1178 -5.0521 2.0373
-2.7020 -5.2878 2.0373
-2.2685 -5.4891 2.0373
-1.8200 -5.6547 2.0373
-1.3596 -5.7836 2.0373
-0.8901 -5.8747 2.0373
-0.4148 -5.9276 2.0373
0.0632 -5.9419 2.0373
0.5408 -5.9174 2.0373
1.0149 -5.8544 2.0373
1.4822 -5.7532 2.0373
0.7007 -2.0281 0.7359
2.3847 -5.4395 2.0373
2.8138 -5.2290 2.0373
3.2244 -4.9845 2.0373
3.6138 -4.7077 2.0373
3.8338 -4.2392 1.9628
3.9960 -3.7606 1.8849
4.2840 -3.4258 1.8849
3.9197 -3.1377 1.8849
4.1578 -2.8111 1.8849
4.3688 -2.4666 1.8849
4.5512 -2.1063 1.8849
4.7039 -1.7326 1.8849
4.8259 -1.3480 1.8849
4.9165 -0.9549 1.8849
4.9752 -0.5560 1.8849
5.0015 -0.1538 1.8849
4.9954 0.2491 1.8849
4.9568 0.6500 1.8849
4.8863 1.0463 1.8849
4.7841 1.4355 1.8849
4.6510 1.8152 1.8849
4.4879 2.1827 1.8849
4.2959 2.5359 1.8849
4.0839 2.8777 1.8885
3.9186 3.2635 1.9283
3.8478 3.7688 2.0373
3.5307 4.0650 2.0373
3.1911 4.3349 2.0373
2.8309 4.5766 2.0373
2.4527 4.7886 2.0373
0.7582 1.8301 0.7503
0.6084 1.8854 0.7505
0.4547 1.9285 0.7506
0.2979 1.9589 0.7508
0.3777 5.3635 2.0373
-0.0554 5.3764 2.0373
-0.1799 1.9733 0.7508
-0.3382 1.9523 0.7507
-0.4943 1.9186 0.7506
-0.6471 1.8724 0.7504
-2.1608 4.9262 2.0373
-2.5510 4.7371 2.0373
-2.9248 4.5174 2.0373
-3.2799 4.2683 2.0373
-3.6139 3.9916 2.0373
-3.9248 3.6888 2.0373
-4.2105 3.3620 2.0373
-4.4691 3.0133 2.0373
-4.6990 2.6447 2.0373
-4.8986 2.2588 2.0373
-5.0667 1.8580 2.0373
-5.2020 1.4448 2.0373
-5.3038 1.0219 2.0373
-5.3713 0.5920 2.0373
-5.4040 0.1579 2.0373
-5.4016 -0.2776 2.0373
-5.3642 -0.7116 2.0373
-5.2919 -1.1415 2.0373
-5.1853 -1.5642 2.0373
-5.0448 -1.9772 2.0373
-4.8714 -2.3776 2.0373
-4.6663 -2.7629 2.0373
-4.4306 -3.1305 2.0373
-4.1660 -3.4780 2.0373
-3.8741 -3.8031 2.0373
-3.5568 -4.1037 2.0373
-3.2162 -4.3777 2.0373
-2.8544 -4.6234 2.0373
-2.4739 -4.8390 2.0373
-0.7511 -1.8165 0.7367
-0.6026 -1.8708 0.7365
-0.4501 -1.9130 0.7364
-0.2948 -1.9429 0.7363
-0.1376 -1.9603 0.7362
0.0205 -1.9649 0.7362
0.1784 -1.9570 0.7362
0.3352 -1.9364 0.7363
0.4899 -1.9033 0.7364
0.6414 -1.8579 0.7366
2.1813 -4.9788 2.0373
2.5741 -4.7863 2.0373
2.9500 -4.5628 2.0373
3.3065 -4.3096 2.0373
3.6413 -4.0286 2.0373
3.8375 -3.6134 1.9782
3.9204 -3.1369 1.8849
4.1584 -2.8102 1.8849
4.3693 -2.4656 1.8849
4.5516 -2.1053 1.8849
4.7043 -1.7316 1.8849
4.8262 -1.3469 1.8849
4.9167 -0.9538 1.8849
4.9753 -0.5549 1.8849
5.0015 -0.1527 1.8849
4.9953 0.2502 1.8849
4.9567 0.6511 1.8849
4.8860 1.0474 1.8849
4.7837 1.4366 1.8849
4.6506 1.8162 1.8849
4.4874 2.1837 1.8849
4.2953 2.5368 1.8849
4.0837 2.8790 1.8887
3.9185 3.2649 1.9287
3.8469 3.7696 2.0373
3.5298 4.0658 2.0373
3.1901 4.3356 2.0373
2.8299 4.5772 2.0373
2.4516 4.7891 2.0373
0.7578 1.8303 0.7503
0.6080 1.8856 0.7505
0.4542 1.9286 0.7507
0.2975 1.9590 0.7508
0.3765 5.3636 2.0373
-0.0566 5.3764 2.0373
-0.1804 1.9733 0.7508
-0.3387 1.9523 0.7507
-0.4947 1.9185 0.7506
-0.6475 1.8723 0.7504
-2.1619 4.9257 2.0373
-2.5520 4.7365 2.0373
-2.9258 4.5167 2.0373
-3.2808 4.2676 2.0373
-3.6148 3.9908 2.0373
-3.9256 3.6879 2.0373
-4.2112 3.3611 2.0373
-4.4698 3.0123 2.0373
-4.6996 2.6437 2.0373
-4.8991 2.2577 2.0373
-5.0671 1.8569 2.0373
-5.2024 1.4436 2.0373
-5.3040 1.0207 2.0373
-5.3714 0.5908 2.0373
-5.4040 0.1567 2.0373
-5.4016 -0.2788 2.0373
-5.3641 -0.7129 2.0373
-5.2917 -1.1426 2.0373
-5.1849 -1.5654 2.0373
-5.0444 -1.9783 2.0373
-4.8709 -2.3787 2.0373
-4.6657 -2.7639 2.0373
-4.4299 -3.1315 2.0373
-4.1652 -3.4789 2.0373
-3.8732 -3.8040 2.0373
-3.5559 -4.1045 2.0373
-3.2152 -4.3784 2.0373
-2.8534 -4.6240 2.0373
-2.4728 -4.8396 2.0373
-0.7507 -1.8167 0.7367
-0.6021 -1.8709 0.7365
-0.4497 -1.9131 0.7364
-0.2944 -1.9430 0.7363
-0.1372 -1.9603 0.7362
0.0209 -1.9649 0.7362
0.1788 -1.9569 0.7362
0.3356 -1.9363 0.7363
0.4903 -1.9032 0.7364
0.6418 -1.8578 0.7366
2.1824 -4.9783 2.0373
2.5751 -4.7858 2.0373
2.9510 -4.5621 2.0373
3.3075 -4.3089 2.0373
3.6422 -4.0277 2.0373
3.8376 -3.6118 1.9778
3.9211 -3.1359 1.8849
3.8381 -3.0726 2.0054
3.8620 -2.6115 1.9023
4.0296 -2.2750 1.8889
4.1891 -1.9390 1.8849
4.3297 -1.5951 1.8849
4.4422 -1.2411 1.8849
4.5258 -0.8793 1.8849
4.5799 -0.5121 1.8849
4.6043 -0.1418 1.8849
4.5988 0.2290 1.8849
4.5635 0.5981 1.8849
4.4986 0.9630 1.8849
4.4047 1.3214 1.8849
4.2823 1.6710 1.8849
4.1322 2.0094 1.8849
3.9556 2.3347 1.8849
3.9070 2.7528 1.9621
3.8123 3.1746 2.0373
3.5432 3.4702 2.0373
3.2513 3.7430 2.0373
2.9386 3.9916 2.0373
2.6070 4.2142 2.0373
2.2587 4.4095 2.0373
0.6977 1.6841 0.7497
0.5599 1.7350 0.7499
0.4184 1.7745 0.7501
0.2741 1.8026 0.7502
0.1281 1.8189 0.7502
-0.0188 1.8233 0.7503
-0.1656 1.8158 0.7502
-0.3112 1.7965 0.7502
-0.4549 1.7655 0.7500
-0.5955 1.7230 0.7499
-0.7322 1.6692 0.7497
-2.3492 4.3622 2.0373
-2.6934 4.1597 2.0373
-3.0204 3.9303 2.0373
-3.3279 3.6754 2.0373
-3.6141 3.3965 2.0373
-3.8771 3.0955 2.0373
-4.1151 2.7743 2.0373
-4.3267 2.4349 2.0373
-4.5104 2.0795 2.0373
-4.6650 1.7104 2.0373
-4.7895 1.3299 2.0373
-4.8830 0.9405 2.0373
-4.9450 0.5447 2.0373
-4.9749 0.1451 2.0373
-4.9726 -0.2558 2.0373
-4.9380 -0.6554 2.0373
-4.8713 -1.0510 2.0373
-4.7730 -1.4401 2.0373
-4.6435 -1.8202 2.0373
-4.4838 -2.1887 2.0373
-4.2949 -2.5433 2.0373
-4.0779 -2.8816 2.0373
-3.8342 -3.2013 2.0373
-3.5655 -3.5005 2.0373
-3.2734 -3.7770 2.0373
-2.9598 -4.0291 2.0373
-2.6269 -4.2551 2.0373
-2.2767 -4.4535 2.0373
-0.6917 -1.6730 0.7373
-0.5549 -1.7230 0.7371
-0.4145 -1.7619 0.7369
-0.2715 -1.7894 0.7368
-0.1267 -1.8054 0.7368
0.0188 -1.8097 0.7368
0.1643 -1.8024 0.7368
0.3087 -1.7834 0.7369
0.4511 -1.7529 0.7370
0.5907 -1.7111 0.7371
0.7264 -1.6583 0.7373
2.3688 -4.4050 2.0373
2.7148 -4.1994 2.0373
3.0430 -3.9665 2.0373
3.3512 -3.7079 2.0373
3.6374 -3.4253 2.0373
3.8382 -3.0712 2.0051
3.8621 -2.6102 1.9021
4.0298 -2.2745 1.8888
4.1895 -1.9381 1.8849
4.3301 -1.5941 1.8849
4.4425 -1.2401 1.8849
4.5260 -0.8783 1.8849
4.5800 -0.5111 1.8849
4.6043 -0.1408 1.8849
4.5987 0.2300 1.8849
4.5633 0.5991 1.8849
4.4984 0.9640 1.8849
4.4044 1.3224 1.8849
4.2819 1.6719 1.8849
4.1318 2.0104 1.8849
3.9550 2.3355 1.8849
3.9070 2.7541 1.9624
3.8116 3.1755 2.0373
3.5424 3.4709 2.0373
3.2505 3.7438 2.0373
2.9377 3.9923 2.0373
2.6061 4.2148 2.0373
2.2577 4.4101 2.0373
0.6973 1.6842 0.7497
0.5595 1.7351 0.7499
0.4180 1.7746 0.7501
0.2737 1.8026 0.7502
0.1277 1.8189 0.7502
-0.0192 1.8233 0.7503
-0.1660 1.8158 0.7502
-0.3116 1.7964 0.7502
-0.4553 1.7654 0.7500
-0.5959 1.7228 0.7499
-0.7326 1.6691 0.7497
-2.3502 4.3616 2.0373
-2.6944 4.1591 2.0373
-3.0212 3.9296 2.0373
-3.3287 3.6746 2.0373
-3.6149 3.3957 2.0373
-3.8778 3.0947 2.0373
-4.1158 2.7734 2.0373
-4.3272 2.4339 2.0373
-4.5108 2.0785 2.0373
-4.6654 1.7095 2.0373
-4.7898 1.3289 2.0373
-4.8832 0.9394 2.0373
-4.9451 0.5436 2.0373
-4.9749 0.1440 2.0373
-4.9725 -0.2569 2.0373
-4.9379 -0.6565 2.0373
-4.8711 -1.0521 2.0373
-4.7727 -1.4412 2.0373
-4.6431 -1.8212 2.0373
-4.4834 -2.1897 2.0373
-4.2943 -2.5442 2.0373
-4.0772 -2.8825 2.0373
-3.8335 -3.2022 2.0373
-3.5647 -3.5012 2.0373
-3.2725 -3.7777 2.0373
-2.9589 -4.0297 2.0373
-2.6259 -4.2557 2.0373
-2.2757 -4.4540 2.0373
-0.6914 -1.6731 0.7373
-0.5545 -1.7231 0.7371
-0.4141 -1.7620 0.7369
-0.2711 -1.7895 0.7368
-0.1263 -1.8054 0.7368
0.0192 -1.8097 0.7368
0.1647 -1.8023 0.7368
0.3091 -1.7833 0.7369
0.4515 -1.7528 0.7370
0.5911 -1.7110 0.7371
0.7268 -1.6581 0.7373
2.3698 -4.4045 2.0373
2.7157 -4.1987 2.0373
3.0439 -3.9658 2.0373
3.3520 -3.7071 2.0373
3.6382 -3.4245 2.0373
3.8383 -3.0699 2.0048
3.6054 -2.8866 2.0373
3.8246 -2.5864 2.0373
3.8568 -2.1781 1.9552
3.8821 -1.7972 1.8890
4.0039 -1.4753 1.8849
4.1080 -1.1480 1.8849
4.1854 -0.8134 1.8849
4.2355 -0.4738 1.8849
4.2582 -0.1315 1.8849
4.2532 0.2115 1.8849
4.2207 0.5529 1.8849
4.1608 0.8904 1.8849
4.0740 1.2220 1.8849
3.9609 1.5453 1.8849
3.9048 1.8986 1.9257
3.8941 2.2982 2.0061
3.7527 2.6438 2.0373
3.5266 2.9364 2.0373
3.2777 3.2098 2.0373
3.0078 3.4624 2.0373
2.7185 3.6924 2.0373
2.4118 3.8984 2.0373
0.7683 1.4997 0.7491
0.6451 1.5569 0.7493
0.5176 1.6039 0.7494
0.3868 1.6405 0.7496
0.2535 1.6664 0.7497
0.1184 1.6815 0.7497
-0.0174 1.6856 0.7497
-0.1531 1.6787 0.7497
-0.2878 1.6608 0.7497
-0.4206 1.6322 0.7496
-0.5506 1.5929 0.7494
-0.6770 1.5432 0.7492
-2.1733 4.0353 2.0373
-2.4917 3.8479 2.0373
-2.7941 3.6357 2.0373
-3.0786 3.3997 2.0373
-3.3433 3.1417 2.0373
-3.5865 2.8632 2.0373
-3.8066 2.5660 2.0373
-4.0022 2.2520 2.0373
-4.1720 1.9232 2.0373
-4.3149 1.5817 2.0373
-4.4299 1.2298 2.0373
-4.5163 0.8696 2.0373
-4.5735 0.5035 2.0373
-4.6011 0.1339 2.0373
-4.5988 -0.2369 2.0373
-4.5667 -0.6064 2.0373
-4.5049 -0.9723 2.0373
-4.4138 -1.3321 2.0373
-4.2940 -1.6835 2.0373
-4.1462 -2.0242 2.0373
-3.9714 -2.3520 2.0373
-3.7707 -2.6646 2.0373
-3.5453 -2.9603 2.0373
-3.2967 -3.2369 2.0373
-3.0266 -3.4925 2.0373
-2.7366 -3.7255 2.0373
-2.4287 -3.9344 2.0373
-0.7624 -1.4915 0.7379
-0.6399 -1.5478 0.7377
-0.5134 -1.5941 0.7376
-0.3835 -1.6301 0.7374
-0.2512 -1.6556 0.7373
-0.1172 -1.6704 0.7373
0.0174 -1.6744 0.7373
0.1520 -1.6676 0.7373
0.2856 -1.6500 0.7373
0.4174 -1.6218 0.7375
0.5465 -1.5831 0.7376
0.6721 -1.5342 0.7378
2.1901 -4.0730 2.0373
2.5101 -3.8829 2.0373
2.8135 -3.6676 2.0373
3.0985 -3.4286 2.0373
3.3633 -3.1674 2.0373
3.6060 -2.8858 2.0373
3.8252 -2.5855 2.0373
3.8568 -2.1769 1.9550
3.8822 -1.7962 1.8889
4.0042 -1.4744 1.8849
4.1082 -1.1470 1.8849
4.1855 -0.8125 1.8849
4.2356 -0.4729 1.8849
4.2582 -0.1305 1.8849
4.2532 0.2125 1.8849
4.2206 0.5539 1.8849
4.1606 0.8914 1.8849
4.0738 1.2229 1.8849
3.9606 1.5461 1.8849
3.9048 1.8997 1.9259
3.8941 2.2993 2.0063
3.7521 2.6447 2.0373
3.5259 2.9372 2.0373
3.2770 3.2106 2.0373
3.0070 3.4630 2.0373
2.7177 3.6930 2.0373
2.4109 3.8989 2.0373
0.7679 1.4999 0.7491
0.6447 1.5571 0.7493
0.5173 1.6041 0.7494
0.3865 1.6406 0.7496
0.2531 1.6665 0.7497
0.1181 1.6815 0.7497
-0.0178 1.6856 0.7497
-0.1534 1.6786 0.7497
-0.2881 1.6608 0.7497
-0.4209 1.6321 0.7496
-0.5509 1.5928 0.7494
-0.6774 1.5431 0.7492
-2.1742 4.0348 2.0373
-2.4926 3.8474 2.0373
-2.7949 3.6350 2.0373
-3.0794 3.3991 2.0373
-3.3440 3.1410 2.0373
-3.5871 2.8624 2.0373
-3.8072 2.5652 2.0373
-4.0027 2.2511 2.0373
-4.1724 1.9223 2.0373
-4.3153 1.5808 2.0373
-4.4302 1.2288 2.0373
-4.5165 0.8686 2.0373
-4.5736 0.5025 2.0373
-4.6011 0.1328 2.0373
-4.5988 -0.2379 2.0373
-4.5666 -0.6074 2.0373
-4.5047 -0.9733 2.0373
-4.4135 -1.3331 2.0373
-4.2937 -1.6844 2.0373
-4.1458 -2.0252 2.0373
-3.9709 -2.3529 2.0373
-3.7701 -2.6656 2.0373
-3.5446 -2.9612 2.0373
-3.2960 -3.2376 2.0373
-3.0258 -3.4932 2.0373
-2.7358 -3.7261 2.0373
-2.4278 -3.9350 2.0373
-0.7621 -1.4917 0.7379
-0.6396 -1.5480 0.7377
-0.5130 -1.5942 0.7376
-0.3831 -1.6302 0.7374
-0.2508 -1.6556 0.7373
-0.1169 -1.6704 0.7373
0.0178 -1.6744 0.7373
0.1524 -1.6676 0.7373
0.2860 -1.6500 0.7373
0.4177 -1.6217 0.7375
0.5468 -1.5830 0.7376
0.6724 -1.5341 0.7378
2.1910 -4.0725 2.0373
2.5109 -3.8823 2.0373
2.8143 -3.6670 2.0373
3.0993 -3.4279 2.0373
3.3640 -3.1667 2.0373
3.6066 -2.8849 2.0373
3.3468 -2.6798 2.0373
3.5504 -2.4012 2.0373
3.7308 -2.1072 2.0373
3.8493 -1.7823 2.0177
3.8639 -1.4240 1.9594
3.8756 -1.0833 1.9155
3.8933 -0.7569 1.8886
3.9324 -0.4402 1.8849
3.9535 -0.1223 1.8849
3.9490 0.1962 1.8849
3.9189 0.5131 1.8849
3.8981 0.8339 1.9019
3.8944 1.1678 1.9405
3.8884 1.5168 1.9928
3.8363 1.8650 2.0373
3.6724 2.1670 2.0373
3.4849 2.4548 2.0373
3.2749 2.7266 2.0373
3.0439 2.9806 2.0373
2.7932 3.2151 2.0373
2.5246 3.4288 2.0373
2.2398 3.6202 2.0373
0.7131 1.3920 0.7487
0.5988 1.4450 0.7489
0.4805 1.4887 0.7490
0.3590 1.5226 0.7491
0.2353 1.5467 0.7492
0.1099 1.5606 0.7493
-0.0161 1.5644 0.7493
-0.1421 1.5580 0.7493
-0.2671 1.5415 0.7492
-0.3904 1.5149 0.7491
-0.5111 1.4784 0.7490
-0.6284 1.4323 0.7488
-0.7416 1.3769 0.7486
-2.3141 3.5733 2.0373
-2.5949 3.3761 2.0373
-2.8590 3.1570 2.0373
-3.1048 2.9173 2.0373
-3.3305 2.6586 2.0373
-3.5349 2.3826 2.0373
-3.7165 2.0909 2.0373
-3.8741 1.7856 2.0373
-4.0067 1.4685 2.0373
-4.1134 1.1416 2.0373
-4.1935 0.8072 2.0373
-4.2465 0.4672 2.0373
-4.2720 0.1240 2.0373
-4.2698 -0.2201 2.0373
-4.2398 -0.5633 2.0373
-4.1824 -0.9029 2.0373
-4.0977 -1.2370 2.0373
-3.9864 -1.5631 2.0373
-3.8491 -1.8794 2.0373
-3.6867 -2.1837 2.0373
-3.5003 -2.4740 2.0373
-3.2910 -2.7483 2.0373
-3.0602 -3.0050 2.0373
-2.8094 -3.2422 2.0373
-2.5402 -3.4584 2.0373
-2.2544 -3.6523 2.0373
-0.7081 -1.3853 0.7383
-0.5943 -1.4376 0.7381
-0.4768 -1.4806 0.7380
-0.3562 -1.5140 0.7379
-0.2333 -1.5377 0.7378
-0.1089 -1.5514 0.7377
0.0162 -1.5552 0.7377
0.1412 -1.5489 0.7377
0.2653 -1.5325 0.7378
0.3876 -1.5063 0.7379
0.5075 -1.4704 0.7380
0.6242 -1.4250 0.7382
0.7368 -1.3703 0.7384
2.3299 -3.6045 2.0373
2.6116 -3.4047 2.0373
2.8762 -3.1829 2.0373
3.1220 -2.9405 2.0373
3.3474 -2.6791 2.0373
3.5509 -2.4004 2.0373
3.7313 -2.1064 2.0373
3.8494 -1.7813 2.0175
3.8639 -1.4230 1.9593
3.8756 -1.0823 1.9154
3.8934 -0.7560 1.8886
3.9325 -0.4394 1.8849
3.9536 -0.1214 1.8849
3.9490 0.1969 1.8849
3.9188 0.5140 1.8849
3.8981 0.8349 1.9020
3.8944 1.1688 1.9406
3.8884 1.5178 1.9930
3.8358 1.8658 2.0373
3.6719 2.1678 2.0373
3.4843 2.4556 2.0373
3.2743 2.7273 2.0373
3.0432 2.9813 2.0373
2.7925 3.2158 2.0373
2.5239 3.4293 2.0373
2.2390 3.6207 2.0373
0.7128 1.3921 0.7487
0.5984 1.4452 0.7489
0.4801 1.4888 0.7490
0.3587 1.5227 0.7491
0.2349 1.5467 0.7492
0.1096 1.5607 0.7493
-0.0165 1.5644 0.7493
-0.1424 1.5580 0.7493
-0.2674 1.5414 0.7492
-0.3907 1.5148 0.7491
-0.5114 1.4783 0.7490
-0.6287 1.4322 0.7488
-0.7419 1.3767 0.7486
-2.3149 3.5728 2.0373
-2.5956 3.3755 2.0373
-2.8597 3.1563 2.0373
-3.1054 2.9166 2.0373
-3.3311 2.6579 2.0373
-3.5354 2.3818 2.0373
-3.7169 2.0901 2.0373
-3.8745 1.7847 2.0373
-4.0070 1.4676 2.0373
-4.1136 1.1407 2.0373
-4.1937 0.8062 2.0373
-4.2466 0.4663 2.0373
-4.2720 0.1231 2.0373
-4.2697 -0.2212 2.0373
-4.2397 -0.5642 2.0373
-4.1822 -0.9039 2.0373
-4.0974 -1.2379 2.0373
-3.9861 -1.5640 2.0373
-3.8487 -1.8803 2.0373
-3.6863 -2.1845 2.0373
-3.4998 -2.4748 2.0373
-3.2904 -2.7491 2.0373
-3.0596 -3.0056 2.0373
-2.8087 -3.2428 2.0373
-2.5395 -3.4590 2.0373
-2.2536 -3.6528 2.0373
-0.7077 -1.3854 0.7383
-0.5940 -1.4377 0.7381
-0.4764 -1.4807 0.7380
-0.3558 -1.5141 0.7379
-0.2329 -1.5378 0.7378
-0.1085 -1.5515 0.7377
0.0165 -1.5552 0.7377
0.1415 -1.5488 0.7377
0.2656 -1.5325 0.7378
0.3880 -1.5062 0.7379
0.5078 -1.4703 0.7380
0.6245 -1.4248 0.7382
0.7371 -1.3701 0.7384
2.3307 -3.6040 2.0373
2.6124 -3.4041 2.0373
2.8769 -3.1822 2.0373
3.1227 -2.9398 2.0373
3.3480 -2.6783 2.0373
3.1172 -2.4962 2.0373
3.3068 -2.2368 2.0373
3.4749 -1.9630 2.0373
3.6204 -1.6766 2.0373
3.7422 -1.3794 2.0373
3.8397 -1.0735 2.0373
3.8614 -0.7509 2.0109
3.8684 -0.4332 1.9906
3.8732 -0.1201 1.9824
3.8758 0.1923 1.9859
3.8763 0.5073 2.0014
3.8745 0.8287 2.0291
3.8092 1.1420 2.0373
3.7036 1.4444 2.0373
3.5741 1.7373 2.0373
3.4215 2.0187 2.0373
3.2468 2.2869 2.0373
3.0513 2.5401 2.0373
2.8360 2.7768 2.0373
2.6025 2.9954 2.0373
2.3523 3.1945 2.0373
0.7663 1.2385 0.7481
0.6641 1.2963 0.7483
0.5576 1.3457 0.7485
0.4475 1.3863 0.7486
0.3344 1.4179 0.7488
0.2191 1.4403 0.7488
0.1024 1.4533 0.7489
-0.0150 1.4569 0.7489
-0.1323 1.4509 0.7489
-0.2487 1.4355 0.7488
-0.3635 1.4107 0.7487
-0.4759 1.3768 0.7486
-0.5852 1.3339 0.7484
-0.6907 1.2823 0.7483
-2.1561 3.3292 2.0373
-2.4178 3.1454 2.0373
-2.6638 2.9412 2.0373
-2.8928 2.7178 2.0373
-3.1031 2.4768 2.0373
-3.2934 2.2196 2.0373
-3.4625 1.9478 2.0373
-3.6093 1.6633 2.0373
-3.7327 1.3678 2.0373
-3.8321 1.0633 2.0373
-3.9066 0.7517 2.0373
-3.9559 0.4350 2.0373
-3.9796 0.1153 2.0373
-3.9774 -0.2054 2.0373
-3.9495 -0.5250 2.0373
-3.8959 -0.8413 2.0373
-3.8169 -1.1525 2.0373
-3.7132 -1.4563 2.0373
-3.5852 -1.7508 2.0373
-3.4339 -2.0342 2.0373
-3.2602 -2.3045 2.0373
-3.0652 -2.5600 2.0373
-2.8502 -2.7990 2.0373
-2.6166 -3.0199 2.0373
-2.3658 -3.2213 2.0373
-0.7615 -1.2338 0.7389
-0.6597 -1.2908 0.7387
-0.5538 -1.3396 0.7385
-0.4443 -1.3797 0.7384
-0.3319 -1.4108 0.7382
-0.2174 -1.4329 0.7382
-0.1015 -1.4457 0.7381
0.0151 -1.4492 0.7381
0.1315 -1.4433 0.7381
0.2472 -1.4281 0.7382
0.3612 -1.4037 0.7383
0.4729 -1.3702 0.7384
0.5816 -1.3278 0.7385
0.6865 -1.2769 0.7387
2.1699 -3.3572 2.0373
2.4323 -3.1712 2.0373
2.6788 -2.9647 2.0373
2.9078 -2.7389 2.0373
3.1177 -2.4955 2.0373
3.3073 -2.2360 2.0373
3.4754 -1.9621 2.0373
3.6207 -1.6757 2.0373
3.7425 -1.3786 2.0373
3.8399 -1.0727 2.0373
3.8614 -0.7501 2.0108
3.8684 -0.4324 1.9906
3.8732 -0.1192 1.9824
3.8758 0.1931 1.9860
3.8763 0.5082 2.0014
3.8745 0.8295 2.0292
3.8089 1.1429 2.0373
3.7033 1.4452 2.0373
3.5737 1.7381 2.0373
3.4210 2.0194 2.0373
3.2463 2.2876 2.0373
3.0507 2.5408 2.0373
2.8354 2.7774 2.0373
2.6019 2.9960 2.0373
2.3516 3.1950 2.0373
0.7660 1.2386 0.7481
0.6639 1.2964 0.7483
0.5573 1.3458 0.7485
0.4472 1.3864 0.7486
0.3341 1.4180 0.7488
0.2188 1.4404 0.7488
0.1020 1.4533 0.7489
-0.0153 1.4568 0.7489
-0.1326 1.4509 0.7489
-0.2491 1.4354 0.7488
-0.3639 1.4106 0.7487
-0.4763 1.3767 0.7486
-0.5855 1.3337 0.7484
-0.6910 1.2821 0.7482
-2.1569 3.3287 2.0373
-2.4185 3.1449 2.0373
-2.6645 2.9406 2.0373
-2.8934 2.7172 2.0373
-3.1036 2.4761 2.0373
-3.2939 2.2188 2.0373
-3.4629 1.9470 2.0373
-3.6096 1.6625 2.0373
-3.7330 1.3670 2.0373
-3.8323 1.0624 2.0373
-3.9068 0.7508 2.0373
-3.9560 0.4341 2.0373
-3.9796 0.1144 2.0373
-3.9774 -0.2063 2.0373
-3.9494 -0.5258 2.0373
-3.8957 -0.8422 2.0373
-3.8167 -1.1533 2.0373
-3.7128 -1.4571 2.0373
-3.5848 -1.7516 2.0373
-3.4334 -2.0350 2.0373
-3.2597 -2.3053 2.0373
-3.0646 -2.5607 2.0373
-2.8496 -2.7996 2.0373
-2.6159 -3.0205 2.0373
-2.3651 -3.2218 2.0373
-0.7612 -1.2339 0.7389
-0.6595 -1.2910 0.7387
-0.5535 -1.3397 0.7385
-0.4439 -1.3798 0.7384
-0.3316 -1.4109 0.7382
-0.2170 -1.4330 0.7382
-0.1011 -1.4457 0.7381
0.0154 -1.4492 0.7381
0.1319 -1.4433 0.7381
0.2475 -1.4280 0.7382
0.3615 -1.4036 0.7383
0.4732 -1.3701 0.7384
0.5819 -1.3277 0.7385
0.6868 -1.2767 0.7387
2.1707 -3.3567 2.0373
2.4330 -3.1707 2.0373
2.6795 -2.9641 2.0373
2.9084 -2.7383 2.0373
3.1183 -2.4948 2.0373
2.9116 -2.3318 2.0373
3.0888 -2.0895 2.0373
3.2458 -1.8338 2.0373
3.3817 -1.5663 2.0373
3.4956 -1.2888 2.0373
3.5867 -1.0030 2.0373
3.6545 -0.7110 2.0373
3.6986 -0.4145 2.0373
3.7186 -0.1155 2.0373
3.7145 0.1840 2.0373
3.6863 0.4822 2.0373
3.6343 0.7770 2.0373
3.5587 1.0666 2.0373
3.4601 1.3492 2.0373
3.3392 1.6228 2.0373
3.1967 1.8858 2.0373
3.0335 2.1364 2.0373
2.8509 2.3730 2.0373
2.6498 2.5942 2.0373
2.4317 2.7985 2.0373
2.1979 2.9846 2.0373
0.7157 1.1566 0.7478
0.6203 1.2106 0.7480
0.5208 1.2567 0.7482
0.4179 1.2947 0.7483
0.3123 1.3242 0.7484
0.2046 1.3451 0.7485
0.0956 1.3573 0.7485
-0.0140 1.3606 0.7485
-0.1236 1.3550 0.7485
-0.2323 1.3406 0.7485
-0.3395 1.3175 0.7484
-0.4445 1.2858 0.7483
-0.5466 1.2457 0.7481
-0.6451 1.1975 0.7479
-0.7394 1.1416 0.7477
-2.2591 2.9387 2.0373
-2.4889 2.7479 2.0373
-2.7028 2.5391 2.0373
-2.8993 2.3139 2.0373
-3.0771 2.0735 2.0373
-3.2350 1.8196 2.0373
-3.3721 1.5537 2.0373
-3.4873 1.2777 2.0373
-3.5801 0.9931 2.0373
-3.6497 0.7020 2.0373
-3.6956 0.4061 2.0373
-3.7177 0.1074 2.0373
-3.7156 -0.1921 2.0373
-3.6894 -0.4907 2.0373
-3.6393 -0.7862 2.0373
-3.5655 -1.0768 2.0373
-3.4685 -1.3605 2.0373
-3.3489 -1.6357 2.0373
-3.2075 -1.9003 2.0373
-3.0452 -2.1528 2.0373
-2.8630 -2.3914 2.0373
-2.6622 -2.6146 2.0373
-2.4439 -2.8209 2.0373
-2.2097 -3.0089 2.0373
-0.7115 -1.1529 0.7392
-0.6164 -1.2062 0.7390
-0.5174 -1.2518 0.7388
-0.4151 -1.2892 0.7387
-0.3101 -1.3184 0.7386
-0.2031 -1.3390 0.7385
-0.0948 -1.3510 0.7385
0.0141 -1.3542 0.7384
0.1229 -1.3487 0.7385
0.2309 -1.3345 0.7385
0.3375 -1.3117 0.7386
0.4419 -1.2804 0.7387
0.5434 -1.2408 0.7389
0.6415 -1.1932 0.7390
0.7354 -1.1379 0.7393
2.2718 -2.9622 2.0373
2.5020 -2.7693 2.0373
2.7159 -2.5585 2.0373
2.9121 -2.3312 2.0373
3.0892 -2.0888 2.0373
3.2462 -1.8331 2.0373
3.3821 -1.5655 2.0373
3.4959 -1.2880 2.0373
3.5869 -1.0022 2.0373
3.6547 -0.7102 2.0373
3.6987 -0.4137 2.0373
3.7186 -0.1147 2.0373
3.7145 0.1848 2.0373
3.6862 0.4830 2.0373
3.6341 0.7778 2.0373
3.5585 1.0674 2.0373
3.4598 1.3500 2.0373
3.3388 1.6236 2.0373
3.1962 1.8865 2.0373
3.0331 2.1371 2.0373
2.8503 2.3737 2.0373
2.6492 2.5948 2.0373
2.4311 2.7990 2.0373
2.1973 2.9850 2.0373
0.7155 1.1568 0.7478
0.6200 1.2108 0.7480
0.5205 1.2569 0.7482
0.4176 1.2948 0.7483
0.3120 1.3243 0.7484
0.2043 1.3452 0.7485
0.0953 1.3573 0.7485
-0.0143 1.3606 0.7485
-0.1239 1.3550 0.7485
-0.2326 1.3405 0.7485
-0.3398 1.3174 0.7484
-0.4448 1.2857 0.7483
-0.5469 1.2456 0.7481
-0.6454 1.1974 0.7479
-0.7396 1.1414 0.7477
-2.2597 2.9382 2.0373
-2.4896 2.7473 2.0373
-2.7034 2.5385 2.0373
-2.8998 2.3132 2.0373
-3.0775 2.0728 2.0373
-3.2354 1.8188 2.0373
-3.3724 1.5530 2.0373
-3.4876 1.2769 2.0373
-3.5803 0.9923 2.0373
-3.6498 0.7012 2.0373
-3.6957 0.4053 2.0373
-3.7177 0.1066 2.0373
-3.7156 -0.1930 2.0373
-3.6893 -0.4915 2.0373
-3.6391 -0.7870 2.0373
-3.5652 -1.0776 2.0373
-3.4682 -1.3613 2.0373
-3.3485 -1.6364 2.0373
-3.2071 -1.9011 2.0373
-3.0447 -2.1535 2.0373
-2.8625 -2.3920 2.0373
-2.6616 -2.6152 2.0373
-2.4433 -2.8214 2.0373
-2.2090 -3.0094 2.0373
-0.7112 -1.1530 0.7392
-0.6162 -1.2064 0.7390
-0.5172 -1.2519 0.7388
-0.4148 -1.2893 0.7387
-0.3098 -1.3185 0.7386
-0.2028 -1.3390 0.7385
-0.0945 -1.3510 0.7385
0.0144 -1.3542 0.7384
0.1232 -1.3487 0.7385
0.2312 -1.3344 0.7385
0.3378 -1.3116 0.7386
0.4422 -1.2803 0.7387
0.5437 -1.2407 0.7389
0.6417 -1.1930 0.7390
0.7356 -1.1377 0.7393
2.2724 -2.9617 2.0373
2.5026 -2.7687 2.0373
2.7165 -2.5579 2.0373
2.9126 -2.3305 2.0373
2.7261 -2.1836 2.0373
2.8921 -1.9567 2.0373
3.0392 -1.7173 2.0373
3.1665 -1.4668 2.0373
3.2732 -1.2070 2.0373
3.3585 -0.9395 2.0373
3.4221 -0.6660 2.0373
3.4634 -0.3883 2.0373
3.4822 -0.1084 2.0373
3.4784 0.1721 2.0373
3.4521 0.4513 2.0373
3.4034 0.7274 2.0373
3.3327 0.9987 2.0373
3.2404 1.2633 2.0373
3.1272 1.5196 2.0373
2.9938 1.7659 2.0373
2.8411 2.0006 2.0373
2.6700 2.2223 2.0373
2.4818 2.4294 2.0373
2.2775 2.6208 2.0373
0.7551 1.0252 0.7473
0.6701 1.0828 0.7475
0.5808 1.1334 0.7477
0.4876 1.1765 0.7479
0.3913 1.2121 0.7480
0.2924 1.2397 0.7481
0.1916 1.2593 0.7482
0.0895 1.2706 0.7482
-0.0131 1.2737 0.7482
-0.1157 1.2685 0.7482
-0.2175 1.2550 0.7481
-0.3179 1.2334 0.7481
-0.4162 1.2037 0.7480
-0.5118 1.1662 0.7478
-0.6040 1.1211 0.7477
-0.6923 1.0687 0.7475
-0.7760 1.0094 0.7472
-2.3311 2.5734 2.0373
-2.5314 2.3778 2.0373
-2.7154 2.1668 2.0373
-2.8818 1.9417 2.0373
-3.0297 1.7038 2.0373
-3.1580 1.4548 2.0373
-3.2659 1.1963 2.0373
-3.3527 0.9298 2.0373
-3.4178 0.6572 2.0373
-3.4608 0.3801 2.0373
-3.4814 0.1004 2.0373
-3.4794 -0.1801 2.0373
-3.4548 -0.4597 2.0373
-3.4078 -0.7364 2.0373
-3.3386 -1.0085 2.0373
-3.2477 -1.2742 2.0373
-3.1357 -1.5318 2.0373
-3.0033 -1.7796 2.0373
-2.8513 -2.0160 2.0373
-2.6807 -2.2393 2.0373
-2.4926 -2.4483 2.0373
-2.2882 -2.6414 2.0373
-0.7511 -1.0229 0.7397
-0.6664 -1.0799 0.7395
-0.5774 -1.1299 0.7393
-0.4846 -1.1725 0.7391
-0.3888 -1.2076 0.7390
-0.2904 -1.2349 0.7389
-0.1902 -1.2542 0.7388
-0.0888 -1.2655 0.7388
0.0132 -1.2685 0.7388
0.1151 -1.2633 0.7388
0.2163 -1.2500 0.7388
0.3161 -1.2286 0.7389
0.4139 -1.1993 0.7390
0.5090 -1.1622 0.7392
0.6008 -1.1176 0.7393
0.6888 -1.0658 0.7395
0.7723 -1.0071 0.7397
2.3426 -2.5931 2.0373
2.5429 -2.3957 2.0373
2.7266 -2.1829 2.0373
2.8925 -1.9561 2.0373
3.0396 -1.7166 2.0373
3.1668 -1.4661 2.0373
3.2734 -1.2063 2.0373
3.3587 -0.9387 2.0373
3.4222 -0.6652 2.0373
3.4635 -0.3876 2.0373
3.4822 -0.1076 2.0373
3.4784 0.1728 2.0373
3.4520 0.4521 2.0373
3.4032 0.7282 2.0373
3.3325 0.9994 2.0373
3.2401 1.2640 2.0373
3.1269 1.5203 2.0373
2.9934 1.7665 2.0373
2.8406 2.0013 2.0373
2.6695 2.2229 2.0373
2.4812 2.4300 2.0373
2.2769 2.6213 2.0373
0.7549 1.0254 0.7473
0.6699 1.0830 0.7475
0.5805 1.1335 0.7477
0.4874 1.1767 0.7479
0.3910 1.2121 0.7480
0.2921 1.2398 0.7481
0.1913 1.2593 0.7482
0.0892 1.2706 0.7482
-0.0134 1.2737 0.7482
-0.1160 1.2685 0.7482
-0.2178 1.2550 0.7481
-0.3182 1.2333 0.7481
-0.4165 1.2036 0.7480
-0.5120 1.1661 0.7478
-0.6042 1.1210 0.7477
-0.6925 1.0686 0.7475
-0.7762 1.0092 0.7472
-2.3317 2.5728 2.0373
-2.5319 2.3773 2.0373
-2.7158 2.1662 2.0373
-2.8823 1.9410 2.0373
-3.0301 1.7032 2.0373
-3.1583 1.4541 2.0373
-3.2662 1.1955 2.0373
-3.3529 0.9291 2.0373
-3.4180 0.6564 2.0373
-3.4609 0.3793 2.0373
-3.4814 0.0996 2.0373
-3.4793 -0.1809 2.0373
-3.4547 -0.4605 2.0373
-3.4076 -0.7372 2.0373
-3.3384 -1.0092 2.0373
-3.2475 -1.2749 2.0373
-3.1354 -1.5325 2.0373
-3.0029 -1.7803 2.0373
-2.8508 -2.0166 2.0373
-2.6802 -2.2399 2.0373
-2.4920 -2.4488 2.0373
-2.2876 -2.6419 2.0373
-0.7509 -1.0231 0.7397
-0.6662 -1.0800 0.7395
-0.5771 -1.1300 0.7393
-0.4844 -1.1726 0.7391
-0.3885 -1.2077 0.7390
-0.2902 -1.2350 0.7389
-0.1900 -1.2543 0.7388
-0.0885 -1.2655 0.7388
0.0135 -1.2685 0.7388
0.1154 -1.2633 0.7388
0.2166 -1.2500 0.7388
0.3164 -1.2286 0.7389
0.4141 -1.1992 0.7390
0.5092 -1.1621 0.7392
0.6010 -1.1175 0.7393
0.6890 -1.0656 0.7395
0.7725 -1.0069 0.7397
2.3432 -2.5925 2.0373
2.5434 -2.3952 2.0373
2.7271 -2.1823 2.0373
2.5578 -2.0489 2.0373
2.7135 -1.8361 2.0373
2.8516 -1.6115 2.0373
2.9710 -1.3765 2.0373
3.0712 -1.1327 2.0373
3.1513 -0.8817 2.0373
3.2110 -0.6252 2.0373
3.2498 -0.3647 2.0373
3.2675 -0.1020 2.0373
3.2640 0.1613 2.0373
3.2394 0.4233 2.0373
3.1937 0.6824 2.0373
3.1274 0.9369 2.0373
3.0409 1.1853 2.0373
2.9347 1.4258 2.0373
2.8095 1.6570 2.0373
2.6662 1.8773 2.0373
2.5057 2.0853 2.0373
2.3291 2.2798 2.0373
0.7835 0.9015 0.7468
0.7084 0.9618 0.7471
0.6287 1.0158 0.7473
0.5449 1.0632 0.7474
0.4575 1.1037 0.7476
0.3671 1.1371 0.7477
0.2743 1.1630 0.7478
0.1797 1.1813 0.7479
0.0840 1.1920 0.7479
-0.0123 1.1949 0.7479
-0.1085 1.1900 0.7479
-0.2041 1.1773 0.7479
-0.2982 1.1570 0.7478
-0.3905 1.1292 0.7477
-0.4801 1.0940 0.7476
-0.5667 1.0517 0.7474
-0.6495 1.0026 0.7472
