ply
format ascii 1.0
element vertex 2175
property float32 x
property float32 y
property float32 z
end_header
5.4875 5.0452 1.8853
5.0647 5.4695 1.8853
4.6092 5.8585 1.8853
4.1336 6.2244 1.8898
3.9039 7.0479 2.0377
3.3254 7.3386 2.0377
2.7254 7.5819 2.0377
2.1078 7.7763 2.0377
1.4766 7.9204 2.0377
0.8358 8.0134 2.0377
0.1897 8.0547 2.0377
-0.4577 8.0439 2.0377
-1.1021 7.9812 2.0377
-1.7394 7.8669 2.0377
-2.3655 7.7018 2.0377
-2.9763 7.4870 2.0377
-3.5678 7.2238 2.0377
-4.1364 6.9140 2.0377
-4.6782 6.5596 2.0377
-5.1898 6.1627 2.0377
-5.6679 5.7261 2.0377
-6.1094 5.2525 2.0377
-6.5114 4.7450 2.0377
-6.8714 4.2068 2.0377
-7.1870 3.6415 2.0377
-7.4562 3.0526 2.0377
-7.6772 2.4441 2.0377
-7.8487 1.8197 2.0377
-7.9695 1.1836 2.0377
-8.0388 0.5399 2.0377
-8.0562 -0.1073 2.0377
-8.0215 -0.7539 2.0377
-7.9351 -1.3955 2.0377
-7.7974 -2.0282 2.0377
-7.6094 -2.6477 2.0377
-7.3722 -3.2502 2.0377
-7.0874 -3.8317 2.0377
-6.7569 -4.3884 2.0377
-6.3827 -4.9168 2.0377
-5.9673 -5.4133 2.0377
-5.5133 -5.8751 2.0377
-5.0238 -6.2988 2.0377
-4.5018 -6.6819 2.0377
-3.9507 -7.0218 2.0377
-3.3741 -7.3163 2.0377
-2.7757 -7.5637 2.0377
-2.1595 -7.7621 2.0377
-1.5292 -7.9104 2.0377
-0.8891 -8.0077 2.0377
-0.2432 -8.0532 2.0377
0.4042 -8.0467 2.0377
1.0490 -7.9883 2.0377
1.6871 -7.8783 2.0377
2.3142 -7.7174 2.0377
6.6369 0.8472 1.8941
6.5420 1.3762 1.8925
6.4028 1.8948 1.8903
6.2204 2.3991 1.8874
6.0012 2.8877 1.8853
5.7499 3.3602 1.8853
5.4615 3.8111 1.8853
5.1379 4.2373 1.8853
4.7810 4.6362 1.8853
4.3933 5.0051 1.8853
3.9772 5.3417 1.8853
3.8213 6.1001 2.0377
3.3191 6.3872 2.0377
2.7955 6.6331 2.0377
2.2539 6.8361 2.0377
1.6977 6.9951 2.0377
1.1305 7.1088 2.0377
0.5561 7.1766 2.0377
-0.0220 7.1981 2.0377
-0.5999 7.1731 2.0377
-1.1739 7.1017 2.0377
-1.7404 6.9846 2.0377
-2.2956 6.8223 2.0377
-2.8360 6.6159 2.0377
-3.3581 6.3668 2.0377
-3.8585 6.0766 2.0377
-4.3339 5.7472 2.0377
-4.7814 5.3806 2.0377
-5.1980 4.9793 2.0377
-5.5811 4.5458 2.0377
-5.9281 4.0830 2.0377
-6.2368 3.5938 2.0377
-6.5052 3.0814 2.0377
-6.7316 2.5491 2.0377
-6.9146 2.0004 2.0377
-7.0529 1.4387 2.0377
-7.1456 0.8678 2.0377
-7.1922 0.2912 2.0377
-7.1924 -0.2873 2.0377
-7.1461 -0.8639 2.0377
-7.0537 -1.4349 2.0377
-6.9157 -1.9966 2.0377
-6.7330 -2.5455 2.0377
-6.5069 -3.0779 2.0377
-6.2387 -3.5904 2.0377
-5.9303 -4.0798 2.0377
-5.5835 -4.5428 2.0377
-5.2007 -4.9765 2.0377
-4.7843 -5.3780 2.0377
-4.3370 -5.7448 2.0377
-3.8618 -6.0745 2.0377
-3.3615 -6.3650 2.0377
-2.8396 -6.6143 2.0377
-2.2993 -6.8210 2.0377
-1.7442 -6.9836 2.0377
-1.1778 -7.1011 2.0377
-0.6038 -7.1728 2.0377
-0.0259 -7.1981 2.0377
0.5522 -7.1769 2.0377
1.1267 -7.1094 2.0377
1.6939 -6.9960 2.0377
2.2502 -6.8374 2.0377
2.7919 -6.6346 2.0377
3.3157 -6.3890 2.0377
3.8180 -6.1021 2.0377
3.9744 -5.3439 1.8853
4.3906 -5.0075 1.8853
4.7785 -4.6388 1.8853
5.1356 -4.2401 1.8853
5.4595 -3.8140 1.8853
5.7481 -3.3633 1.8853
5.9978 -2.8901 1.8848
6.2217 -2.4035 1.8882
6.4039 -1.8989 1.8909
6.5429 -1.3800 1.8930
6.6374 -0.8508 1.8944
6.6867 -0.3152 1.8951
6.6903 0.2227 1.8950
6.6482 0.7589 1.8943
6.5608 1.2893 1.8928
6.4288 1.8099 1.8907
6.2535 2.3168 1.8879
6.0362 2.8063 1.8845
5.7941 3.2835 1.8853
5.5117 3.7381 1.8853
5.1938 4.1686 1.8853
4.8423 4.5722 1.8853
4.4595 4.9463 1.8853
4.0479 5.2884 1.8853
3.9021 6.0487 2.0377
3.4038 6.3425 2.0377
2.8835 6.5953 2.0377
2.3446 6.8056 2.0377
1.7906 6.9719 2.0377
1.2250 7.0931 2.0377
0.6515 7.1686 2.0377
0.0737 7.1977 2.0377
-0.5044 7.1804 2.0377
-1.0794 7.1167 2.0377
-1.6474 7.0071 2.0377
-2.2047 6.8522 2.0377
-2.7478 6.6530 2.0377
-3.2731 6.4109 2.0377
-3.7773 6.1274 2.0377
-4.2571 5.8043 2.0377
-4.7094 5.4437 2.0377
-5.1313 5.0480 2.0377
-5.5201 4.6197 2.0377
-5.8732 4.1615 2.0377
-6.1884 3.6765 2.0377
-6.4636 3.1677 2.0377
-6.6971 2.6384 2.0377
-6.8874 2.0922 2.0377
-7.0331 1.5324 2.0377
-7.1335 0.9627 2.0377
-7.1877 0.3868 2.0377
-7.1956 -0.1916 2.0377
-7.1570 -0.7688 2.0377
-7.0721 -1.3410 2.0377
-6.9416 -1.9045 2.0377
-6.7663 -2.4557 2.0377
-6.5472 -2.9911 2.0377
-6.2859 -3.5072 2.0377
-5.9840 -4.0006 2.0377
-5.6434 -4.4682 2.0377
-5.2664 -4.9069 2.0377
-4.8554 -5.3139 2.0377
-4.4131 -5.6866 2.0377
-3.9422 -6.0226 2.0377
-3.4459 -6.3197 2.0377
-2.9273 -6.5760 2.0377
-2.3898 -6.7898 2.0377
-1.8369 -6.9598 2.0377
-1.2721 -7.0848 2.0377
-0.6991 -7.1641 2.0377
-0.1216 -7.1971 2.0377
0.4567 -7.1836 2.0377
1.0320 -7.1238 2.0377
1.6007 -7.0179 2.0377
2.1591 -6.8667 2.0377
2.7035 -6.6711 2.0377
3.2304 -6.4325 2.0377
3.7365 -6.1524 2.0377
3.9029 -5.3963 1.8853
4.3236 -5.0655 1.8853
4.7164 -4.7019 1.8853
5.0787 -4.3080 1.8853
5.4083 -3.8863 1.8853
5.7029 -3.4395 1.8853
5.9568 -2.9686 1.8841
6.1875 -2.4853 1.8876
6.3767 -1.9834 1.8905
6.5229 -1.4667 1.8927
6.6249 -0.9390 1.8942
6.6817 -0.4041 1.8950
6.6928 0.1337 1.8951
6.6583 0.6705 1.8945
6.5784 1.2021 1.8931
6.4537 1.7246 1.8911
6.2854 2.2340 1.8884
6.0750 2.7267 1.8851
5.8372 3.2061 1.8853
5.5610 3.6645 1.8853
5.2487 4.0992 1.8853
4.9026 4.5074 1.8853
4.5249 4.8865 1.8853
4.1248 5.2429 1.8885
3.9456 5.9413 2.0190
3.4878 6.2967 2.0377
2.9709 6.5564 2.0377
2.4349 6.7738 2.0377
1.8831 6.9474 2.0377
1.3192 7.0762 2.0377
0.7467 7.1593 2.0377
0.1695 7.1961 2.0377
-0.4089 7.1865 2.0377
-0.9847 7.1305 2.0377
-1.5540 7.0284 2.0377
-2.1133 6.8809 2.0377
-2.6590 6.6890 2.0377
-3.1876 6.4539 2.0377
-3.6955 6.1771 2.0377
-4.1796 5.8604 2.0377
-4.6366 5.5059 2.0377
-5.0638 5.1158 2.0377
-5.4582 4.6927 2.0377
-5.8174 4.2392 2.0377
-6.1390 3.7584 2.0377
-6.4210 3.2534 2.0377
-6.6614 2.7273 2.0377
-6.8589 2.1836 2.0377
-7.0121 1.6258 2.0377
-7.1200 1.0575 2.0377
-7.1819 0.4824 2.0377
-7.1975 -0.0959 2.0377
-7.1665 -0.6735 2.0377
-7.0893 -1.2468 2.0377
-6.9663 -1.8120 2.0377
-6.7983 -2.3655 2.0377
-6.5864 -2.9038 2.0377
-6.3320 -3.4233 2.0377
-6.0367 -3.9206 2.0377
-5.7024 -4.3927 2.0377
-5.3312 -4.8364 2.0377
-4.9257 -5.2489 2.0377
-4.4883 -5.6274 2.0377
-4.0219 -5.9697 2.0377
-3.5296 -6.2733 2.0377
-3.0145 -6.5365 2.0377
-2.4799 -6.7574 2.0377
-1.9293 -6.9347 2.0377
-1.3662 -7.0673 2.0377
-0.7943 -7.1542 2.0377
-0.2173 -7.1948 2.0377
0.3611 -7.1890 2.0377
0.9372 -7.1368 2.0377
1.5073 -7.0385 2.0377
2.0676 -6.8948 2.0377
5.9606 0.7609 1.8853
5.8803 1.2370 1.8853
5.7620 1.7052 1.8853
5.6065 2.1623 1.8853
5.4147 2.6055 1.8853
5.1880 3.0319 1.8853
4.9278 3.4387 1.8853
4.6358 3.8233 1.8853
4.3138 4.1832 1.8853
3.9668 4.5192 1.8867
3.8787 5.2094 2.0377
3.4479 5.5040 2.0377
2.9948 5.7631 2.0377
2.5224 5.9849 2.0377
2.0336 6.1681 2.0377
1.5318 6.3115 2.0377
1.0201 6.4142 2.0377
0.5017 6.4753 2.0377
-0.0198 6.4947 2.0377
-0.5413 6.4721 2.0377
-1.0592 6.4078 2.0377
-1.5703 6.3020 2.0377
-2.0713 6.1556 2.0377
-2.5589 5.9694 2.0377
-3.0299 5.7447 2.0377
-3.4814 5.4828 2.0377
-3.9104 5.1856 2.0377
-4.3142 4.8548 2.0377
-4.6901 4.4927 2.0377
-5.0357 4.1016 2.0377
-5.3488 3.6841 2.0377
-5.6273 3.2427 2.0377
-5.8695 2.7803 2.0377
-6.0738 2.3000 2.0377
-6.2389 1.8049 2.0377
-6.3637 1.2981 2.0377
-6.4474 0.7830 2.0377
-6.4894 0.2627 2.0377
-6.4896 -0.2592 2.0377
-6.4478 -0.7795 2.0377
-6.3644 -1.2947 2.0377
-6.2399 -1.8015 2.0377
-6.0751 -2.2968 2.0377
-5.8710 -2.7771 2.0377
-5.6291 -3.2396 2.0377
-5.3508 -3.6811 2.0377
-5.0379 -4.0989 2.0377
-4.6925 -4.4902 2.0377
-4.3168 -4.8525 2.0377
-3.9132 -5.1835 2.0377
-3.4844 -5.4808 2.0377
-3.0330 -5.7430 2.0377
-2.5621 -5.9680 2.0377
-2.0746 -6.1545 2.0377
-1.5737 -6.3012 2.0377
-1.0627 -6.4072 2.0377
-0.5448 -6.4718 2.0377
-0.0234 -6.4947 2.0377
0.4982 -6.4756 2.0377
1.0166 -6.4147 2.0377
1.5284 -6.3123 2.0377
2.0303 -6.1692 2.0377
2.5191 -5.9863 2.0377
2.9917 -5.7647 2.0377
3.4449 -5.5058 2.0377
3.8320 -5.1525 2.0147
3.9616 -4.5181 1.8853
4.3116 -4.1855 1.8853
4.6337 -3.8258 1.8853
4.9260 -3.4413 1.8853
5.1864 -3.0347 1.8853
5.4133 -2.6084 1.8853
5.6053 -2.1654 1.8853
5.7611 -1.7083 1.8853
5.8796 -1.2402 1.8853
5.9553 -0.7634 1.8838
5.9993 -0.2828 1.8844
6.0025 0.1998 1.8843
5.9702 0.6815 1.8853
5.8962 1.1587 1.8853
5.7842 1.6284 1.8853
5.6347 2.0876 1.8853
5.4489 2.5333 1.8853
5.2279 2.9626 1.8853
4.9731 3.3728 1.8853
4.6862 3.7613 1.8853
4.3691 4.1254 1.8853
4.0237 4.4629 1.8853
3.9351 5.1410 2.0313
3.5208 5.4577 2.0377
3.0712 5.7227 2.0377
2.6017 5.9509 2.0377
2.1155 6.1406 2.0377
1.6156 6.2906 2.0377
1.1053 6.4000 2.0377
0.5878 6.4681 2.0377
0.0665 6.4944 2.0377
-0.4552 6.4788 2.0377
-0.9739 6.4213 2.0377
-1.4864 6.3224 2.0377
-1.9892 6.1826 2.0377
-2.4793 6.0029 2.0377
-2.9533 5.7844 2.0377
-3.4082 5.5286 2.0377
-3.8411 5.2371 2.0377
-4.2492 4.9118 2.0377
-4.6299 4.5547 2.0377
-4.9807 4.1682 2.0377
-5.2993 3.7549 2.0377
-5.5837 3.3172 2.0377
-5.8320 2.8581 2.0377
-6.0427 2.3806 2.0377
-6.2143 1.8877 2.0377
-6.3459 1.3826 2.0377
-6.4364 0.8686 2.0377
-6.4854 0.3490 2.0377
-6.4924 -0.1729 2.0377
-6.4576 -0.6936 2.0377
-6.3810 -1.2099 2.0377
-6.2633 -1.7184 2.0377
-6.1051 -2.2162 2.0377
-5.9075 -2.6989 2.0377
-5.6717 -3.1645 2.0377
-5.3993 -3.6097 2.0377
-5.0920 -4.0316 2.0377
-4.7518 -4.4274 2.0377
-4.3810 -4.7947 2.0377
-3.9818 -5.1309 2.0377
-3.5570 -5.4341 2.0377
-3.1091 -5.7022 2.0377
-2.6412 -5.9334 2.0377
-2.1563 -6.1263 2.0377
-1.6574 -6.2797 2.0377
-1.1478 -6.3925 2.0377
-0.6308 -6.4640 2.0377
-0.1097 -6.4938 2.0377
0.4121 -6.4816 2.0377
0.9312 -6.4276 2.0377
1.4443 -6.3321 2.0377
1.9481 -6.1957 2.0377
2.4393 -6.0193 2.0377
2.9147 -5.8040 2.0377
3.3714 -5.5512 2.0377
3.8062 -5.2625 2.0377
3.9011 -4.5705 1.8853
4.2555 -4.2425 1.8853
4.5825 -3.8871 1.8853
4.8798 -3.5066 1.8853
5.1456 -3.1034 1.8853
5.3782 -2.6802 1.8853
5.5760 -2.2397 1.8853
5.7378 -1.7847 1.8853
5.8626 -1.3182 1.8853
5.9495 -0.8432 1.8853
5.9948 -0.3626 1.8843
6.0048 0.1200 1.8844
5.9740 0.6015 1.8838
5.9111 1.0802 1.8853
5.8053 1.5513 1.8853
5.6620 2.0125 1.8853
5.4821 2.4606 1.8853
5.2668 2.8928 1.8853
5.0175 3.3064 1.8853
4.7359 3.6986 1.8853
4.4236 4.0670 1.8853
4.0827 4.4090 1.8853
3.9397 5.0075 1.9991
3.5930 5.4104 2.0377
3.1470 5.6814 2.0377
2.6806 5.9157 2.0377
2.1970 6.1119 2.0377
1.6991 6.2685 2.0377
1.1903 6.3847 2.0377
0.6738 6.4597 2.0377
0.1529 6.4930 2.0377
-0.3690 6.4843 2.0377
-0.8884 6.4337 2.0377
-1.4022 6.3416 2.0377
-1.9068 6.2085 2.0377
-2.3992 6.0354 2.0377
-2.8761 5.8232 2.0377
-3.3344 5.5735 2.0377
-3.7711 5.2877 2.0377
-4.1836 4.9679 2.0377
-4.5689 4.6159 2.0377
-4.9248 4.2341 2.0377
-5.2489 3.8250 2.0377
-5.5391 3.3912 2.0377
-5.7935 2.9354 2.0377
-6.0105 2.4607 2.0377
-6.1887 1.9702 2.0377
-6.3269 1.4669 2.0377
-6.4243 0.9541 2.0377
-6.4801 0.4352 2.0377
-6.4942 -0.0865 2.0377
-6.4662 -0.6077 2.0377
-6.3966 -1.1250 2.0377
-6.2856 -1.6349 2.0377
-6.1340 -2.1344 2.0377
-5.9428 -2.6200 2.0377
-5.7133 -3.0888 2.0377
-5.4468 -3.5375 2.0377
-5.1451 -3.9635 2.0377
-4.8103 -4.3638 2.0377
-4.4443 -4.7360 2.0377
-4.0497 -5.0775 2.0377
-3.6289 -5.3863 2.0377
-3.1847 -5.6603 2.0377
-2.7199 -5.8978 2.0377
-2.2376 -6.0971 2.0377
-1.7408 -6.2571 2.0377
-1.2327 -6.3767 2.0377
-0.7167 -6.4551 2.0377
-0.1961 -6.4918 2.0377
0.3258 -6.4866 2.0377
0.8456 -6.4395 2.0377
1.3600 -6.3508 2.0377
1.8655 -6.2210 2.0377
5.4214 0.6920 1.8853
5.3484 1.1251 1.8853
5.2408 1.5509 1.8853
5.0993 1.9667 1.8853
4.9249 2.3698 1.8853
4.7187 2.7576 1.8853
4.4821 3.1276 1.8853
4.2164 3.4774 1.8853
3.9489 3.8292 1.8975
3.8969 4.4395 2.0377
3.5278 4.7381 2.0377
3.1360 5.0061 2.0377
2.7239 5.2417 2.0377
2.2942 5.4435 2.0377
1.8497 5.6101 2.0377
1.3932 5.7406 2.0377
0.9278 5.8339 2.0377
0.4563 5.8896 2.0377
-0.0180 5.9072 2.0377
-0.4923 5.8867 2.0377
-0.9634 5.8281 2.0377
-1.4283 5.7320 2.0377
-1.8839 5.5988 2.0377
-2.3274 5.4294 2.0377
-2.7558 5.2250 2.0377
-3.1665 4.9868 2.0377
-3.5567 4.7165 2.0377
-3.9239 4.4157 2.0377
-4.2658 4.0863 2.0377
-4.5802 3.7306 2.0377
-4.8649 3.3508 2.0377
-5.1183 2.9493 2.0377
-5.3386 2.5288 2.0377
-5.5244 2.0920 2.0377
-5.6745 1.6416 2.0377
-5.7880 1.1807 2.0377
-5.8641 0.7121 2.0377
-5.9024 0.2390 2.0377
-5.9025 -0.2357 2.0377
-5.8645 -0.7090 2.0377
-5.7887 -1.1776 2.0377
-5.6754 -1.6386 2.0377
-5.5255 -2.0890 2.0377
-5.3399 -2.5259 2.0377
-5.1199 -2.9466 2.0377
-4.8667 -3.3481 2.0377
-4.5822 -3.7281 2.0377
-4.2680 -4.0840 2.0377
-3.9263 -4.4135 2.0377
-3.5592 -4.7145 2.0377
-3.1692 -4.9851 2.0377
-2.7587 -5.2235 2.0377
-2.3303 -5.4281 2.0377
-0.6850 -2.0321 0.7397
-1.4314 -5.7312 2.0377
-0.9666 -5.8276 2.0377
-0.4955 -5.8864 2.0377
-0.0212 -5.9072 2.0377
0.4532 -5.8898 2.0377
0.9246 -5.8344 2.0377
1.3901 -5.7413 2.0377
0.6704 -2.0369 0.7397
2.2912 -5.4448 2.0377
2.7210 -5.2432 2.0377
3.1333 -5.0078 2.0377
3.5252 -4.7400 2.0377
3.8409 -4.3806 2.0097
3.9215 -3.8068 1.8853
4.2146 -3.4797 1.8853
4.4804 -3.1300 1.8853
4.7172 -2.7602 1.8853
4.9236 -2.3725 1.8853
5.0982 -1.9695 1.8853
5.2399 -1.5537 1.8853
5.3478 -1.1280 1.8853
5.4211 -0.6949 1.8853
5.4594 -0.2574 1.8853
5.4624 0.1818 1.8853
5.4302 0.6198 1.8853
5.3629 1.0539 1.8853
5.2609 1.4811 1.8853
5.1250 1.8987 1.8853
4.9560 2.3041 1.8853
4.7550 2.6946 1.8853
4.5233 3.0677 1.8853
4.2623 3.4210 1.8853
3.9739 3.7523 1.8853
3.9284 4.3572 2.0237
3.5905 4.6908 2.0377
3.2023 4.9639 2.0377
2.7933 5.2051 2.0377
2.3664 5.4125 2.0377
1.9241 5.5851 2.0377
1.4694 5.7215 2.0377
1.0053 5.8210 2.0377
0.5346 5.8830 2.0377
0.0605 5.9069 2.0377
-0.4140 5.8927 2.0377
-0.8858 5.8404 2.0377
-1.3519 5.7504 2.0377
-1.8093 5.6233 2.0377
-2.2550 5.4599 2.0377
-2.6861 5.2612 2.0377
-3.0999 5.0285 2.0377
-3.4936 4.7634 2.0377
-3.8649 4.4675 2.0377
-4.2111 4.1427 2.0377
-4.5301 3.7912 2.0377
-4.8199 3.4152 2.0377
-5.0786 3.0171 2.0377
-5.3045 2.5996 2.0377
-5.4961 2.1653 2.0377
-5.6522 1.7170 2.0377
-5.7718 1.2576 2.0377
-5.8541 0.7901 2.0377
-5.8987 0.3174 2.0377
-5.9051 -0.1572 2.0377
-5.8734 -0.6309 2.0377
-5.8038 -1.1005 2.0377
-5.6967 -1.5629 2.0377
-5.5528 -2.0153 2.0377
-5.3731 -2.4547 2.0377
-5.1586 -2.8782 2.0377
-4.9108 -3.2831 2.0377
-4.6314 -3.6668 2.0377
-4.3220 -4.0269 2.0377
-3.9847 -4.3609 2.0377
-3.6216 -4.6668 2.0377
-3.2352 -4.9425 2.0377
-2.8279 -5.1864 2.0377
-2.4023 -5.3967 2.0377
-0.7120 -2.0228 0.7397
-1.5075 -5.7116 2.0377
-1.0440 -5.8142 2.0377
-0.5737 -5.8793 2.0377
-0.0998 -5.9064 2.0377
0.3748 -5.8953 2.0377
0.8470 -5.8462 2.0377
1.3136 -5.7593 2.0377
1.7719 -5.6352 2.0377
2.2186 -5.4747 2.0377
2.6511 -5.2789 2.0377
3.0664 -5.0490 2.0377
3.4619 -4.7864 2.0377
3.8346 -4.4925 2.0375
3.8780 -3.8661 1.8890
4.1679 -3.5354 1.8853
4.4383 -3.1893 1.8853
4.6801 -2.8227 1.8853
4.8916 -2.4378 1.8853
5.0716 -2.0371 1.8853
5.2188 -1.6233 1.8853
5.3323 -1.1990 1.8853
5.4113 -0.7670 1.8853
5.4554 -0.3300 1.8853
5.4643 0.1092 1.8853
5.4379 0.5476 1.8853
5.3764 0.9825 1.8853
5.2801 1.4110 1.8853
5.1498 1.8304 1.8853
4.9862 2.2380 1.8853
4.7904 2.6311 1.8853
4.5637 3.0073 1.8853
4.3074 3.3641 1.8853
4.0234 3.6991 1.8853
3.9323 4.2466 1.9965
3.6526 4.6426 2.0377
3.2680 4.9209 2.0377
2.8623 5.1674 2.0377
2.4381 5.3806 2.0377
1.9982 5.5590 2.0377
1.5454 5.7015 2.0377
1.0826 5.8072 2.0377
0.6128 5.8753 2.0377
0.1391 5.9056 2.0377
-0.3356 5.8977 2.0377
-0.8081 5.8517 2.0377
-1.2753 5.7679 2.0377
-1.7343 5.6469 2.0377
-2.1822 5.4894 2.0377
-2.6159 5.2964 2.0377
-3.0327 5.0693 2.0377
-3.4300 4.8094 2.0377
-3.8051 4.5184 2.0377
-4.1556 4.1983 2.0377
-4.4793 3.8511 2.0377
-4.7741 3.4790 2.0377
-5.0380 3.0844 2.0377
-5.2694 2.6699 2.0377
-5.4668 2.2382 2.0377
-5.6289 1.7920 2.0377
-5.7546 1.3342 2.0377
-5.8431 0.8678 2.0377
-5.8939 0.3959 2.0377
-5.9067 -0.0787 2.0377
-5.8813 -0.5527 2.0377
-5.8179 -1.0232 2.0377
-5.7170 -1.4870 2.0377
-5.5791 -1.9413 2.0377
-5.4052 -2.3830 2.0377
-5.1964 -2.8093 2.0377
-4.9541 -3.2175 2.0377
-4.6797 -3.6049 2.0377
-4.3751 -3.9690 2.0377
-4.0423 -4.3075 2.0377
-3.6834 -4.6182 2.0377
-3.3006 -4.8991 2.0377
-2.8966 -5.1483 2.0377
-2.4739 -5.3642 2.0377
-0.7388 -2.0132 0.7398
-1.5833 -5.6911 2.0377
-1.1212 -5.7998 2.0377
-0.6519 -5.8711 2.0377
-0.1783 -5.9045 2.0377
0.2964 -5.8998 2.0377
0.7691 -5.8569 2.0377
1.2369 -5.7763 2.0377
1.6968 -5.6583 2.0377
4.9636 0.6336 1.8853
4.8967 1.0301 1.8853
4.7982 1.4199 1.8853
4.6687 1.8006 1.8853
4.5090 2.1697 1.8853
4.3202 2.5247 1.8853
4.1036 2.8635 1.8853
3.9358 3.2459 1.9221
3.8826 3.7650 2.0377
3.5678 4.0647 2.0377
3.2299 4.3380 2.0377
2.8711 4.5833 2.0377
2.4938 4.7991 2.0377
0.7698 1.8266 0.7468
0.6208 1.8828 0.7469
0.4676 1.9268 0.7470
0.3114 1.9582 0.7471
0.4178 5.3922 2.0377
-0.0165 5.4083 2.0377
-0.4508 5.3896 2.0377
-0.3234 1.9563 0.7471
-0.4794 1.9238 0.7470
-0.6322 1.8789 0.7469
-2.1308 4.9709 2.0377
-2.5231 4.7838 2.0377
-2.8991 4.5657 2.0377
-3.2563 4.3182 2.0377
-3.5926 4.0428 2.0377
-3.9056 3.7412 2.0377
-4.1934 3.4156 2.0377
-4.4541 3.0678 2.0377
-4.6860 2.7003 2.0377
-4.8877 2.3153 2.0377
-5.0579 1.9155 2.0377
-5.1953 1.5030 2.0377
-5.2992 1.0810 2.0377
-5.3689 0.6520 2.0377
-5.4039 0.2188 2.0377
-5.4041 -0.2158 2.0377
-5.3693 -0.6491 2.0377
-5.2998 -1.0781 2.0377
-5.1961 -1.5002 2.0377
-5.0589 -1.9126 2.0377
-4.8890 -2.3126 2.0377
-4.6875 -2.6977 2.0377
-4.4558 -3.0654 2.0377
-4.1952 -3.4133 2.0377
-3.9076 -3.7391 2.0377
-3.5947 -4.0408 2.0377
-3.2587 -4.3164 2.0377
-2.9016 -4.5641 2.0377
-2.5257 -4.7824 2.0377
-0.7749 -1.8051 0.7401
-0.6274 -1.8613 0.7400
-0.4759 -1.9054 0.7400
-0.3213 -1.9373 0.7399
-0.1647 -1.9568 0.7399
-0.0071 -1.9637 0.7399
0.1506 -1.9579 0.7399
0.3074 -1.9396 0.7399
0.4622 -1.9088 0.7400
0.6140 -1.8657 0.7400
0.7619 -1.8106 0.7401
2.4912 -4.8004 2.0377
2.8687 -4.5849 2.0377
3.2276 -4.3397 2.0377
3.5656 -4.0666 2.0377
3.8458 -3.7333 2.0195
3.8787 -3.2025 1.8951
4.1020 -2.8657 1.8853
4.3189 -2.5271 1.8853
4.5078 -2.1721 1.8853
4.6677 -1.8032 1.8853
4.7974 -1.4225 1.8853
4.8962 -1.0327 1.8853
4.9633 -0.6362 1.8853
4.9983 -0.2357 1.8853
5.0011 0.1665 1.8853
4.9716 0.5675 1.8853
4.9100 0.9649 1.8853
4.8166 1.3560 1.8853
4.6922 1.7384 1.8853
4.5375 2.1095 1.8853
4.3534 2.4671 1.8853
4.1413 2.8087 1.8853
3.9385 3.1611 1.9028
3.9202 3.7016 2.0314
3.6215 4.0168 2.0377
3.2873 4.2947 2.0377
2.9318 4.5448 2.0377
2.5574 4.7655 2.0377
0.7940 1.8162 0.7468
0.6457 1.8743 0.7469
0.4932 1.9203 0.7470
0.3374 1.9539 0.7471
0.4895 5.3862 2.0377
0.0554 5.4081 2.0377
-0.3790 5.3951 2.0377
-0.2973 1.9604 0.7471
-0.4538 1.9301 0.7470
-0.6072 1.8872 0.7469
-0.7567 1.8321 0.7468
-2.4593 4.8169 2.0377
-2.8381 4.6039 2.0377
-3.1986 4.3611 2.0377
-3.5385 4.0902 2.0377
-3.8555 3.7929 2.0377
-4.1476 3.4710 2.0377
-4.4129 3.1268 2.0377
-4.6497 2.7623 2.0377
-4.8565 2.3801 2.0377
-5.0319 1.9824 2.0377
-5.1749 1.5720 2.0377
-5.2844 1.1514 2.0377
-5.3598 0.7233 2.0377
-5.4006 0.2906 2.0377
-5.4064 -0.1440 2.0377
-5.3774 -0.5776 2.0377
-5.3137 -1.0075 2.0377
-5.2156 -1.4310 2.0377
-5.0839 -1.8451 2.0377
-4.9193 -2.2474 2.0377
-4.7230 -2.6351 2.0377
-4.4961 -3.0059 2.0377
-4.2402 -3.3572 2.0377
-3.9570 -3.6868 2.0377
-3.6482 -3.9926 2.0377
-3.3158 -4.2727 2.0377
-2.9620 -4.5251 2.0377
-2.5891 -4.7484 2.0377
-2.1994 -4.9409 2.0377
-0.6521 -1.8528 0.7401
-0.5012 -1.8990 0.7400
-0.3471 -1.9329 0.7399
-0.1907 -1.9544 0.7399
-0.0332 -1.9634 0.7399
0.1246 -1.9597 0.7399
0.2816 -1.9435 0.7399
0.4367 -1.9147 0.7400
0.5891 -1.8737 0.7400
0.7378 -1.8206 0.7401
2.4272 -4.8331 2.0377
2.8074 -4.6226 2.0377
3.1695 -4.3823 2.0377
3.5112 -4.1136 2.0377
3.8302 -3.8184 2.0377
3.8703 -3.2831 1.9122
4.0635 -2.9200 1.8853
4.2849 -2.5843 1.8853
4.4786 -2.2319 1.8853
4.6433 -1.8651 1.8853
4.7781 -1.4862 1.8853
4.8820 -1.0977 1.8853
4.9544 -0.7022 1.8853
4.9948 -0.3021 1.8853
5.0029 0.1000 1.8853
4.9787 0.5013 1.8853
4.9224 0.8995 1.8853
4.8343 1.2918 1.8853
4.7149 1.6758 1.8853
4.5651 2.0490 1.8853
4.3859 2.4089 1.8853
4.1783 2.7533 1.8853
3.9502 3.0851 1.8885
3.9236 3.6073 2.0081
3.6746 3.9683 2.0377
3.3441 4.2506 2.0377
2.9920 4.5054 2.0377
2.6206 4.7311 2.0377
2.2322 4.9262 2.0377
0.6706 1.8655 0.7469
0.5187 1.9136 0.7470
0.3634 1.9492 0.7471
0.2057 1.9722 0.7471
0.1273 5.4069 2.0377
-0.3072 5.3996 2.0377
-0.2712 1.9642 0.7471
-0.4281 1.9360 0.7470
-0.5821 1.8951 0.7470
-0.7323 1.8420 0.7469
-2.3950 4.8492 2.0377
-2.7766 4.6412 2.0377
-3.1403 4.4033 2.0377
-3.4838 4.1369 2.0377
-3.8047 3.8438 2.0377
-4.1011 3.5259 2.0377
-4.3709 3.1852 2.0377
-4.6126 2.8239 2.0377
-4.8244 2.4444 2.0377
-5.0051 2.0492 2.0377
-5.1535 1.6407 2.0377
-5.2686 1.2215 2.0377
-5.3497 0.7945 2.0377
-5.3962 0.3624 2.0377
-5.4079 -0.0721 2.0377
-5.3846 -0.5061 2.0377
-5.3266 -0.9368 2.0377
-5.2342 -1.3615 2.0377
-5.1080 -1.7774 2.0377
-4.9488 -2.1818 2.0377
-4.7576 -2.5721 2.0377
-4.5357 -2.9458 2.0377
-4.2845 -3.3005 2.0377
-4.0057 -3.6339 2.0377
-3.7009 -3.9438 2.0377
-3.3723 -4.2282 2.0377
-3.0219 -4.4854 2.0377
-2.6520 -4.7135 2.0377
-2.2650 -4.9113 2.0377
-0.6767 -1.8440 0.7401
-0.5264 -1.8922 0.7400
-0.3727 -1.9281 0.7399
-0.2167 -1.9517 0.7399
-0.0593 -1.9628 0.7399
0.0985 -1.9612 0.7399
0.2557 -1.9470 0.7399
0.4112 -1.9204 0.7399
0.5642 -1.8813 0.7400
4.5695 0.5833 1.8853
4.5079 0.9483 1.8853
4.4172 1.3072 1.8853
4.2979 1.6576 1.8853
4.1510 1.9974 1.8853
3.9772 2.3243 1.8853
3.9238 2.7381 1.9583
3.8411 3.1679 2.0377
3.5743 3.4661 2.0377
3.2845 3.7419 2.0377
2.9734 3.9935 2.0377
2.6432 4.2194 2.0377
2.2958 4.4180 2.0377
0.7084 1.6810 0.7466
0.5713 1.7326 0.7467
0.4303 1.7731 0.7467
0.2866 1.8020 0.7468
0.1410 1.8193 0.7468
-0.0056 1.8248 0.7468
-0.1521 1.8184 0.7468
-0.2976 1.8002 0.7468
-0.4411 1.7704 0.7467
-0.5818 1.7291 0.7467
-0.7187 1.6766 0.7466
-2.3228 4.4039 2.0377
-2.6689 4.2032 2.0377
-2.9978 3.9753 2.0377
-3.3073 3.7217 2.0377
-3.5954 3.4442 2.0377
-3.8604 3.1443 2.0377
-4.1004 2.8242 2.0377
-4.3139 2.4858 2.0377
-4.4996 2.1314 2.0377
-4.6562 1.7632 2.0377
-4.7828 1.3837 2.0377
-4.8784 0.9951 2.0377
-4.9426 0.6002 2.0377
-4.9748 0.2014 2.0377
-4.9749 -0.1987 2.0377
-4.9429 -0.5975 2.0377
-4.8790 -0.9925 2.0377
-4.7835 -1.3811 2.0377
-4.6572 -1.7607 2.0377
-4.5008 -2.1290 2.0377
-4.3153 -2.4835 2.0377
-4.1019 -2.8220 2.0377
-3.8621 -3.1422 2.0377
-3.5973 -3.4422 2.0377
-3.3093 -3.7199 2.0377
-2.9999 -3.9737 2.0377
-2.6712 -4.2017 2.0377
-2.3251 -4.4026 2.0377
-0.7137 -1.6624 0.7404
-0.5778 -1.7141 0.7403
-0.4383 -1.7548 0.7402
-0.2959 -1.7842 0.7402
-0.1517 -1.8021 0.7402
-0.0065 -1.8084 0.7401
0.1387 -1.8031 0.7402
0.2831 -1.7862 0.7402
0.4256 -1.7579 0.7402
0.5655 -1.7182 0.7403
0.7017 -1.6675 0.7404
2.2934 -4.4192 2.0377
2.6409 -4.2208 2.0377
2.9713 -3.9951 2.0377
3.2825 -3.7436 2.0377
3.5725 -3.4680 2.0377
3.8394 -3.1699 2.0377
3.8723 -2.7053 1.9333
3.9759 -2.3264 1.8853
4.1499 -1.9996 1.8853
4.2970 -1.6600 1.8853
4.4165 -1.3096 1.8853
4.5074 -0.9507 1.8853
4.5691 -0.5857 1.8853
4.6014 -0.2169 1.8853
4.6040 0.1532 1.8853
4.5768 0.5224 1.8853
4.5201 0.8882 1.8853
4.4342 1.2483 1.8853
4.3196 1.6003 1.8853
4.1772 1.9420 1.8853
4.0077 2.2712 1.8853
3.9261 2.6628 1.9416
3.8829 3.1165 2.0377
3.6201 3.4182 2.0377
3.3340 3.6979 2.0377
3.0263 3.9536 2.0377
2.6990 4.1839 2.0377
2.3544 4.3871 2.0377
0.7307 1.6713 0.7466
0.5942 1.7249 0.7467
0.4539 1.7672 0.7467
0.3105 1.7981 0.7468
0.1651 1.8173 0.7468
0.0187 1.8247 0.7468
-0.1279 1.8203 0.7468
-0.2736 1.8041 0.7468
-0.4176 1.7761 0.7467
-0.5588 1.7367 0.7467
-0.6963 1.6860 0.7466
-2.2640 4.4344 2.0377
-2.6127 4.2383 2.0377
-2.9446 4.0148 2.0377
-3.2575 3.7654 2.0377
-3.5493 3.4917 2.0377
-3.8182 3.1954 2.0377
-4.0625 2.8785 2.0377
-4.2805 2.5430 2.0377
-4.4709 2.1911 2.0377
-4.6324 1.8250 2.0377
-4.7639 1.4471 2.0377
-4.8648 1.0599 2.0377
-4.9342 0.6659 2.0377
-4.9717 0.2675 2.0377
-4.9771 -0.1325 2.0377
-4.9504 -0.5317 2.0377
-4.8917 -0.9275 2.0377
-4.8015 -1.3173 2.0377
-4.6802 -1.6986 2.0377
-4.5287 -2.0689 2.0377
-4.3479 -2.4259 2.0377
-4.1391 -2.7672 2.0377
-3.9035 -3.0906 2.0377
-3.6428 -3.3941 2.0377
-3.3585 -3.6756 2.0377
-3.0525 -3.9334 2.0377
-2.7268 -4.1658 2.0377
-2.3835 -4.3713 2.0377
-0.7357 -1.6528 0.7404
-0.6006 -1.7063 0.7403
-0.4616 -1.7488 0.7403
-0.3196 -1.7801 0.7402
-0.1756 -1.7999 0.7402
-0.0306 -1.8082 0.7401
0.1147 -1.8048 0.7402
0.2593 -1.7898 0.7402
0.4022 -1.7634 0.7402
0.5426 -1.7255 0.7403
0.6794 -1.6766 0.7404
2.2344 -4.4493 2.0377
2.5845 -4.2555 2.0377
2.9179 -4.0343 2.0377
3.2324 -3.7870 2.0377
3.5260 -3.5152 2.0377
3.7969 -3.2207 2.0377
3.8685 -2.7799 1.9497
3.9446 -2.3791 1.8853
4.1229 -2.0547 1.8853
4.2746 -1.7170 1.8853
4.3987 -1.3682 1.8853
4.4943 -1.0106 1.8853
4.5609 -0.6464 1.8853
4.5981 -0.2781 1.8853
4.6056 0.0920 1.8853
4.5834 0.4615 1.8853
4.5315 0.8281 1.8853
4.4504 1.1892 1.8853
4.3405 1.5428 1.8853
4.2026 1.8863 1.8853
4.0376 2.2177 1.8853
3.9284 2.5887 1.9255
3.9134 3.0563 2.0322
3.6652 3.3698 2.0377
3.3828 3.6532 2.0377
3.0786 3.9130 2.0377
2.7544 4.1476 2.0377
2.4125 4.3554 2.0377
0.7529 1.6614 0.7465
0.6171 1.7168 0.7466
0.4773 1.7610 0.7467
0.3344 1.7937 0.7468
0.1893 1.8149 0.7468
0.0430 1.8243 0.7468
-0.1037 1.8218 0.7468
-0.2496 1.8075 0.7468
-0.3939 1.7816 0.7468
-0.5356 1.7440 0.7467
-0.6739 1.6952 0.7466
-2.2048 4.4641 2.0377
-2.5562 4.2727 2.0377
-2.8910 4.0536 2.0377
-3.2071 3.8084 2.0377
-3.5026 3.5386 2.0377
-3.7754 3.2459 2.0377
-4.0238 2.9323 2.0377
-4.2463 2.5997 2.0377
-4.4413 2.2503 2.0377
-4.6077 1.8864 2.0377
-4.7443 1.5104 2.0377
-4.8502 1.1246 2.0377
-4.9249 0.7315 2.0377
-4.9677 0.3336 2.0377
-4.9785 -0.0663 2.0377
-4.9571 -0.4659 2.0377
-4.9036 -0.8624 2.0377
-4.8186 -1.2534 2.0377
-4.7024 -1.6362 2.0377
-4.5558 -2.0085 2.0377
-4.3798 -2.3678 2.0377
-4.1755 -2.7119 2.0377
-3.9443 -3.0384 2.0377
-3.6876 -3.3453 2.0377
-3.4071 -3.6306 2.0377
-3.1045 -3.8925 2.0377
-2.7820 -4.1292 2.0377
-2.4414 -4.3392 2.0377
-0.7577 -1.6429 0.7404
-0.6232 -1.6982 0.7403
-0.4848 -1.7425 0.7403
-0.3433 -1.7757 0.7402
-0.1996 -1.7974 0.7402
-0.0546 -1.8076 0.7401
0.0907 -1.8062 0.7402
0.2355 -1.7931 0.7402
0.3787 -1.7685 0.7402
0.5195 -1.7326 0.7403
4.2260 0.5394 1.8853
4.1691 0.8770 1.8853
4.0852 1.2089 1.8853
3.9749 1.5331 1.8853
3.9211 1.8868 1.9257
3.9106 2.2854 2.0044
3.7762 2.6351 2.0377
3.5524 2.9298 2.0377
3.3057 3.2056 2.0377
3.0376 3.4606 2.0377
2.7500 3.6934 2.0377
2.4445 3.9023 2.0377
0.7776 1.4963 0.7462
0.6550 1.5541 0.7463
0.5282 1.6019 0.7464
0.3979 1.6393 0.7465
0.2650 1.6660 0.7465
0.1303 1.6820 0.7466
-0.0052 1.6871 0.7466
-0.1406 1.6812 0.7466
-0.2751 1.6644 0.7465
-0.4079 1.6368 0.7465
-0.5379 1.5986 0.7464
-0.6645 1.5501 0.7463
-2.1482 4.0729 2.0377
-2.4683 3.8873 2.0377
-2.7725 3.6765 2.0377
-3.0587 3.4420 2.0377
-3.3252 3.1853 2.0377
-3.5703 2.9080 2.0377
-3.7922 2.6120 2.0377
-3.9897 2.2990 2.0377
-4.1614 1.9712 2.0377
-4.3063 1.6307 2.0377
-4.4233 1.2797 2.0377
-4.5118 0.9204 2.0377
-4.5711 0.5551 2.0377
-4.6009 0.1863 2.0377
-4.6010 -0.1838 2.0377
-4.5714 -0.5526 2.0377
-4.5123 -0.9179 2.0377
-4.4240 -1.2773 2.0377
-4.3072 -1.6283 2.0377
-4.1625 -1.9690 2.0377
-3.9910 -2.2969 2.0377
-3.7937 -2.6099 2.0377
-3.5718 -2.9061 2.0377
-3.3270 -3.1835 2.0377
-3.0606 -3.4404 2.0377
-2.7745 -3.6750 2.0377
-2.4704 -3.8859 2.0377
-0.7817 -1.4801 0.7407
-0.6602 -1.5379 0.7406
-0.5345 -1.5858 0.7406
-0.4055 -1.6234 0.7405
-0.2738 -1.6506 0.7404
-0.1403 -1.6672 0.7404
-0.0060 -1.6731 0.7404
0.1283 -1.6682 0.7404
0.2619 -1.6526 0.7404
0.3938 -1.6263 0.7405
0.5231 -1.5896 0.7406
0.6492 -1.5426 0.7406
0.7710 -1.4857 0.7407
2.4424 -3.9036 2.0377
2.7480 -3.6949 2.0377
3.0358 -3.4623 2.0377
3.3040 -3.2073 2.0377
3.5509 -2.9317 2.0377
3.7748 -2.6371 2.0377
3.8677 -2.2631 1.9830
3.8855 -1.8722 1.9087
3.9741 -1.5352 1.8853
4.0845 -1.2111 1.8853
4.1686 -0.8793 1.8853
4.2258 -0.5417 1.8853
4.2556 -0.2006 1.8853
4.2580 0.1417 1.8853
4.2328 0.4832 1.8853
4.1804 0.8215 1.8853
4.1009 1.1545 1.8853
3.9950 1.4801 1.8853
3.9226 1.8237 1.9143
3.9126 2.2172 1.9901
3.8109 2.5846 2.0377
3.5911 2.8823 2.0377
3.3480 3.1613 2.0377
3.0834 3.4200 2.0377
2.7988 3.6565 2.0377
2.4962 3.8694 2.0377
2.1774 4.0574 2.0377
0.6756 1.5453 0.7463
0.5494 1.5947 0.7464
0.4196 1.6338 0.7465
0.2871 1.6624 0.7465
0.1527 1.6801 0.7466
0.0173 1.6870 0.7466
-0.1182 1.6829 0.7466
-0.2530 1.6679 0.7465
-0.3861 1.6421 0.7465
-0.5166 1.6057 0.7464
-0.6438 1.5588 0.7463
-0.7668 1.5019 0.7462
-2.4164 3.9198 2.0377
-2.7233 3.7131 2.0377
-3.0127 3.4824 2.0377
-3.2826 3.2293 2.0377
-3.5313 2.9552 2.0377
-3.7572 2.6622 2.0377
-3.9588 2.3519 2.0377
-4.1349 2.0264 2.0377
-4.2842 1.6879 2.0377
-4.4059 1.3384 2.0377
-4.4992 0.9803 2.0377
-4.5633 0.6158 2.0377
-4.5981 0.2474 2.0377
-4.6031 -0.1226 2.0377
-4.5784 -0.4918 2.0377
-4.5241 -0.8578 2.0377
-4.4406 -1.2183 2.0377
-4.3284 -1.5710 2.0377
-4.1883 -1.9135 2.0377
-4.0212 -2.2436 2.0377
-3.8280 -2.5592 2.0377
-3.6102 -2.8583 2.0377
-3.3690 -3.1390 2.0377
-3.1061 -3.3994 2.0377
-2.8231 -3.6378 2.0377
-2.5219 -3.8527 2.0377
-2.2044 -4.0428 2.0377
-0.6806 -1.5290 0.7407
-0.5556 -1.5785 0.7406
-0.4270 -1.6179 0.7405
-0.2957 -1.6469 0.7404
-0.1625 -1.6652 0.7404
-0.0283 -1.6729 0.7404
0.1062 -1.6697 0.7404
0.2399 -1.6559 0.7404
0.3721 -1.6314 0.7405
0.5019 -1.5964 0.7405
0.6286 -1.5511 0.7406
0.7512 -1.4958 0.7407
2.3903 -3.9357 2.0377
2.6986 -3.7311 2.0377
2.9895 -3.5024 2.0377
3.2610 -3.2510 2.0377
3.5115 -2.9787 2.0377
3.7394 -2.6871 2.0377
3.8644 -2.3307 1.9971
3.8828 -1.9349 1.9198
3.9533 -1.5879 1.8853
4.0681 -1.2654 1.8853
4.1565 -0.9346 1.8853
4.2182 -0.5978 1.8853
4.2526 -0.2572 1.8853
4.2595 0.0851 1.8853
4.2389 0.4268 1.8853
4.1909 0.7658 1.8853
4.1159 1.0999 1.8853
4.0143 1.4268 1.8853
3.9239 1.7612 1.9034
3.9144 2.1500 1.9764
3.8450 2.5337 2.0377
3.6291 2.8343 2.0377
3.3898 3.1165 2.0377
3.1286 3.3786 2.0377
2.8472 3.6189 2.0377
2.5474 3.8359 2.0377
2.2312 4.0281 2.0377
0.6961 1.5361 0.7463
0.5705 1.5872 0.7464
0.4413 1.6281 0.7465
0.3092 1.6584 0.7465
0.1750 1.6779 0.7466
0.0397 1.6866 0.7466
-0.0958 1.6843 0.7466
-0.2308 1.6711 0.7466
-0.3642 1.6471 0.7465
-0.4952 1.6124 0.7464
-0.6230 1.5673 0.7464
-0.7468 1.5120 0.7463
-2.3640 3.9515 2.0377
-2.6737 3.7490 2.0377
-2.9661 3.5222 2.0377
-3.2393 3.2726 2.0377
-3.4917 3.0020 2.0377
-3.7214 2.7119 2.0377
-3.9272 2.4043 2.0377
-4.1075 2.0812 2.0377
-4.2614 1.7447 2.0377
-4.3877 1.3969 2.0377
-4.4857 1.0400 2.0377
-4.5548 0.6765 2.0377
-4.5944 0.3085 2.0377
-4.6043 -0.0614 2.0377
-4.5845 -0.4309 2.0377
-4.5351 -0.7976 2.0377
-4.4564 -1.1592 2.0377
-4.3490 -1.5132 2.0377
-4.2134 -1.8576 2.0377
-4.0506 -2.1899 2.0377
-3.8617 -2.5081 2.0377
-3.6479 -2.8101 2.0377
-3.4104 -3.0939 2.0377
-3.1510 -3.3578 2.0377
-2.8712 -3.5999 2.0377
-2.5729 -3.8189 2.0377
-2.2579 -4.0131 2.0377
-0.7009 -1.5199 0.7407
-0.5766 -1.5711 0.7406
-0.4485 -1.6121 0.7405
-0.3176 -1.6428 0.7405
-0.1846 -1.6629 0.7404
-0.0505 -1.6723 0.7404
0.0839 -1.6710 0.7404
0.2178 -1.6589 0.7404
0.3504 -1.6362 0.7405
0.4807 -1.6029 0.7405
3.9257 0.5011 1.8863
3.9137 0.8232 1.9062
3.9102 1.1572 1.9436
3.9044 1.5059 1.9946
3.8525 1.8538 2.0377
3.6912 2.1572 2.0377
3.5061 2.4466 2.0377
3.2983 2.7202 2.0377
3.0692 2.9763 2.0377
2.8203 3.2131 2.0377
2.5532 3.4292 2.0377
2.2696 3.6231 2.0377
0.7217 1.3889 0.7460
0.6080 1.4426 0.7461
0.4902 1.4869 0.7462
0.3693 1.5216 0.7463
0.2459 1.5464 0.7463
0.1210 1.5612 0.7464
-0.0048 1.5659 0.7464
-0.1305 1.5604 0.7464
-0.2554 1.5449 0.7463
-0.3786 1.5193 0.7463
-0.4993 1.4838 0.7462
-0.6168 1.4388 0.7461
-0.7302 1.3844 0.7460
-2.2917 3.6092 2.0377
-2.5741 3.4135 2.0377
-2.8399 3.1958 2.0377
-3.0874 2.9574 2.0377
-3.3149 2.7000 2.0377
-3.5210 2.4251 2.0377
-3.7043 2.1345 2.0377
-3.8637 1.8302 2.0377
-3.9982 1.5141 2.0377
-4.1069 1.1881 2.0377
-4.1890 0.8545 2.0377
-4.2441 0.5154 2.0377
-4.2718 0.1729 2.0377
-4.2719 -0.1706 2.0377
-4.2444 -0.5131 2.0377
-4.1895 -0.8522 2.0377
-4.1075 -1.1859 2.0377
-3.9990 -1.5119 2.0377
-3.8647 -1.8281 2.0377
-3.7055 -2.1325 2.0377
-3.5223 -2.4232 2.0377
-3.3163 -2.6982 2.0377
-3.0890 -2.9558 2.0377
-2.8416 -3.1942 2.0377
-2.5760 -3.4121 2.0377
-2.2937 -3.6079 2.0377
-0.7260 -1.3746 0.7409
-0.6132 -1.4283 0.7408
-0.4964 -1.4727 0.7408
-0.3766 -1.5077 0.7407
-0.2543 -1.5330 0.7407
-0.1303 -1.5484 0.7406
-0.0056 -1.5539 0.7406
0.1192 -1.5493 0.7406
0.2432 -1.5348 0.7407
0.3657 -1.5104 0.7407
0.4858 -1.4763 0.7408
0.6029 -1.4327 0.7408
0.7161 -1.3798 0.7409
2.2677 -3.6243 2.0377
2.5514 -3.4306 2.0377
2.8186 -3.2146 2.0377
3.0676 -2.9779 2.0377
3.2968 -2.7220 2.0377
3.5047 -2.4485 2.0377
3.6900 -2.1591 2.0377
3.8515 -1.8559 2.0377
3.8761 -1.4973 1.9805
3.8884 -1.1530 1.9331
3.8991 -0.8228 1.8993
3.9235 -0.5029 1.8853
3.9512 -0.1863 1.8853
3.9534 0.1316 1.8853
3.9300 0.4487 1.8853
3.9141 0.7692 1.9013
3.9110 1.1010 1.9366
3.9055 1.4469 1.9851
3.8768 1.8024 2.0377
3.7196 2.1079 2.0377
3.5383 2.3997 2.0377
3.3342 2.6761 2.0377
3.1085 2.9352 2.0377
2.8628 3.1753 2.0377
2.5986 3.3949 2.0377
2.3176 3.5926 2.0377
0.7401 1.3792 0.7460
0.6271 1.4343 0.7461
0.5100 1.4802 0.7462
0.3895 1.5165 0.7463
0.2665 1.5430 0.7463
0.1417 1.5595 0.7464
0.0160 1.5658 0.7464
-0.1097 1.5620 0.7464
-0.2348 1.5481 0.7463
-0.3583 1.5242 0.7463
-0.4795 1.4904 0.7462
-0.5976 1.4469 0.7461
-0.7117 1.3941 0.7460
-2.2435 3.6394 2.0377
-2.5285 3.4475 2.0377
-2.7972 3.2333 2.0377
-3.0477 2.9982 2.0377
-3.2787 2.7438 2.0377
-3.4884 2.4717 2.0377
-3.6756 2.1836 2.0377
-3.8391 1.8814 2.0377
-3.9777 1.5671 2.0377
-4.0907 1.2426 2.0377
-4.1773 0.9102 2.0377
-4.2369 0.5718 2.0377
-4.2691 0.2297 2.0377
-4.2738 -0.1138 2.0377
-4.2509 -0.4566 2.0377
-4.2005 -0.7964 2.0377
-4.1229 -1.1312 2.0377
-4.0188 -1.4586 2.0377
-3.8887 -1.7766 2.0377
-3.7335 -2.0831 2.0377
-3.5542 -2.3761 2.0377
-3.3519 -2.6539 2.0377
-3.1280 -2.9144 2.0377
-2.8839 -3.1562 2.0377
-2.6211 -3.3776 2.0377
-2.3415 -3.5771 2.0377
-0.7442 -1.3649 0.7410
-0.6321 -1.4200 0.7409
-0.5160 -1.4660 0.7408
-0.3966 -1.5026 0.7407
-0.2746 -1.5295 0.7407
-0.1509 -1.5465 0.7406
-0.0263 -1.5536 0.7406
0.0986 -1.5507 0.7406
0.2228 -1.5379 0.7406
0.3456 -1.5151 0.7407
0.4662 -1.4826 0.7408
0.5838 -1.4405 0.7408
0.6976 -1.3892 0.7409
2.2193 -3.6542 2.0377
2.5055 -3.4642 2.0377
2.7756 -3.2518 2.0377
3.0277 -3.0184 2.0377
3.2603 -2.7655 2.0377
3.4719 -2.4948 2.0377
3.6610 -2.2080 2.0377
3.8265 -1.9069 2.0377
3.8737 -1.5560 1.9897
3.8865 -1.2089 1.9400
3.8967 -0.8762 1.9037
3.9164 -0.5550 1.8853
3.9483 -0.2388 1.8853
3.9548 0.0790 1.8853
3.9357 0.3965 1.8853
3.9166 0.7158 1.8977
3.9116 1.0453 1.9298
3.9066 1.3885 1.9761
3.8991 1.7500 2.0370
3.7473 2.0582 2.0377
3.5699 2.3525 2.0377
3.3695 2.6315 2.0377
3.1473 2.8936 2.0377
2.9048 3.1369 2.0377
2.6435 3.3601 2.0377
2.3652 3.5615 2.0377
0.7584 1.3692 0.7460
0.6461 1.4258 0.7461
0.5296 1.4733 0.7462
0.4096 1.5112 0.7463
0.2870 1.5393 0.7463
0.1624 1.5574 0.7463
0.0369 1.5655 0.7464
-0.0890 1.5634 0.7464
-0.2142 1.5511 0.7463
-0.3380 1.5288 0.7463
-0.4597 1.4966 0.7462
-0.5783 1.4547 0.7462
-0.6932 1.4034 0.7461
-2.1949 3.6689 2.0377
-2.4824 3.4808 2.0377
-2.7539 3.2702 2.0377
-3.0076 3.0385 2.0377
-3.2419 2.7872 2.0377
-3.4552 2.5179 2.0377
-3.6462 2.2323 2.0377
-3.8137 1.9323 2.0377
-3.9566 1.6199 2.0377
-4.0738 1.2969 2.0377
-4.1648 0.9656 2.0377
-4.2289 0.6281 2.0377
-4.2657 0.2865 2.0377
-4.2749 -0.0570 2.0377
-4.2565 -0.4000 2.0377
-4.2107 -0.7405 2.0377
-4.1376 -1.0762 2.0377
-4.0378 -1.4050 2.0377
-3.9120 -1.7247 2.0377
-3.7609 -2.0332 2.0377
-3.5855 -2.3287 2.0377
-3.3869 -2.6090 2.0377
-3.1665 -2.8726 2.0377
-2.9256 -3.1175 2.0377
-2.6658 -3.3424 2.0377
-2.3888 -3.5457 2.0377
-0.7623 -1.3549 0.7410
-0.6510 -1.4115 0.7409
-0.5355 -1.4591 0.7408
-0.4165 -1.4972 0.7407
-0.2949 -1.5257 0.7407
-0.1715 -1.5444 0.7406
-0.0469 -1.5532 0.7406
0.0780 -1.5519 0.7406
0.2023 -1.5407 0.7406
0.3254 -1.5195 0.7407
0.4464 -1.4886 0.7407
3.8916 0.4968 2.0073
3.8900 0.8183 2.0339
3.8189 1.1301 2.0377
3.7159 1.4331 2.0377
3.5888 1.7269 2.0377
3.4385 2.0095 2.0377
3.2661 2.2791 2.0377
3.0725 2.5340 2.0377
2.8591 2.7725 2.0377
2.6273 2.9931 2.0377
2.3785 3.1944 2.0377
0.7738 1.2352 0.7458
0.6722 1.2935 0.7459
0.5662 1.3435 0.7460
0.4566 1.3848 0.7460
0.3439 1.4171 0.7461
0.2290 1.4402 0.7461
0.1127 1.4540 0.7462
-0.0045 1.4583 0.7462
-0.1215 1.4532 0.7462
-0.2378 1.4387 0.7461
-0.3526 1.4149 0.7461
-0.4650 1.3819 0.7460
-0.5744 1.3400 0.7459
-0.6801 1.2894 0.7458
-2.1348 3.3621 2.0377
-2.3979 3.1798 2.0377
-2.6455 2.9770 2.0377
-2.8760 2.7550 2.0377
-3.0879 2.5152 2.0377
-3.2799 2.2591 2.0377
-3.4507 1.9884 2.0377
-3.5993 1.7049 2.0377
-3.7245 1.4104 2.0377
-3.8258 1.1068 2.0377
-3.9023 0.7960 2.0377
-3.9536 0.4801 2.0377
-3.9794 0.1611 2.0377
-3.9795 -0.1590 2.0377
-3.9539 -0.4780 2.0377
-3.9027 -0.7939 2.0377
-3.8264 -1.1047 2.0377
-3.7253 -1.4084 2.0377
-3.6002 -1.7030 2.0377
-3.4518 -1.9866 2.0377
-3.2812 -2.2573 2.0377
-3.0893 -2.5135 2.0377
-2.8775 -2.7534 2.0377
-2.6471 -2.9756 2.0377
-2.3996 -3.1786 2.0377
-0.7772 -1.2225 0.7412
-0.6764 -1.2808 0.7411
-0.5713 -1.3308 0.7410
-0.4626 -1.3723 0.7409
-0.3509 -1.4049 0.7409
-0.2369 -1.4284 0.7408
-0.1214 -1.4428 0.7408
-0.0052 -1.4479 0.7408
0.1111 -1.4436 0.7408
0.2266 -1.4301 0.7408
0.3408 -1.4074 0.7409
0.4527 -1.3756 0.7409
0.5617 -1.3349 0.7410
0.6672 -1.2857 0.7411
0.7684 -1.2281 0.7412
2.3767 -3.1957 2.0377
2.6257 -2.9946 2.0377
2.8576 -2.7740 2.0377
3.0711 -2.5356 2.0377
3.2648 -2.2809 2.0377
3.4374 -2.0113 2.0377
3.5878 -1.7288 2.0377
3.7151 -1.4351 2.0377
3.8183 -1.1322 2.0377
3.8746 -0.8172 2.0261
3.8823 -0.4977 2.0026
3.8876 -0.1833 1.9913
3.8907 0.1295 1.9918
3.8917 0.4442 2.0041
3.8905 0.7645 2.0286
3.8336 1.0793 2.0377
3.7346 1.3836 2.0377
3.6114 1.6790 2.0377
3.4649 1.9636 2.0377
3.2961 2.2355 2.0377
3.1059 2.4929 2.0377
2.8957 2.7342 2.0377
2.6668 2.9579 2.0377
2.4207 3.1625 2.0377
0.7901 1.2248 0.7457
0.6893 1.2844 0.7458
0.5840 1.3358 0.7459
0.4749 1.3785 0.7460
0.3627 1.4123 0.7461
0.2482 1.4370 0.7461
0.1320 1.4523 0.7462
0.0149 1.4583 0.7462
-0.1022 1.4547 0.7462
-0.2187 1.4418 0.7461
-0.3337 1.4195 0.7461
-0.4466 1.3880 0.7460
-0.5565 1.3475 0.7460
-0.6629 1.2983 0.7459
-0.7649 1.2407 0.7458
-2.3554 3.2115 2.0377
-2.6057 3.0120 2.0377
-2.8391 2.7930 2.0377
-3.0542 2.5560 2.0377
-3.2496 2.3025 2.0377
-3.4240 2.0342 2.0377
-3.5763 1.7527 2.0377
-3.7055 1.4598 2.0377
-3.8107 1.1576 2.0377
-3.8913 0.8479 2.0377
-3.9469 0.5327 2.0377
-3.9769 0.2140 2.0377
-3.9812 -0.1060 2.0377
-3.9599 -0.4253 2.0377
-3.9129 -0.7419 2.0377
-3.8407 -1.0537 2.0377
-3.7437 -1.3587 2.0377
-3.6225 -1.6549 2.0377
-3.4779 -1.9405 2.0377
-3.3109 -2.2135 2.0377
-3.1225 -2.4722 2.0377
-2.9139 -2.7149 2.0377
-2.6865 -2.9401 2.0377
-2.4417 -3.1464 2.0377
-2.1812 -3.3322 2.0377
-0.6934 -1.2717 0.7411
-0.5890 -1.3231 0.7410
-0.4808 -1.3660 0.7410
-0.3695 -1.4001 0.7409
-0.2559 -1.4252 0.7409
-0.1406 -1.4411 0.7408
-0.0245 -1.4477 0.7408
0.0919 -1.4450 0.7408
0.2076 -1.4330 0.7408
0.3220 -1.4118 0.7409
0.4344 -1.3814 0.7409
0.5439 -1.3422 0.7410
0.6500 -1.2944 0.7411
0.7520 -1.2382 0.7412
2.3340 -3.2270 2.0377
2.5856 -3.0292 2.0377
2.8205 -2.8118 2.0377
3.0372 -2.5763 2.0377
3.2342 -2.3241 2.0377
3.4104 -2.0569 2.0377
3.5645 -1.7764 2.0377
3.6957 -1.4844 2.0377
3.8029 -1.1829 2.0377
3.8731 -0.8709 2.0312
3.8812 -0.5500 2.0057
3.8869 -0.2351 1.9924
3.8904 0.0777 1.9909
3.8917 0.3919 2.0013
3.8908 0.7110 2.0237
3.8476 1.0282 2.0377
3.7526 1.3338 2.0377
3.6334 1.6308 2.0377
3.4908 1.9173 2.0377
3.3255 2.1914 2.0377
3.1388 2.4514 2.0377
2.9319 2.6955 2.0377
2.7059 2.9222 2.0377
2.4626 3.1301 2.0377
2.2033 3.3177 2.0377
0.7063 1.2751 0.7458
0.6017 1.3279 0.7459
0.4932 1.3721 0.7460
0.3815 1.4074 0.7461
0.2673 1.4336 0.7461
0.1513 1.4504 0.7462
0.0343 1.4579 0.7462
-0.0828 1.4560 0.7462
-0.1995 1.4446 0.7461
-0.3148 1.4238 0.7461
-0.4281 1.3938 0.7460
-0.5386 1.3548 0.7460
-0.6456 1.3070 0.7459
-0.7483 1.2508 0.7458
-2.3125 3.2425 2.0377
-2.5654 3.0463 2.0377
-2.8017 2.8305 2.0377
-3.0200 2.5964 2.0377
-3.2187 2.3455 2.0377
-3.3966 2.0795 2.0377
-3.5526 1.8000 2.0377
-3.6857 1.5090 2.0377
-3.7950 1.2082 2.0377
-3.8797 0.8995 2.0377
-3.9394 0.5851 2.0377
-3.9737 0.2669 2.0377
-3.9823 -0.0531 2.0377
-3.9652 -0.3726 2.0377
-3.9224 -0.6898 2.0377
-3.8544 -1.0026 2.0377
-3.7614 -1.3088 2.0377
-3.6442 -1.6066 2.0377
-3.5034 -1.8941 2.0377
-3.3400 -2.1692 2.0377
-3.1551 -2.4304 2.0377
-2.9497 -2.6759 2.0377
-2.7253 -2.9041 2.0377
-2.4833 -3.1136 2.0377
-2.2253 -3.3029 2.0377
-0.7103 -1.2624 0.7411
-0.6065 -1.3152 0.7411
-0.4989 -1.3595 0.7410
-0.3881 -1.3951 0.7409
-0.2748 -1.4216 0.7409
-0.1598 -1.4391 0.7408
-0.0437 -1.4472 0.7408
0.0726 -1.4461 0.7408
0.1885 -1.4356 0.7408
0.3032 -1.4159 0.7409
0.4159 -1.3871 0.7409
3.6906 0.4711 2.0377
3.6408 0.7659 2.0377
3.5676 1.0558 2.0377
3.4713 1.3389 2.0377
3.3526 1.6132 2.0377
3.2122 1.8772 2.0377
3.0511 2.1291 2.0377
2.8703 2.3672 2.0377
2.6709 2.5900 2.0377
2.4543 2.7961 2.0377
2.2219 2.9842 2.0377
0.7227 1.1537 0.7456
0.6278 1.2081 0.7457
0.5288 1.2548 0.7458
0.4264 1.2933 0.7459
0.3212 1.3235 0.7459
0.2139 1.3451 0.7460
0.1052 1.3579 0.7460
-0.0042 1.3620 0.7460
-0.1135 1.3573 0.7460
-0.2221 1.3437 0.7460
-0.3293 1.3215 0.7459
-0.4343 1.2907 0.7459
-0.5365 1.2515 0.7458
-0.6352 1.2042 0.7457
-0.7297 1.1492 0.7456
-2.2401 2.9706 2.0377
-2.4714 2.7811 2.0377
-2.6867 2.5737 2.0377
-2.8847 2.3496 2.0377
-3.0640 2.1104 2.0377
-3.2236 1.8576 2.0377
-3.3624 1.5927 2.0377
-3.4794 1.3176 2.0377
-3.5740 1.0340 2.0377
-3.6454 0.7436 2.0377
-3.6934 0.4485 2.0377
-3.7175 0.1505 2.0377
-3.7175 -0.1485 2.0377
-3.6936 -0.4465 2.0377
-3.6458 -0.7417 2.0377
-3.5745 -1.0320 2.0377
-3.4801 -1.3157 2.0377
-3.3632 -1.5909 2.0377
-3.2246 -1.8558 2.0377
-3.0652 -2.1087 2.0377
-2.8860 -2.3481 2.0377
-2.6881 -2.5722 2.0377
-2.4729 -2.7797 2.0377
-2.2417 -2.9693 2.0377
-0.7262 -1.1423 0.7414
-0.6320 -1.1968 0.7413
-0.5338 -1.2435 0.7412
-0.4322 -1.2822 0.7411
-0.3279 -1.3127 0.7411
-0.2214 -1.3347 0.7410
-0.1135 -1.3481 0.7410
-0.0049 -1.3529 0.7410
0.1038 -1.3489 0.7410
0.2118 -1.3363 0.7410
0.3184 -1.3150 0.7411
0.4230 -1.2853 0.7411
0.5249 -1.2473 0.7412
0.6234 -1.2013 0.7413
0.7180 -1.1475 0.7414
2.2203 -2.9854 2.0377
2.4528 -2.7975 2.0377
2.6695 -2.5915 2.0377
2.8690 -2.3687 2.0377
3.0499 -2.1307 2.0377
3.2112 -1.8789 2.0377
3.3517 -1.6150 2.0377
3.4706 -1.3407 2.0377
3.5670 -1.0577 2.0377
3.6404 -0.7679 2.0377
3.6903 -0.4731 2.0377
3.7164 -0.1752 2.0377
3.7185 0.1238 2.0377
3.6965 0.4219 2.0377
3.6507 0.7174 2.0377
3.5813 1.0082 2.0377
3.4888 1.2925 2.0377
3.3737 1.5685 2.0377
3.2369 1.8343 2.0377
3.0791 2.0883 2.0377
2.9015 2.3288 2.0377
2.7052 2.5543 2.0377
2.4913 2.7633 2.0377
2.2614 2.9544 2.0377
0.7380 1.1439 0.7456
0.6438 1.1997 0.7457
0.5455 1.2476 0.7458
0.4436 1.2875 0.7459
0.3388 1.3191 0.7459
0.2318 1.3421 0.7460
0.1233 1.3564 0.7460
0.0140 1.3620 0.7460
-0.0955 1.3587 0.7460
-0.2042 1.3466 0.7460
-0.3117 1.3258 0.7459
-0.4171 1.2963 0.7459
-0.5198 1.2586 0.7458
-0.6191 1.2126 0.7457
-0.7144 1.1588 0.7456
-2.2004 3.0001 2.0377
-2.4342 2.8137 2.0377
-2.6523 2.6092 2.0377
-2.8532 2.3878 2.0377
-3.0357 2.1510 2.0377
-3.1986 1.9003 2.0377
-3.3409 1.6373 2.0377
-3.4616 1.3637 2.0377
-3.5599 1.0814 2.0377
-3.6352 0.7921 2.0377
-3.6871 0.4976 2.0377
-3.7151 0.1999 2.0377
-3.7192 -0.0990 2.0377
-3.6992 -0.3973 2.0377
-3.6554 -0.6931 2.0377
-3.5879 -0.9844 2.0377
-3.4973 -1.2693 2.0377
-3.3841 -1.5460 2.0377
-3.2490 -1.8128 2.0377
-3.0930 -2.0678 2.0377
-2.9169 -2.3095 2.0377
-2.7221 -2.5362 2.0377
-2.5096 -2.7466 2.0377
-2.2810 -2.9393 2.0377
-0.7413 -1.1326 0.7414
-0.6479 -1.1883 0.7413
-0.5503 -1.2363 0.7412
-0.4493 -1.2764 0.7411
-0.3453 -1.3082 0.7411
-0.2391 -1.3317 0.7410
-0.1314 -1.3465 0.7410
-0.0229 -1.3527 0.7410
0.0858 -1.3502 0.7410
0.1940 -1.3390 0.7410
0.3009 -1.3191 0.7411
0.4059 -1.2908 0.7411
0.5082 -1.2542 0.7412
0.6074 -1.2094 0.7413
0.7026 -1.1569 0.7414
2.1804 -3.0146 2.0377
2.4154 -2.8298 2.0377
2.6348 -2.6267 2.0377
2.8373 -2.4067 2.0377
3.0213 -2.1711 2.0377
3.1859 -1.9215 2.0377
3.3299 -1.6595 2.0377
3.4524 -1.3867 2.0377
3.5526 -1.1050 2.0377
3.6299 -0.8162 2.0377
3.6837 -0.5221 2.0377
3.7137 -0.2246 2.0377
3.7198 0.0743 2.0377
3.7018 0.3727 2.0377
3.6599 0.6688 2.0377
3.5944 0.9605 2.0377
3.5057 1.2460 2.0377
3.3943 1.5235 2.0377
3.2610 1.7911 2.0377
3.1066 2.0472 2.0377
2.9322 2.2900 2.0377
2.7389 2.5181 2.0377
2.5278 2.7299 2.0377
2.3005 2.9240 2.0377
0.7531 1.1340 0.7456
0.6597 1.1910 0.7457
0.5620 1.2402 0.7458
0.4606 1.2815 0.7458
0.3563 1.3144 0.7459
0.2496 1.3389 0.7459
0.1413 1.3547 0.7460
0.0321 1.3616 0.7460
-0.0774 1.3598 0.7460
-0.1863 1.3492 0.7460
-0.2940 1.3298 0.7459
-0.3998 1.3018 0.7459
-0.5030 1.2654 0.7458
-0.6029 1.2208 0.7457
-0.6989 1.1683 0.7456
-2.1603 3.0291 2.0377
-2.3965 2.8458 2.0377
-2.6173 2.6442 2.0377
-2.8212 2.4255 2.0377
-3.0068 2.1911 2.0377
-3.1731 1.9426 2.0377
-3.3188 1.6816 2.0377
-3.4431 1.4097 2.0377
-3.5452 1.1286 2.0377
-3.6244 0.8403 2.0377
-3.6801 0.5466 2.0377
-3.7121 0.2493 2.0377
-3.7202 -0.0496 2.0377
-3.7042 -0.3481 2.0377
-3.6643 -0.6444 2.0377
-3.6007 -0.9366 2.0377
-3.5139 -1.2227 2.0377
-3.4043 -1.5009 2.0377
-3.2728 -1.7694 2.0377
-3.1202 -2.0265 2.0377
-2.9474 -2.2705 2.0377
-2.7556 -2.4998 2.0377
-2.5459 -2.7130 2.0377
-2.3199 -2.9087 2.0377
-0.7564 -1.1226 0.7414
-0.6637 -1.1796 0.7413
-0.5667 -1.2289 0.7412
-0.4662 -1.2703 0.7411
-0.3627 -1.3036 0.7411
-0.2568 -1.3284 0.7410
-0.1493 -1.3447 0.7410
-0.0408 -1.3523 0.7410
0.0679 -1.3512 0.7410
0.1762 -1.3414 0.7410
0.2833 -1.3230 0.7410
0.3887 -1.2961 0.7411
3.4560 0.4412 2.0377
3.4094 0.7172 2.0377
3.3408 0.9887 2.0377
3.2506 1.2537 2.0377
3.1395 1.5107 2.0377
3.0080 1.7579 2.0377
2.8572 1.9937 2.0377
2.6878 2.2167 2.0377
2.5012 2.4254 2.0377
2.2983 2.6184 2.0377
0.7611 1.0222 0.7454
0.6766 1.0801 0.7455
0.5878 1.1311 0.7456
0.4951 1.1748 0.7456
0.3992 1.2109 0.7457
0.3007 1.2391 0.7458
0.2003 1.2593 0.7458
0.0985 1.2714 0.7458
-0.0039 1.2752 0.7458
-0.1063 1.2707 0.7458
-0.2080 1.2580 0.7458
-0.3083 1.2372 0.7458
-0.4066 1.2084 0.7457
-0.5023 1.1717 0.7456
-0.5947 1.1275 0.7455
-0.6832 1.0760 0.7455
-0.7673 1.0175 0.7453
-2.3143 2.6043 2.0377
-2.5159 2.4101 2.0377
-2.7013 2.2003 2.0377
-2.8693 1.9763 2.0377
-3.0187 1.7395 2.0377
-3.1486 1.4915 2.0377
-3.2582 1.2338 2.0377
-3.3468 0.9682 2.0377
-3.4137 0.6964 2.0377
-3.4586 0.4200 2.0377
-3.4812 0.1409 2.0377
-3.4812 -0.1390 2.0377
-3.4588 -0.4181 2.0377
-3.4141 -0.6945 2.0377
-3.3473 -0.9664 2.0377
-3.2589 -1.2321 2.0377
-3.1494 -1.4898 2.0377
-3.0196 -1.7379 2.0377
-2.8704 -1.9747 2.0377
-2.7025 -2.1988 2.0377
-2.5172 -2.4087 2.0377
-2.3157 -2.6030 2.0377
-0.7640 -1.0120 0.7416
-0.6802 -1.0699 0.7415
-0.5920 -1.1209 0.7414
-0.5000 -1.1647 0.7413
-0.4048 -1.2010 0.7413
-0.3071 -1.2295 0.7412
-0.2073 -1.2501 0.7412
-0.1063 -1.2627 0.7412
-0.0046 -1.2672 0.7411
0.0972 -1.2634 0.7412
0.1984 -1.2516 0.7412
0.2982 -1.2317 0.7412
0.3962 -1.2039 0.7413
0.4916 -1.1683 0.7413
0.5839 -1.1251 0.7414
0.6724 -1.0748 0.7415
0.7567 -1.0174 0.7416
2.2969 -2.6196 2.0377
2.4999 -2.4268 2.0377
2.6866 -2.2182 2.0377
2.8561 -1.9953 2.0377
3.0071 -1.7595 2.0377
3.1386 -1.5124 2.0377
3.2500 -1.2555 2.0377
3.3403 -0.9905 2.0377
3.4090 -0.7190 2.0377
3.4557 -0.4430 2.0377
3.4802 -0.1641 2.0377
3.4821 0.1159 2.0377
3.4615 0.3951 2.0377
3.4186 0.6718 2.0377
3.3537 0.9441 2.0377
3.2670 1.2104 2.0377
3.1593 1.4688 2.0377
3.0311 1.7177 2.0377
2.8834 1.9556 2.0377
2.7171 2.1808 2.0377
2.5332 2.3919 2.0377
2.3330 2.5876 2.0377
0.7746 1.0119 0.7453
0.6909 1.0710 0.7455
0.6028 1.1232 0.7456
0.5107 1.1681 0.7456
0.4153 1.2054 0.7457
0.3172 1.2350 0.7458
0.2170 1.2565 0.7458
0.1154 1.2699 0.7458
0.0131 1.2751 0.7458
-0.0894 1.2720 0.7458
-0.1912 1.2607 0.7458
-0.2918 1.2412 0.7458
-0.3905 1.2137 0.7457
-0.4867 1.1783 0.7456
-0.5796 1.1353 0.7456
-0.6688 1.0850 0.7455
-0.7537 1.0276 0.7454
-2.2795 2.6349 2.0377
-2.4837 2.4433 2.0377
-2.6718 2.2360 2.0377
-2.8427 2.0142 2.0377
-2.9953 1.7795 2.0377
-3.1285 1.5332 2.0377
-3.2415 1.2771 2.0377
-3.3336 1.0126 2.0377
-3.4042 0.7417 2.0377
-3.4527 0.4660 2.0377
-3.4790 0.1872 2.0377
-3.4828 -0.0927 2.0377
-3.4641 -0.3721 2.0377
-3.4230 -0.6490 2.0377
-3.3599 -0.9218 2.0377
-3.2750 -1.1886 2.0377
-3.1690 -1.4477 2.0377
-3.0425 -1.6975 2.0377
-2.8964 -1.9364 2.0377
-2.7315 -2.1627 2.0377
-2.5490 -2.3750 2.0377
-2.3501 -2.5720 2.0377
-0.7774 -1.0017 0.7416
-0.6943 -1.0608 0.7415
-0.6068 -1.1130 0.7414
-0.5155 -1.1580 0.7413
-0.4208 -1.1955 0.7413
-0.3234 -1.2253 0.7412
-0.2240 -1.2473 0.7412
-0.1231 -1.2612 0.7412
-0.0214 -1.2670 0.7411
0.0804 -1.2646 0.7412
0.1817 -1.2541 0.7412
0.2818 -1.2355 0.7412
0.3801 -1.2090 0.7413
0.4760 -1.1747 0.7413
0.5689 -1.1328 0.7414
0.6581 -1.0836 0.7415
0.7431 -1.0274 0.7416
2.2619 -2.6500 2.0377
2.4674 -2.4598 2.0377
2.6569 -2.2537 2.0377
2.8293 -2.0331 2.0377
2.9834 -1.7993 2.0377
3.1183 -1.5540 2.0377
3.2330 -1.2986 2.0377
3.3268 -1.0348 2.0377
3.3991 -0.7643 2.0377
3.4495 -0.4889 2.0377
3.4777 -0.2103 2.0377
3.4833 0.0696 2.0377
3.4665 0.3490 2.0377
3.4273 0.6263 2.0377
3.3659 0.8994 2.0377
