ply
format ascii 1.0
element vertex 2172
property float32 x
property float32 y
property float32 z
end_header
5.9216 4.4916 1.8798
5.5424 4.9519 1.8798
5.1276 5.3803 1.8798
4.6797 5.7741 1.8798
4.2017 6.1307 1.8798
3.9558 6.8999 2.0116
3.4246 7.2686 2.0322
2.8309 7.5197 2.0322
2.2189 7.7225 2.0322
1.5926 7.8755 2.0322
0.9560 7.9779 2.0322
0.3133 8.0288 2.0322
-0.3314 8.0281 2.0322
-0.9740 7.9757 2.0322
-1.6103 7.8719 2.0322
-2.2362 7.7175 2.0322
-2.8478 7.5133 2.0322
-3.4410 7.2609 2.0322
-4.0120 6.9616 2.0322
-4.5572 6.6175 2.0322
-5.0731 6.2309 2.0322
-5.5564 5.8041 2.0322
-6.0038 5.3399 2.0322
-6.4126 4.8414 2.0322
-6.7801 4.3117 2.0322
-7.1040 3.7542 2.0322
-7.3821 3.1725 2.0322
-7.6127 2.5705 2.0322
-7.7943 1.9519 2.0322
-7.9257 1.3207 2.0322
-8.0060 0.6810 2.0322
-8.0349 0.0369 2.0322
-8.0120 -0.6074 2.0322
-7.9375 -1.2478 2.0322
-7.8119 -1.8801 2.0322
-7.6360 -2.5004 2.0322
-7.4109 -3.1046 2.0322
-7.1382 -3.6887 2.0322
-6.8195 -4.2491 2.0322
-6.4568 -4.7822 2.0322
-6.0526 -5.2845 2.0322
-5.6095 -5.7527 2.0322
-5.1302 -6.1840 2.0322
-4.6179 -6.5754 2.0322
-4.0758 -6.9244 2.0322
-3.5076 -7.2289 2.0322
-2.9167 -7.4869 2.0322
-2.3071 -7.6966 2.0322
-1.6826 -7.8568 2.0322
-1.0472 -7.9664 2.0322
-0.4052 -8.0247 2.0322
0.2395 -8.0314 2.0322
0.8827 -7.9863 2.0322
1.5201 -7.8898 2.0322
2.1478 -7.7426 2.0322
2.7616 -7.5454 2.0322
3.3577 -7.2997 2.0322
3.8213 -6.8096 1.9749
4.1452 -6.1691 1.8798
4.6264 -5.8169 1.8798
5.0779 -5.4272 1.8798
5.4967 -5.0027 1.8798
5.8801 -4.5458 1.8798
6.2366 -4.0670 1.8831
6.5598 -3.5632 1.8881
6.8397 -3.0326 1.8923
7.0741 -2.4791 1.8959
7.2608 -1.9068 1.8987
7.3983 -1.3200 1.9007
7.4852 -0.7230 1.9020
7.5209 -0.1206 1.9024
7.5050 0.4827 1.9021
7.4377 1.0822 1.9009
7.3196 1.6733 1.8990
7.1517 2.2516 1.8963
6.9355 2.8126 1.8929
6.6730 3.3522 1.8887
6.3663 3.8664 1.8839
6.0228 4.3550 1.8798
5.6543 4.8238 1.8798
5.2493 5.2616 1.8798
4.8106 5.6656 1.8798
4.3409 6.0330 1.8798
3.9657 6.5643 1.9397
3.5900 7.1883 2.0322
3.0021 7.4530 2.0322
2.3950 7.6697 2.0322
1.7723 7.8370 2.0322
1.1383 7.9539 2.0322
0.4969 8.0196 2.0322
-0.1476 8.0336 2.0322
-0.7912 7.9959 2.0322
-1.4298 7.9067 2.0322
-2.0591 7.7666 2.0322
-2.6751 7.5765 2.0322
-3.2739 7.3377 2.0322
-3.8517 7.0516 2.0322
-4.4047 6.7201 2.0322
-4.9293 6.3453 2.0322
-5.4221 5.9297 2.0322
-5.8801 5.4759 2.0322
-6.3002 4.9868 2.0322
-6.6797 4.4656 2.0322
-7.0162 3.9157 2.0322
-7.3076 3.3406 2.0322
-7.5519 2.7440 2.0322
-7.7476 2.1297 2.0322
-7.8934 1.5017 2.0322
-7.9883 0.8640 2.0322
-8.0319 0.2207 2.0322
-8.0237 -0.4239 2.0322
-7.9639 -1.0659 2.0322
-7.8528 -1.7009 2.0322
-7.6912 -2.3250 2.0322
-7.4800 -2.9342 2.0322
-7.2207 -3.5245 2.0322
-6.9149 -4.0920 2.0322
-6.5645 -4.6332 2.0322
-6.1719 -5.1445 2.0322
-5.7396 -5.6229 2.0322
-5.2703 -6.0650 2.0322
-4.7671 -6.4680 2.0322
-4.2332 -6.8294 2.0322
-3.6720 -7.1468 2.0322
-3.0872 -7.4183 2.0322
-2.4825 -7.6418 2.0322
-1.8619 -7.8162 2.0322
-1.2292 -7.9404 2.0322
-0.5886 -8.0133 2.0322
0.0557 -8.0347 2.0322
0.6997 -8.0044 2.0322
1.3392 -7.9225 2.0322
1.9701 -7.7897 2.0322
2.5883 -7.6066 2.0322
3.1898 -7.3746 2.0322
3.7708 -7.0952 2.0322
4.0073 -6.2688 1.8818
4.4922 -5.9212 1.8798
4.9524 -5.5420 1.8798
5.5951 3.5758 1.8798
5.2905 4.0129 1.8798
4.9517 4.4241 1.8798
4.5811 4.8069 1.8798
4.1809 5.1587 1.8798
3.9503 5.7639 1.9782
3.5704 6.2276 2.0322
3.0596 6.4938 2.0322
2.5291 6.7182 2.0322
1.9824 6.8994 2.0322
1.4228 7.0361 2.0322
0.8541 7.1275 2.0322
0.2799 7.1731 2.0322
-0.2961 7.1724 2.0322
-0.8701 7.1256 2.0322
-1.4386 7.0329 2.0322
-1.9979 6.8949 2.0322
-2.5442 6.7125 2.0322
-3.0742 6.4870 2.0322
-3.5844 6.2196 2.0322
-4.0715 5.9122 2.0322
-4.5324 5.5667 2.0322
-4.9641 5.1854 2.0322
-5.3639 4.7708 2.0322
-5.7291 4.3254 2.0322
-6.0574 3.8521 2.0322
-6.3468 3.3540 2.0322
-6.5952 2.8344 2.0322
-6.8013 2.2965 2.0322
-6.9635 1.7438 2.0322
-7.0809 1.1799 2.0322
-7.1527 0.6084 2.0322
-7.1784 0.0330 2.0322
-7.1580 -0.5426 2.0322
-7.0914 -1.1148 2.0322
-6.9792 -1.6797 2.0322
-6.8221 -2.2339 2.0322
-6.6210 -2.7736 2.0322
-6.3773 -3.2955 2.0322
-6.0926 -3.7962 2.0322
-5.7686 -4.2725 2.0322
-5.4075 -4.7212 2.0322
-5.0116 -5.1396 2.0322
-4.5834 -5.5248 2.0322
-4.1257 -5.8745 2.0322
-3.6414 -6.1864 2.0322
-3.1337 -6.4584 2.0322
-2.6058 -6.6889 2.0322
-2.0612 -6.8762 2.0322
-1.5032 -7.0193 2.0322
-0.9356 -7.1173 2.0322
-0.3620 -7.1694 2.0322
0.2140 -7.1753 2.0322
0.7886 -7.1351 2.0322
1.3581 -7.0489 2.0322
1.9189 -6.9173 2.0322
2.4673 -6.7412 2.0322
2.9998 -6.5217 2.0322
3.5130 -6.2602 2.0322
3.8376 -5.7113 1.9479
4.1333 -5.1969 1.8798
4.5367 -4.8488 1.8798
4.9108 -4.4694 1.8798
5.2533 -4.0613 1.8798
5.5620 -3.6271 1.8798
5.8349 -3.1694 1.8798
6.0720 -2.6922 1.8803
6.2788 -2.2004 1.8835
6.4434 -1.6922 1.8859
6.5646 -1.1712 1.8877
6.6413 -0.6415 1.8888
6.6728 -0.1070 1.8893
6.6588 0.4283 1.8890
6.5995 0.9602 1.8879
6.4954 1.4849 1.8862
6.3474 1.9984 1.8839
6.1568 2.4968 1.8808
5.9336 2.9807 1.8798
5.6755 3.4469 1.8798
5.3809 3.8908 1.8798
5.0516 4.3097 1.8798
4.6898 4.7008 1.8798
4.2978 5.0617 1.8798
3.9586 5.5017 1.9188
3.7119 6.1443 2.0322
3.2074 6.4221 2.0322
2.6822 6.6586 2.0322
2.1397 6.8522 2.0322
1.5834 7.0017 2.0322
1.0170 7.1061 2.0322
0.4440 7.1648 2.0322
-0.1319 7.1773 2.0322
-0.7069 7.1436 2.0322
-1.2774 7.0640 2.0322
-1.8396 6.9388 2.0322
-2.3900 6.7690 2.0322
-2.9250 6.5556 2.0322
-3.4412 6.3000 2.0322
-3.9352 6.0038 2.0322
-4.4039 5.6690 2.0322
-4.8442 5.2976 2.0322
-5.2533 4.8922 2.0322
-5.6287 4.4553 2.0322
-5.9677 3.9896 2.0322
-6.2684 3.4984 2.0322
-6.5287 2.9846 2.0322
-6.7469 2.4515 2.0322
-6.9218 1.9027 2.0322
-7.0520 1.3416 2.0322
-7.1369 0.7719 2.0322
-7.1758 0.1972 2.0322
-7.1685 -0.3787 2.0322
-7.1151 -0.9522 2.0322
-7.0158 -1.5196 2.0322
-6.8714 -2.0772 2.0322
-6.6827 -2.6214 2.0322
-6.4511 -3.1488 2.0322
-6.1778 -3.6559 2.0322
-5.8649 -4.1394 2.0322
-5.5141 -4.5963 2.0322
-5.1278 -5.0236 2.0322
-4.7086 -5.4185 2.0322
-4.2590 -5.7786 2.0322
-3.7820 -6.1014 2.0322
-3.2806 -6.3851 2.0322
-2.7582 -6.6275 2.0322
-2.2179 -6.8273 2.0322
-1.6634 -6.9831 2.0322
-1.0982 -7.0940 2.0322
-0.5259 -7.1592 2.0322
0.0498 -7.1783 2.0322
0.6251 -7.1512 2.0322
1.1965 -7.0781 2.0322
1.7601 -6.9594 2.0322
2.3124 -6.7959 2.0322
2.8498 -6.5886 2.0322
3.3689 -6.3389 2.0322
3.8234 -5.9814 2.0097
4.0174 -5.2955 1.8817
4.4246 -4.9513 1.8798
5.0484 3.2264 1.8798
4.7735 3.6207 1.8798
4.4678 3.9918 1.8798
4.1334 4.3372 1.8798
3.9435 4.8657 1.9651
3.6616 5.3427 2.0322
3.2215 5.6191 2.0322
2.7606 5.8593 2.0322
2.2820 6.0617 2.0322
1.7886 6.2252 2.0322
1.2838 6.3486 2.0322
0.7707 6.4310 2.0322
0.2526 6.4721 2.0322
-0.2671 6.4715 2.0322
-0.7851 6.4293 2.0322
-1.2981 6.3456 2.0322
-1.8026 6.2211 2.0322
-2.2956 6.0566 2.0322
-2.7738 5.8531 2.0322
-3.2341 5.6118 2.0322
-3.6736 5.3345 2.0322
-4.0895 5.0228 2.0322
-4.4790 4.6787 2.0322
-4.8397 4.3046 2.0322
-5.1693 3.9027 2.0322
-5.4655 3.4757 2.0322
-5.7266 3.0263 2.0322
-5.9508 2.5574 2.0322
-6.1367 2.0721 2.0322
-6.2830 1.5734 2.0322
-6.3890 1.0646 2.0322
-6.4537 0.5490 2.0322
-6.4770 0.0298 2.0322
-6.4585 -0.4896 2.0322
-6.3985 -1.0058 2.0322
-6.2972 -1.5156 2.0322
-6.1555 -2.0156 2.0322
-5.9740 -2.5026 2.0322
-5.7542 -2.9735 2.0322
-5.4972 -3.4253 2.0322
-5.2049 -3.8550 2.0322
-4.8791 -4.2599 2.0322
-4.5219 -4.6373 2.0322
-4.1355 -4.9850 2.0322
-3.7225 -5.3005 2.0322
-3.2856 -5.5819 2.0322
-2.8275 -5.8273 2.0322
-2.3512 -6.0352 2.0322
-1.8597 -6.2043 2.0322
-1.3563 -6.3335 2.0322
-0.8442 -6.4218 2.0322
-0.3266 -6.4688 2.0322
0.1931 -6.4742 2.0322
0.7115 -6.4378 2.0322
1.2254 -6.3601 2.0322
1.7313 -6.2414 2.0322
2.2262 -6.0825 2.0322
2.7067 -5.8844 2.0322
3.1697 -5.6485 2.0322
3.6124 -5.3761 2.0322
3.8482 -4.8383 1.9396
4.0934 -4.3750 1.8798
4.4309 -4.0327 1.8798
4.7400 -3.6645 1.8798
5.0185 -3.2726 1.8798
5.2648 -2.8597 1.8798
5.4771 -2.4284 1.8798
5.6542 -1.9815 1.8798
5.7948 -1.5218 1.8798
5.8982 -1.0523 1.8798
5.9586 -0.5756 1.8782
5.9868 -0.0960 1.8786
5.9743 0.3842 1.8783
5.9289 0.8627 1.8798
5.8406 1.3352 1.8798
5.7148 1.7992 1.8798
5.5521 2.2516 1.8798
5.3538 2.6895 1.8798
5.1209 3.1100 1.8798
4.8551 3.5106 1.8798
4.5580 3.8886 1.8798
4.2315 4.2415 1.8798
3.9506 4.6527 1.9150
3.7829 5.2575 2.0322
3.3492 5.5439 2.0322
2.8940 5.7946 2.0322
2.4201 6.0080 2.0322
1.9306 6.1826 2.0322
1.4287 6.3175 2.0322
0.9176 6.4117 2.0322
0.4006 6.4647 2.0322
-0.1190 6.4760 2.0322
-0.6378 6.4456 2.0322
-1.1525 6.3737 2.0322
-1.6598 6.2608 2.0322
-2.1564 6.1075 2.0322
-2.6392 5.9150 2.0322
-3.1049 5.6843 2.0322
-3.5506 5.4171 2.0322
-3.9735 5.1150 2.0322
-4.3708 4.7800 2.0322
-4.7400 4.4141 2.0322
-5.0786 4.0199 2.0322
-5.3846 3.5998 2.0322
-5.6559 3.1565 2.0322
-5.8907 2.6929 2.0322
-6.0877 2.2119 2.0322
-6.2454 1.7168 2.0322
-6.3629 1.2105 2.0322
-6.4395 0.6965 2.0322
-6.4746 0.1779 2.0322
-6.4680 -0.3417 2.0322
-6.4198 -0.8592 2.0322
-6.3303 -1.3711 2.0322
-6.2000 -1.8742 2.0322
-6.0297 -2.3662 2.0322
-5.8207 -2.8411 2.0322
-5.5742 -3.2986 2.0322
-5.2918 -3.7349 2.0322
-4.9753 -4.1472 2.0322
-4.6268 -4.5327 2.0322
-4.2485 -4.8890 2.0322
-3.8428 -5.2139 2.0322
-3.4124 -5.5052 2.0322
-2.9601 -5.7611 2.0322
-2.4886 -5.9799 2.0322
-2.0012 -6.1601 2.0322
-1.5009 -6.3008 2.0322
-0.9909 -6.4008 2.0322
-0.4745 -6.4597 2.0322
0.0449 -6.4769 2.0322
0.5641 -6.4524 2.0322
1.0796 -6.3865 2.0322
1.5881 -6.2793 2.0322
2.0864 -6.1318 2.0322
2.5713 -5.9448 2.0322
3.0397 -5.7195 2.0322
3.4884 -5.4573 2.0322
3.8363 -5.0567 1.9915
3.9922 -4.4675 1.8798
4.5917 2.9345 1.8798
4.3417 3.2932 1.8798
4.0637 3.6307 1.8798
3.9354 4.1294 1.9677
3.7093 4.5767 2.0322
3.3304 4.8594 2.0322
2.9301 5.1108 2.0322
2.5109 5.3292 2.0322
2.0756 5.5134 2.0322
1.6268 5.6620 2.0322
1.1677 5.7743 2.0322
0.7009 5.8493 2.0322
0.2297 5.8867 2.0322
-0.2430 5.8861 2.0322
-0.7141 5.8477 2.0322
-1.1806 5.7716 2.0322
-1.6396 5.6584 2.0322
-2.0879 5.5087 2.0322
-2.5229 5.3236 2.0322
-2.9416 5.1042 2.0322
-3.3413 4.8519 2.0322
-3.7196 4.5684 2.0322
-4.0739 4.2555 2.0322
-4.4019 3.9152 2.0322
-4.7016 3.5496 2.0322
-4.9711 3.1613 2.0322
-5.2085 2.7525 2.0322
-5.4125 2.3261 2.0322
-5.5815 1.8847 2.0322
-5.7147 1.4311 2.0322
-5.8110 0.9683 2.0322
-5.8699 0.4993 2.0322
-5.8911 0.0269 2.0322
-5.8743 -0.4453 2.0322
-5.8197 -0.9149 2.0322
-5.7276 -1.3785 2.0322
-5.5986 -1.8333 2.0322
-5.4336 -2.2762 2.0322
-5.2336 -2.7045 2.0322
-4.9999 -3.1154 2.0322
-4.7341 -3.5063 2.0322
-4.4377 -3.8745 2.0322
-4.1128 -4.2178 2.0322
-3.7614 -4.5340 2.0322
-3.3858 -4.8210 2.0322
-2.9884 -5.0769 2.0322
-2.5717 -5.3002 2.0322
-0.7785 -1.9983 0.7398
-1.6915 -5.6431 2.0322
-1.2336 -5.7605 2.0322
-0.7678 -5.8409 2.0322
-0.2971 -5.8836 2.0322
0.1756 -5.8885 2.0322
0.6472 -5.8555 2.0322
1.1145 -5.7847 2.0322
1.5747 -5.6768 2.0322
0.7371 -2.0139 0.7398
2.4618 -5.3521 2.0322
2.8830 -5.1375 2.0322
3.2856 -4.8898 2.0322
3.6671 -4.6106 2.0322
3.8544 -4.1195 1.9461
4.0342 -3.6716 1.8817
4.3112 -3.3330 1.8798
4.5645 -2.9766 1.8798
4.7885 -2.6010 1.8798
4.9816 -2.2088 1.8798
5.1427 -1.8022 1.8798
5.2706 -1.3841 1.8798
5.3646 -0.9571 1.8798
5.4241 -0.5239 1.8798
5.4486 -0.0874 1.8798
5.4381 0.3497 1.8798
5.3925 0.7846 1.8798
5.3123 1.2144 1.8798
5.1978 1.6364 1.8798
5.0499 2.0479 1.8798
4.8694 2.4462 1.8798
4.6576 2.8287 1.8798
4.4159 3.1930 1.8798
4.1457 3.5368 1.8798
3.9415 3.9507 1.9251
3.8130 4.4907 2.0322
3.4407 4.7819 2.0322
3.0462 5.0424 2.0322
2.6322 5.2704 2.0322
2.2011 5.4645 2.0322
1.7560 5.6233 2.0322
1.2994 5.7460 2.0322
0.8346 5.8317 2.0322
0.3643 5.8798 2.0322
-0.1082 5.8901 2.0322
-0.5801 5.8625 2.0322
-1.0483 5.7971 2.0322
-1.5097 5.6944 2.0322
-1.9614 5.5550 2.0322
-2.4004 5.3799 2.0322
-2.8240 5.1701 2.0322
-3.2294 4.9271 2.0322
-3.6141 4.6523 2.0322
-3.9754 4.3476 2.0322
-4.3112 4.0148 2.0322
-4.6192 3.6563 2.0322
-4.8975 3.2742 2.0322
-5.1442 2.8710 2.0322
-5.3578 2.4493 2.0322
-5.5370 2.0118 2.0322
-5.6804 1.5615 2.0322
-5.7873 1.1010 2.0322
-5.8570 0.6335 2.0322
-5.8889 0.1616 2.0322
-5.8829 -0.3109 2.0322
-5.8391 -0.7815 2.0322
-5.7576 -1.2471 2.0322
-5.6391 -1.7047 2.0322
-5.4843 -2.1513 2.0322
-5.2941 -2.5841 2.0322
-5.0699 -3.0002 2.0322
-4.8131 -3.3970 2.0322
-4.5252 -3.7720 2.0322
-4.2082 -4.1227 2.0322
-3.8641 -4.4468 2.0322
-3.4952 -4.7423 2.0322
-3.1037 -5.0072 2.0322
-2.6923 -5.2399 2.0322
-2.2635 -5.4389 2.0322
-1.8202 -5.6029 2.0322
-1.3651 -5.7308 2.0322
-0.9012 -5.8218 2.0322
-0.4316 -5.8753 2.0322
0.0409 -5.8910 2.0322
0.5130 -5.8687 2.0322
0.9819 -5.8087 2.0322
1.4445 -5.7113 2.0322
0.6908 -2.0301 0.7397
2.3387 -5.4070 2.0322
2.7647 -5.2021 2.0322
3.1729 -4.9637 2.0322
3.5606 -4.6933 2.0322
3.8443 -4.3020 1.9902
4.2040 2.6867 1.8798
3.9750 3.0152 1.8798
3.9260 3.5077 1.9836
3.7211 3.9045 2.0322
3.3960 4.1902 2.0322
3.0492 4.4490 2.0322
2.6826 4.6792 2.0322
2.2989 4.8792 2.0322
0.6984 1.8552 0.7469
0.5475 1.9055 0.7470
0.3930 1.9434 0.7471
0.2359 1.9688 0.7471
0.2103 5.3895 2.0322
-0.2224 5.3890 2.0322
-0.2404 1.9683 0.7471
-0.3974 1.9425 0.7471
-0.5518 1.9042 0.7470
-0.7026 1.8536 0.7469
-2.3098 4.8740 2.0322
-2.6932 4.6731 2.0322
-3.0592 4.4422 2.0322
-3.4055 4.1826 2.0322
-3.7298 3.8961 2.0322
-4.0302 3.5845 2.0322
-4.3046 3.2499 2.0322
-4.5513 2.8943 2.0322
-4.7687 2.5201 2.0322
-4.9554 2.1296 2.0322
-5.1102 1.7255 2.0322
-5.2321 1.3102 2.0322
-5.3203 0.8865 2.0322
-5.3742 0.4571 2.0322
-5.3936 0.0248 2.0322
-5.3782 -0.4077 2.0322
-5.3282 -0.8376 2.0322
-5.2439 -1.2621 2.0322
-5.1258 -1.6784 2.0322
-4.9748 -2.0840 2.0322
-4.7917 -2.4761 2.0322
-4.5777 -2.8523 2.0322
-4.3343 -3.2102 2.0322
-4.0630 -3.5473 2.0322
-3.7655 -3.8617 2.0322
-3.4438 -4.1511 2.0322
-3.0999 -4.4139 2.0322
-2.7360 -4.6482 2.0322
-2.3545 -4.8526 2.0322
-0.7130 -1.8303 0.7401
-0.5639 -1.8814 0.7400
-0.4112 -1.9203 0.7399
-0.2559 -1.9470 0.7399
-0.0990 -1.9612 0.7399
0.0585 -1.9628 0.7399
0.2157 -1.9519 0.7399
0.3715 -1.9284 0.7399
0.5250 -1.8926 0.7400
0.6751 -1.8446 0.7401
2.2539 -4.9001 2.0322
2.6395 -4.7036 2.0322
3.0081 -4.4769 2.0322
3.3574 -4.2213 2.0322
3.6850 -3.9385 2.0322
3.8571 -3.5104 1.9650
3.9471 -3.0515 1.8798
4.1791 -2.7252 1.8798
4.3841 -2.3814 1.8798
4.5609 -2.0223 1.8798
4.7084 -1.6501 1.8798
4.8255 -1.2673 1.8798
4.9116 -0.8763 1.8798
4.9660 -0.4797 1.8798
4.9885 -0.0800 1.8798
4.9789 0.3202 1.8798
4.9372 0.7184 1.8798
4.8637 1.1119 1.8798
4.7589 1.4982 1.8798
4.6234 1.8750 1.8798
4.4582 2.2396 1.8798
4.2643 2.5898 1.8798
4.0430 2.9234 1.8798
3.9312 3.3539 1.9470
3.8094 3.8183 2.0322
3.4910 4.1115 2.0322
3.1501 4.3781 2.0322
2.7890 4.6166 2.0322
2.4099 4.8253 2.0322
0.7406 1.8387 0.7469
0.5909 1.8924 0.7470
0.4373 1.9339 0.7470
0.2809 1.9629 0.7471
0.3336 5.3833 2.0322
-0.0991 5.3927 2.0322
-0.1953 1.9733 0.7471
-0.3528 1.9511 0.7471
-0.5081 1.9164 0.7470
-0.6600 1.8693 0.7469
-2.1977 4.9256 2.0322
-2.5856 4.7335 2.0322
-2.9567 4.5110 2.0322
-3.3089 4.2594 2.0322
-3.6397 3.9804 2.0322
-3.9471 3.6758 2.0322
-4.2291 3.3475 2.0322
-4.4839 2.9977 2.0322
-4.7098 2.6285 2.0322
-4.9054 2.2425 2.0322
-5.0694 1.8419 2.0322
-5.2007 1.4296 2.0322
-5.2986 1.0080 2.0322
-5.3624 0.5800 2.0322
-5.3916 0.1482 2.0322
-5.3861 -0.2846 2.0322
-5.3460 -0.7155 2.0322
-5.2714 -1.1418 2.0322
-5.1629 -1.5607 2.0322
-5.0211 -1.9697 2.0322
-4.8471 -2.3659 2.0322
-4.6418 -2.7469 2.0322
-4.4066 -3.1102 2.0322
-4.1431 -3.4534 2.0322
-3.8528 -3.7745 2.0322
-3.5378 -4.0713 2.0322
-3.2000 -4.3418 2.0322
-2.8416 -4.5844 2.0322
-2.4649 -4.7974 2.0322
-0.7548 -1.8136 0.7401
-0.6069 -1.8680 0.7400
-0.4551 -1.9105 0.7400
-0.3004 -1.9407 0.7399
-0.1439 -1.9584 0.7399
0.0136 -1.9636 0.7399
0.1710 -1.9562 0.7399
0.3273 -1.9363 0.7399
0.4815 -1.9040 0.7400
0.6327 -1.8595 0.7401
0.7799 -1.8030 0.7402
2.5312 -4.7628 2.0322
2.9049 -4.5445 2.0322
3.2599 -4.2970 2.0322
3.5939 -4.0218 2.0322
3.9296 2.5114 1.9087
3.9154 2.9699 2.0113
3.7027 3.3082 2.0322
3.4256 3.5944 2.0322
3.1264 3.8575 2.0322
2.8070 4.0957 2.0322
2.4696 4.3076 2.0322
0.7774 1.6500 0.7465
0.6427 1.7073 0.7466
0.5038 1.7535 0.7467
0.3617 1.7884 0.7468
0.2171 1.8118 0.7468
0.0712 1.8234 0.7468
-0.0753 1.8232 0.7468
-0.2212 1.8113 0.7468
-0.3657 1.7876 0.7468
-0.5078 1.7524 0.7467
-0.6465 1.7058 0.7466
-2.1264 4.4870 2.0322
-2.4793 4.3021 2.0322
-2.8162 4.0894 2.0322
-3.1350 3.8505 2.0322
-3.4337 3.5867 2.0322
-3.7102 3.2999 2.0322
-3.9628 2.9918 2.0322
-4.1899 2.6645 2.0322
-4.3900 2.3200 2.0322
-4.5619 1.9605 2.0322
-4.7044 1.5885 2.0322
-4.8166 1.2062 2.0322
-4.8978 0.8162 2.0322
-4.9475 0.4208 2.0322
-4.9653 0.0228 2.0322
-4.9511 -0.3753 2.0322
-4.9051 -0.7711 2.0322
-4.8275 -1.1619 2.0322
-4.7188 -1.5452 2.0322
-4.5797 -1.9185 2.0322
-4.4112 -2.2795 2.0322
-4.2142 -2.6258 2.0322
-3.9901 -2.9553 2.0322
-3.7403 -3.2657 2.0322
-3.4665 -3.5550 2.0322
-3.1703 -3.8215 2.0322
-2.8537 -4.0634 2.0322
-2.5187 -4.2791 2.0322
-2.1676 -4.4672 2.0322
-0.6567 -1.6856 0.7404
-0.5193 -1.7326 0.7403
-0.3787 -1.7685 0.7402
-0.2357 -1.7931 0.7402
-0.0912 -1.8061 0.7402
0.0539 -1.8076 0.7402
0.1987 -1.7975 0.7402
0.3422 -1.7759 0.7402
0.4835 -1.7429 0.7403
0.6217 -1.6987 0.7404
0.7560 -1.6437 0.7405
2.4299 -4.3301 2.0322
2.7693 -4.1214 2.0322
3.0908 -3.8861 2.0322
3.3924 -3.6258 2.0322
3.6722 -3.3421 2.0322
3.8570 -2.9818 1.9953
3.8801 -2.5301 1.8958
4.0360 -2.1923 1.8798
4.1988 -1.8617 1.8798
4.3345 -1.5190 1.8798
4.4423 -1.1666 1.8798
4.5216 -0.8067 1.8798
4.5717 -0.4416 1.8798
4.5924 -0.0736 1.8798
4.5835 0.2948 1.8798
4.5451 0.6613 1.8798
4.4775 1.0236 1.8798
4.3810 1.3793 1.8798
4.2563 1.7261 1.8798
4.1042 2.0618 1.8798
3.9396 2.3926 1.8864
3.9198 2.8343 1.9797
3.7774 3.2227 2.0322
3.5069 3.5152 2.0322
3.2138 3.7850 2.0322
2.9000 4.0305 2.0322
2.5675 4.2500 2.0322
2.2185 4.4422 2.0322
0.6816 1.6921 0.7466
0.5438 1.7415 0.7467
0.4025 1.7797 0.7468
0.2585 1.8063 0.7468
0.1129 1.8213 0.7468
-0.0335 1.8245 0.7468
-0.1797 1.8159 0.7468
-0.3247 1.7955 0.7468
-0.4676 1.7636 0.7467
-0.6074 1.7202 0.7466
-0.7432 1.6658 0.7465
-2.3802 4.3577 2.0322
-2.7219 4.1528 2.0322
-3.0461 3.9212 2.0322
-3.3507 3.6644 2.0322
-3.6337 3.3839 2.0322
-3.8933 3.0817 2.0322
-4.1278 2.7596 2.0322
-4.3358 2.4198 2.0322
-4.5158 2.0644 2.0322
-4.6668 1.6957 2.0322
-4.7877 1.3161 2.0322
-4.8779 0.9280 2.0322
-4.9365 0.5339 2.0322
-4.9635 0.1364 2.0322
-4.9584 -0.2620 2.0322
-4.9215 -0.6587 2.0322
-4.8528 -1.0511 2.0322
-4.7529 -1.4368 2.0322
-4.6224 -1.8132 2.0322
-4.4622 -2.1780 2.0322
-4.2732 -2.5287 2.0322
-4.0567 -2.8632 2.0322
-3.8141 -3.1793 2.0322
-3.5469 -3.4748 2.0322
-3.2569 -3.7480 2.0322
-2.9459 -3.9970 2.0322
-2.6160 -4.2203 2.0322
-2.2692 -4.4165 2.0322
-0.6951 -1.6702 0.7404
-0.5589 -1.7203 0.7403
-0.4191 -1.7594 0.7402
-0.2767 -1.7872 0.7402
-0.1325 -1.8036 0.7402
0.0125 -1.8084 0.7401
0.1575 -1.8016 0.7402
0.3014 -1.7833 0.7402
0.4435 -1.7535 0.7403
0.5827 -1.7125 0.7403
0.7182 -1.6604 0.7404
2.3302 -4.3846 2.0322
2.6743 -4.1836 2.0322
3.0011 -3.9558 2.0322
3.3086 -3.7024 2.0322
3.8695 2.4729 2.0322
3.6587 2.7752 2.0322
3.4245 3.0596 2.0322
3.1681 3.3243 2.0322
2.8914 3.5676 2.0322
2.5961 3.7879 2.0322
2.2840 3.9839 2.0322
0.7188 1.5256 0.7463
0.5942 1.5785 0.7464
0.4658 1.6212 0.7465
0.3344 1.6535 0.7465
0.2007 1.6750 0.7466
0.0658 1.6858 0.7466
-0.0696 1.6856 0.7466
-0.2045 1.6746 0.7466
-0.3381 1.6527 0.7465
-0.4695 1.6201 0.7465
-0.5978 1.5771 0.7464
-0.7222 1.5239 0.7463
-2.2930 3.9787 2.0322
-2.6046 3.7821 2.0322
-2.8994 3.5611 2.0322
-3.1756 3.3172 2.0322
-3.4313 3.0519 2.0322
-3.6650 2.7670 2.0322
-3.8750 2.4642 2.0322
-4.0601 2.1456 2.0322
-4.2191 1.8132 2.0322
-4.3508 1.4691 2.0322
-4.4546 1.1155 2.0322
-4.5297 0.7548 2.0322
-4.5756 0.3892 2.0322
-4.5921 0.0211 2.0322
-4.5790 -0.3471 2.0322
-4.5365 -0.7131 2.0322
-4.4647 -1.0746 2.0322
-4.3641 -1.4292 2.0322
-4.2355 -1.7743 2.0322
-4.0796 -2.1082 2.0322
-3.8975 -2.4285 2.0322
-3.6902 -2.7332 2.0322
-3.4592 -3.0202 2.0322
-3.2060 -3.2878 2.0322
-2.9320 -3.5343 2.0322
-2.6392 -3.7580 2.0322
-2.3295 -3.9575 2.0322
-0.7307 -1.5059 0.7407
-0.6075 -1.5594 0.7406
-0.4805 -1.6029 0.7405
-0.3504 -1.6361 0.7405
-0.2181 -1.6589 0.7404
-0.0844 -1.6710 0.7404
0.0499 -1.6723 0.7404
0.1838 -1.6630 0.7404
0.3166 -1.6430 0.7405
0.4473 -1.6125 0.7405
0.5752 -1.5716 0.7406
0.6994 -1.5206 0.7407
2.2473 -4.0047 2.0322
2.5611 -3.8116 2.0322
2.8585 -3.5940 2.0322
3.1374 -3.3533 2.0322
3.3962 -3.0909 2.0322
3.6331 -2.8087 2.0322
3.8466 -2.5084 2.0322
3.8742 -2.1044 1.9511
3.8970 -1.7279 1.8865
4.0088 -1.4049 1.8798
4.1085 -1.0790 1.8798
4.1818 -0.7461 1.8798
4.2281 -0.4084 1.8798
4.2472 -0.0681 1.8798
4.2390 0.2726 1.8798
4.2035 0.6116 1.8798
4.1410 0.9466 1.8798
4.0517 1.2756 1.8798
3.9375 1.5968 1.8803
3.9182 1.9683 1.9404
3.9071 2.3729 2.0229
3.7213 2.6908 2.0322
3.4936 2.9805 2.0322
3.2434 3.2510 2.0322
2.9723 3.5005 2.0322
2.6821 3.7276 2.0322
2.3746 3.9306 2.0322
0.7535 1.5087 0.7463
0.6302 1.5644 0.7464
0.5028 1.6101 0.7464
0.3721 1.6454 0.7465
0.2390 1.6700 0.7466
0.1043 1.6838 0.7466
-0.0310 1.6868 0.7466
-0.1661 1.6788 0.7466
-0.3002 1.6600 0.7465
-0.4323 1.6305 0.7465
-0.5616 1.5904 0.7464
-0.6872 1.5401 0.7463
-2.2013 4.0302 2.0322
-2.5174 3.8407 2.0322
-2.8172 3.6265 2.0322
-3.0989 3.3890 2.0322
-3.3606 3.1296 2.0322
-3.6007 2.8501 2.0322
-3.8176 2.5522 2.0322
-4.0100 2.2379 2.0322
-4.1765 1.9093 2.0322
-4.3161 1.5683 2.0322
-4.4279 1.2172 2.0322
-4.5113 0.8582 2.0322
-4.5655 0.4938 2.0322
-4.5904 0.1262 2.0322
-4.5858 -0.2423 2.0322
-4.5516 -0.6092 2.0322
-4.4881 -0.9721 2.0322
-4.3957 -1.3288 2.0322
-4.2750 -1.6770 2.0322
-4.1268 -2.0143 2.0322
-3.9520 -2.3387 2.0322
-3.7518 -2.6480 2.0322
-3.5274 -2.9403 2.0322
-3.2803 -3.2136 2.0322
-3.0121 -3.4663 2.0322
-2.7245 -3.6966 2.0322
-2.4194 -3.9032 2.0322
-0.7650 -1.4888 0.7407
-0.6430 -1.5451 0.7406
-0.5170 -1.5915 0.7405
-0.3877 -1.6277 0.7405
-0.2560 -1.6535 0.7404
-0.1226 -1.6686 0.7404
0.0116 -1.6731 0.7404
0.1457 -1.6668 0.7404
0.2789 -1.6498 0.7404
0.4103 -1.6222 0.7405
0.5391 -1.5843 0.7406
0.6644 -1.5361 0.7407
2.1551 -4.0551 2.0322
2.4733 -3.8692 2.0322
2.7755 -3.6585 2.0322
3.0599 -3.4242 2.0322
3.5926 2.2960 2.0322
3.3970 2.5767 2.0322
3.1795 2.8407 2.0322
2.9415 3.0865 2.0322
2.6846 3.3124 2.0322
2.4104 3.5170 2.0322
0.7784 1.3578 0.7460
0.6672 1.4160 0.7461
0.5516 1.4652 0.7462
0.4324 1.5048 0.7463
0.3104 1.5347 0.7463
0.1863 1.5547 0.7463
0.0611 1.5647 0.7464
-0.0646 1.5646 0.7464
-0.1898 1.5543 0.7463
-0.3138 1.5340 0.7463
-0.4357 1.5038 0.7462
-0.5549 1.4639 0.7462
-0.6703 1.4145 0.7461
-2.1289 3.6941 2.0322
-2.4183 3.5115 2.0322
-2.6920 3.3063 2.0322
-2.9484 3.0799 2.0322
-3.1859 2.8336 2.0322
-3.4028 2.5690 2.0322
-3.5978 2.2879 2.0322
-3.7696 1.9921 2.0322
-3.9172 1.6835 2.0322
-4.0396 1.3640 2.0322
-4.1359 1.0358 2.0322
-4.2057 0.7008 2.0322
-4.2483 0.3614 2.0322
-4.2636 0.0196 2.0322
-4.2515 -0.3223 2.0322
-4.2119 -0.6621 2.0322
-4.1453 -0.9977 2.0322
-4.0520 -1.3268 2.0322
-3.9325 -1.6474 2.0322
-3.7878 -1.9574 2.0322
-3.6187 -2.2548 2.0322
-3.4263 -2.5376 2.0322
-3.2118 -2.8041 2.0322
-2.9766 -3.0526 2.0322
-2.7223 -3.2814 2.0322
-2.4504 -3.4891 2.0322
-2.1628 -3.6744 2.0322
-0.6786 -1.3985 0.7409
-0.5642 -1.4482 0.7408
-0.4462 -1.4887 0.7407
-0.3254 -1.5195 0.7407
-0.2025 -1.5407 0.7406
-0.0784 -1.5519 0.7406
0.0463 -1.5532 0.7406
0.1707 -1.5445 0.7406
0.2940 -1.5259 0.7407
0.4154 -1.4975 0.7407
0.5342 -1.4595 0.7408
0.6496 -1.4122 0.7409
0.7608 -1.3558 0.7410
2.3779 -3.5390 2.0322
2.6540 -3.3369 2.0322
2.9130 -3.1134 2.0322
3.1532 -2.8698 2.0322
3.3732 -2.6078 2.0322
3.5714 -2.3290 2.0322
3.7466 -2.0351 2.0322
3.8663 -1.7142 2.0158
3.8803 -1.3598 1.9597
3.8916 -1.0220 1.9177
3.9040 -0.6964 1.8901
3.9256 -0.3792 1.8798
3.9434 -0.0632 1.8798
3.9358 0.2532 1.8798
3.9194 0.5703 1.8878
3.9122 0.8944 1.9128
3.9083 1.2304 1.9529
3.9019 1.5824 2.0069
3.8099 1.9139 2.0322
3.6442 2.2132 2.0322
3.4551 2.4983 2.0322
3.2436 2.7672 2.0322
3.0113 3.0184 2.0322
2.7596 3.2501 2.0322
2.4902 3.4609 2.0322
2.2047 3.6494 2.0322
0.6994 1.4004 0.7461
0.5849 1.4521 0.7462
0.4667 1.4945 0.7462
0.3454 1.5272 0.7463
0.2218 1.5501 0.7463
0.0968 1.5629 0.7464
-0.0288 1.5656 0.7464
-0.1542 1.5583 0.7463
-0.2786 1.5408 0.7463
-0.4012 1.5134 0.7463
-0.5212 1.4762 0.7462
-0.6378 1.4295 0.7461
-0.7503 1.3736 0.7460
-2.3373 3.5659 2.0322
-2.6157 3.3671 2.0322
-2.8772 3.1465 2.0322
-3.1202 2.9057 2.0322
-3.3431 2.6462 2.0322
-3.5445 2.3696 2.0322
-3.7231 2.0778 2.0322
-3.8777 1.7727 2.0322
-4.0073 1.4561 2.0322
-4.1112 1.1301 2.0322
-4.1885 0.7968 2.0322
-4.2389 0.4585 2.0322
-4.2621 0.1171 2.0322
-4.2577 -0.2250 2.0322
-4.2260 -0.5656 2.0322
-4.1670 -0.9026 2.0322
-4.0813 -1.2337 2.0322
-3.9692 -1.5570 2.0322
-3.8316 -1.8702 2.0322
-3.6693 -2.1714 2.0322
-3.4834 -2.4586 2.0322
-3.2751 -2.7300 2.0322
-3.0457 -2.9837 2.0322
-2.7966 -3.2183 2.0322
-2.5296 -3.4322 2.0322
-2.2463 -3.6239 2.0322
-0.7104 -1.3827 0.7409
-0.5972 -1.4350 0.7408
-0.4802 -1.4781 0.7408
-0.3601 -1.5117 0.7407
-0.2377 -1.5356 0.7406
-0.1138 -1.5497 0.7406
0.0108 -1.5538 0.7406
0.1353 -1.5480 0.7406
0.2590 -1.5322 0.7407
0.3810 -1.5066 0.7407
0.5006 -1.4713 0.7408
0.6171 -1.4266 0.7409
0.7296 -1.3728 0.7410
2.2963 -3.5924 2.0322
2.5770 -3.3968 2.0322
2.8410 -3.1792 2.0322
3.3467 2.1388 2.0322
3.1645 2.4003 2.0322
2.9618 2.6463 2.0322
2.7401 2.8752 2.0322
2.5008 3.0856 2.0322
2.2454 3.2762 2.0322
0.7250 1.2646 0.7458
0.6214 1.3188 0.7459
0.5137 1.3645 0.7460
0.4027 1.4014 0.7461
0.2890 1.4293 0.7461
0.1735 1.4479 0.7461
0.0569 1.4572 0.7462
-0.0601 1.4571 0.7462
-0.1768 1.4475 0.7461
-0.2922 1.4286 0.7461
-0.4058 1.4005 0.7461
-0.5167 1.3633 0.7460
-0.6243 1.3174 0.7459
-0.7278 1.2629 0.7458
-2.2527 3.2712 2.0322
-2.5077 3.0800 2.0322
-2.7466 2.8690 2.0322
-2.9678 2.6396 2.0322
-3.1698 2.3932 2.0322
-3.3515 2.1313 2.0322
-3.5116 1.8558 2.0322
-3.6491 1.5682 2.0322
-3.7631 1.2706 2.0322
-3.8528 0.9648 2.0322
-3.9178 0.6528 2.0322
-3.9575 0.3366 2.0322
-3.9718 0.0183 2.0322
-3.9604 -0.3002 2.0322
-3.9236 -0.6168 2.0322
-3.8615 -0.9294 2.0322
-3.7746 -1.2360 2.0322
-3.6633 -1.5346 2.0322
-3.5285 -1.8234 2.0322
-3.3710 -2.1004 2.0322
-3.1917 -2.3639 2.0322
-2.9919 -2.6122 2.0322
-2.7729 -2.8437 2.0322
-2.5359 -3.0568 2.0322
-2.2827 -3.2503 2.0322
-0.7348 -1.2484 0.7412
-0.6323 -1.3031 0.7411
-0.5257 -1.3494 0.7410
-0.4158 -1.3871 0.7409
-0.3032 -1.4159 0.7409
-0.1887 -1.4356 0.7408
-0.0730 -1.4460 0.7408
0.0432 -1.4472 0.7408
0.1591 -1.4391 0.7408
0.2739 -1.4218 0.7409
0.3871 -1.3954 0.7409
0.4977 -1.3600 0.7410
0.6052 -1.3158 0.7411
0.7089 -1.2632 0.7412
2.2151 -3.2967 2.0322
2.4723 -3.1085 2.0322
2.7136 -2.9003 2.0322
2.9374 -2.6734 2.0322
3.1423 -2.4293 2.0322
3.3269 -2.1695 2.0322
3.4901 -1.8958 2.0322
3.6309 -1.6099 2.0322
3.7483 -1.3136 2.0322
3.8415 -1.0088 2.0322
3.8769 -0.6917 2.0150
3.8837 -0.3752 1.9963
3.8881 -0.0624 1.9896
3.8904 0.2502 1.9947
3.8905 0.5661 2.0116
3.8719 0.8852 2.0322
3.7885 1.1927 2.0322
3.6807 1.4926 2.0322
3.5491 1.7829 2.0322
3.3948 2.0617 2.0322
3.2185 2.3273 2.0322
3.0216 2.5778 2.0322
2.8052 2.8118 2.0322
2.5707 3.0276 2.0322
2.3197 3.2240 2.0322
0.7537 1.2476 0.7458
0.6513 1.3042 0.7459
0.5447 1.3524 0.7460
0.4346 1.3918 0.7460
0.3216 1.4223 0.7461
0.2066 1.4436 0.7461
0.0902 1.4555 0.7462
-0.0268 1.4581 0.7462
-0.1436 1.4512 0.7461
-0.2595 1.4350 0.7461
-0.3737 1.4095 0.7461
-0.4854 1.3748 0.7460
-0.5940 1.3314 0.7459
-0.6988 1.2793 0.7458
-2.1773 3.3218 2.0322
-2.4366 3.1366 2.0322
-2.6802 2.9311 2.0322
-2.9066 2.7068 2.0322
-3.1143 2.4651 2.0322
-3.3019 2.2074 2.0322
-3.4682 1.9356 2.0322
-3.6122 1.6513 2.0322
-3.7330 1.3564 2.0322
-3.8297 1.0527 2.0322
-3.9018 0.7423 2.0322
-3.9488 0.4271 2.0322
-3.9703 0.1091 2.0322
-3.9663 -0.2095 2.0322
-3.9367 -0.5269 2.0322
-3.8818 -0.8408 2.0322
-3.8019 -1.1493 2.0322
-3.6975 -1.4504 2.0322
-3.5693 -1.7422 2.0322
-3.4181 -2.0228 2.0322
-3.2450 -2.2903 2.0322
-3.0509 -2.5431 2.0322
-2.8372 -2.7795 2.0322
-2.6052 -2.9980 2.0322
-2.3565 -3.1972 2.0322
-0.7632 -1.2313 0.7412
-0.6619 -1.2883 0.7411
-0.5565 -1.3371 0.7410
-0.4474 -1.3773 0.7409
-0.3355 -1.4086 0.7409
-0.2215 -1.4309 0.7408
-0.1061 -1.4440 0.7408
0.0100 -1.4478 0.7408
0.1261 -1.4424 0.7408
0.2413 -1.4277 0.7409
0.3550 -1.4038 0.7409
0.4665 -1.3710 0.7410
0.5750 -1.3293 0.7410
0.6798 -1.2791 0.7411
0.7803 -1.2206 0.7412
2.4006 -3.1642 2.0322
2.6465 -2.9616 2.0322
3.1264 1.9981 2.0322
2.9562 2.2423 2.0322
2.7669 2.4721 2.0322
2.5598 2.6860 2.0322
2.3362 2.8826 2.0322
0.7695 1.1228 0.7456
0.6771 1.1811 0.7457
0.5803 1.2317 0.7458
0.4798 1.2744 0.7458
0.3761 1.3089 0.7459
0.2699 1.3349 0.7459
0.1621 1.3523 0.7460
0.0531 1.3610 0.7460
-0.0562 1.3609 0.7460
-0.1651 1.3519 0.7460
-0.2729 1.3343 0.7459
-0.3790 1.3080 0.7459
-0.4826 1.2733 0.7458
-0.5831 1.2304 0.7457
-0.6798 1.1795 0.7456
-0.7720 1.1211 0.7455
-2.3427 2.8773 2.0322
-2.5658 2.6802 2.0322
-2.7724 2.4659 2.0322
-2.9612 2.2357 2.0322
-3.1309 1.9910 2.0322
-3.2805 1.7336 2.0322
-3.4089 1.4650 2.0322
-3.5154 1.1870 2.0322
-3.5992 0.9013 2.0322
-3.6599 0.6099 2.0322
-3.6970 0.3145 2.0322
-3.7103 0.0171 2.0322
-3.6998 -0.2805 2.0322
-3.6654 -0.5762 2.0322
-3.6074 -0.8682 2.0322
-3.5262 -1.1546 2.0322
-3.4222 -1.4336 2.0322
-3.2963 -1.7034 2.0322
-3.1491 -1.9622 2.0322
-2.9816 -2.2083 2.0322
-2.7950 -2.4403 2.0322
-2.5903 -2.6565 2.0322
-2.3690 -2.8556 2.0322
-0.7780 -1.1078 0.7414
-0.6866 -1.1664 0.7413
-0.5908 -1.2176 0.7412
-0.4912 -1.2609 0.7412
-0.3885 -1.2961 0.7411
-0.2833 -1.3230 0.7410
-0.1763 -1.3414 0.7410
-0.0682 -1.3512 0.7410
0.0403 -1.3523 0.7410
0.1486 -1.3447 0.7410
0.2560 -1.3286 0.7410
0.3617 -1.3038 0.7411
0.4651 -1.2707 0.7411
0.5655 -1.2295 0.7412
0.6624 -1.1803 0.7413
0.7550 -1.1236 0.7414
2.3096 -2.9039 2.0322
2.5350 -2.7094 2.0322
2.7441 -2.4974 2.0322
2.9354 -2.2694 2.0322
3.1079 -2.0267 2.0322
3.2604 -1.7710 2.0322
3.3919 -1.5039 2.0322
3.5016 -1.2271 2.0322
3.5887 -0.9425 2.0322
3.6527 -0.6517 2.0322
3.6932 -0.3567 2.0322
3.7099 -0.0595 2.0322
3.7027 0.2381 2.0322
3.6717 0.5343 2.0322
3.6171 0.8269 2.0322
3.5391 1.1142 2.0322
3.4384 1.3944 2.0322
3.3155 1.6656 2.0322
3.1713 1.9260 2.0322
3.0067 2.1741 2.0322
2.8227 2.4081 2.0322
2.6206 2.6267 2.0322
2.4015 2.8284 2.0322
2.1670 3.0118 2.0322
0.7040 1.1652 0.7456
0.6083 1.2181 0.7457
0.5088 1.2631 0.7458
0.4059 1.2999 0.7459
0.3004 1.3284 0.7459
0.1929 1.3482 0.7460
0.0842 1.3594 0.7460
-0.0250 1.3618 0.7460
-0.1341 1.3554 0.7460
-0.2423 1.3402 0.7459
-0.3490 1.3164 0.7459
-0.4534 1.2841 0.7458
-0.5548 1.2435 0.7458
-0.6526 1.1948 0.7457
-0.7462 1.1385 0.7456
-2.2762 2.9301 2.0322
-2.5038 2.7382 2.0322
-2.7153 2.5286 2.0322
-2.9093 2.3028 2.0322
-3.0846 2.0622 2.0322
-3.2400 1.8082 2.0322
-3.3745 1.5426 2.0322
-3.4873 1.2671 2.0322
-3.5777 0.9835 2.0322
-3.6450 0.6934 2.0322
-3.6889 0.3990 2.0322
-3.7090 0.1019 2.0322
-3.7052 -0.1957 2.0322
-3.6776 -0.4922 2.0322
-3.6263 -0.7854 2.0322
-3.5516 -1.0737 2.0322
-3.4541 -1.3550 2.0322
-3.3344 -1.6275 2.0322
-3.1932 -1.8896 2.0322
-3.0314 -2.1395 2.0322
-2.8501 -2.3757 2.0322
-2.6504 -2.5965 2.0322
-2.4337 -2.8007 2.0322
-2.2014 -2.9868 2.0322
-0.7131 -1.1505 0.7414
-0.6185 -1.2038 0.7413
-0.5199 -1.2494 0.7412
-0.4181 -1.2869 0.7411
-0.3135 -1.3162 0.7411
-0.2070 -1.3370 0.7410
-0.0991 -1.3493 0.7410
0.0094 -1.3529 0.7410
0.1178 -1.3478 0.7410
0.2255 -1.3340 0.7410
0.3318 -1.3117 0.7411
0.4359 -1.2810 0.7411
0.5372 -1.2421 0.7412
0.6352 -1.1951 0.7413
0.7290 -1.1405 0.7414
2.2426 -2.9560 2.0322
2.4723 -2.7667 2.0322
2.9277 1.8711 2.0322
2.7683 2.0998 2.0322
2.5910 2.3150 2.0322
2.3971 2.5152 2.0322
2.1877 2.6993 2.0322
0.7205 1.0513 0.7454
0.6340 1.1058 0.7455
0.5433 1.1532 0.7456
0.4492 1.1932 0.7457
0.3521 1.2254 0.7457
0.2527 1.2498 0.7458
0.1517 1.2661 0.7458
0.0497 1.2742 0.7458
-0.0526 1.2741 0.7458
-0.1546 1.2657 0.7458
-0.2555 1.2492 0.7458
-0.3548 1.2246 0.7457
-0.4519 1.1921 0.7457
-0.5459 1.1520 0.7456
-0.6365 1.1044 0.7455
-0.7228 1.0496 0.7454
-2.1938 2.6944 2.0322
-2.4027 2.5099 2.0322
-2.5962 2.3091 2.0322
-2.7730 2.0936 2.0322
-2.9319 1.8645 2.0322
-3.0720 1.6234 2.0322
-3.1922 1.3719 2.0322
-3.2919 1.1116 2.0322
-3.3705 0.8440 2.0322
-3.4273 0.5711 2.0322
-3.4620 0.2945 2.0322
-3.4745 0.0160 2.0322
-3.4646 -0.2626 2.0322
-3.4324 -0.5396 2.0322
-3.3781 -0.8130 2.0322
-3.3020 -1.0812 2.0322
-3.2047 -1.3425 2.0322
-3.0867 -1.5951 2.0322
-2.9489 -1.8374 2.0322
-2.7921 -2.0679 2.0322
-2.6173 -2.2851 2.0322
-2.4257 -2.4876 2.0322
-2.2184 -2.6741 2.0322
-0.7287 -1.0376 0.7416
-0.6431 -1.0925 0.7415
-0.5533 -1.1404 0.7414
-0.4601 -1.1810 0.7413
-0.3639 -1.2140 0.7412
-0.2654 -1.2392 0.7412
-0.1652 -1.2564 0.7412
-0.0639 -1.2656 0.7411
0.0378 -1.2666 0.7411
0.1392 -1.2595 0.7412
0.2397 -1.2444 0.7412
0.3388 -1.2212 0.7412
0.4356 -1.1902 0.7413
0.5297 -1.1516 0.7414
0.6204 -1.1055 0.7414
0.7071 -1.0524 0.7415
2.1628 -2.7193 2.0322
2.3739 -2.5372 2.0322
2.5696 -2.3387 2.0322
2.7489 -2.1251 2.0322
2.9104 -1.8979 2.0322
3.0532 -1.6584 2.0322
3.1763 -1.4083 2.0322
3.2790 -1.1491 2.0322
3.3606 -0.8825 2.0322
3.4205 -0.6103 2.0322
3.4584 -0.3341 2.0322
3.4741 -0.0557 2.0322
3.4674 0.2230 2.0322
3.4383 0.5003 2.0322
3.3871 0.7743 2.0322
3.3142 1.0434 2.0322
3.2198 1.3058 2.0322
3.1048 1.5597 2.0322
2.9697 1.8036 2.0322
2.8156 2.0359 2.0322
2.6433 2.2551 2.0322
2.4540 2.4597 2.0322
2.2489 2.6486 2.0322
0.7443 1.0345 0.7454
0.6591 1.0910 0.7455
0.5696 1.1404 0.7456
0.4763 1.1826 0.7457
0.3800 1.2170 0.7457
0.2813 1.2437 0.7458
0.1806 1.2623 0.7458
0.0789 1.2727 0.7458
-0.0234 1.2750 0.7458
-0.1256 1.2690 0.7458
-0.2269 1.2548 0.7458
-0.3267 1.2325 0.7457
-0.4245 1.2022 0.7457
-0.5194 1.1642 0.7456
-0.6110 1.1187 0.7455
-0.6987 1.0659 0.7454
-2.1315 2.7439 2.0322
-2.3447 2.5642 2.0322
-2.5427 2.3679 2.0322
-2.7244 2.1564 2.0322
-2.8885 1.9311 2.0322
-3.0340 1.6933 2.0322
-3.1600 1.4446 2.0322
-3.2656 1.1866 2.0322
-3.3503 0.9209 2.0322
-3.4133 0.6494 2.0322
-3.4544 0.3736 2.0322
-3.4732 0.0955 2.0322
-3.4697 -0.1833 2.0322
-3.4438 -0.4609 2.0322
-3.3958 -0.7355 2.0322
-3.3259 -1.0054 2.0322
-3.2346 -1.2688 2.0322
-3.1224 -1.5241 2.0322
-2.9902 -1.7695 2.0322
-2.8387 -2.0035 2.0322
-2.6689 -2.2247 2.0322
-2.4820 -2.4315 2.0322
-2.2790 -2.6227 2.0322
-0.7523 -1.0207 0.7416
-0.6679 -1.0775 0.7415
-0.5793 -1.1275 0.7414
-0.4870 -1.1702 0.7413
-0.3916 -1.2054 0.7413
-0.2937 -1.2328 0.7412
-0.1939 -1.2523 0.7412
-0.0928 -1.2638 0.7412
0.0088 -1.2671 0.7411
0.1104 -1.2624 0.7412
0.2112 -1.2495 0.7412
0.3107 -1.2286 0.7412
0.4083 -1.1998 0.7413
0.5032 -1.1633 0.7413
0.5949 -1.1194 0.7414
0.6828 -1.0682 0.7415
0.7664 -1.0102 0.7416
2.3152 -2.5908 2.0322
2.7472 1.7557 2.0322
2.5976 1.9703 2.0322
2.4313 2.1722 2.0322
2.2493 2.3602 2.0322
0.7528 0.9288 0.7452
0.6760 0.9863 0.7453
0.5948 1.0375 0.7454
0.5098 1.0819 0.7455
0.4214 1.1194 0.7455
0.3303 1.1497 0.7456
0.2371 1.1725 0.7456
0.1423 1.1878 0.7457
0.0467 1.1954 0.7457
-0.0493 1.1953 0.7457
-0.1450 1.1875 0.7457
-0.2397 1.1720 0.7456
-0.3329 1.1489 0.7456
-0.4239 1.1185 0.7455
-0.5122 1.0808 0.7455
-0.5971 1.0361 0.7454
-0.6782 0.9848 0.7453
-0.7548 0.9271 0.7452
-2.2546 2.3551 2.0322
-2.4362 2.1668 2.0322
-2.6020 1.9645 2.0322
-2.7512 1.7496 2.0322
-2.8826 1.5234 2.0322
-2.9954 1.2873 2.0322
-3.0890 1.0430 2.0322
-3.1627 0.7920 2.0322
-3.2160 0.5359 2.0322
-3.2486 0.2763 2.0322
-3.2603 0.0150 2.0322
-3.2510 -0.2464 2.0322
-3.2208 -0.5063 2.0322
-3.1698 -0.7629 2.0322
-3.0985 -1.0146 2.0322
-3.0071 -1.2597 2.0322
-2.8965 -1.4968 2.0322
-2.7671 -1.7242 2.0322
-2.6200 -1.9405 2.0322
-2.4560 -2.1443 2.0322
-2.2762 -2.3343 2.0322
-0.7599 -0.9159 0.7418
-0.6839 -0.9738 0.7417
-0.6035 -1.0253 0.7416
-0.5193 -1.0703 0.7415
-0.4318 -1.1084 0.7414
-0.3415 -1.1393 0.7414
-0.2491 -1.1630 0.7413
-0.1550 -1.1792 0.7413
-0.0600 -1.1878 0.7413
0.0355 -1.1888 0.7413
0.1306 -1.1821 0.7413
0.2250 -1.1679 0.7413
0.3179 -1.1461 0.7414
0.4088 -1.1170 0.7414
0.4971 -1.0808 0.7415
0.5822 -1.0375 0.7416
0.6636 -0.9876 0.7417
0.7408 -0.9314 0.7418
2.2275 -2.3808 2.0322
2.4112 -2.1945 2.0322
2.5794 -1.9941 2.0322
2.7310 -1.7809 2.0322
2.8650 -1.5562 2.0322
2.9805 -1.3215 2.0322
3.0769 -1.0783 2.0322
3.1534 -0.8281 2.0322
3.2097 -0.5726 2.0322
3.2452 -0.3135 2.0322
3.2599 -0.0523 2.0322
3.2536 0.2093 2.0322
3.2264 0.4694 2.0322
3.1784 0.7266 2.0322
3.1099 0.9791 2.0322
3.0214 1.2253 2.0322
2.9134 1.4636 2.0322
2.7867 1.6924 2.0322
2.6420 1.9104 2.0322
2.4804 2.1161 2.0322
2.3027 2.3081 2.0322
0.7738 0.9113 0.7452
0.6983 0.9706 0.7453
0.6184 1.0236 0.7454
0.5344 1.0700 0.7455
0.4469 1.1095 0.7455
0.3565 1.1418 0.7456
0.2639 1.1668 0.7456
0.1695 1.1842 0.7457
0.0740 1.1940 0.7457
-0.0220 1.1961 0.7457
-0.1178 1.1905 0.7457
-0.2129 1.1772 0.7456
-0.3065 1.1563 0.7456
-0.3982 1.1279 0.7456
-0.4873 1.0922 0.7455
-0.5733 1.0495 0.7454
-0.6555 1.0001 0.7453
-0.7335 0.9442 0.7452
-2.2001 2.4061 2.0322
-2.3860 2.2220 2.0322
-2.5564 2.0235 2.0322
-2.7104 1.8120 2.0322
-2.8470 1.5889 2.0322
-2.9652 1.3555 2.0322
-3.0643 1.1134 2.0322
-3.1437 0.8642 2.0322
-3.2029 0.6093 2.0322
-3.2414 0.3506 2.0322
-3.2591 0.0896 2.0322
-3.2558 -0.1720 2.0322
-3.2315 -0.4325 2.0322
-3.1865 -0.6902 2.0322
-3.1209 -0.9434 2.0322
-3.0352 -1.1906 2.0322
-2.9299 -1.4301 2.0322
-2.8059 -1.6604 2.0322
-2.6637 -1.8800 2.0322
-2.5044 -2.0875 2.0322
-2.3290 -2.2816 2.0322
-0.7806 -0.8983 0.7418
-0.7060 -0.9579 0.7417
-0.6268 -1.0113 0.7416
-0.5437 -1.0582 0.7415
-0.4571 -1.0982 0.7415
-0.3675 -1.1313 0.7414
-0.2756 -1.1570 0.7413
-0.1819 -1.1753 0.7413
-0.0871 -1.1861 0.7413
0.0082 -1.1893 0.7413
0.1036 -1.1848 0.7413
0.1982 -1.1727 0.7413
0.2916 -1.1531 0.7414
0.3832 -1.1261 0.7414
0.4723 -1.0918 0.7415
0.5583 -1.0506 0.7415
0.6408 -1.0025 0.7416
0.7192 -0.9481 0.7417
2.1725 -2.4311 2.0322
2.5824 1.6503 2.0322
2.4417 1.8521 2.0322
2.2854 2.0419 2.0322
0.7751 0.8133 0.7450
0.7075 0.8729 0.7451
0.6353 0.9270 0.7452
0.5590 0.9751 0.7453
0.4791 1.0168 0.7454
0.3961 1.0521 0.7454
0.3105 1.0805 0.7455
0.2228 1.1020 0.7455
0.1338 1.1163 0.7455
0.0438 1.1235 0.7455
-0.0464 1.1234 0.7455
-0.1363 1.1160 0.7455
-0.2253 1.1015 0.7455
-0.3129 1.0798 0.7455
-0.3984 1.0512 0.7454
-0.4814 1.0157 0.7453
-0.5612 0.9738 0.7453
-0.6374 0.9255 0.7452
-0.7094 0.8713 0.7451
-0.7769 0.8115 0.7450
-2.2900 2.0368 2.0322
-2.4459 1.8466 2.0322
-2.5861 1.6446 2.0322
-2.7096 1.4319 2.0322
-2.8157 1.2101 2.0322
-2.9036 0.9804 2.0322
-2.9729 0.7445 2.0322
-3.0230 0.5037 2.0322
-3.0536 0.2598 2.0322
-3.0646 0.0141 2.0322
-3.0559 -0.2317 2.0322
-3.0275 -0.4759 2.0322
-2.9796 -0.7171 2.0322
-2.9125 -0.9537 2.0322
-2.8267 -1.1841 2.0322
-2.7226 -1.4070 2.0322
-2.6011 -1.6207 2.0322
-2.4628 -1.8240 2.0322
-2.3086 -2.0156 2.0322
-0.7812 -0.8011 0.7420
-0.7143 -0.8611 0.7419
-0.6429 -0.9155 0.7418
-0.5674 -0.9639 0.7417
-0.4882 -1.0062 0.7416
-0.4060 -1.0420 0.7416
-0.3211 -1.0711 0.7415
-0.2342 -1.0934 0.7415
-0.1457 -1.1086 0.7414
-0.0564 -1.1167 0.7414
0.0333 -1.1176 0.7414
0.1228 -1.1114 0.7414
0.2115 -1.0980 0.7415
0.2989 -1.0775 0.7415
0.3844 -1.0502 0.7415
0.4674 -1.0161 0.7416
0.5474 -0.9754 0.7417
0.6239 -0.9285 0.7418
0.6964 -0.8756 0.7419
0.7645 -0.8171 0.7420
2.2665 -2.0628 2.0322
2.4246 -1.8744 2.0322
2.5671 -1.6740 2.0322
2.6930 -1.4628 2.0322
2.8016 -1.2422 2.0322
2.8922 -1.0136 2.0322
2.9642 -0.7784 2.0322
3.0170 -0.5383 2.0322
3.0505 -0.2946 2.0322
3.0643 -0.0491 2.0322
3.0584 0.1967 2.0322
3.0327 0.4413 2.0322
2.9876 0.6830 2.0322
2.9232 0.9203 2.0322
2.8400 1.1517 2.0322
2.7385 1.3757 2.0322
2.6194 1.5909 2.0322
2.4835 1.7957 2.0322
2.3315 1.9891 2.0322
2.1645 2.1696 2.0322
0.7272 0.8565 0.7451
0.6563 0.9122 0.7452
0.5812 0.9620 0.7453
0.5022 1.0056 0.7453
0.4200 1.0427 0.7454
0.3351 1.0731 0.7455
0.2480 1.0966 0.7455
0.1593 1.1130 0.7455
0.0695 1.1222 0.7455
-0.0207 1.1241 0.7455
-0.1107 1.1189 0.7455
-0.2001 1.1063 0.7455
-0.2881 1.0867 0.7455
-0.3743 1.0600 0.7454
-0.4580 1.0265 0.7454
-0.5388 0.9864 0.7453
-0.6161 0.9399 0.7452
-0.6893 0.8874 0.7451
-0.7582 0.8291 0.7450
-2.2428 2.0886 2.0322
-2.4030 1.9021 2.0322
-2.5478 1.7033 2.0322
-2.6761 1.4935 2.0322
-2.7872 1.2742 2.0322
-2.8804 1.0466 2.0322
-2.9551 0.8123 2.0322
-3.0107 0.5728 2.0322
-3.0469 0.3295 2.0322
-3.0635 0.0842 2.0322
-3.0604 -0.1617 2.0322
-3.0376 -0.4065 2.0322
-2.9952 -0.6488 2.0322
-2.9336 -0.8868 2.0322
-2.8530 -1.1192 2.0322
-2.7541 -1.3443 2.0322
-2.6375 -1.5608 2.0322
-2.5038 -1.7672 2.0322
-2.3541 -1.9623 2.0322
-2.1892 -2.1447 2.0322
-0.7339 -0.8445 0.7419
-0.6637 -0.9005 0.7418
-0.5893 -0.9507 0.7417
-0.5111 -0.9948 0.7416
-0.4297 -1.0325 0.7416
-0.3455 -1.0635 0.7415
-0.2591 -1.0878 0.7415
-0.1711 -1.1050 0.7414
-0.0819 -1.1151 0.7414
0.0078 -1.1181 0.7414
0.0974 -1.1139 0.7414
0.1864 -1.1025 0.7414
0.2742 -1.0841 0.7415
0.3602 -1.0587 0.7415
0.4440 -1.0265 0.7416
0.5249 -0.9877 0.7417
0.6025 -0.9425 0.7417
0.6762 -0.8913 0.7418
0.7456 -0.8343 0.7419
2.4309 1.5536 2.0322
2.2985 1.7435 2.0322
0.7885 0.7044 0.7448
0.7295 0.7655 0.7449
0.6659 0.8216 0.7450
0.5980 0.8725 0.7451
0.5262 0.9177 0.7452
0.4509 0.9571 0.7452
0.3728 0.9902 0.7453
0.2922 1.0170 0.7454
0.2097 1.0372 0.7454
0.1259 1.0507 0.7454
0.0413 1.0574 0.7454
-0.0436 1.0573 0.7454
-0.1283 1.0504 0.7454
-0.2121 1.0367 0.7454
-0.2945 1.0163 0.7453
-0.3750 0.9894 0.7453
-0.4531 0.9560 0.7452
-0.5282 0.9165 0.7452
-0.5999 0.8711 0.7451
-0.6677 0.8201 0.7450
-0.7313 0.7639 0.7449
-2.1557 1.9173 2.0322
-2.3024 1.7383 2.0322
-2.4344 1.5481 2.0322
-2.5507 1.3479 2.0322
-2.6505 1.1391 2.0322
-2.7333 0.9229 2.0322
-2.7985 0.7008 2.0322
-2.8457 0.4742 2.0322
-2.8746 0.2445 2.0322
-2.8849 0.0133 2.0322
-2.8767 -0.2181 2.0322
-2.8499 -0.4480 2.0322
-2.8049 -0.6751 2.0322
-2.7417 -0.8978 2.0322
-2.6609 -1.1147 2.0322
-2.5630 -1.3244 2.0322
-2.4485 -1.5257 2.0322
-2.3183 -1.7171 2.0322
-2.1732 -1.8974 2.0322
-0.7355 -0.7543 0.7421
-0.6725 -0.8107 0.7420
-0.6053 -0.8619 0.7419
-0.5342 -0.9075 0.7418
-0.4597 -0.9474 0.7417
-0.3822 -0.9811 0.7417
-0.3023 -1.0085 0.7416
-0.2205 -1.0294 0.7416
-0.1372 -1.0438 0.7416
-0.0531 -1.0514 0.7415
0.0314 -1.0522 0.7415
0.1156 -1.0464 0.7416
0.1992 -1.0338 0.7416
0.2814 -1.0145 0.7416
0.3619 -0.9887 0.7417
0.4400 -0.9566 0.7417
0.5153 -0.9184 0.7418
0.5874 -0.8742 0.7419
0.6557 -0.8244 0.7420
0.7197 -0.7693 0.7421
0.7792 -0.7092 0.7422
2.2824 -1.7645 2.0322
2.4165 -1.5758 2.0322
2.5351 -1.3770 2.0322
2.6373 -1.1693 2.0322
2.7226 -0.9541 2.0322
2.7903 -0.7328 2.0322
2.8401 -0.5067 2.0322
2.8716 -0.2774 2.0322
2.8846 -0.0463 2.0322
2.8790 0.1852 2.0322
2.8549 0.4154 2.0322
2.8124 0.6429 2.0322
2.7518 0.8664 2.0322
2.6735 1.0842 2.0322
2.5779 1.2950 2.0322
2.4658 1.4976 2.0322
2.3378 1.6904 2.0322
2.1948 1.8724 2.0322
0.7468 0.7486 0.7449
0.6845 0.8062 0.7450
0.6178 0.8586 0.7451
0.5470 0.9054 0.7451
0.4727 0.9465 0.7452
0.3953 0.9814 0.7453
0.3154 1.0100 0.7453
0.2334 1.0321 0.7454
0.1499 1.0475 0.7454
0.0654 1.0562 0.7454
-0.0194 1.0580 0.7454
-0.1042 1.0531 0.7454
-0.1883 1.0413 0.7454
-0.2712 1.0228 0.7454
-0.3523 0.9977 0.7453
-0.4311 0.9662 0.7453
-0.5071 0.9284 0.7452
-0.5799 0.8847 0.7451
-0.6488 0.8352 0.7450
-0.7136 0.7804 0.7449
-0.7738 0.7206 0.7448
-2.2621 1.7905 2.0322
-2.3983 1.6034 2.0322
-2.5192 1.4059 2.0322
-2.6238 1.1995 2.0322
-2.7115 0.9852 2.0322
-2.7818 0.7647 2.0322
-2.8341 0.5392 2.0322
-2.8682 0.3102 2.0322
-2.8839 0.0793 2.0322
-2.8809 -0.1522 2.0322
-2.8595 -0.3827 2.0322
-2.8196 -0.6107 2.0322
-2.7615 -0.8348 2.0322
-2.6857 -1.0535 2.0322
-2.5926 -1.2655 2.0322
-2.4828 -1.4692 2.0322
-2.3570 -1.6636 2.0322
-2.2160 -1.8472 2.0322
-0.7526 -0.7373 0.7421
-0.6909 -0.7951 0.7420
-0.6249 -0.8478 0.7419
-0.5548 -0.8951 0.7418
-0.4812 -0.9366 0.7418
-0.4046 -0.9721 0.7417
-0.3253 -1.0013 0.7416
-0.2440 -1.0241 0.7416
-0.1611 -1.0403 0.7416
-0.0771 -1.0499 0.7415
0.0073 -1.0527 0.7415
0.0917 -1.0487 0.7415
0.1755 -1.0380 0.7416
0.2581 -1.0207 0.7416
0.3392 -0.9967 0.7416
0.4180 -0.9664 0.7417
0.4942 -0.9299 0.7418
0.5672 -0.8874 0.7418
0.6366 -0.8391 0.7419
0.7019 -0.7855 0.7420
2.2911 1.4642 2.0322
2.1663 1.6432 2.0322
0.7430 0.6639 0.7447
0.6875 0.7214 0.7448
0.6275 0.7743 0.7449
0.5635 0.8222 0.7450
0.4958 0.8648 0.7451
0.4249 0.9019 0.7451
0.3513 0.9331 0.7452
0.2754 0.9583 0.7452
0.1976 0.9774 0.7453
0.1187 0.9901 0.7453
0.0389 0.9965 0.7453
-0.0411 0.9964 0.7453
-0.1209 0.9898 0.7453
-0.1998 0.9769 0.7453
-0.2775 0.9577 0.7452
-0.3534 0.9323 0.7452
-0.4270 0.9009 0.7451
-0.4978 0.8637 0.7451
-0.5654 0.8209 0.7450
-0.6293 0.7729 0.7449
-0.6891 0.7198 0.7448
-0.7445 0.6622 0.7447
-2.1700 1.6383 2.0322
-2.2944 1.4591 2.0322
-2.4040 1.2704 2.0322
-2.4981 1.0736 2.0322
-2.5761 0.8699 2.0322
-2.6376 0.6605 2.0322
-2.6821 0.4469 2.0322
-2.7093 0.2305 2.0322
-2.7190 0.0125 2.0322
-2.7113 -0.2055 2.0322
-2.6860 -0.4223 2.0322
-2.6435 -0.6362 2.0322
-2.5840 -0.8461 2.0322
-2.5079 -1.0506 2.0322
-2.4156 -1.2483 2.0322
-2.3077 -1.4379 2.0322
-2.1850 -1.6183 2.0322
-0.7481 -0.6532 0.7423
-0.6933 -0.7110 0.7422
-0.6339 -0.7641 0.7421
-0.5706 -0.8124 0.7420
-0.5035 -0.8555 0.7419
-0.4333 -0.8930 0.7418
-0.3603 -0.9248 0.7418
-0.2850 -0.9506 0.7417
-0.2078 -0.9704 0.7417
-0.1293 -0.9839 0.7417
-0.0500 -0.9911 0.7417
0.0296 -0.9919 0.7417
0.1090 -0.9863 0.7417
0.1877 -0.9744 0.7417
0.2653 -0.9563 0.7417
0.3411 -0.9320 0.7418
0.4148 -0.9017 0.7418
0.4858 -0.8656 0.7419
0.5537 -0.8240 0.7420
0.6180 -0.7771 0.7421
0.6784 -0.7251 0.7421
0.7345 -0.6685 0.7423
0.7858 -0.6075 0.7424
2.2776 -1.4852 2.0322
2.3893 -1.2978 2.0322
2.4857 -1.1021 2.0322
2.5660 -0.8993 2.0322
2.6299 -0.6906 2.0322
2.6768 -0.4776 2.0322
2.7064 -0.2614 2.0322
2.7187 -0.0436 2.0322
2.7134 0.1745 2.0322
2.6907 0.3915 2.0322
2.6507 0.6060 2.0322
2.5935 0.8165 2.0322
2.5197 1.0218 2.0322
2.4297 1.2206 2.0322
2.3240 1.4114 2.0322
2.2034 1.5932 2.0322
0.7580 0.6467 0.7447
0.7038 0.7055 0.7448
0.6451 0.7597 0.7449
0.5822 0.8091 0.7450
0.5155 0.8532 0.7451
0.4454 0.8919 0.7451
0.3725 0.9248 0.7452
0.2972 0.9518 0.7452
0.2200 0.9726 0.7453
0.1413 0.9871 0.7453
0.0617 0.9953 0.7453
-0.0183 0.9971 0.7453
-0.0982 0.9924 0.7453
-0.1774 0.9813 0.7453
-0.2555 0.9638 0.7453
-0.3320 0.9402 0.7452
-0.4062 0.9105 0.7452
-0.4779 0.8749 0.7451
-0.5464 0.8337 0.7450
-0.6115 0.7871 0.7449
-0.6725 0.7355 0.7448
-0.7292 0.6791 0.7447
-2.1320 1.6876 2.0322
-2.2604 1.5112 2.0322
-2.3743 1.3251 2.0322
-2.4729 1.1305 2.0322
-2.5556 0.9286 2.0322
-2.6218 0.7207 2.0322
-2.6711 0.5082 2.0322
-2.7033 0.2924 2.0322
-2.7180 0.0747 2.0322
-2.7152 -0.1435 2.0322
-2.6950 -0.3607 2.0322
-2.6574 -0.5756 2.0322
-2.6027 -0.7868 2.0322
-2.5312 -0.9929 2.0322
-2.4435 -1.1927 2.0322
-2.3400 -1.3847 2.0322
-2.2215 -1.5679 2.0322
-0.7629 -0.6359 0.7423
-0.7094 -0.6949 0.7422
-0.6513 -0.7495 0.7421
-0.5890 -0.7992 0.7420
-0.5230 -0.8437 0.7419
-0.4536 -0.8829 0.7418
-0.3813 -0.9163 0.7418
-0.3066 -0.9439 0.7417
-0.2300 -0.9654 0.7417
-0.1518 -0.9807 0.7417
-0.0727 -0.9897 0.7417
0.0069 -0.9923 0.7417
0.0864 -0.9886 0.7417
0.1654 -0.9785 0.7417
0.2433 -0.9621 0.7417
0.3197 -0.9395 0.7418
0.3940 -0.9110 0.7418
0.4658 -0.8765 0.7419
0.5347 -0.8364 0.7419
0.6001 -0.7910 0.7420
0.6616 -0.7404 0.7421
2.1615 1.3814 2.0322
0.7488 0.5680 0.7445
0.7009 0.6262 0.7446
0.6485 0.6805 0.7447
0.5920 0.7304 0.7448
0.5316 0.7756 0.7449
0.4677 0.8158 0.7450
0.4008 0.8508 0.7450
0.3314 0.8802 0.7451
0.2597 0.9040 0.7451
0.1864 0.9220 0.7452
0.1119 0.9340 0.7452
0.0367 0.9399 0.7452
-0.0388 0.9399 0.7452
-0.1140 0.9337 0.7452
-0.1885 0.9215 0.7452
-0.2618 0.9034 0.7451
-0.3333 0.8795 0.7451
-0.4027 0.8498 0.7450
-0.4695 0.8147 0.7450
-0.5333 0.7744 0.7449
-0.5936 0.7291 0.7448
-0.6501 0.6790 0.7447
-0.7023 0.6247 0.7446
-0.7500 0.5663 0.7445
-2.1646 1.3765 2.0322
-2.2680 1.1985 2.0322
-2.3567 1.0128 2.0322
-2.4304 0.8206 2.0322
-2.4883 0.6231 2.0322
-2.5303 0.4216 2.0322
-2.5559 0.2174 2.0322
-2.5651 0.0118 2.0322
-2.5578 -0.1939 2.0322
-2.5340 -0.3983 2.0322
-2.4940 -0.6002 2.0322
-2.4378 -0.7983 2.0322
-2.3660 -0.9911 2.0322
-2.2789 -1.1776 2.0322
-2.1771 -1.3565 2.0322
-0.7531 -0.5578 0.7424
-0.7059 -0.6163 0.7423
-0.6541 -0.6708 0.7422
-0.5981 -0.7210 0.7421
-0.5383 -0.7665 0.7421
-0.4751 -0.8071 0.7420
-0.4088 -0.8426 0.7419
-0.3399 -0.8726 0.7419
-0.2689 -0.8970 0.7418
-0.1961 -0.9156 0.7418
-0.1220 -0.9283 0.7418
-0.0472 -0.9351 0.7418
0.0279 -0.9359 0.7418
0.1029 -0.9306 0.7418
0.1771 -0.9194 0.7418
0.2503 -0.9023 0.7418
0.3219 -0.8794 0.7419
0.3913 -0.8508 0.7419
0.4583 -0.8168 0.7420
0.5224 -0.7775 0.7421
0.5831 -0.7332 0.7421
0.6401 -0.6841 0.7422
0.6930 -0.6307 0.7423
0.7414 -0.5732 0.7424
0.7851 -0.5120 0.7425
2.2541 -1.2244 2.0322
2.3450 -1.0397 2.0322
2.4208 -0.8484 2.0322
2.4810 -0.6516 2.0322
2.5253 -0.4505 2.0322
2.5533 -0.2466 2.0322
2.5648 -0.0411 2.0322
2.5599 0.1646 2.0322
