ply
format ascii 1.0
element vertex 2176
property float32 x
property float32 y
property float32 z
end_header
-2.8012 4.0822 2.0385
-3.1181 3.8423 2.0385
-3.4147 3.5778 2.0385
-3.6892 3.2908 2.0385
-3.9399 2.9828 2.0385
-4.1652 2.6560 2.0385
-4.3636 2.3124 2.0385
-4.5341 1.9542 2.0385
-4.6755 1.5836 2.0385
-4.7869 1.2030 2.0385
-4.8677 0.8148 2.0385
-4.9174 0.4213 2.0385
-4.9356 0.0252 2.0385
-4.9222 -0.3712 2.0385
-4.8774 -0.7652 2.0385
-4.8013 -1.1546 2.0385
-4.6944 -1.5367 2.0385
-4.5574 -1.9092 2.0385
-4.3911 -2.2697 2.0385
-4.1966 -2.6160 2.0385
-3.9750 -2.9457 2.0385
-3.7278 -3.2570 2.0385
-3.4563 -3.5476 2.0385
-3.1624 -3.8157 2.0385
-2.8479 -4.0597 2.0385
-2.5147 -4.2779 2.0385
-2.1649 -4.4689 2.0385
-0.6553 -1.6855 0.7418
-0.5180 -1.7326 0.7413
-0.3774 -1.7686 0.7408
-0.2344 -1.7932 0.7403
-0.0899 -1.8064 0.7398
0.0552 -1.8079 0.7393
0.2000 -1.7979 0.7389
0.3435 -1.7764 0.7385
0.4848 -1.7435 0.7381
0.6231 -1.6994 0.7377
0.7574 -1.6444 0.7374
2.4527 -4.3659 2.0385
2.7962 -4.1577 2.0385
3.1220 -3.9225 2.0385
3.4279 -3.6617 2.0385
3.7118 -3.3769 2.0385
3.9720 -3.0700 2.0385
4.2066 -2.7431 2.0385
4.4141 -2.3981 2.0385
4.5931 -2.0375 2.0385
4.7424 -1.6634 2.0385
4.0879 -1.0752 1.7143
4.0053 -0.7166 1.6501
3.8416 -0.3733 1.5652
3.8194 -0.0639 1.5491
3.7849 0.2404 1.5382
3.7165 0.5374 1.5233
3.6490 0.8304 1.5184
3.5816 1.1233 1.5234
3.5132 1.4200 1.5384
3.4432 1.7243 1.5639
3.3703 2.0407 1.6008
3.2934 2.3743 1.6504
3.0915 2.6295 1.6507
3.1218 3.1194 1.7959
3.2465 3.8110 2.0385
2.9289 4.0563 2.0385
2.5927 4.2751 2.0385
2.2403 4.4661 2.0385
0.6848 1.6915 0.7450
0.5471 1.7409 0.7456
0.4058 1.7792 0.7461
0.2618 1.8059 0.7466
0.1162 1.8209 0.7471
-0.0302 1.8242 0.7476
-0.1764 1.8157 0.7481
-0.3214 1.7954 0.7485
-0.4643 1.7635 0.7489
-0.6041 1.7202 0.7492
-0.7400 1.6659 0.7495
-2.3683 4.3519 2.0385
-2.7082 4.1454 2.0385
-3.0305 3.9126 2.0385
-3.3331 3.6549 2.0385
-3.6140 3.3741 2.0385
-3.8715 3.0719 2.0385
-4.1041 2.7502 2.0385
-4.3103 2.4111 2.0385
-4.4888 2.0568 2.0385
-4.6385 1.6895 2.0385
-4.7585 1.3114 2.0385
-4.8481 0.9251 2.0385
-4.9065 0.5329 2.0385
-4.9337 0.1373 2.0385
-4.9292 -0.2593 2.0385
-4.8932 -0.6543 2.0385
-4.8259 -1.0452 2.0385
-4.7277 -1.4296 2.0385
-4.5991 -1.8051 2.0385
-4.4410 -2.1692 2.0385
-4.2544 -2.5197 2.0385
-4.0403 -2.8543 2.0385
-3.8002 -3.1710 2.0385
-3.5354 -3.4676 2.0385
-3.2477 -3.7423 2.0385
-2.9388 -3.9933 2.0385
-2.6106 -4.2190 2.0385
-2.2653 -4.4178 2.0385
-0.6934 -1.6702 0.7420
-0.5572 -1.7204 0.7415
-0.4175 -1.7595 0.7409
-0.2750 -1.7874 0.7404
-0.1309 -1.8038 0.7399
0.0142 -1.8087 0.7394
0.1591 -1.8019 0.7390
0.3031 -1.7836 0.7386
0.4451 -1.7539 0.7382
0.5844 -1.7130 0.7378
0.7199 -1.6610 0.7375
2.3528 -4.4196 2.0385
2.7009 -4.2194 2.0385
3.0319 -3.9917 2.0385
3.3436 -3.7379 2.0385
3.6339 -3.4597 2.0385
3.9010 -3.1589 2.0385
4.1430 -2.8374 2.0385
4.3583 -2.4973 2.0385
4.5455 -2.1408 2.0385
4.7033 -1.7703 2.0385
4.1125 -1.1819 1.7354
4.0280 -0.8152 1.6666
3.9110 -0.4697 1.5974
3.8013 -0.1497 1.5428
3.8045 0.1553 1.5443
3.7357 0.4540 1.5265
3.6680 0.7478 1.5188
3.6007 1.0404 1.5210
3.5327 1.3355 1.5331
3.4632 1.6372 1.5556
3.3912 1.9498 1.5892
3.3156 2.2780 1.6350
3.1297 2.5420 1.6396
3.1479 3.0061 1.7710
3.3326 3.7371 2.0385
3.0206 3.9896 2.0385
2.6895 4.2160 2.0385
2.3414 4.4150 2.0385
0.7230 1.6755 0.7449
0.5864 1.7281 0.7454
0.4460 1.7695 0.7460
0.3027 1.7995 0.7465
0.1574 1.8179 0.7470
0.0112 1.8245 0.7475
-0.1352 1.8193 0.7479
-0.2806 1.8023 0.7484
-0.4242 1.7737 0.7488
-0.5650 1.7336 0.7491
-0.7021 1.6823 0.7494
-2.2693 4.4053 2.0385
-2.6139 4.2065 2.0385
-2.9414 3.9810 2.0385
-3.2497 3.7302 2.0385
-3.5369 3.4557 2.0385
-3.8012 3.1593 2.0385
-4.0410 2.8429 2.0385
-4.2548 2.5086 2.0385
-4.4413 2.1583 2.0385
-4.5992 1.7945 2.0385
-4.7277 1.4192 2.0385
-4.8259 1.0350 2.0385
-4.8932 0.6442 2.0385
-4.9292 0.2493 2.0385
-4.9337 -0.1473 2.0385
-4.9066 -0.5429 2.0385
-4.8481 -0.9353 2.0385
-4.7585 -1.3218 2.0385
-4.6385 -1.7000 2.0385
-4.4887 -2.0676 2.0385
-4.3100 -2.4222 2.0385
-4.1035 -2.7615 2.0385
-3.8706 -3.0835 2.0385
-3.6126 -3.3859 2.0385
-3.3312 -3.6670 2.0385
-3.0281 -3.9249 2.0385
-2.7052 -4.1579 2.0385
-2.3645 -4.3644 2.0385
-0.7311 -1.6540 0.7422
-0.5961 -1.7073 0.7416
-0.4573 -1.7496 0.7411
-0.3155 -1.7807 0.7406
-0.1717 -1.8003 0.7401
-0.0268 -1.8085 0.7396
0.1182 -1.8050 0.7391
0.2626 -1.7900 0.7387
0.4052 -1.7635 0.7383
0.5454 -1.7257 0.7379
0.6820 -1.6768 0.7376
2.2516 -4.4710 2.0385
2.6041 -4.2788 2.0385
2.9402 -4.0587 2.0385
3.2576 -3.8122 2.0385
3.5542 -3.5407 2.0385
3.8280 -3.2461 2.0385
4.0772 -2.9302 2.0385
4.3002 -2.5952 2.0385
4.4955 -2.2431 2.0385
4.6617 -1.8763 2.0385
4.7978 -1.4973 2.0385
4.0512 -0.9159 1.6844
3.9712 -0.5685 1.6268
3.8015 -0.2361 1.5446
3.8243 0.0694 1.5512
3.7550 0.3703 1.5304
3.6871 0.6651 1.5199
3.6197 0.9576 1.5193
3.5520 1.2516 1.5287
3.4830 1.5511 1.5482
3.4119 1.8601 1.5785
3.3374 2.1833 1.6207
3.1850 2.4693 1.6386
2.9209 3.5899 2.0385
2.6223 3.8101 2.0385
2.3071 4.0054 2.0385
0.7223 1.5248 0.7445
0.5977 1.5778 0.7451
0.4693 1.6206 0.7456
0.3379 1.6530 0.7461
0.2043 1.6746 0.7465
0.0694 1.6855 0.7470
-0.0660 1.6854 0.7474
-0.2009 1.6744 0.7478
-0.3345 1.6527 0.7482
-0.4659 1.6202 0.7485
-0.5943 1.5773 0.7489
-0.7188 1.5241 0.7491
-2.2810 3.9748 2.0385
-2.5912 3.7768 2.0385
-2.8845 3.5549 2.0385
-3.1590 3.3104 2.0385
-3.4131 3.0449 2.0385
-3.6451 2.7600 2.0385
-3.8537 2.4577 2.0385
-4.0374 2.1398 2.0385
-4.1952 1.8083 2.0385
-4.3261 1.4654 2.0385
-4.4293 1.1132 2.0385
-4.5041 0.7539 2.0385
-4.5500 0.3898 2.0385
-4.5669 0.0233 2.0385
-4.5544 -0.3435 2.0385
-4.5129 -0.7082 2.0385
-4.4424 -1.0685 2.0385
-4.3434 -1.4220 2.0385
-4.2166 -1.7667 2.0385
-4.0626 -2.1002 2.0385
-3.8825 -2.4205 2.0385
-3.6774 -2.7256 2.0385
-3.4485 -3.0134 2.0385
-3.1972 -3.2822 2.0385
-2.9252 -3.5302 2.0385
-2.6341 -3.7557 2.0385
-2.3258 -3.9574 2.0385
-0.7292 -1.5057 0.7425
-0.6061 -1.5593 0.7420
-0.4791 -1.6029 0.7415
-0.3490 -1.6362 0.7410
-0.2167 -1.6590 0.7405
-0.0830 -1.6712 0.7401
0.0512 -1.6727 0.7396
0.1852 -1.6634 0.7392
0.3179 -1.6435 0.7388
0.4487 -1.6130 0.7385
0.5766 -1.5722 0.7382
0.7009 -1.5213 0.7379
2.2681 -4.0364 2.0385
2.5856 -3.8439 2.0385
2.8866 -3.6263 2.0385
3.1693 -3.3850 2.0385
3.4317 -3.1217 2.0385
3.6721 -2.8379 2.0385
3.8889 -2.5356 2.0385
4.0806 -2.2167 2.0385
4.2460 -1.8833 2.0385
4.3839 -1.5376 2.0385
4.4936 -1.1818 2.0385
4.0053 -0.7165 1.7850
3.8235 -0.3716 1.6852
3.7981 -0.0635 1.6665
3.7849 0.2404 1.6640
3.7165 0.5373 1.6478
3.6491 0.8303 1.6425
3.5816 1.1232 1.6479
3.5133 1.4198 1.6641
3.4432 1.7240 1.6917
3.3703 2.0404 1.7316
3.2935 2.3740 1.7851
3.1057 2.6412 1.7935
3.2765 3.2734 2.0385
3.0020 3.5234 2.0385
2.7085 3.7503 2.0385
2.3978 3.9528 2.0385
0.7566 1.5080 0.7444
0.6334 1.5638 0.7449
0.5060 1.6096 0.7454
0.3753 1.6449 0.7459
0.2422 1.6696 0.7464
0.1076 1.6835 0.7469
-0.0278 1.6865 0.7473
-0.1629 1.6786 0.7477
-0.2970 1.6599 0.7481
-0.4291 1.6304 0.7485
-0.5584 1.5904 0.7488
-0.6840 1.5402 0.7491
-2.1905 4.0262 2.0385
-2.5052 3.8353 2.0385
-2.8034 3.6200 2.0385
-3.0834 3.3817 2.0385
-3.3435 3.1219 2.0385
-3.5819 2.8424 2.0385
-3.7972 2.5448 2.0385
-3.9881 2.2311 2.0385
-4.1533 1.9032 2.0385
-4.2919 1.5633 2.0385
-4.4030 1.2135 2.0385
-4.4858 0.8560 2.0385
-4.5400 0.4931 2.0385
-4.5651 0.1270 2.0385
-4.5609 -0.2400 2.0385
-4.5276 -0.6055 2.0385
-4.4652 -0.9672 2.0385
-4.3742 -1.3229 2.0385
-4.2552 -1.6703 2.0385
-4.1088 -2.0072 2.0385
-3.9360 -2.3315 2.0385
-3.7378 -2.6410 2.0385
-3.5155 -2.9339 2.0385
-3.2704 -3.2083 2.0385
-3.0041 -3.4623 2.0385
-2.7182 -3.6943 2.0385
-2.4145 -3.9029 2.0385
-0.7632 -1.4888 0.7426
-0.6413 -1.5452 0.7421
-0.5153 -1.5916 0.7416
-0.3860 -1.6278 0.7411
-0.2543 -1.6536 0.7406
-0.1209 -1.6688 0.7402
0.0133 -1.6733 0.7397
0.1474 -1.6671 0.7393
0.2806 -1.6502 0.7389
0.4120 -1.6227 0.7386
0.5408 -1.5847 0.7383
0.6662 -1.5367 0.7380
2.1757 -4.0861 2.0385
2.4974 -3.9009 2.0385
2.8033 -3.6902 2.0385
3.0914 -3.4555 2.0385
3.3597 -3.1982 2.0385
3.6065 -2.9201 2.0385
3.8301 -2.6228 2.0385
4.0290 -2.3084 2.0385
4.2020 -1.9789 2.0385
4.3478 -1.6364 2.0385
4.4655 -1.2832 2.0385
4.0280 -0.8152 1.8029
3.9050 -0.4690 1.7254
3.7790 -0.1489 1.6591
3.8045 0.1552 1.6706
3.7357 0.4540 1.6513
3.6681 0.7477 1.6430
3.6007 1.0402 1.6453
3.5327 1.3354 1.6584
3.4633 1.6370 1.6827
3.3913 1.9495 1.7190
3.3157 2.2777 1.7685
3.1388 2.5490 1.7785
3.3503 3.1988 2.0385
3.0816 3.4550 2.0385
2.7932 3.6886 2.0385
2.4872 3.8981 2.0385
0.7906 1.4904 0.7443
0.6686 1.5491 0.7448
0.5423 1.5977 0.7453
0.4125 1.6360 0.7458
0.2800 1.6637 0.7463
0.1457 1.6807 0.7467
0.0105 1.6868 0.7472
-0.1248 1.6820 0.7476
-0.2592 1.6663 0.7480
-0.3920 1.6398 0.7484
-0.5222 1.6028 0.7487
-0.6489 1.5554 0.7490
-0.7715 1.4979 0.7493
-2.4178 3.8917 2.0385
-2.7209 3.6832 2.0385
-3.0063 3.4513 2.0385
-3.2721 3.1974 2.0385
-3.5168 2.9233 2.0385
-3.7388 2.6306 2.0385
-3.9367 2.3212 2.0385
-4.1093 1.9972 2.0385
-4.2555 1.6605 2.0385
-4.3744 1.3133 2.0385
-4.4653 0.9577 2.0385
-4.5277 0.5961 2.0385
-4.5609 0.2306 2.0385
-4.5651 -0.1363 2.0385
-4.5399 -0.5025 2.0385
-4.4858 -0.8655 2.0385
-4.4028 -1.2231 2.0385
-4.2916 -1.5731 2.0385
-4.1529 -1.9132 2.0385
-3.9875 -2.2413 2.0385
-3.7963 -2.5552 2.0385
-3.5807 -2.8530 2.0385
-3.3419 -3.1327 2.0385
-3.0814 -3.3927 2.0385
-2.8009 -3.6311 2.0385
-2.5020 -3.8464 2.0385
-2.1868 -4.0373 2.0385
-0.6762 -1.5302 0.7423
-0.5513 -1.5795 0.7418
-0.4229 -1.6187 0.7413
-0.2917 -1.6474 0.7408
-0.1587 -1.6656 0.7403
-0.0247 -1.6731 0.7399
0.1096 -1.6699 0.7394
0.2431 -1.6560 0.7390
0.3751 -1.6315 0.7387
0.5047 -1.5965 0.7383
0.6312 -1.5513 0.7380
0.7536 -1.4961 0.7378
2.4080 -3.9558 2.0385
2.7186 -3.7523 2.0385
3.0119 -3.5242 2.0385
3.2860 -3.2731 2.0385
3.5390 -3.0007 2.0385
3.7693 -2.7086 2.0385
3.9754 -2.3989 2.0385
4.1558 -2.0734 2.0385
4.3094 -1.7344 2.0385
4.4351 -1.3840 2.0385
4.0512 -0.9158 1.8222
3.9712 -0.5684 1.7599
3.7795 -0.2347 1.6613
3.8243 0.0693 1.6781
3.7550 0.3702 1.6556
3.6871 0.6650 1.6442
3.6198 0.9574 1.6436
3.5521 1.2515 1.6536
3.4831 1.5509 1.6747
3.4119 1.8598 1.7074
3.3375 2.1830 1.7531
3.1939 2.4758 1.7772
2.7117 3.3321 2.0385
2.4346 3.5366 2.0385
0.7818 1.3570 0.7440
0.6706 1.4153 0.7445
0.5550 1.4645 0.7449
0.4358 1.5042 0.7454
0.3138 1.5342 0.7459
0.1898 1.5543 0.7463
0.0646 1.5644 0.7467
-0.0611 1.5643 0.7471
-0.1863 1.5542 0.7475
-0.3103 1.5340 0.7479
-0.4323 1.5038 0.7482
-0.5515 1.4640 0.7485
-0.6670 1.4147 0.7487
-2.1180 3.6915 2.0385
-2.4062 3.5078 2.0385
-2.6787 3.3018 2.0385
-2.9337 3.0747 2.0385
-3.1698 2.8282 2.0385
-3.3854 2.5637 2.0385
-3.5792 2.2829 2.0385
-3.7499 1.9876 2.0385
-3.8966 1.6797 2.0385
-4.0182 1.3612 2.0385
-4.1141 1.0340 2.0385
-4.1836 0.7003 2.0385
-4.2262 0.3621 2.0385
-4.2419 0.0216 2.0385
-4.2303 -0.3192 2.0385
-4.1917 -0.6579 2.0385
-4.1261 -0.9925 2.0385
-4.0341 -1.3210 2.0385
-3.9162 -1.6411 2.0385
-3.7731 -1.9509 2.0385
-3.6058 -2.2483 2.0385
-3.4151 -2.5316 2.0385
-3.2024 -2.7989 2.0385
-2.9690 -3.0484 2.0385
-2.7163 -3.2786 2.0385
-2.4458 -3.4880 2.0385
-2.1594 -3.6751 2.0385
-0.6771 -1.3984 0.7426
-0.5627 -1.4482 0.7421
-0.4448 -1.4887 0.7416
-0.3240 -1.5196 0.7412
-0.2011 -1.5408 0.7407
-0.0769 -1.5521 0.7403
0.0478 -1.5535 0.7399
0.1721 -1.5449 0.7395
0.2954 -1.5264 0.7392
0.4169 -1.4981 0.7388
0.5357 -1.4601 0.7385
0.6511 -1.4128 0.7383
0.7624 -1.3565 0.7381
2.4003 -3.5677 2.0385
2.6796 -3.3657 2.0385
2.9419 -3.1417 2.0385
3.1853 -2.8972 2.0385
3.4083 -2.6338 2.0385
3.6095 -2.3532 2.0385
3.7873 -2.0572 2.0385
3.9407 -1.7478 2.0385
4.0687 -1.4269 2.0385
4.1704 -1.0967 2.0385
4.2451 -0.7594 2.0385
3.8709 -0.3762 1.8383
3.8249 -0.0640 1.8083
3.7850 0.2403 1.7929
3.7166 0.5372 1.7755
3.6491 0.8302 1.7698
3.5816 1.1230 1.7755
3.5133 1.4196 1.7930
3.4433 1.7238 1.8226
3.6829 2.2293 2.0385
3.4910 2.5160 2.0385
3.2768 2.7862 2.0385
3.0416 3.0382 2.0385
2.7869 3.2703 2.0385
2.5145 3.4811 2.0385
2.2262 3.6692 2.0385
0.7025 1.3997 0.7443
0.5881 1.4515 0.7448
0.4698 1.4940 0.7453
0.3485 1.5268 0.7457
0.2250 1.5497 0.7462
0.1000 1.5626 0.7466
-0.0256 1.5654 0.7470
-0.1510 1.5581 0.7474
-0.2755 1.5407 0.7478
-0.3981 1.5133 0.7481
-0.5181 1.4762 0.7484
-0.6347 1.4296 0.7487
-0.7472 1.3737 0.7489
-2.3262 3.5620 2.0385
-2.6033 3.3622 2.0385
-2.8635 3.1409 2.0385
-3.1051 2.8998 2.0385
-3.3266 2.6401 2.0385
-3.5267 2.3638 2.0385
-3.7041 2.0724 2.0385
-3.8576 1.7679 2.0385
-3.9864 1.4522 2.0385
-4.0896 1.1272 2.0385
-4.1666 0.7951 2.0385
-4.2169 0.4580 2.0385
-4.2402 0.1179 2.0385
-4.2363 -0.2230 2.0385
-4.2053 -0.5625 2.0385
-4.1474 -0.8985 2.0385
-4.0628 -1.2289 2.0385
-3.9521 -1.5516 2.0385
-3.8161 -1.8645 2.0385
-3.6555 -2.1656 2.0385
-3.4713 -2.4531 2.0385
-3.2647 -2.7251 2.0385
-3.0370 -2.9798 2.0385
-2.7895 -3.2156 2.0385
-2.5239 -3.4310 2.0385
-2.2418 -3.6246 2.0385
-0.7086 -1.3827 0.7427
-0.5954 -1.4350 0.7422
-0.4784 -1.4782 0.7417
-0.3583 -1.5118 0.7413
-0.2360 -1.5358 0.7408
-0.1121 -1.5499 0.7404
0.0125 -1.5541 0.7400
0.1371 -1.5483 0.7396
0.2608 -1.5326 0.7393
0.3828 -1.5070 0.7389
0.5024 -1.4718 0.7386
0.6189 -1.4271 0.7384
0.7314 -1.3733 0.7381
2.3185 -3.6207 2.0385
2.6023 -3.4250 2.0385
2.8696 -3.2071 2.0385
3.1185 -2.9683 2.0385
3.3475 -2.7100 2.0385
3.5549 -2.4341 2.0385
3.7395 -2.1423 2.0385
3.8999 -1.8365 2.0385
4.0352 -1.5186 2.0385
4.1444 -1.1909 2.0385
4.2268 -0.8553 2.0385
4.2818 -0.5142 2.0385
3.8004 -0.1498 1.7979
3.8046 0.1551 1.8000
3.7358 0.4539 1.7792
3.6681 0.7476 1.7702
3.6008 1.0401 1.7728
3.5328 1.3352 1.7868
3.4633 1.6368 1.8130
3.7329 2.1456 2.0385
3.5476 2.4366 2.0385
3.2500 2.6389 1.9839
3.1101 2.9689 2.0385
2.8607 3.2068 2.0385
2.5932 3.4238 2.0385
2.3092 3.6184 2.0385
0.7340 1.3834 0.7442
0.6208 1.4378 0.7447
0.5036 1.4829 0.7452
0.3831 1.5185 0.7456
0.2601 1.5442 0.7461
0.1354 1.5600 0.7465
0.0099 1.5656 0.7469
-0.1157 1.5612 0.7473
-0.2405 1.5466 0.7477
-0.3637 1.5221 0.7480
-0.4845 1.4877 0.7483
-0.6022 1.4437 0.7486
-0.7159 1.3904 0.7488
-2.2451 3.6145 2.0385
-2.5267 3.4209 2.0385
-2.7918 3.2056 2.0385
-3.0388 2.9698 2.0385
-3.2662 2.7153 2.0385
-3.4724 2.4435 2.0385
-3.6563 2.1561 2.0385
-3.8167 1.8552 2.0385
-3.9526 1.5424 2.0385
-4.0631 1.2199 2.0385
-4.1475 0.8896 2.0385
-4.2054 0.5537 2.0385
-4.2364 0.2142 2.0385
-4.2402 -0.1267 2.0385
-4.2168 -0.4668 2.0385
-4.1664 -0.8040 2.0385
-4.0894 -1.1362 2.0385
-3.9860 -1.4613 2.0385
-3.8571 -1.7772 2.0385
-3.7033 -2.0818 2.0385
-3.5257 -2.3734 2.0385
-3.3253 -2.6499 2.0385
-3.1034 -2.9097 2.0385
-2.8614 -3.1510 2.0385
-2.6007 -3.3723 2.0385
-2.3231 -3.5722 2.0385
-0.7398 -1.3662 0.7428
-0.6278 -1.4211 0.7423
-0.5118 -1.4669 0.7419
-0.3925 -1.5033 0.7414
-0.2708 -1.5300 0.7410
-0.1472 -1.5469 0.7405
-0.0227 -1.5539 0.7401
0.1019 -1.5510 0.7397
0.2259 -1.5380 0.7394
0.3485 -1.5152 0.7390
0.4689 -1.4827 0.7387
0.5863 -1.4407 0.7384
0.7000 -1.3894 0.7382
2.2355 -3.6717 2.0385
2.5237 -3.4826 2.0385
2.7959 -3.2709 2.0385
3.0501 -3.0378 2.0385
3.2849 -2.7849 2.0385
3.4986 -2.5138 2.0385
3.6897 -2.2263 2.0385
3.8571 -1.9242 2.0385
3.9996 -1.6095 2.0385
4.1162 -1.2844 2.0385
4.2062 -0.9508 2.0385
4.2690 -0.6111 2.0385
3.8024 -0.2362 1.8008
3.8243 0.0693 1.8082
3.7551 0.3701 1.7839
3.6872 0.6648 1.7716
3.6198 0.9573 1.7709
3.5521 1.2513 1.7817
3.4832 1.5507 1.8043
3.4120 1.8596 1.8396
3.6023 2.3559 2.0385
3.3012 2.5586 1.9789
2.5259 3.1032 2.0385
2.2679 3.2937 2.0385
0.7283 1.2638 0.7440
0.6247 1.3181 0.7444
0.5170 1.3639 0.7448
0.4060 1.4009 0.7453
0.2924 1.4288 0.7457
0.1769 1.4475 0.7461
0.0603 1.4569 0.7465
-0.0567 1.4569 0.7469
-0.1734 1.4474 0.7472
-0.2889 1.4286 0.7476
-0.4025 1.4005 0.7479
-0.5134 1.3634 0.7481
-0.6210 1.3175 0.7484
-0.7246 1.2631 0.7486
-2.2417 3.2686 2.0385
-2.4957 3.0767 2.0385
-2.7334 2.8652 2.0385
-2.9535 2.6355 2.0385
-3.1545 2.3891 2.0385
-3.3351 2.1274 2.0385
-3.4943 1.8523 2.0385
-3.6310 1.5654 2.0385
-3.7444 1.2685 2.0385
-3.8337 0.9636 2.0385
-3.8985 0.6526 2.0385
-3.9383 0.3374 2.0385
-3.9528 0.0200 2.0385
-3.9421 -0.2975 2.0385
-3.9060 -0.6132 2.0385
-3.8449 -0.9251 2.0385
-3.7591 -1.2311 2.0385
-3.6492 -1.5294 2.0385
-3.5158 -1.8181 2.0385
-3.3597 -2.0952 2.0385
-3.1820 -2.3592 2.0385
-2.9837 -2.6081 2.0385
-2.7661 -2.8406 2.0385
-2.5305 -3.0550 2.0385
-2.2784 -3.2500 2.0385
-0.7332 -1.2482 0.7431
-0.6307 -1.3030 0.7426
-0.5242 -1.3494 0.7422
-0.4143 -1.3871 0.7417
-0.3017 -1.4160 0.7413
-0.1872 -1.4357 0.7409
-0.0715 -1.4463 0.7405
0.0447 -1.4475 0.7401
0.1606 -1.4395 0.7398
0.2755 -1.4223 0.7395
0.3886 -1.3959 0.7392
0.4993 -1.3605 0.7389
0.6068 -1.3165 0.7386
0.7105 -1.2639 0.7384
2.2357 -3.3226 2.0385
2.4958 -3.1343 2.0385
2.7400 -2.9256 2.0385
2.9666 -2.6979 2.0385
3.1742 -2.4526 2.0385
3.3614 -2.1912 2.0385
3.5270 -1.9156 2.0385
3.6698 -1.6275 2.0385
3.7889 -1.3287 2.0385
3.8836 -1.0212 2.0385
3.9531 -0.7071 2.0385
3.9971 -0.3885 2.0385
4.0152 -0.0673 2.0385
4.0074 0.2544 2.0385
3.9736 0.5742 2.0385
3.9141 0.8903 2.0385
3.8294 1.2005 2.0385
3.7199 1.5028 2.0385
3.5865 1.7953 2.0385
3.4300 2.0759 2.0385
3.2514 2.3429 2.0385
3.0520 2.5946 2.0385
2.8330 2.8293 2.0385
2.5959 3.0456 2.0385
2.3423 3.2420 2.0385
0.7567 1.2469 0.7438
0.6544 1.3036 0.7443
0.5478 1.3518 0.7447
0.4377 1.3913 0.7452
0.3248 1.4219 0.7456
0.2097 1.4432 0.7460
0.0933 1.4552 0.7464
-0.0237 1.4578 0.7468
-0.1405 1.4510 0.7471
-0.2564 1.4348 0.7475
-0.3706 1.4094 0.7478
-0.4824 1.3748 0.7481
-0.5910 1.3314 0.7483
-0.6958 1.2793 0.7485
-2.1672 3.3191 2.0385
-2.4255 3.1330 2.0385
-2.6680 2.9269 2.0385
-2.8932 2.7022 2.0385
-3.0997 2.4603 2.0385
-3.2862 2.2028 2.0385
-3.4515 1.9313 2.0385
-3.5947 1.6475 2.0385
-3.7147 1.3533 2.0385
-3.8110 1.0505 2.0385
-3.8827 0.7410 2.0385
-3.9296 0.4268 2.0385
-3.9513 0.1098 2.0385
-3.9477 -0.2079 2.0385
-3.9188 -0.5243 2.0385
-3.8647 -0.8374 2.0385
-3.7858 -1.1453 2.0385
-3.6826 -1.4460 2.0385
-3.5558 -1.7376 2.0385
-3.4060 -2.0182 2.0385
-3.2343 -2.2860 2.0385
-3.0418 -2.5394 2.0385
-2.8295 -2.7767 2.0385
-2.5988 -2.9963 2.0385
-2.3513 -3.1969 2.0385
-0.7614 -1.2312 0.7432
-0.6601 -1.2883 0.7427
-0.5546 -1.3371 0.7423
-0.4456 -1.3774 0.7419
-0.3337 -1.4087 0.7414
-0.2197 -1.4311 0.7410
-0.1043 -1.4442 0.7406
0.0118 -1.4481 0.7402
0.1279 -1.4427 0.7399
0.2431 -1.4281 0.7396
0.3569 -1.4043 0.7392
0.4683 -1.3714 0.7390
0.5768 -1.3298 0.7387
0.6816 -1.2796 0.7385
0.7821 -1.2212 0.7383
2.4239 -3.1896 2.0385
2.6727 -2.9866 2.0385
2.9044 -2.7641 2.0385
3.1176 -2.5236 2.0385
3.3107 -2.2666 2.0385
3.4825 -1.9948 2.0385
3.6318 -1.7100 2.0385
3.7577 -1.4141 2.0385
3.8594 -1.1089 2.0385
3.9360 -0.7965 2.0385
3.9873 -0.4789 2.0385
4.0127 -0.1582 2.0385
4.0122 0.1636 2.0385
3.9858 0.4841 2.0385
3.9335 0.8015 2.0385
3.8559 1.1136 2.0385
3.7533 1.4183 2.0385
3.6266 1.7137 2.0385
3.4765 1.9979 2.0385
3.3040 2.2689 2.0385
3.1104 2.5251 2.0385
2.8968 2.7648 2.0385
2.6646 2.9864 2.0385
2.4156 3.1886 2.0385
0.7848 1.2294 0.7437
0.6838 1.2884 0.7441
0.5783 1.3391 0.7446
0.4691 1.3811 0.7450
0.3569 1.4142 0.7455
0.2424 1.4381 0.7459
0.1263 1.4528 0.7463
0.0094 1.4580 0.7467
-0.1075 1.4539 0.7470
-0.2238 1.4403 0.7474
-0.3385 1.4175 0.7477
-0.4511 1.3855 0.7480
-0.5607 1.3445 0.7482
-0.6666 1.2949 0.7485
-0.7682 1.2369 0.7487
-2.3540 3.1877 2.0385
-2.6011 2.9871 2.0385
-2.8314 2.7675 2.0385
-3.0433 2.5303 2.0385
-3.2356 2.2771 2.0385
-3.4070 2.0094 2.0385
-3.5565 1.7289 2.0385
-3.6832 1.4374 2.0385
-3.7862 1.1368 2.0385
-3.8650 0.8290 2.0385
-3.9189 0.5160 2.0385
-3.9477 0.1996 2.0385
-3.9513 -0.1181 2.0385
-3.9295 -0.4351 2.0385
-3.8825 -0.7494 2.0385
-3.8106 -1.0590 2.0385
-3.7142 -1.3619 2.0385
-3.5940 -1.6562 2.0385
-3.4506 -1.9401 2.0385
-3.2850 -2.2117 2.0385
-3.0982 -2.4694 2.0385
-2.8914 -2.7113 2.0385
-2.6658 -2.9361 2.0385
-2.4228 -3.1422 2.0385
-2.1641 -3.3284 2.0385
-0.6892 -1.2730 0.7429
-0.5848 -1.3242 0.7424
-0.4768 -1.3669 0.7420
-0.3656 -1.4008 0.7416
-0.2521 -1.4257 0.7411
-0.1370 -1.4414 0.7407
-0.0210 -1.4480 0.7404
0.0951 -1.4452 0.7400
0.2107 -1.4331 0.7396
0.3249 -1.4119 0.7393
0.4371 -1.3816 0.7390
0.5465 -1.3424 0.7388
0.6524 -1.2946 0.7385
0.7542 -1.2385 0.7383
2.3507 -3.2433 2.0385
2.6040 -3.0460 2.0385
2.8408 -2.8289 2.0385
3.0593 -2.5933 2.0385
3.2582 -2.3408 2.0385
3.4361 -2.0730 2.0385
3.5919 -1.7917 2.0385
3.7246 -1.4987 2.0385
3.8331 -1.1960 2.0385
3.9169 -0.8854 2.0385
3.9754 -0.5690 2.0385
4.0082 -0.2490 2.0385
4.0150 0.0727 2.0385
3.9959 0.3938 2.0385
3.9509 0.7123 2.0385
3.8804 1.0261 2.0385
3.7848 1.3331 2.0385
3.6648 1.6313 2.0385
3.5212 1.9188 2.0385
3.3550 2.1938 2.0385
3.1672 2.4543 2.0385
2.3595 2.8982 2.0385
0.7727 1.1220 0.7435
0.6804 1.1803 0.7439
0.5836 1.2310 0.7443
0.4831 1.2738 0.7448
0.3794 1.3084 0.7452
0.2733 1.3344 0.7456
0.1654 1.3519 0.7459
0.0565 1.3607 0.7463
-0.0528 1.3606 0.7467
-0.1618 1.3518 0.7470
-0.2696 1.3342 0.7473
-0.3757 1.3080 0.7476
-0.4794 1.2734 0.7478
-0.5799 1.2305 0.7480
-0.6766 1.1797 0.7482
-0.7689 1.1213 0.7484
-2.3317 2.8750 2.0385
-2.5539 2.6774 2.0385
-2.7596 2.4628 2.0385
-2.9475 2.2326 2.0385
-3.1163 1.9881 2.0385
-3.2651 1.7310 2.0385
-3.3929 1.4629 2.0385
-3.4989 1.1855 2.0385
-3.5824 0.9005 2.0385
-3.6430 0.6099 2.0385
-3.6802 0.3153 2.0385
-3.6938 0.0187 2.0385
-3.6837 -0.2781 2.0385
-3.6499 -0.5731 2.0385
-3.5928 -0.8646 2.0385
-3.5126 -1.1506 2.0385
-3.4098 -1.4293 2.0385
-3.2851 -1.6990 2.0385
-3.1392 -1.9580 2.0385
-2.9730 -2.2046 2.0385
-2.7877 -2.4372 2.0385
-2.5843 -2.6543 2.0385
-2.3641 -2.8546 2.0385
-0.7763 -1.1076 0.7435
-0.6849 -1.1663 0.7431
-0.5892 -1.2175 0.7427
-0.4896 -1.2609 0.7423
-0.3869 -1.2961 0.7419
-0.2818 -1.3231 0.7415
-0.1748 -1.3416 0.7411
-0.0667 -1.3514 0.7407
0.0419 -1.3526 0.7404
0.1502 -1.3451 0.7400
0.2575 -1.3290 0.7397
0.3633 -1.3043 0.7394
0.4667 -1.2713 0.7392
0.5672 -1.2301 0.7390
0.6640 -1.1810 0.7388
0.7567 -1.1243 0.7386
2.3313 -2.9272 2.0385
2.5593 -2.7322 2.0385
2.7709 -2.5195 2.0385
2.9647 -2.2904 2.0385
3.1394 -2.0463 2.0385
3.2940 -1.7889 2.0385
3.4273 -1.5198 2.0385
3.5385 -1.2408 2.0385
3.6269 -0.9537 2.0385
3.6918 -0.6604 2.0385
3.7329 -0.3628 2.0385
3.7498 -0.0628 2.0385
3.7425 0.2375 2.0385
3.7110 0.5362 2.0385
3.6555 0.8313 2.0385
3.5764 1.1210 2.0385
3.4743 1.4034 2.0385
3.3497 1.6765 2.0385
3.2036 1.9386 2.0385
3.0369 2.1880 2.0385
2.8507 2.4231 2.0385
2.6463 2.6424 2.0385
2.4249 2.8444 2.0385
2.1881 3.0280 2.0385
0.7069 1.1646 0.7438
0.6114 1.2175 0.7442
0.5118 1.2625 0.7446
0.4090 1.2994 0.7450
0.3035 1.3279 0.7454
0.1960 1.3479 0.7458
0.0873 1.3591 0.7462
-0.0220 1.3615 0.7466
-0.1311 1.3552 0.7469
-0.2393 1.3401 0.7472
-0.3460 1.3163 0.7475
-0.4504 1.2840 0.7478
-0.5518 1.2435 0.7480
-0.6497 1.1949 0.7482
-0.7433 1.1386 0.7484
-2.2661 2.9276 2.0385
-2.4927 2.7351 2.0385
-2.7032 2.5251 2.0385
-2.8963 2.2991 2.0385
-3.0706 2.0585 2.0385
-3.2252 1.8048 2.0385
-3.3590 1.5397 2.0385
-3.4712 1.2647 2.0385
-3.5611 0.9817 2.0385
-3.6282 0.6925 2.0385
-3.6721 0.3988 2.0385
-3.6923 0.1026 2.0385
-3.6889 -0.1943 2.0385
-3.6619 -0.4900 2.0385
-3.6113 -0.7827 2.0385
-3.5376 -1.0704 2.0385
-3.4411 -1.3514 2.0385
-3.3225 -1.6238 2.0385
-3.1825 -1.8860 2.0385
-3.0220 -2.1363 2.0385
-2.8419 -2.3730 2.0385
-2.6435 -2.5946 2.0385
-2.4279 -2.7998 2.0385
-2.1965 -2.9872 2.0385
-0.7112 -1.1505 0.7432
-0.6166 -1.2038 0.7428
-0.5181 -1.2494 0.7424
-0.4162 -1.2870 0.7420
-0.3117 -1.3163 0.7416
-0.2052 -1.3372 0.7412
-0.0973 -1.3495 0.7408
0.0112 -1.3531 0.7405
0.1196 -1.3481 0.7401
0.2273 -1.3344 0.7398
0.3336 -1.3121 0.7395
0.4377 -1.2815 0.7393
0.5391 -1.2425 0.7390
0.6371 -1.1957 0.7388
0.7310 -1.1411 0.7386
2.2641 -2.9789 2.0385
2.4964 -2.7892 2.0385
2.7128 -2.5814 2.0385
2.9118 -2.3567 2.0385
3.0921 -2.1167 2.0385
3.2524 -1.8629 2.0385
3.3919 -1.5969 2.0385
3.5094 -1.3205 2.0385
3.6043 -1.0355 2.0385
3.6759 -0.7438 2.0385
3.7237 -0.4472 2.0385
3.7475 -0.1477 2.0385
3.7470 0.1527 2.0385
3.7224 0.4520 2.0385
3.6736 0.7484 2.0385
3.6011 1.0398 2.0385
3.5054 1.3244 2.0385
3.3871 1.6003 2.0385
3.2470 1.8657 2.0385
3.0860 2.1189 2.0385
2.9052 2.3582 2.0385
2.7058 2.5821 2.0385
2.4891 2.7892 2.0385
2.2565 2.9780 2.0385
0.7331 1.1483 0.7437
0.6388 1.2033 0.7441
0.5403 1.2506 0.7445
0.4383 1.2899 0.7449
0.3335 1.3208 0.7453
0.2265 1.3431 0.7457
0.1181 1.3568 0.7461
0.0089 1.3617 0.7465
-0.1003 1.3579 0.7468
-0.2088 1.3452 0.7471
-0.3160 1.3239 0.7474
-0.4211 1.2940 0.7477
-0.5235 1.2557 0.7479
-0.6224 1.2094 0.7481
-0.7173 1.1553 0.7483
-2.1993 2.9786 2.0385
-2.4302 2.7913 2.0385
-2.6455 2.5861 2.0385
-2.8436 2.3645 2.0385
-3.0233 2.1279 2.0385
-3.1835 1.8778 2.0385
-3.3233 1.6157 2.0385
-3.4417 1.3433 2.0385
-3.5380 1.0624 2.0385
-3.6116 0.7747 2.0385
-3.6620 0.4821 2.0385
-3.6890 0.1865 2.0385
-3.6923 -0.1104 2.0385
-3.6719 -0.4067 2.0385
-3.6280 -0.7004 2.0385
-3.5607 -0.9897 2.0385
-3.4706 -1.2728 2.0385
-3.3582 -1.5478 2.0385
-3.2242 -1.8131 2.0385
-3.0694 -2.0669 2.0385
-2.8947 -2.3075 2.0385
-2.7014 -2.5336 2.0385
-2.4905 -2.7436 2.0385
-2.2634 -2.9361 2.0385
-0.7372 -1.1340 0.7433
-0.6438 -1.1895 0.7429
-0.5463 -1.2373 0.7425
-0.4453 -1.2772 0.7421
-0.3415 -1.3089 0.7417
-0.2354 -1.3322 0.7413
-0.1279 -1.3469 0.7409
-0.0195 -1.3530 0.7406
0.0890 -1.3504 0.7402
0.1970 -1.3391 0.7399
0.3038 -1.3193 0.7396
0.4086 -1.2910 0.7393
0.5108 -1.2544 0.7391
0.6098 -1.2097 0.7389
0.7049 -1.1573 0.7387
2.1958 -3.0290 2.0385
2.4323 -2.8447 2.0385
2.6534 -2.6419 2.0385
2.8574 -2.4218 2.0385
3.0431 -2.1860 2.0385
3.2092 -1.9359 2.0385
3.3546 -1.6732 2.0385
3.4785 -1.3996 2.0385
3.5798 -1.1168 2.0385
3.6581 -0.8268 2.0385
3.7126 -0.5314 2.0385
3.7432 -0.2325 2.0385
3.7496 0.0678 2.0385
3.7318 0.3677 2.0385
3.6898 0.6651 2.0385
3.6240 0.9581 2.0385
3.5348 1.2448 2.0385
3.4228 1.5233 2.0385
3.2888 1.7919 2.0385
3.1336 2.0487 2.0385
2.9583 2.2921 2.0385
2.2095 2.7134 2.0385
0.7236 1.0505 0.7435
0.6371 1.1051 0.7439
0.5465 1.1525 0.7443
0.4524 1.1926 0.7447
0.3554 1.2249 0.7451
0.2560 1.2493 0.7454
0.1550 1.2657 0.7458
0.0530 1.2739 0.7461
-0.0493 1.2738 0.7465
-0.1513 1.2656 0.7468
-0.2523 1.2491 0.7470
-0.3516 1.2246 0.7473
-0.4486 1.1922 0.7475
-0.5427 1.1521 0.7478
-0.6333 1.1045 0.7479
-0.7197 1.0499 0.7481
-2.1836 2.6929 2.0385
-2.3918 2.5079 2.0385
-2.5846 2.3069 2.0385
-2.7606 2.0913 2.0385
-2.9188 1.8623 2.0385
-3.0582 1.6215 2.0385
-3.1780 1.3703 2.0385
-3.2773 1.1105 2.0385
-3.3555 0.8435 2.0385
-3.4123 0.5712 2.0385
-3.4471 0.2953 2.0385
-3.4598 0.0175 2.0385
-3.4504 -0.2605 2.0385
-3.4187 -0.5369 2.0385
-3.3652 -0.8099 2.0385
-3.2900 -1.0778 2.0385
-3.1937 -1.3389 2.0385
-3.0768 -1.5916 2.0385
-2.9401 -1.8341 2.0385
-2.7844 -2.0651 2.0385
-2.6107 -2.2829 2.0385
-2.4201 -2.4862 2.0385
-2.2138 -2.6737 2.0385
-0.7270 -1.0374 0.7435
-0.6414 -1.0924 0.7431
-0.5517 -1.1403 0.7427
-0.4584 -1.1810 0.7423
-0.3623 -1.2140 0.7420
-0.2638 -1.2393 0.7416
-0.1636 -1.2566 0.7412
-0.0623 -1.2658 0.7409
0.0394 -1.2669 0.7406
0.1408 -1.2599 0.7403
0.2414 -1.2448 0.7400
0.3404 -1.2217 0.7397
0.4373 -1.1907 0.7395
0.5314 -1.1521 0.7392
0.6221 -1.1061 0.7391
0.7089 -1.0530 0.7389
2.1829 -2.7404 2.0385
2.3963 -2.5579 2.0385
2.5943 -2.3587 2.0385
2.7757 -2.1441 2.0385
2.9393 -1.9156 2.0385
3.0840 -1.6746 2.0385
3.2087 -1.4227 2.0385
3.3128 -1.1615 2.0385
3.3955 -0.8928 2.0385
3.4563 -0.6182 2.0385
3.4947 -0.3396 2.0385
3.5106 -0.0589 2.0385
3.5037 0.2222 2.0385
3.4743 0.5019 2.0385
3.4224 0.7782 2.0385
3.3484 1.0494 2.0385
3.2528 1.3137 2.0385
3.1362 1.5694 2.0385
2.9995 1.8148 2.0385
2.8435 2.0483 2.0385
2.6692 2.2684 2.0385
2.4779 2.4738 2.0385
2.2707 2.6630 2.0385
0.7472 1.0338 0.7434
0.6620 1.0904 0.7438
0.5725 1.1399 0.7442
0.4793 1.1820 0.7446
0.3830 1.2166 0.7449
0.2843 1.2433 0.7453
0.1837 1.2619 0.7457
0.0819 1.2724 0.7460
-0.0204 1.2747 0.7464
-0.1226 1.2687 0.7467
-0.2239 1.2546 0.7470
-0.3237 1.2323 0.7472
-0.4215 1.2021 0.7475
-0.5165 1.1642 0.7477
-0.6081 1.1187 0.7479
-0.6958 1.0660 0.7481
-2.1222 2.7421 2.0385
-2.3345 2.5619 2.0385
-2.5317 2.3653 2.0385
-2.7126 2.1536 2.0385
-2.8760 1.9283 2.0385
-3.0208 1.6906 2.0385
-3.1462 1.4423 2.0385
-3.2513 1.1847 2.0385
-3.3356 0.9196 2.0385
-3.3985 0.6486 2.0385
-3.4395 0.3736 2.0385
-3.4585 0.0961 2.0385
-3.4553 -0.1821 2.0385
-3.4299 -0.4591 2.0385
-3.3825 -0.7332 2.0385
-3.3134 -1.0027 2.0385
-3.2230 -1.2659 2.0385
-3.1119 -1.5211 2.0385
-2.9807 -1.7667 2.0385
-2.8303 -2.0011 2.0385
-2.6616 -2.2228 2.0385
-2.4756 -2.4303 2.0385
-2.2736 -2.6224 2.0385
-0.7503 -1.0206 0.7436
-0.6660 -1.0775 0.7432
-0.5774 -1.1275 0.7428
-0.4851 -1.1702 0.7424
-0.3897 -1.2055 0.7421
-0.2918 -1.2329 0.7417
-0.1920 -1.2525 0.7413
-0.0910 -1.2640 0.7410
0.0106 -1.2674 0.7406
0.1122 -1.2627 0.7403
0.2131 -1.2499 0.7400
0.3126 -1.2290 0.7398
0.4102 -1.2003 0.7395
0.5051 -1.1638 0.7393
0.5968 -1.1199 0.7391
0.6848 -1.0688 0.7389
0.7684 -1.0107 0.7388
2.3375 -2.6112 2.0385
2.5400 -2.4166 2.0385
2.7262 -2.2063 2.0385
2.8950 -1.9815 2.0385
3.0451 -1.7439 2.0385
3.1755 -1.4949 2.0385
3.2856 -1.2362 2.0385
3.3744 -0.9694 2.0385
3.4414 -0.6963 2.0385
3.4861 -0.4187 2.0385
3.5084 -0.1383 2.0385
3.5080 0.1429 2.0385
3.4849 0.4231 2.0385
3.4393 0.7005 2.0385
3.3715 0.9734 2.0385
3.2819 1.2398 2.0385
3.1712 1.4981 2.0385
3.0401 1.7466 2.0385
2.8895 1.9836 2.0385
2.7203 2.2077 2.0385
2.5336 2.4174 2.0385
2.3308 2.6113 2.0385
0.7705 1.0166 0.7433
0.6866 1.0751 0.7437
0.5982 1.1266 0.7441
0.5060 1.1709 0.7445
0.4105 1.2076 0.7448
0.3124 1.2365 0.7452
0.2122 1.2575 0.7456
0.1107 1.2703 0.7459
0.0085 1.2749 0.7463
-0.0937 1.2713 0.7466
-0.1954 1.2594 0.7469
-0.2957 1.2394 0.7472
-0.3941 1.2115 0.7474
-0.4900 1.1757 0.7476
-0.5826 1.1323 0.7478
-0.6714 1.0816 0.7480
-0.7559 1.0240 0.7482
-2.2760 2.6145 2.0385
-2.4776 2.4224 2.0385
-2.6632 2.2149 2.0385
-2.8316 1.9933 2.0385
-2.9818 1.7589 2.0385
-3.1128 1.5134 2.0385
-3.2237 1.2583 2.0385
-3.3139 0.9952 2.0385
-3.3829 0.7257 2.0385
-3.4301 0.4516 2.0385
-3.4554 0.1746 2.0385
-3.4584 -0.1035 2.0385
-3.4393 -0.3810 2.0385
-3.3981 -0.6561 2.0385
-3.3351 -0.9271 2.0385
-3.2507 -1.1923 2.0385
-3.1453 -1.4499 2.0385
-3.0197 -1.6984 2.0385
-2.8747 -1.9361 2.0385
-2.7110 -2.1615 2.0385
-2.5299 -2.3732 2.0385
-2.3323 -2.5698 2.0385
-0.7733 -1.0033 0.7437
-0.6903 -1.0621 0.7433
-0.6028 -1.1141 0.7429
-0.5115 -1.1589 0.7426
-0.4169 -1.1963 0.7422
-0.3197 -1.2260 0.7418
-0.2204 -1.2478 0.7414
-0.1196 -1.2616 0.7411
-0.0181 -1.2673 0.7407
0.0836 -1.2649 0.7404
0.1847 -1.2543 0.7401
0.2847 -1.2357 0.7398
0.3828 -1.2092 0.7396
0.4786 -1.1749 0.7394
0.5713 -1.1330 0.7392
0.6603 -1.0839 0.7390
0.7452 -1.0278 0.7388
2.2775 -2.6632 2.0385
2.4844 -2.4733 2.0385
2.6753 -2.2672 2.0385
2.8491 -2.0464 2.0385
3.0046 -1.8123 2.0385
3.1407 -1.5663 2.0385
3.2566 -1.3102 2.0385
3.3514 -1.0455 2.0385
3.4247 -0.7740 2.0385
3.4758 -0.4975 2.0385
3.5044 -0.2177 2.0385
3.5104 0.0634 2.0385
3.4937 0.3441 2.0385
3.4544 0.6225 2.0385
3.3929 0.8968 2.0385
3.3094 1.1652 2.0385
3.2046 1.4260 2.0385
3.0792 1.6774 2.0385
2.9340 1.9178 2.0385
2.7699 2.1457 2.0385
0.7558 0.9280 0.7431
0.6791 0.9856 0.7435
0.5979 1.0368 0.7439
0.5129 1.0813 0.7442
0.4246 1.1188 0.7446
0.3335 1.1492 0.7450
0.2403 1.1721 0.7453
0.1456 1.1874 0.7456
0.0499 1.1951 0.7460
-0.0461 1.1951 0.7463
-0.1418 1.1873 0.7466
-0.2365 1.1719 0.7468
-0.3297 1.1489 0.7471
-0.4208 1.1185 0.7473
-0.5091 1.0808 0.7475
-0.5940 1.0362 0.7477
-0.6751 0.9850 0.7478
-0.7518 0.9273 0.7479
-2.2446 2.3539 2.0385
-2.4255 2.1653 2.0385
-2.5908 1.9629 2.0385
-2.7393 1.7480 2.0385
-2.8702 1.5219 2.0385
-2.9826 1.2862 2.0385
-3.0759 1.0423 2.0385
-3.1494 0.7918 2.0385
-3.2026 0.5362 2.0385
-3.2353 0.2771 2.0385
-3.2473 0.0163 2.0385
-3.2383 -0.2446 2.0385
-3.2086 -0.5040 2.0385
-3.1583 -0.7603 2.0385
-3.0877 -1.0117 2.0385
-2.9973 -1.2568 2.0385
-2.8875 -1.4939 2.0385
-2.7592 -1.7216 2.0385
-2.6130 -1.9383 2.0385
-2.4499 -2.1427 2.0385
-2.2710 -2.3335 2.0385
-0.7581 -0.9157 0.7439
-0.6821 -0.9736 0.7435
-0.6018 -1.0252 0.7431
-0.5176 -1.0702 0.7428
-0.4301 -1.1084 0.7424
-0.3398 -1.1394 0.7420
-0.2474 -1.1631 0.7417
-0.1534 -1.1793 0.7414
-0.0583 -1.1880 0.7410
0.0371 -1.1891 0.7407
0.1323 -1.1825 0.7404
0.2267 -1.1683 0.7402
0.3196 -1.1466 0.7399
0.4105 -1.1176 0.7397
0.4989 -1.0813 0.7395
0.5840 -1.0382 0.7393
0.6654 -0.9883 0.7392
0.7426 -0.9321 0.7391
2.2484 -2.3996 2.0385
2.4342 -2.2127 2.0385
2.6043 -2.0114 2.0385
2.7577 -1.7970 2.0385
2.8933 -1.5710 2.0385
3.0104 -1.3346 2.0385
3.1080 -1.0896 2.0385
3.1855 -0.8375 2.0385
3.2425 -0.5799 2.0385
3.2786 -0.3186 2.0385
3.2935 -0.0553 2.0385
3.2871 0.2084 2.0385
3.2594 0.4707 2.0385
3.2108 0.7299 2.0385
3.1414 0.9843 2.0385
3.0517 1.2323 2.0385
2.9425 1.4722 2.0385
2.8142 1.7024 2.0385
2.6679 1.9215 2.0385
2.5045 2.1281 2.0385
2.3251 2.3208 2.0385
0.7766 0.9106 0.7430
0.7012 0.9699 0.7434
0.6213 1.0230 0.7438
0.5373 1.0694 0.7441
0.4499 1.1090 0.7445
0.3595 1.1413 0.7449
0.2668 1.1664 0.7452
0.1725 1.1839 0.7455
0.0770 1.1937 0.7459
-0.0190 1.1959 0.7462
-0.1148 1.1903 0.7465
-0.2099 1.1770 0.7468
-0.3036 1.1561 0.7470
-0.3953 1.1278 0.7472
-0.4844 1.0922 0.7474
-0.5704 1.0495 0.7476
-0.6526 1.0001 0.7478
-0.7306 0.9442 0.7479
-2.1908 2.4045 2.0385
-2.3759 2.2200 2.0385
-2.5457 2.0214 2.0385
-2.6991 1.8099 2.0385
-2.8350 1.5869 2.0385
-2.9528 1.3537 2.0385
-3.0515 1.1120 2.0385
-3.1306 0.8632 2.0385
-3.1896 0.6088 2.0385
-3.2282 0.3506 2.0385
-3.2460 0.0901 2.0385
-3.2430 -0.1710 2.0385
-3.2191 -0.4310 2.0385
-3.1746 -0.6883 2.0385
-3.1097 -0.9413 2.0385
-3.0248 -1.1883 2.0385
-2.9205 -1.4278 2.0385
-2.7973 -1.6583 2.0385
-2.6561 -1.8782 2.0385
-2.4977 -2.0863 2.0385
-2.3231 -2.2810 2.0385
-0.7787 -0.8983 0.7440
-0.7040 -0.9579 0.7436
-0.6249 -1.0113 0.7432
-0.5418 -1.0582 0.7429
-0.4551 -1.0983 0.7425
-0.3656 -1.1314 0.7421
-0.2737 -1.1572 0.7418
-0.1801 -1.1755 0.7415
-0.0852 -1.1863 0.7411
0.0101 -1.1895 0.7408
0.1055 -1.1851 0.7405
0.2001 -1.1731 0.7403
0.2935 -1.1535 0.7400
0.3851 -1.1265 0.7398
0.4742 -1.0923 0.7396
0.5603 -1.0510 0.7394
0.6428 -1.0031 0.7392
0.7212 -0.9486 0.7391
2.1933 -2.4497 2.0385
2.3832 -2.2671 2.0385
2.5579 -2.0697 2.0385
2.7161 -1.8589 2.0385
2.8569 -1.6359 2.0385
2.9792 -1.4024 2.0385
3.0824 -1.1596 2.0385
3.1657 -0.9094 2.0385
3.2285 -0.6532 2.0385
3.2705 -0.3928 2.0385
3.2914 -0.1298 2.0385
3.2910 0.1340 2.0385
3.2694 0.3968 2.0385
3.2266 0.6571 2.0385
3.1631 0.9130 2.0385
3.0791 1.1630 2.0385
2.9753 1.4053 2.0385
2.8523 1.6384 2.0385
2.7111 1.8608 2.0385
2.5524 2.0711 2.0385
2.3773 2.2678 2.0385
2.1871 2.4498 2.0385
0.7230 0.9538 0.7433
0.6443 1.0086 0.7437
0.5614 1.0570 0.7440
0.4749 1.0985 0.7444
0.3853 1.1329 0.7448
0.2932 1.1601 0.7451
0.1993 1.1797 0.7455
0.1040 1.1917 0.7458
0.0081 1.1960 0.7461
-0.0878 1.1926 0.7464
-0.1831 1.1815 0.7467
-0.2773 1.1628 0.7469
-0.3696 1.1366 0.7472
-0.4595 1.1030 0.7474
-0.5464 1.0623 0.7476
-0.6298 1.0147 0.7477
-0.7090 0.9607 0.7479
-2.1358 2.4539 2.0385
-2.3251 2.2737 2.0385
-2.4994 2.0789 2.0385
-2.6575 1.8709 2.0385
-2.7984 1.6510 2.0385
-2.9214 1.4206 2.0385
-3.0256 1.1811 2.0385
-3.1103 0.9341 2.0385
-3.1750 0.6811 2.0385
-3.2194 0.4239 2.0385
-3.2431 0.1639 2.0385
-3.2459 -0.0972 2.0385
-3.2280 -0.3577 2.0385
-3.1893 -0.6159 2.0385
-3.1301 -0.8703 2.0385
-3.0508 -1.1192 2.0385
-2.9519 -1.3610 2.0385
-2.8340 -1.5942 2.0385
-2.6977 -1.8172 2.0385
-2.5441 -2.0288 2.0385
-2.3740 -2.2274 2.0385
-2.1885 -2.4119 2.0385
-0.7256 -0.9416 0.7437
-0.6477 -0.9968 0.7433
-0.5656 -1.0456 0.7430
-0.4799 -1.0877 0.7426
-0.3912 -1.1228 0.7422
-0.2999 -1.1506 0.7419
-0.2067 -1.1711 0.7416
-0.1121 -1.1840 0.7412
-0.0168 -1.1894 0.7409
0.0786 -1.1871 0.7406
0.1735 -1.1772 0.7403
0.2673 -1.1598 0.7401
0.3594 -1.1349 0.7398
0.4493 -1.1027 0.7396
0.5363 -1.0634 0.7394
0.6199 -1.0173 0.7393
0.6995 -0.9646 0.7391
0.7747 -0.9058 0.7390
2.3310 -2.3202 2.0385
2.5101 -2.1269 2.0385
2.6731 -1.9197 2.0385
2.8189 -1.7001 2.0385
2.9466 -1.4694 2.0385
3.0552 -1.2291 2.0385
3.1442 -0.9808 2.0385
3.2129 -0.7261 2.0385
3.2608 -0.4667 2.0385
3.2877 -0.2043 2.0385
3.2933 0.0594 2.0385
3.2776 0.3228 2.0385
3.2408 0.5839 2.0385
3.1831 0.8412 2.0385
3.1049 1.0930 2.0385
3.0066 1.3377 2.0385
2.8890 1.5735 2.0385
2.7528 1.7991 2.0385
2.5989 2.0129 2.0385
0.7105 0.8722 0.7431
0.6384 0.9263 0.7435
0.5621 0.9744 0.7438
0.4822 1.0162 0.7442
0.3992 1.0515 0.7445
0.3136 1.0800 0.7449
0.2260 1.1015 0.7452
0.1369 1.1160 0.7455
0.0470 1.1232 0.7458
-0.0432 1.1231 0.7461
-0.1331 1.1158 0.7464
-0.2222 1.1013 0.7466
-0.3097 1.0797 0.7469
-0.3953 1.0512 0.7471
-0.4783 1.0158 0.7473
-0.5581 0.9739 0.7474
-0.6344 0.9257 0.7476
-0.7065 0.8715 0.7477
-0.7740 0.8118 0.7477
-2.2801 2.0358 2.0385
-2.4355 1.8455 2.0385
-2.5752 1.6435 2.0385
-2.6983 1.4310 2.0385
-2.8041 1.2093 2.0385
-2.8918 0.9800 2.0385
-2.9609 0.7444 2.0385
-3.0109 0.5041 2.0385
-3.0417 0.2606 2.0385
-3.0529 0.0153 2.0385
-3.0445 -0.2300 2.0385
-3.0166 -0.4740 2.0385
-2.9693 -0.7149 2.0385
-2.9029 -0.9513 2.0385
-2.8178 -1.1817 2.0385
-2.7145 -1.4047 2.0385
-2.5938 -1.6187 2.0385
-2.4563 -1.8224 2.0385
-2.3030 -2.0146 2.0385
-0.7793 -0.8009 0.7442
-0.7125 -0.8609 0.7439
-0.6411 -0.9153 0.7435
-0.5656 -0.9639 0.7432
-0.4865 -1.0062 0.7428
-0.4042 -1.0421 0.7425
-0.3194 -1.0712 0.7421
-0.2324 -1.0935 0.7418
-0.1440 -1.1088 0.7415
-0.0547 -1.1169 0.7412
0.0350 -1.1179 0.7409
0.1245 -1.1117 0.7406
0.2133 -1.0984 0.7404
0.3006 -1.0780 0.7401
0.3861 -1.0507 0.7399
0.4691 -1.0166 0.7397
0.5492 -0.9760 0.7396
0.6257 -0.9291 0.7394
0.6983 -0.8763 0.7393
0.7664 -0.8178 0.7392
2.2879 -2.0795 2.0385
2.4477 -1.8903 2.0385
2.5919 -1.6888 2.0385
2.7193 -1.4763 2.0385
2.8292 -1.2542 2.0385
2.9210 -1.0240 2.0385
2.9938 -0.7870 2.0385
3.0474 -0.5450 2.0385
3.0812 -0.2995 2.0385
3.0952 -0.0520 2.0385
3.0892 0.1958 2.0385
3.0633 0.4423 2.0385
3.0176 0.6859 2.0385
2.9524 0.9249 2.0385
2.8682 1.1580 2.0385
2.7655 1.3834 2.0385
2.6451 1.5998 2.0385
2.5076 1.8057 2.0385
2.3541 1.9999 2.0385
2.1855 2.1810 2.0385
0.7301 0.8558 0.7430
0.6592 0.9116 0.7434
0.5840 0.9614 0.7437
0.5051 1.0050 0.7441
0.4229 1.0422 0.7444
0.3380 1.0727 0.7448
0.2509 1.0962 0.7451
0.1622 1.1126 0.7454
0.0725 1.1219 0.7457
-0.0177 1.1239 0.7460
-0.1078 1.1186 0.7463
-0.1971 1.1062 0.7466
-0.2852 1.0866 0.7468
-0.3714 1.0599 0.7470
-0.4551 1.0265 0.7472
-0.5359 0.9864 0.7474
-0.6132 0.9399 0.7475
-0.6865 0.8874 0.7476
-0.7554 0.8292 0.7477
-2.2335 2.0873 2.0385
-2.3932 1.9005 2.0385
-2.5374 1.7017 2.0385
-2.6653 1.4920 2.0385
-2.7760 1.2728 2.0385
-2.8688 1.0455 2.0385
-2.9432 0.8116 2.0385
-2.9987 0.5724 2.0385
-3.0350 0.3296 2.0385
-3.0517 0.0847 2.0385
-3.0489 -0.1608 2.0385
-3.0265 -0.4053 2.0385
-2.9846 -0.6472 2.0385
-2.9235 -0.8851 2.0385
-2.8437 -1.1173 2.0385
-2.7455 -1.3425 2.0385
-2.6297 -1.5592 2.0385
-2.4968 -1.7660 2.0385
-2.3479 -1.9615 2.0385
-2.1837 -2.1446 2.0385
-0.7319 -0.8445 0.7440
-0.6617 -0.9005 0.7436
-0.5873 -0.9508 0.7433
-0.5092 -0.9949 0.7429
-0.4278 -1.0326 0.7426
-0.3436 -1.0637 0.7422
-0.2572 -1.0879 0.7419
-0.1691 -1.1052 0.7416
-0.0800 -1.1154 0.7413
0.0097 -1.1184 0.7410
0.0993 -1.1142 0.7407
0.1883 -1.1029 0.7404
0.2761 -1.0845 0.7402
0.3622 -1.0591 0.7400
0.4459 -1.0269 0.7398
0.5269 -0.9881 0.7396
0.6045 -0.9430 0.7395
0.6782 -0.8918 0.7393
0.7476 -0.8349 0.7393
2.2400 -2.1305 2.0385
2.4041 -1.9450 2.0385
2.5528 -1.7469 2.0385
2.6850 -1.5374 2.0385
2.8000 -1.3178 2.0385
2.8969 -1.0898 2.0385
2.9752 -0.8546 2.0385
3.0342 -0.6138 2.0385
3.0737 -0.3691 2.0385
3.0933 -0.1220 2.0385
3.0930 0.1258 2.0385
3.0726 0.3729 2.0385
3.0325 0.6174 2.0385
2.9728 0.8579 2.0385
2.8939 1.0928 2.0385
2.7964 1.3205 2.0385
2.6809 1.5396 2.0385
2.5481 1.7487 2.0385
2.3991 1.9463 2.0385
2.2346 2.1312 2.0385
0.7493 0.8391 0.7429
0.6797 0.8964 0.7433
0.6057 0.9479 0.7436
0.5278 0.9934 0.7440
0.4465 1.0324 0.7443
0.3623 1.0647 0.7447
0.2757 1.0902 0.7450
0.1874 1.1087 0.7453
0.0979 1.1200 0.7456
0.0078 1.1240 0.7459
-0.0824 1.1209 0.7462
-0.1720 1.1104 0.7465
-0.2605 1.0928 0.7467
-0.3472 1.0682 0.7469
-0.4317 1.0366 0.7471
-0.5134 0.9984 0.7473
-0.5918 0.9537 0.7475
-0.6662 0.9029 0.7476
-0.7364 0.8462 0.7477
-2.1857 2.1377 2.0385
-2.3496 1.9546 2.0385
-2.4983 1.7590 2.0385
-2.6308 1.5523 2.0385
-2.7465 1.3356 2.0385
-2.8444 1.1105 2.0385
-2.9241 0.8783 2.0385
-2.9850 0.6404 2.0385
-3.0267 0.3985 2.0385
-3.0490 0.1540 2.0385
-3.0517 -0.0914 2.0385
-3.0348 -0.3364 2.0385
-2.9984 -0.5792 2.0385
-2.9427 -0.8184 2.0385
-2.8681 -1.0523 2.0385
-2.7751 -1.2797 2.0385
-2.6642 -1.4989 2.0385
-2.5360 -1.7086 2.0385
-2.3916 -1.9075 2.0385
-2.2316 -2.0942 2.0385
-0.7509 -0.8277 0.7440
-0.6820 -0.8853 0.7437
-0.6088 -0.9372 0.7434
-0.5316 -0.9830 0.7430
-0.4511 -1.0226 0.7427
-0.3676 -1.0556 0.7423
-0.2818 -1.0818 0.7420
-0.1942 -1.1010 0.7417
-0.1053 -1.1132 0.7414
-0.0157 -1.1182 0.7411
0.0740 -1.1161 0.7408
0.1632 -1.1068 0.7405
0.2514 -1.0904 0.7403
0.3381 -1.0670 0.7400
0.4225 -1.0367 0.7398
0.5043 -0.9997 0.7397
0.5829 -0.9564 0.7395
0.6578 -0.9069 0.7394
0.7285 -0.8515 0.7393
2.1910 -2.1805 2.0385
2.3592 -1.9988 2.0385
2.5124 -1.8041 2.0385
2.6494 -1.5977 2.0385
2.7693 -1.3808 2.0385
2.8714 -1.1550 2.0385
2.9550 -0.9217 2.0385
3.0195 -0.6823 2.0385
3.0645 -0.4386 2.0385
3.0898 -0.1920 2.0385
3.0951 0.0558 2.0385
3.0804 0.3032 2.0385
3.0458 0.5487 2.0385
2.9916 0.7905 2.0385
2.9181 1.0271 2.0385
2.8258 1.2570 2.0385
2.7153 1.4787 2.0385
2.5874 1.6907 2.0385
2.4428 1.8917 2.0385
0.6689 0.8209 0.7432
0.6010 0.8718 0.7435
0.5292 0.9171 0.7438
0.4540 0.9565 0.7441
0.3759 0.9897 0.7445
0.2953 1.0165 0.7448
0.2129 1.0368 0.7451
0.1290 1.0503 0.7454
0.0444 1.0571 0.7457
-0.0405 1.0571 0.7459
-0.1252 1.0502 0.7462
-0.2090 1.0366 0.7464
-0.2914 1.0162 0.7467
-0.3719 0.9893 0.7469
-0.4500 0.9561 0.7470
-0.5252 0.9166 0.7472
-0.5969 0.8713 0.7473
-0.6648 0.8203 0.7474
-0.7284 0.7641 0.7475
-2.1465 1.9168 2.0385
-2.2929 1.7377 2.0385
-2.4244 1.5475 2.0385
-2.5404 1.3474 2.0385
-2.6400 1.1387 2.0385
-2.7225 0.9228 2.0385
-2.7876 0.7009 2.0385
-2.8348 0.4746 2.0385
-2.8637 0.2453 2.0385
-2.8743 0.0144 2.0385
-2.8664 -0.2167 2.0385
-2.8401 -0.4463 2.0385
-2.7955 -0.6732 2.0385
-2.7329 -0.8958 2.0385
-2.6528 -1.1128 2.0385
-2.5556 -1.3227 2.0385
-2.4418 -1.5242 2.0385
-2.3124 -1.7159 2.0385
-2.1680 -1.8968 2.0385
-0.7336 -0.7541 0.7442
-0.6707 -0.8105 0.7438
-0.6035 -0.8618 0.7435
-0.5324 -0.9075 0.7432
-0.4579 -0.9473 0.7428
-0.3804 -0.9811 0.7425
-0.3005 -1.0086 0.7422
-0.2187 -1.0296 0.7419
-0.1355 -1.0439 0.7416
-0.0513 -1.0516 0.7413
0.0331 -1.0525 0.7411
0.1174 -1.0467 0.7408
0.2009 -1.0341 0.7406
0.2832 -1.0149 0.7403
0.3637 -0.9892 0.7401
0.4418 -0.9571 0.7400
0.5172 -0.9189 0.7398
0.5892 -0.8748 0.7397
0.6575 -0.8250 0.7396
0.7217 -0.7699 0.7395
0.7812 -0.7099 0.7394
2.3040 -1.7790 2.0385
2.4396 -1.5894 2.0385
2.5595 -1.3894 2.0385
2.6630 -1.1804 2.0385
2.7493 -0.9637 2.0385
2.8178 -0.7407 2.0385
2.8682 -0.5130 2.0385
2.9001 -0.2819 2.0385
2.9133 -0.0490 2.0385
2.9076 0.1842 2.0385
2.8832 0.4162 2.0385
2.8402 0.6454 2.0385
2.7789 0.8704 2.0385
2.6997 1.0897 2.0385
2.6031 1.3019 2.0385
2.4898 1.5056 2.0385
2.3605 1.6994 2.0385
2.2160 1.8822 2.0385
0.7496 0.7479 0.7427
0.6873 0.8055 0.7431
0.6206 0.8580 0.7434
0.5498 0.9049 0.7437
0.4756 0.9459 0.7441
0.3982 0.9809 0.7444
0.3183 1.0096 0.7447
0.2363 1.0317 0.7450
0.1528 1.0472 0.7453
0.0684 1.0559 0.7456
-0.0165 1.0578 0.7459
-0.1013 1.0528 0.7461
-0.1854 1.0411 0.7464
-0.2683 1.0227 0.7466
-0.3494 0.9976 0.7468
-0.4282 0.9661 0.7470
-0.5043 0.9284 0.7471
-0.5770 0.8847 0.7473
-0.6460 0.8353 0.7474
-0.7109 0.7805 0.7475
-0.7710 0.7207 0.7475
-2.2530 1.7895 2.0385
-2.3888 1.6023 2.0385
-2.5092 1.4048 2.0385
-2.6135 1.1984 2.0385
-2.7010 0.9844 2.0385
-2.7710 0.7641 2.0385
-2.8233 0.5390 2.0385
-2.8574 0.3103 2.0385
-2.8732 0.0797 2.0385
-2.8705 -0.1514 2.0385
-2.8494 -0.3817 2.0385
-2.8099 -0.6095 2.0385
-2.7524 -0.8334 2.0385
-2.6772 -1.0521 2.0385
-2.5847 -1.2641 2.0385
-2.4756 -1.4681 2.0385
-2.3505 -1.6628 2.0385
-2.2102 -1.8469 2.0385
-0.7505 -0.7372 0.7442
-0.6889 -0.7951 0.7439
-0.6229 -0.8478 0.7436
-0.5528 -0.8951 0.7433
-0.4793 -0.9367 0.7429
-0.4026 -0.9722 0.7426
-0.3233 -1.0015 0.7423
-0.2420 -1.0243 0.7420
-0.1591 -1.0406 0.7417
-0.0752 -1.0501 0.7414
0.0092 -1.0530 0.7411
0.0936 -1.0490 0.7409
0.1774 -1.0384 0.7406
0.2601 -1.0210 0.7404
0.3411 -0.9971 0.7402
0.4200 -0.9668 0.7400
0.4962 -0.9303 0.7398
0.5692 -0.8878 0.7397
0.6386 -0.8396 0.7396
0.7040 -0.7860 0.7395
0.7648 -0.7273 0.7394
2.2630 -1.8306 2.0385
2.4028 -1.6441 2.0385
2.5273 -1.4469 2.0385
2.6355 -1.2403 2.0385
2.7267 -1.0256 2.0385
2.8003 -0.8043 2.0385
2.8559 -0.5777 2.0385
2.8930 -0.3474 2.0385
2.9115 -0.1149 2.0385
2.9111 0.1184 2.0385
2.8920 0.3509 2.0385
2.8543 0.5810 2.0385
2.7981 0.8074 2.0385
2.7239 1.0284 2.0385
2.6321 1.2428 2.0385
2.5235 1.4490 2.0385
2.3986 1.6457 2.0385
2.2583 1.8317 2.0385
0.7664 0.7307 0.7427
0.7054 0.7898 0.7430
0.6399 0.8437 0.7433
0.5702 0.8922 0.7436
0.4969 0.9350 0.7440
0.4203 0.9717 0.7443
0.3411 1.0021 0.7446
0.2597 1.0261 0.7449
0.1765 1.0435 0.7452
0.0923 1.0541 0.7455
0.0075 1.0579 0.7458
-0.0774 1.0549 0.7461
-0.1617 1.0451 0.7463
-0.2450 1.0285 0.7465
-0.3267 1.0053 0.7467
-0.4062 0.9756 0.7469
-0.4831 0.9397 0.7471
-0.5568 0.8976 0.7472
-0.6270 0.8498 0.7474
-0.6930 0.7965 0.7475
-0.7545 0.7381 0.7475
-2.2119 1.8404 2.0385
-2.3520 1.6563 2.0385
-2.4768 1.4616 2.0385
-2.5857 1.2576 2.0385
-2.6780 1.0456 2.0385
-2.7530 0.8269 2.0385
-2.8104 0.6030 2.0385
-2.8496 0.3752 2.0385
-2.8706 0.1450 2.0385
-2.8731 -0.0861 2.0385
-2.8572 -0.3168 2.0385
-2.8229 -0.5454 2.0385
-2.7705 -0.7706 2.0385
-2.7002 -0.9909 2.0385
-2.6126 -1.2050 2.0385
-2.5081 -1.4114 2.0385
-2.3875 -1.6088 2.0385
-2.2514 -1.7960 2.0385
-0.7671 -0.7200 0.7443
-0.7068 -0.7792 0.7440
-0.6420 -0.8335 0.7437
-0.5730 -0.8824 0.7434
-0.5004 -0.9255 0.7430
-0.4245 -0.9628 0.7427
-0.3460 -0.9938 0.7424
-0.2652 -1.0185 0.7421
-0.1827 -1.0366 0.7418
-0.0990 -1.0481 0.7415
-0.0146 -1.0528 0.7412
0.0698 -1.0508 0.7409
0.1538 -1.0421 0.7407
0.2369 -1.0266 0.7405
0.3184 -1.0046 0.7402
0.3980 -0.9760 0.7401
0.4750 -0.9413 0.7399
0.5489 -0.9004 0.7397
0.6194 -0.8538 0.7396
0.6860 -0.8017 0.7395
0.7481 -0.7444 0.7395
2.2207 -1.8812 2.0385
2.3648 -1.6979 2.0385
2.4937 -1.5036 2.0385
2.6066 -1.2995 2.0385
2.7026 -1.0870 2.0385
2.7813 -0.8674 2.0385
2.8420 -0.6422 2.0385
2.8844 -0.4128 2.0385
2.9081 -0.1807 2.0385
2.9131 0.0525 2.0385
2.8993 0.2853 2.0385
2.8668 0.5163 2.0385
2.8158 0.7439 2.0385
2.7467 0.9666 2.0385
2.6598 1.1829 2.0385
2.5559 1.3916 2.0385
2.4355 1.5911 2.0385
2.2995 1.7803 2.0385
0.6305 0.7736 0.7432
0.5665 0.8215 0.7435
0.4988 0.8642 0.7438
0.4280 0.9013 0.7441
0.3543 0.9326 0.7444
0.2784 0.9579 0.7447
0.2007 0.9770 0.7450
0.1217 0.9898 0.7453
0.0420 0.9962 0.7455
-0.0380 0.9961 0.7458
-0.1178 0.9897 0.7460
-0.1968 0.9768 0.7463
-0.2745 0.9576 0.7465
-0.3504 0.9323 0.7467
-0.4240 0.9009 0.7468
-0.4948 0.8638 0.7470
-0.5624 0.8211 0.7471
-0.6264 0.7730 0.7472
-0.6863 0.7200 0.7473
-0.7417 0.6624 0.7473
-2.1611 1.6381 2.0385
-2.2852 1.4588 2.0385
-2.3945 1.2701 2.0385
-2.4884 1.0734 2.0385
-2.5663 0.8699 2.0385
-2.6276 0.6607 2.0385
-2.6721 0.4474 2.0385
-2.6994 0.2312 2.0385
-2.7093 0.0135 2.0385
-2.7019 -0.2043 2.0385
-2.6770 -0.4208 2.0385
-2.6350 -0.6347 2.0385
-2.5760 -0.8446 2.0385
-2.5004 -1.0491 2.0385
-2.4087 -1.2469 2.0385
-2.3015 -1.4368 2.0385
-2.1794 -1.6176 2.0385
-0.7462 -0.6530 0.7444
-0.6913 -0.7108 0.7441
-0.6320 -0.7640 0.7438
-0.5687 -0.8123 0.7435
-0.5017 -0.8554 0.7432
-0.4315 -0.8930 0.7429
-0.3585 -0.9248 0.7426
-0.2832 -0.9507 0.7423
-0.2060 -0.9705 0.7420
-0.1276 -0.9841 0.7417
-0.0483 -0.9913 0.7414
0.0314 -0.9922 0.7412
0.1108 -0.9867 0.7409
0.1895 -0.9748 0.7407
0.2671 -0.9567 0.7405
0.3429 -0.9325 0.7403
0.4166 -0.9022 0.7402
0.4876 -0.8662 0.7400
0.5556 -0.8246 0.7399
0.6199 -0.7777 0.7398
0.6804 -0.7258 0.7397
0.7365 -0.6692 0.7397
0.7878 -0.6082 0.7396
2.2991 -1.4977 2.0385
2.4121 -1.3092 2.0385
2.5096 -1.1122 2.0385
2.5909 -0.9081 2.0385
2.6555 -0.6980 2.0385
2.7029 -0.4834 2.0385
2.7330 -0.2656 2.0385
2.7454 -0.0462 2.0385
2.7401 0.1735 2.0385
2.7171 0.3921 2.0385
2.6766 0.6081 2.0385
2.6189 0.8201 2.0385
2.5442 1.0268 2.0385
2.4532 1.2267 2.0385
2.3465 1.4187 2.0385
2.2247 1.6013 2.0385
0.7607 0.6460 0.7425
0.7066 0.7048 0.7428
0.6478 0.7591 0.7431
0.5850 0.8085 0.7434
0.5183 0.8527 0.7437
0.4483 0.8914 0.7440
0.3754 0.9244 0.7443
0.3001 0.9514 0.7446
0.2228 0.9722 0.7449
0.1442 0.9868 0.7452
0.0646 0.9950 0.7455
-0.0154 0.9968 0.7457
-0.0953 0.9921 0.7460
-0.1746 0.9811 0.7462
-0.2527 0.9637 0.7464
-0.3291 0.9401 0.7466
-0.4034 0.9104 0.7468
-0.4751 0.8749 0.7469
-0.5437 0.8337 0.7471
