ply
format ascii 1.0
element vertex 2160
property float32 x
property float32 y
property float32 z
end_header
18.5114 -5.9656 2.0806
18.9752 -4.4750 2.0875
19.2982 -2.9453 2.0923
19.4767 -1.3910 2.0948
19.5089 0.1729 2.0951
19.3949 1.7311 2.0930
19.1470 3.2705 2.0899
18.7413 4.7721 2.0828
18.1076 6.1920 2.0629
17.2878 7.5067 2.0335
16.5339 8.8150 2.0233
15.6717 10.0445 2.0118
14.7107 11.1863 1.9989
13.6610 12.2328 1.9849
12.5331 13.1777 1.9699
11.3380 14.0159 1.9540
10.0868 14.7437 1.9373
8.7903 15.3584 1.9201
7.4596 15.8587 1.9025
6.1052 16.2443 1.8845
4.7864 16.6869 1.8858
3.7115 18.3875 2.0382
2.2267 18.6228 2.0382
0.7282 18.7398 2.0382
-0.7749 18.7378 2.0382
-2.2731 18.6169 2.0382
-3.7572 18.3778 2.0382
-5.2181 18.0220 2.0382
-6.6465 17.5515 2.0382
-8.0336 16.9692 2.0382
-9.3709 16.2785 2.0382
-10.6498 15.4836 2.0382
-11.8622 14.5894 2.0382
-13.0007 13.6012 2.0382
-14.0577 12.5251 2.0382
-15.0267 11.3676 2.0382
-15.9012 10.1358 2.0382
-16.6756 8.8372 2.0382
-17.3447 7.4800 2.0382
-17.9041 6.0726 2.0382
-18.3498 4.6238 2.0382
-18.6788 3.1425 2.0382
-18.8885 1.6384 2.0382
-18.9774 0.1208 2.0382
-18.9445 -1.4004 2.0382
-18.7896 -2.9157 2.0382
-18.5135 -4.4150 2.0382
-18.1176 -5.8886 2.0382
-17.6040 -7.3270 2.0382
-16.9759 -8.7207 2.0382
-16.2370 -10.0604 2.0382
-15.3918 -11.3373 2.0382
-14.4458 -12.5428 2.0382
-13.4048 -13.6689 2.0382
-12.2755 -14.7079 2.0382
-11.0652 -15.6529 2.0382
-9.7817 -16.4974 2.0382
-8.4334 -17.2357 2.0382
-7.0293 -17.8627 2.0382
-5.5785 -18.3741 2.0382
-4.0906 -18.7665 2.0382
-0.8854 -6.5442 0.7006
-0.3561 -6.5490 0.6958
0.1693 -6.5537 0.6955
0.6976 -6.5584 0.6997
3.5544 -18.8772 2.0382
4.6754 -17.1427 1.8858
6.0404 -16.7344 1.8887
7.4427 -16.3774 1.9104
7.6465 -13.7768 1.6740
10.1717 -15.2961 1.9526
11.4742 -14.5729 1.9727
12.7187 -13.7312 1.9919
13.8926 -12.7750 2.0100
4.1791 -3.2660 0.5653
15.9803 -10.5433 2.0420
16.8711 -9.2839 2.0557
17.6458 -7.9418 2.0675
18.2954 -6.5286 2.0773
18.8122 -5.0570 2.0851
19.1902 -3.5407 2.0907
19.4249 -1.9941 2.0941
19.5139 -0.4322 2.0952
19.4563 1.1300 2.0941
19.2533 2.6773 2.0907
18.9237 4.1985 2.0868
18.3774 5.6544 2.0719
17.6280 7.0132 2.0462
16.8388 8.3178 2.0274
16.0174 9.5789 2.0164
15.0935 10.7556 2.0040
14.0769 11.8398 1.9905
12.9779 12.8247 1.9758
11.8075 13.7047 1.9602
10.5767 14.4755 1.9438
9.2964 15.1342 1.9268
7.9777 15.6788 1.9093
6.6312 16.1087 1.8915
5.3021 16.5323 1.8858
4.0469 17.2699 1.9271
2.8032 18.5457 2.0382
1.3088 18.7086 2.0382
-0.1936 18.7527 2.0382
-1.6948 18.6778 2.0382
-3.1855 18.4843 2.0382
-4.6564 18.1734 2.0382
-6.0984 17.7469 2.0382
-7.5026 17.2074 2.0382
-8.8601 16.5582 2.0382
-10.1625 15.8031 2.0382
-11.4016 14.9467 2.0382
-12.5696 13.9942 2.0382
-13.6589 12.9514 2.0382
-14.1524 -5.0906 2.0382
-13.7092 -6.2118 2.0382
-13.1770 -7.2945 2.0382
-12.5590 -8.3317 2.0382
-11.8591 -9.3163 2.0382
-11.0818 -10.2419 2.0382
-10.2318 -11.1024 2.0382
-9.3148 -11.8919 2.0382
-8.3367 -12.6052 2.0382
-7.3037 -13.2376 2.0382
-6.2227 -13.7846 2.0382
-5.1007 -14.2428 2.0382
-3.9450 -14.6089 2.0382
-2.7633 -14.8804 2.0382
-0.6798 -6.5467 0.8863
-0.1528 -6.5514 0.8824
0.3729 -6.5562 0.8842
0.9043 -6.5610 0.8918
3.2599 -14.7789 2.0382
4.1004 -13.3859 1.8858
5.1575 -13.0113 1.8858
6.1960 -12.5838 1.8904
7.2424 -12.1460 1.9066
8.2553 -11.6169 1.9222
9.2258 -10.9986 1.9372
10.1451 -10.2940 1.9514
4.0763 -3.5218 0.7277
11.7958 -8.6438 1.9767
12.5110 -7.7092 1.9877
13.1427 -6.7107 1.9973
13.6845 -5.6562 2.0056
14.1306 -4.5543 2.0123
14.4763 -3.4146 2.0175
14.7181 -2.2468 2.0211
14.8533 -1.0613 2.0230
14.8809 0.1313 2.0232
14.8006 1.3205 2.0218
14.6138 2.4956 2.0187
14.3227 3.6465 2.0140
13.9310 4.7633 2.0077
13.4496 5.8395 2.0009
12.8572 6.8543 1.9897
12.1459 7.7842 1.9714
11.3829 8.6553 1.9553
10.5892 9.4817 1.9447
9.7330 10.2331 1.9333
8.8221 10.9052 1.9212
7.8643 11.4946 1.9084
6.8677 11.9988 1.8952
5.8534 12.4435 1.8858
4.8366 12.8685 1.8858
4.0002 13.9452 1.9905
2.9387 14.5584 2.0382
1.7631 14.7451 2.0382
0.5766 14.8380 2.0382
-0.6136 14.8365 2.0382
-1.7999 14.7406 2.0382
-2.9749 14.5508 2.0382
-4.1314 14.2684 2.0382
-5.2620 13.8950 2.0382
-6.3598 13.4329 2.0382
-7.4177 12.8850 2.0382
-8.4291 12.2545 2.0382
-9.3877 11.5454 2.0382
-10.2873 10.7620 2.0382
-11.1222 9.9090 2.0382
-11.8869 8.9919 2.0382
-12.5767 8.0161 2.0382
-13.1870 6.9879 2.0382
-13.7136 5.9136 2.0382
-14.1532 4.7999 2.0382
-14.5028 3.6539 2.0382
-14.7599 2.4827 2.0382
-14.9227 1.2938 2.0382
-14.9899 0.0949 2.0382
-14.9609 -1.1065 2.0382
-14.8356 -2.3026 2.0382
-14.6147 -3.4857 2.0382
-14.2993 -4.6481 2.0382
-13.8914 -5.7823 2.0382
-13.3932 -6.8808 2.0382
-12.8080 -7.9364 2.0382
-12.1393 -8.9421 2.0382
-11.3913 -9.8913 2.0382
-10.5688 -10.7776 2.0382
-9.6771 -11.5953 2.0382
-8.7219 -12.3387 2.0382
-7.7094 -13.0029 2.0382
-6.6461 -13.5834 2.0382
-5.5391 -14.0763 2.0382
-4.3955 -14.4783 2.0382
-3.2230 -14.7867 2.0382
-0.8854 -6.5449 0.8893
-0.3561 -6.5496 0.8832
0.1693 -6.5543 0.8828
0.6976 -6.5591 0.8882
2.8005 -14.8737 2.0382
3.7251 -13.6588 1.9069
4.7523 -13.1663 1.8858
5.7894 -12.7399 1.8858
6.8412 -12.3263 1.9004
7.8680 -11.8323 1.9163
8.8560 -11.2481 1.9315
9.7962 -10.5765 1.9460
10.6798 -9.8211 1.9596
4.1784 -3.2656 0.7167
12.2439 -8.0787 1.9836
12.9087 -7.1040 1.9938
13.4860 -6.0702 2.0026
13.9697 -4.9855 2.0099
14.3548 -3.8593 2.0157
14.6371 -2.7012 2.0199
14.8137 -1.5212 2.0224
14.8830 -0.3302 2.0233
14.8444 0.8616 2.0225
14.6986 2.0434 2.0201
14.4475 3.2049 2.0160
14.0942 4.3360 2.0103
13.6428 5.4272 2.0031
13.1018 6.4713 1.9950
12.4334 7.4350 1.9791
11.6716 8.3166 1.9592
10.9040 9.1706 1.9489
10.0711 9.9516 1.9378
9.1804 10.6549 1.9259
8.2398 11.2767 1.9134
7.2573 11.8140 1.9004
6.2409 12.2649 1.8869
5.2339 12.7137 1.8858
4.1978 13.0885 1.8858
3.3889 14.4612 2.0382
2.2195 14.6840 2.0382
1.0364 14.8133 2.0382
-0.1533 14.8483 2.0382
-1.3419 14.7888 2.0382
-2.5222 14.6353 2.0382
-3.6868 14.3885 2.0382
-4.8282 14.0501 2.0382
-5.9395 13.6220 2.0382
-7.0137 13.1069 2.0382
-8.0438 12.5079 2.0382
-9.0236 11.8288 2.0382
-9.9467 11.0735 2.0382
-10.8072 10.2469 2.0382
-11.6728 -4.1991 2.0382
-11.3059 -5.1233 2.0382
-10.8657 -6.0155 2.0382
-10.3549 -6.8699 2.0382
-9.7768 -7.6808 2.0382
-9.1349 -8.4431 2.0382
-8.4335 -9.1515 2.0382
-7.6771 -9.8014 2.0382
-6.8703 -10.3885 2.0382
-6.0187 -10.9089 2.0382
-5.1275 -11.3590 2.0382
-4.2028 -11.7359 2.0382
-3.2504 -12.0371 2.0382
-2.2767 -12.2604 2.0382
-0.6798 -6.5474 1.0758
-0.1528 -6.5521 1.0710
0.3729 -6.5568 1.0733
0.9043 -6.5616 1.0825
2.6859 -12.1769 2.0382
3.6515 -11.9209 2.0382
4.2497 -10.7214 1.8858
5.0930 -10.3441 1.8858
5.9019 -9.8983 1.8854
6.7176 -9.4535 1.8980
7.4972 -8.9382 1.9100
8.2337 -8.3550 1.9214
4.0755 -3.5213 0.8826
9.5521 -7.0001 1.9416
10.1218 -6.2374 1.9503
10.6244 -5.4253 1.9580
11.0551 -4.5698 1.9646
11.4097 -3.6778 1.9699
11.6847 -2.7565 1.9740
11.8775 -1.8136 1.9769
11.9862 -0.8569 1.9784
12.0099 0.1056 1.9786
11.9485 1.0656 1.9775
11.8029 2.0152 1.9751
11.5746 2.9464 1.9714
11.2663 3.8517 1.9665
10.8812 4.7239 1.9603
10.4232 5.5563 1.9531
9.8971 6.3425 1.9448
9.3079 7.0771 1.9355
8.6623 7.7559 1.9256
7.9599 8.3684 1.9136
7.2099 8.9119 1.9001
6.4355 9.4058 1.8898
5.6474 9.8662 1.8858
4.8377 10.2838 1.8858
3.9975 10.6355 1.8858
3.3854 11.8017 2.0382
2.4290 12.0331 2.0382
1.4574 12.1877 2.0382
0.4766 12.2646 2.0382
-0.5072 12.2634 2.0382
-1.4877 12.1839 2.0382
-2.4590 12.0268 2.0382
-3.4148 11.7930 2.0382
-4.3491 11.4839 2.0382
-5.2562 11.1015 2.0382
-6.1302 10.6480 2.0382
-6.9655 10.1263 2.0382
-7.7571 9.5395 2.0382
-8.4997 8.8914 2.0382
-9.1886 8.1859 2.0382
-9.8195 7.4275 2.0382
-10.3881 6.6207 2.0382
-10.8909 5.7707 2.0382
-11.3246 4.8829 2.0382
-11.6862 3.9628 2.0382
-11.9733 3.0161 2.0382
-12.1840 2.0489 2.0382
-12.3168 1.0674 2.0382
-12.3706 0.0778 2.0382
-12.3450 -0.9135 2.0382
-12.2401 -1.9002 2.0382
-12.0562 -2.8760 2.0382
-11.7946 -3.8344 2.0382
-11.4566 -4.7693 2.0382
-11.0445 -5.6745 2.0382
-10.5606 -6.5443 2.0382
-10.0081 -7.3727 2.0382
-9.3905 -8.1544 2.0382
-8.7116 -8.8842 2.0382
-7.9759 -9.5573 2.0382
-7.1880 -10.1692 2.0382
-6.3531 -10.7158 2.0382
-5.4765 -11.1934 2.0382
-4.5641 -11.5990 2.0382
-3.6216 -11.9297 2.0382
-2.6554 -12.1834 2.0382
-0.8855 -6.5456 1.0795
-0.3562 -6.5503 1.0721
0.1693 -6.5550 1.0716
0.6977 -6.5598 1.0781
2.3073 -12.2549 2.0382
3.2805 -12.0291 2.0382
3.9208 -10.8631 1.8882
4.7705 -10.4981 1.8858
5.5940 -10.0795 1.8858
6.4060 -9.6341 1.8932
7.2004 -9.1457 1.9055
7.9543 -8.5884 1.9171
8.6613 -7.9654 1.9280
4.1777 -3.2653 0.8692
9.9091 -6.5386 1.9471
10.4383 -5.7449 1.9552
10.8973 -4.9054 1.9622
11.2818 -4.0267 1.9680
11.5879 -3.1159 1.9726
11.8128 -2.1804 1.9759
11.9542 -1.2280 1.9780
12.0108 -0.2669 1.9787
11.9823 0.6951 1.9781
11.8691 1.6496 1.9762
11.6726 2.5889 1.9730
11.3949 3.5051 1.9685
11.0390 4.3910 1.9629
10.6087 5.2395 1.9560
10.1084 6.0442 1.9481
9.5429 6.7994 1.9392
8.9178 7.4998 1.9294
8.2394 8.1412 1.9189
7.4990 8.7031 1.9040
6.7393 9.2227 1.8939
5.9513 9.6877 1.8858
5.1547 10.1300 1.8858
4.3258 10.5074 1.8858
3.7500 11.6919 2.0382
2.8011 11.9526 2.0382
1.8346 12.1371 2.0382
0.8566 12.2441 2.0382
-0.1267 12.2731 2.0382
-1.1092 12.2239 2.0382
-2.0848 12.0968 2.0382
-3.0473 11.8925 2.0382
-3.9907 11.6123 2.0382
-4.9089 11.2580 2.0382
-5.7964 10.8317 2.0382
-6.6473 10.3360 2.0382
-7.4564 9.7740 2.0382
-8.2186 9.1491 2.0382
-8.9288 8.4654 2.0382
-9.9188 -3.5685 2.0382
-9.6061 -4.3530 2.0382
-9.2313 -5.1111 2.0382
-8.7967 -5.8365 2.0382
-8.3049 -6.5249 2.0382
-7.7591 -7.1719 2.0382
-7.1629 -7.7731 2.0382
-6.5200 -8.3246 2.0382
-5.8345 -8.8227 2.0382
-5.1110 -9.2641 2.0382
-4.3541 -9.6460 2.0382
-3.5687 -9.9656 2.0382
-2.7599 -10.2211 2.0382
-1.9331 -10.4105 2.0382
-0.6799 -6.5481 1.2671
-0.1529 -6.5528 1.2615
0.3730 -6.5575 1.2641
0.9044 -6.5623 1.2750
2.2805 -10.3396 2.0382
3.1005 -10.1225 2.0382
3.7585 -9.4826 1.9641
4.3248 -8.7842 1.8858
5.0128 -8.4076 1.8858
5.6681 -7.9769 1.8858
6.3048 -7.5170 1.8913
6.9182 -7.0205 1.9007
4.0747 -3.5207 1.0389
8.0137 -5.8730 1.9176
8.4861 -5.2298 1.9248
8.9027 -4.5464 1.9311
9.2594 -3.8279 1.9366
9.5530 -3.0797 1.9410
9.7809 -2.3078 1.9444
9.9410 -1.5183 1.9468
10.0317 -0.7175 1.9480
10.0524 0.0880 1.9482
10.0030 0.8917 1.9473
9.8840 1.6872 1.9454
9.6968 2.4680 1.9423
9.4432 3.2281 1.9383
9.1259 3.9615 1.9332
8.7478 4.6628 1.9272
8.3126 5.3268 1.9204
7.8244 5.9487 1.9127
7.2875 6.5246 1.9042
6.7067 7.0505 1.8951
6.0869 7.5235 1.8854
5.4640 7.9856 1.8858
4.8055 8.3950 1.8858
4.1257 8.7701 1.8899
3.6768 9.7817 2.0382
2.8811 10.0430 2.0382
2.0672 10.2402 2.0382
1.2403 10.3719 2.0382
0.4056 10.4374 2.0382
-0.4316 10.4363 2.0382
-1.2661 10.3687 2.0382
-2.0927 10.2348 2.0382
-2.9060 10.0356 2.0382
-3.7011 9.7723 2.0382
-4.4728 9.4465 2.0382
-5.2163 9.0602 2.0382
-5.9269 8.6159 2.0382
-6.6000 8.1162 2.0382
-7.2314 7.5643 2.0382
-7.8170 6.9636 2.0382
-8.3531 6.3179 2.0382
-8.8362 5.6312 2.0382
-9.2631 4.9078 2.0382
-9.6311 4.1522 2.0382
-9.9378 3.3695 2.0382
-10.1811 2.5642 2.0382
-10.3593 1.7417 2.0382
-10.4712 0.9071 2.0382
-10.5160 0.0658 2.0382
-10.4932 -0.7769 2.0382
-10.4030 -1.6154 2.0382
-10.2459 -2.4445 2.0382
-10.0226 -3.2587 2.0382
-9.7345 -4.0527 2.0382
-9.3835 -4.8216 2.0382
-8.9717 -5.5600 2.0382
-8.5017 -6.2633 2.0382
-7.9764 -6.9269 2.0382
-7.3993 -7.5462 2.0382
-6.7739 -8.1174 2.0382
-6.1044 -8.6366 2.0382
-5.3951 -9.1003 2.0382
-4.6505 -9.5055 2.0382
-3.8755 -9.8495 2.0382
-3.0752 -10.1300 2.0382
-2.2547 -10.3452 2.0382
-0.8855 -6.5462 1.2715
-0.3562 -6.5510 1.2627
0.1693 -6.5557 1.2622
0.6977 -6.5604 1.2698
1.9591 -10.4058 2.0382
2.7855 -10.2143 2.0382
3.5936 -9.9569 2.0382
4.0509 -8.9148 1.8858
4.7504 -8.5598 1.8858
5.4188 -8.1498 1.8858
6.0574 -7.6943 1.8875
6.6856 -7.2189 1.8971
7.2738 -6.6897 1.9062
4.1770 -3.2649 1.0230
8.3098 -5.4836 1.9221
8.7484 -4.8152 1.9288
9.1287 -4.1096 1.9346
9.4471 -3.3723 1.9394
9.7007 -2.6088 1.9432
9.8872 -1.8253 1.9460
10.0049 -1.0282 1.9477
10.0527 -0.2237 1.9483
10.0304 0.5814 1.9478
9.9382 1.3809 1.9463
9.7772 2.1681 1.9436
9.5490 2.9369 1.9400
9.2560 3.6814 1.9353
8.9010 4.3957 1.9297
8.4875 5.0747 1.9231
8.0192 5.7134 1.9157
7.5006 6.3075 1.9076
6.9362 6.8532 1.8987
6.3309 7.3471 1.8893
5.7096 7.8133 1.8858
5.0640 8.2429 1.8858
4.3864 8.6197 1.8858
3.9484 9.5903 2.0227
3.1913 9.9495 2.0382
2.3838 10.1716 2.0382
1.5614 10.3287 2.0382
0.7291 10.4199 2.0382
-0.1078 10.4447 2.0382
-0.9440 10.4027 2.0382
-1.7743 10.2944 2.0382
-2.5933 10.1204 2.0382
-3.3960 9.8817 2.0382
-4.1774 9.5798 2.0382
-4.9324 9.2167 2.0382
-5.6562 8.7945 2.0382
-6.3443 8.3158 2.0382
-6.9924 7.7837 2.0382
-7.5961 7.2015 2.0382
-8.6107 -3.0983 2.0382
-8.3387 -3.7794 2.0382
-8.0129 -4.4368 2.0382
-7.6351 -5.0662 2.0382
-7.2079 -5.6634 2.0382
-6.7338 -6.2245 2.0382
-6.2161 -6.7463 2.0382
-5.6579 -7.2242 2.0382
-5.0629 -7.6561 2.0382
-4.4349 -8.0389 2.0382
-3.7779 -8.3700 2.0382
-3.0964 -8.6471 2.0382
-2.3946 -8.8685 2.0382
-1.6772 -9.0328 2.0382
-0.6799 -6.5487 1.4605
-0.1529 -6.5535 1.4541
0.3730 -6.5582 1.4571
0.9044 -6.5630 1.4697
1.9787 -8.9713 2.0382
2.6901 -8.7831 2.0382
3.3840 -8.5382 2.0382
3.7885 -7.6949 1.9038
4.3497 -7.2957 1.8858
4.9185 -6.9223 1.8858
5.4552 -6.5044 1.8858
5.9565 -6.0449 1.8858
4.0739 -3.5202 1.1968
6.8915 -5.0509 1.9000
7.2944 -4.4957 1.9062
7.6494 -3.9068 1.9116
7.9533 -3.2883 1.9162
8.2035 -2.6450 1.9200
8.3977 -1.9818 1.9229
8.5343 -1.3038 1.9249
8.6120 -0.6163 1.9260
8.6303 0.0752 1.9262
8.5891 0.7653 1.9254
8.4888 1.4487 1.9237
8.3304 2.1199 1.9212
8.1156 2.7739 1.9177
7.8463 3.4057 1.9134
7.5250 4.0107 1.9083
7.1546 4.5844 1.9025
6.7386 5.1229 1.8960
6.2804 5.6226 1.8888
5.7987 6.0957 1.8858
5.2902 6.5384 1.8858
4.7481 6.9391 1.8858
4.1761 7.2951 1.8858
3.8667 8.2191 2.0382
3.1954 8.5007 2.0382
2.5039 8.7280 2.0382
1.7966 8.8995 2.0382
1.0780 9.0141 2.0382
0.3525 9.0711 2.0382
-0.3751 9.0701 2.0382
-1.1004 9.0113 2.0382
-1.8188 8.8949 2.0382
-2.5256 8.7216 2.0382
-3.2165 8.4926 2.0382
-3.8871 8.2092 2.0382
-4.5331 7.8733 2.0382
-5.1504 7.4868 2.0382
-5.7351 7.0523 2.0382
-6.2835 6.5724 2.0382
-6.7920 6.0502 2.0382
-7.2574 5.4888 2.0382
-7.6767 4.8919 2.0382
-8.0471 4.2632 2.0382
-8.3663 3.6067 2.0382
-8.6322 2.9265 2.0382
-8.8429 2.2269 2.0382
-8.9970 1.5123 2.0382
-9.0936 0.7874 2.0382
-9.1319 0.0568 2.0382
-9.1115 -0.6749 2.0382
-9.0325 -1.4030 2.0382
-8.8954 -2.1227 2.0382
-8.7010 -2.8294 2.0382
-8.4504 -3.5185 2.0382
-8.1452 -4.1856 2.0382
-7.7872 -4.8263 2.0382
-7.3788 -5.4364 2.0382
-6.9226 -6.0120 2.0382
-6.4213 -6.5492 2.0382
-5.8783 -7.0446 2.0382
-5.2971 -7.4948 2.0382
-4.6814 -7.8969 2.0382
-4.0352 -8.2482 2.0382
-3.3626 -8.5464 2.0382
-2.6682 -8.7896 2.0382
-1.9562 -8.9761 2.0382
-0.8856 -6.5469 1.4656
-0.3562 -6.5516 1.4555
0.1693 -6.5564 1.4548
0.6978 -6.5611 1.4637
1.6998 -9.0286 2.0382
2.4168 -8.8626 2.0382
3.1180 -8.6395 2.0382
3.7612 -8.2777 2.0179
4.1219 -7.4277 1.8858
4.7021 -7.0722 1.8858
5.2517 -6.6712 1.8858
5.7670 -6.2273 1.8858
6.2600 -5.7576 1.8903
4.1762 -3.2645 1.1786
7.1441 -4.7147 1.9039
7.5180 -4.1383 1.9096
7.8420 -3.5307 1.9145
8.1133 -2.8964 1.9186
8.3293 -2.2403 1.9219
8.4884 -1.5674 1.9242
8.5890 -0.8830 1.9257
8.6303 -0.1924 1.9262
8.6121 0.4989 1.9258
8.5345 1.1855 1.9245
8.3985 1.8620 1.9223
8.2052 2.5233 1.9192
7.9567 3.1643 1.9152
7.6552 3.7801 1.9104
7.3035 4.3664 1.9049
6.9047 4.9190 1.8986
6.4624 5.4341 1.8916
5.9857 5.9137 1.8858
5.4910 6.3720 1.8858
4.9616 6.7892 1.8858
4.4007 7.1629 1.8858
3.9424 7.7468 1.9503
3.4577 8.3981 2.0382
2.7735 8.6466 2.0382
2.0718 8.8398 2.0382
1.3570 8.9765 2.0382
0.6336 9.0559 2.0382
-0.0937 9.0774 2.0382
-0.8205 9.0409 2.0382
-1.5420 8.9467 2.0382
-2.2539 8.7953 2.0382
-2.9515 8.5877 2.0382
-3.6304 8.3252 2.0382
-4.2864 8.0093 2.0382
-4.9153 7.6421 2.0382
-5.5131 7.2259 2.0382
-6.0759 6.7632 2.0382
-6.6002 6.2570 2.0382
-7.5962 -2.7335 2.0382
-7.3559 -3.3343 2.0382
-7.0681 -3.9140 2.0382
-6.7346 -4.4689 2.0382
-6.3575 -4.9955 2.0382
-5.9391 -5.4902 2.0382
-5.4822 -5.9499 2.0382
-4.9898 -6.3714 2.0382
-4.4649 -6.7521 2.0382
-3.9109 -7.0895 2.0382
-3.3315 -7.3813 2.0382
-2.7304 -7.6255 2.0382
-2.1116 -7.8206 2.0382
-1.4789 -7.9653 2.0382
-0.6800 -6.5494 1.6564
-0.1529 -6.5541 1.6492
0.3730 -6.5589 1.6526
0.9045 -6.5637 1.6668
1.7448 -7.9112 2.0382
2.3722 -7.7453 2.0382
2.9841 -7.5295 2.0382
3.5766 -7.2652 2.0382
3.8359 -6.4340 1.8858
4.3376 -6.1050 1.8858
4.8111 -5.7367 1.8858
5.2534 -5.3316 1.8858
3.9769 -3.4366 1.3246
4.3780 -3.2089 1.3685
6.3863 -3.9363 1.8920
6.6950 -3.4196 1.8967
6.9593 -2.8776 1.9007
7.1768 -2.3142 1.9040
7.3457 -1.7338 1.9065
7.4646 -1.1407 1.9083
7.5325 -0.5393 1.9092
7.5489 0.0655 1.9094
7.5136 0.6692 1.9087
7.4271 1.2672 1.9073
7.2902 1.8549 1.9051
7.1041 2.4279 1.9021
6.8707 2.9820 1.8984
6.5919 3.5130 1.8939
6.2701 4.0173 1.8889
5.9164 4.4976 1.8858
5.5354 4.9553 1.8858
5.1191 5.3810 1.8858
4.6704 5.7721 1.8858
4.1920 6.1260 1.8858
3.9226 6.8521 2.0062
3.4140 7.2565 2.0382
2.8213 7.5053 2.0382
2.2108 7.7061 2.0382
1.5863 7.8576 2.0382
0.9518 7.9589 2.0382
0.3113 8.0093 2.0382
-0.3312 8.0084 2.0382
-0.9716 7.9564 2.0382
-1.6059 7.8536 2.0382
-2.2300 7.7005 2.0382
-2.8400 7.4981 2.0382
-3.4320 7.2478 2.0382
-4.0023 6.9510 2.0382
-4.5472 6.6096 2.0382
-5.0632 6.2258 2.0382
-5.5472 5.8019 2.0382
-5.9959 5.3407 2.0382
-6.4064 4.8449 2.0382
-6.7763 4.3178 2.0382
-7.1029 3.7627 2.0382
-7.3843 3.1831 2.0382
-7.6185 2.5825 2.0382
-7.8041 1.9650 2.0382
-7.9398 1.3343 2.0382
-8.0245 0.6945 2.0382
-8.0579 0.0498 2.0382
-8.0395 -0.5958 2.0382
-7.9694 -1.2381 2.0382
-7.8480 -1.8730 2.0382
-7.6761 -2.4964 2.0382
-7.4546 -3.1042 2.0382
-7.1850 -3.6925 2.0382
-6.8689 -4.2575 2.0382
-6.5084 -4.7954 2.0382
-6.1056 -5.3029 2.0382
-5.6633 -5.7764 2.0382
-5.1843 -6.2131 2.0382
-4.6715 -6.6099 2.0382
-4.1284 -6.9643 2.0382
-3.5584 -7.2740 2.0382
-2.9653 -7.5368 2.0382
-2.3528 -7.7511 2.0382
-1.7250 -7.9154 2.0382
-0.8856 -6.5476 1.6622
-0.3562 -6.5523 1.6507
0.1693 -6.5570 1.6500
0.6978 -6.5618 1.6600
1.4988 -7.9617 2.0382
2.1311 -7.8154 2.0382
2.7495 -7.6188 2.0382
3.3500 -7.3730 2.0382
3.7864 -6.8235 1.9643
4.1467 -6.2371 1.8858
4.6315 -5.8837 1.8858
5.0862 -5.4925 1.8858
5.5079 -5.0661 1.8858
4.0934 -3.2000 1.3097
6.2555 -4.1286 1.8900
6.5807 -3.6227 1.8949
6.8625 -3.0900 1.8992
7.0983 -2.5344 1.9028
7.2863 -1.9601 1.9056
7.4247 -1.3713 1.9077
7.5124 -0.7726 1.9089
7.5487 -0.1686 1.9094
7.5334 0.4361 1.9091
7.4666 1.0369 1.9079
7.3490 1.6291 1.9060
7.1818 2.2083 1.9033
6.9665 2.7702 1.8999
6.7049 3.3106 1.8957
6.3995 3.8257 1.8909
6.0528 4.3118 1.8854
5.6871 4.7819 1.8858
5.2841 5.2204 1.8858
4.8476 5.6251 1.8858
4.3804 5.9937 1.8858
3.9357 6.4057 1.9102
3.6376 7.1476 2.0382
3.0529 7.4147 2.0382
2.4489 7.6342 2.0382
1.8293 7.8049 2.0382
1.1982 7.9257 2.0382
0.5595 7.9958 2.0382
-0.0827 8.0148 2.0382
-0.7244 7.9826 2.0382
-1.3616 7.8994 2.0382
-1.9901 7.7656 2.0382
-2.6060 7.5822 2.0382
-3.2054 7.3502 2.0382
-3.7845 7.0712 2.0382
-4.3396 6.7468 2.0382
-4.8673 6.3791 2.0382
-5.3640 5.9705 2.0382
-5.8267 5.5234 2.0382
-6.7853 -2.4420 2.0382
-6.5704 -2.9785 2.0382
-6.3131 -3.4962 2.0382
-6.0150 -3.9917 2.0382
-5.6779 -4.4618 2.0382
-5.3041 -4.9035 2.0382
-4.8960 -5.3139 2.0382
-4.4560 -5.6902 2.0382
-3.9872 -6.0300 2.0382
-3.4924 -6.3311 2.0382
-2.9750 -6.5915 2.0382
-2.4382 -6.8095 2.0382
-1.8855 -6.9837 2.0382
-1.3206 -7.1128 2.0382
-0.7471 -7.1961 2.0382
-0.1529 -6.5548 1.8471
0.3730 -6.5596 1.8509
0.9876 -7.1670 2.0382
1.5580 -7.0645 2.0382
2.1182 -6.9164 2.0382
2.6647 -6.7239 2.0382
3.1939 -6.4879 2.0382
3.7023 -6.2103 2.0382
3.8735 -5.4521 1.8858
4.2965 -5.1234 1.8858
4.6916 -4.7617 1.8858
3.9576 -3.4201 1.4760
4.3398 -3.1812 1.5188
5.6852 -3.5044 1.8858
5.9429 -3.0357 1.8849
6.1763 -2.5541 1.8885
6.3684 -2.0538 1.8914
6.5176 -1.5386 1.8936
6.6227 -1.0122 1.8952
6.6828 -0.4788 1.8960
6.6976 0.0578 1.8961
6.6669 0.5936 1.8956
6.5910 1.1243 1.8943
6.4706 1.6461 1.8924
6.3069 2.1552 1.8897
6.1012 2.6477 1.8865
5.8653 3.1256 1.8858
5.5942 3.5840 1.8858
5.2875 4.0193 1.8858
4.9472 4.4285 1.8858
4.5753 4.8091 1.8858
4.1743 5.1588 1.8858
3.9172 5.7241 1.9715
3.5619 6.2218 2.0382
3.0516 6.4859 2.0382
2.5219 6.7084 2.0382
1.9762 6.8880 2.0382
1.4180 7.0235 2.0382
0.8508 7.1141 2.0382
0.2783 7.1592 2.0382
-0.2961 7.1584 2.0382
-0.8685 7.1119 2.0382
-1.4355 7.0199 2.0382
-1.9934 6.8830 2.0382
-2.5386 6.7020 2.0382
-3.0677 6.4782 2.0382
-3.5774 6.2128 2.0382
-4.0643 5.9075 2.0382
-4.5255 5.5643 2.0382
-4.9579 5.1853 2.0382
-5.3587 4.7729 2.0382
-5.7255 4.3297 2.0382
-6.0558 3.8586 2.0382
-6.3475 3.3622 2.0382
-6.5987 2.8441 2.0382
-6.8077 2.3074 2.0382
-6.9732 1.7555 2.0382
-7.0941 1.1919 2.0382
-7.1696 0.6203 2.0382
-7.1991 0.0442 2.0382
-7.1823 -0.5325 2.0382
-7.1194 -1.1063 2.0382
-7.0106 -1.6734 2.0382
-6.8568 -2.2302 2.0382
-6.6587 -2.7730 2.0382
-6.4176 -3.2984 2.0382
-6.1350 -3.8029 2.0382
-5.8128 -4.2832 2.0382
-5.4529 -4.7362 2.0382
-5.0578 -5.1590 2.0382
-4.6298 -5.5488 2.0382
-4.1718 -5.9031 2.0382
-3.6867 -6.2194 2.0382
-3.1776 -6.4958 2.0382
-2.6479 -6.7303 2.0382
-2.1009 -6.9216 2.0382
-1.5403 -7.0683 2.0382
-0.9697 -7.1694 2.0382
-0.3563 -6.5530 1.8488
0.1693 -6.5577 1.8480
0.7650 -7.1943 2.0382
1.3384 -7.1096 2.0382
1.9030 -6.9790 2.0382
2.4552 -6.8035 2.0382
2.9915 -6.5842 2.0382
3.5083 -6.3225 2.0382
3.8031 -5.7206 1.9367
4.1361 -5.2545 1.8858
4.5423 -4.9053 1.8858
4.9190 -4.5247 1.8858
4.0672 -3.1797 1.4570
5.5746 -3.6794 1.8858
5.8493 -3.2203 1.8858
6.0908 -2.7428 1.8872
6.2991 -2.2493 1.8903
6.4650 -1.7394 1.8928
6.5873 -1.2169 1.8946
6.6650 -0.6857 1.8958
6.6973 -0.1498 1.8962
6.6841 0.3867 1.8959
6.6256 0.9199 1.8949
6.5224 1.4456 1.8932
6.3752 1.9601 1.8908
6.1856 2.4594 1.8878
5.9551 2.9401 1.8841
5.7034 3.4093 1.8858
5.4103 3.8538 1.8858
5.0827 4.2734 1.8858
4.7227 4.6654 1.8858
4.3327 5.0274 1.8858
3.9332 5.3815 1.8944
3.7534 6.1088 2.0382
3.2515 6.3886 2.0382
2.7289 6.6274 2.0382
2.1890 6.8237 2.0382
1.6352 6.9764 2.0382
1.0711 7.0844 2.0382
0.5001 7.1472 2.0382
-0.0740 7.1641 2.0382
-0.6476 7.1353 2.0382
-1.2171 7.0609 2.0382
-1.7789 6.9412 2.0382
-2.3294 6.7772 2.0382
-2.8652 6.5698 2.0382
-3.3827 6.3202 2.0382
-3.8788 6.0302 2.0382
-4.3503 5.7014 2.0382
-4.7942 5.3360 2.0382
-5.2076 4.9362 2.0382
-6.1214 -2.2033 2.0382
-5.9273 -2.6872 2.0382
-5.6950 -3.1541 2.0382
-5.4259 -3.6010 2.0382
-5.1217 -4.0250 2.0382
-4.7844 -4.4233 2.0382
-4.4161 -4.7933 2.0382
-4.0192 -5.1326 2.0382
-3.5962 -5.4390 2.0382
-3.1499 -5.7105 2.0382
-2.6832 -5.9453 2.0382
-2.1990 -6.1418 2.0382
-1.7005 -6.2988 2.0382
-1.1910 -6.4152 2.0382
-0.6738 -6.4903 2.0382
-0.1521 -6.5236 2.0382
0.3705 -6.5148 2.0382
0.8907 -6.4641 2.0382
1.4051 -6.3716 2.0382
1.9104 -6.2381 2.0382
2.4033 -6.0645 2.0382
2.8806 -5.8519 2.0382
3.3392 -5.6015 2.0382
3.7761 -5.3152 2.0382
3.8753 -4.6213 1.8858
4.2318 -4.2953 1.8858
3.9381 -3.4036 1.6283
4.3106 -3.1599 1.6724
5.1285 -3.1615 1.8858
5.3634 -2.7399 1.8858
5.5638 -2.3010 1.8858
5.7282 -1.8476 1.8858
5.8557 -1.3825 1.8858
5.9417 -0.9084 1.8846
5.9957 -0.4298 1.8853
6.0091 0.0517 1.8855
5.9819 0.5323 1.8850
5.9205 1.0097 1.8858
5.8186 1.4800 1.8858
5.6794 1.9405 1.8858
5.5039 2.3883 1.8858
5.2932 2.8205 1.8858
5.0488 3.2343 1.8858
4.7721 3.6272 1.8858
4.4650 3.9967 1.8858
4.1295 4.3403 1.8858
3.9104 4.8324 1.9572
3.6553 5.3411 2.0382
3.2151 5.6157 2.0382
2.7545 5.8542 2.0382
2.2764 6.0552 2.0382
1.7839 6.2173 2.0382
1.2800 6.3397 2.0382
0.7680 6.4215 2.0382
0.2512 6.4622 2.0382
-0.2673 6.4615 2.0382
-0.7840 6.4195 2.0382
-1.2958 6.3365 2.0382
-1.7993 6.2128 2.0382
-2.2914 6.0494 2.0382
-2.7690 5.8472 2.0382
-3.2290 5.6076 2.0382
-3.6685 5.3319 2.0382
-4.0846 5.0220 2.0382
-4.4748 4.6798 2.0382
-4.8365 4.3075 2.0382
-5.1674 3.9074 2.0382
-5.4653 3.4820 2.0382
-5.7284 3.0341 2.0382
-5.9549 2.5664 2.0382
-6.1434 2.0820 2.0382
-6.2925 1.5839 2.0382
-6.4014 1.0753 2.0382
-6.4693 0.5594 2.0382
-6.4956 0.0397 2.0382
-6.4803 -0.4808 2.0382
-6.4233 -0.9984 2.0382
-6.3249 -1.5100 2.0382
-6.1859 -2.0123 2.0382
-6.0070 -2.5019 2.0382
-5.7893 -2.9757 2.0382
-5.5342 -3.4307 2.0382
-5.2434 -3.8639 2.0382
-4.9187 -4.2724 2.0382
-4.5621 -4.6537 2.0382
-4.1759 -5.0052 2.0382
-3.7627 -5.3245 2.0382
-3.3251 -5.6098 2.0382
-2.8659 -5.8589 2.0382
-2.3881 -6.0704 2.0382
-1.8948 -6.2428 2.0382
-1.3892 -6.3751 2.0382
-0.8746 -6.4662 2.0382
-0.3542 -6.5157 2.0382
0.1684 -6.5232 2.0382
0.6900 -6.4887 2.0382
1.2071 -6.4123 2.0382
1.7163 -6.2946 2.0382
2.2144 -6.1364 2.0382
2.6981 -5.9387 2.0382
3.1642 -5.7027 2.0382
3.6099 -5.4301 2.0382
3.8140 -4.8456 1.9279
4.0971 -4.4248 1.8858
3.9328 -3.6178 1.6715
4.0409 -3.1593 1.6049
5.0286 -3.3193 1.8858
5.2766 -2.9052 1.8858
5.4905 -2.4727 1.8858
5.6689 -2.0245 1.8858
5.8108 -1.5636 1.8858
5.9153 -1.0930 1.8858
5.9796 -0.6154 1.8851
6.0087 -0.1346 1.8855
5.9972 0.3467 1.8852
5.9453 0.8251 1.8843
5.8624 1.2991 1.8858
5.7376 1.7638 1.8858
5.5760 2.2168 1.8858
5.3788 2.6554 1.8858
5.1472 3.0766 1.8858
4.8828 3.4779 1.8858
4.5873 3.8567 1.8858
4.2625 4.2106 1.8858
3.9258 4.5550 1.8931
3.8195 5.2257 2.0382
3.3879 5.5137 2.0382
2.9349 5.7663 2.0382
2.4632 5.9820 2.0382
1.9759 6.1593 2.0382
1.4760 6.2971 2.0382
0.9668 6.3947 2.0382
0.4515 6.4513 2.0382
-0.0668 6.4667 2.0382
-0.5845 6.4406 2.0382
-1.0986 6.3734 2.0382
-1.6057 6.2654 2.0382
-2.1027 6.1173 2.0382
-2.5862 5.9299 2.0382
-3.0534 5.7046 2.0382
-3.5011 5.4427 2.0382
-3.9266 5.1458 2.0382
-4.3271 4.8159 2.0382
-4.7001 4.4549 2.0382
-5.5669 -2.0040 2.0382
-5.3903 -2.4440 2.0382
-5.1789 -2.8685 2.0382
-4.9341 -3.2748 2.0382
-4.6573 -3.6603 2.0382
-4.3505 -4.0224 2.0382
-4.0155 -4.3587 2.0382
-3.6545 -4.6672 2.0382
-3.2699 -4.9457 2.0382
-2.8640 -5.1925 2.0382
-2.4396 -5.4059 2.0382
-0.7231 -2.0198 0.7372
-1.5461 -5.7272 2.0382
-1.0829 -5.8330 2.0382
-0.6126 -5.9013 2.0382
-0.1383 -5.9315 2.0382
0.3368 -5.9235 2.0382
0.8098 -5.8774 2.0382
1.2776 -5.7934 2.0382
1.7370 -5.6721 2.0382
2.1852 -5.5142 2.0382
2.6192 -5.3209 2.0382
3.0362 -5.0934 2.0382
3.4335 -4.8332 2.0382
3.7980 -4.5293 2.0325
3.8480 -3.9059 1.8858
3.9186 -3.3868 1.7818
4.2812 -3.1386 1.8267
4.6636 -2.8752 1.8858
4.8774 -2.4919 1.8858
5.0597 -2.0928 1.8858
5.2094 -1.6805 1.8858
5.3255 -1.2576 1.8858
5.4073 -0.8269 1.8858
5.4544 -0.3912 1.8858
5.4664 0.0468 1.8858
5.4433 0.4842 1.8858
5.3852 0.9182 1.8858
5.2927 1.3460 1.8858
5.1662 1.7650 1.8858
5.0067 2.1723 1.8858
4.8152 2.5656 1.8858
4.5930 2.9421 1.8858
4.3414 3.2996 1.8858
4.0716 3.6443 1.8902
3.9024 4.1014 1.9588
3.7049 4.5781 2.0382
3.3256 4.8592 2.0382
2.9252 5.1091 2.0382
2.5062 5.3261 2.0382
2.0712 5.5091 2.0382
1.6231 5.6567 2.0382
1.1646 5.7681 2.0382
0.6988 5.8425 2.0382
0.2285 5.8795 2.0382
-0.2432 5.8789 2.0382
-0.7133 5.8407 2.0382
-1.1790 5.7651 2.0382
-1.6371 5.6525 2.0382
-2.0849 5.5038 2.0382
-2.5194 5.3198 2.0382
-2.9379 5.1017 2.0382
-3.3377 4.8508 2.0382
-3.7162 4.5688 2.0382
-4.0711 4.2574 2.0382
-4.4001 3.9186 2.0382
-4.7010 3.5545 2.0382
-4.9719 3.1674 2.0382
-5.2111 2.7599 2.0382
-5.4170 2.3344 2.0382
-5.5883 1.8936 2.0382
-5.7238 1.4405 2.0382
-5.8227 0.9778 2.0382
-5.8842 0.5086 2.0382
-5.9080 0.0358 2.0382
-5.8939 -0.4375 2.0382
-5.8419 -0.9083 2.0382
-5.7523 -1.3735 2.0382
-5.6257 -1.8303 2.0382
-5.4628 -2.2755 2.0382
-5.2647 -2.7063 2.0382
-5.0326 -3.1200 2.0382
-4.7680 -3.5138 2.0382
-4.4726 -3.8853 2.0382
-4.1483 -4.2318 2.0382
-3.7971 -4.5513 2.0382
-3.4213 -4.8416 2.0382
-3.0234 -5.1009 2.0382
-2.6058 -5.3274 2.0382
-0.7854 -1.9965 0.7372
-1.7228 -5.6763 2.0382
-1.2631 -5.7965 2.0382
-0.7951 -5.8793 2.0382
-0.3220 -5.9243 2.0382
0.1531 -5.9311 2.0382
0.6273 -5.8997 2.0382
1.0975 -5.8303 2.0382
1.5605 -5.7234 2.0382
0.7282 -2.0181 0.7372
2.4531 -5.3998 2.0382
2.8771 -5.1854 2.0382
3.2823 -4.9376 2.0382
3.6663 -4.6582 2.0382
3.8205 -4.1263 1.9339
3.9056 -3.5930 1.8255
4.0145 -3.1389 1.7533
4.5728 -3.0187 1.8858
4.7984 -2.6421 1.8858
4.9930 -2.2489 1.8858
5.1555 -1.8413 1.8858
5.2846 -1.4222 1.8858
5.3798 -0.9943 1.8858
5.4403 -0.5601 1.8858
5.4659 -0.1227 1.8858
5.4563 0.3152 1.8858
5.4118 0.7509 1.8858
5.3325 1.1814 1.8858
5.2191 1.6042 1.8858
5.0723 2.0163 1.8858
4.8930 2.4153 1.8858
4.6825 2.7986 1.8858
4.4421 3.1637 1.8858
4.1733 3.5084 1.8858
3.9105 3.8627 1.9016
3.8454 4.4614 2.0382
3.4750 4.7541 2.0382
3.0824 5.0162 2.0382
2.6703 5.2462 2.0382
2.2412 5.4424 2.0382
1.7978 5.6038 2.0382
1.3430 5.7293 2.0382
0.8797 5.8181 2.0382
0.4108 5.8696 2.0382
-0.0607 5.8836 2.0382
-0.5319 5.8599 2.0382
-0.9996 5.7987 2.0382
-1.4610 5.7004 2.0382
-1.9131 5.5656 2.0382
-2.3531 5.3951 2.0382
-2.7781 5.1900 2.0382
-3.1854 4.9516 2.0382
-3.5725 4.6815 2.0382
-3.9368 4.3812 2.0382
-4.2760 4.0528 2.0382
-5.0963 -1.8348 2.0382
-4.9345 -2.2375 2.0382
-4.7408 -2.6261 2.0382
-4.5166 -2.9980 2.0382
-4.2632 -3.3508 2.0382
-3.9823 -3.6821 2.0382
-3.6756 -3.9900 2.0382
-3.3451 -4.2722 2.0382
-2.9930 -4.5271 2.0382
-2.6215 -4.7529 2.0382
-2.2330 -4.9482 2.0382
-0.6624 -1.8501 0.7377
-0.5121 -1.8970 0.7376
-0.3586 -1.9318 0.7374
-0.2028 -1.9542 0.7374
-0.0458 -1.9641 0.7373
0.1115 -1.9615 0.7374
0.2682 -1.9463 0.7374
0.4231 -1.9187 0.7375
0.5754 -1.8789 0.7376
0.7240 -1.8270 0.7378
2.3973 -4.8704 2.0382
2.7790 -4.6623 2.0382
3.1427 -4.4241 2.0382
3.4861 -4.1576 2.0382
3.8042 -3.8617 2.0367
3.8344 -3.3143 1.9047
4.0457 -2.9662 1.8858
4.2691 -2.6321 1.8858
4.4649 -2.2813 1.8858
4.6319 -1.9160 1.8858
4.7690 -1.5386 1.8858
4.8754 -1.1515 1.8858
4.9505 -0.7573 1.8858
4.9936 -0.3584 1.8858
5.0048 0.0426 1.8858
4.9837 0.4431 1.8858
4.9307 0.8405 1.8858
4.8461 1.2322 1.8858
4.7304 1.6159 1.8858
4.5845 1.9889 1.8858
4.4092 2.3491 1.8858
4.2058 2.6939 1.8858
3.9755 3.0213 1.8858
3.8932 3.4844 1.9736
3.7185 3.9079 2.0382
3.3928 4.1923 2.0382
3.0456 4.4498 2.0382
2.6789 4.6787 2.0382
2.2952 4.8775 2.0382
0.6973 1.8547 0.7493
0.5466 1.9048 0.7494
0.3923 1.9426 0.7496
0.2354 1.9679 0.7496
0.2093 5.3845 2.0382
-0.2227 5.3839 2.0382
-0.2403 1.9673 0.7496
-0.3971 1.9416 0.7495
-0.5513 1.9034 0.7494
-0.7019 1.8529 0.7493
-2.3073 4.8717 2.0382
-2.6905 4.6719 2.0382
-3.0566 4.4421 2.0382
-3.4032 4.1838 2.0382
-3.7282 3.8985 2.0382
-4.0293 3.5882 2.0382
-4.3048 3.2547 2.0382
-4.5528 2.9002 2.0382
-4.7718 2.5269 2.0382
-4.9602 2.1373 2.0382
-5.1169 1.7337 2.0382
-5.2409 1.3187 2.0382
-5.3313 0.8951 2.0382
-5.3875 0.4655 2.0382
-5.4091 0.0326 2.0382
-5.3961 -0.4008 2.0382
-5.3483 -0.8318 2.0382
-5.2662 -1.2577 2.0382
-5.1501 -1.6758 2.0382
-5.0009 -2.0833 2.0382
-4.8194 -2.4777 2.0382
-4.6069 -2.8563 2.0382
-4.3646 -3.2167 2.0382
-4.0941 -3.5566 2.0382
-3.7971 -3.8738 2.0382
-3.4756 -4.1662 2.0382
-3.1316 -4.4319 2.0382
-2.7673 -4.6691 2.0382
-2.3851 -4.8763 2.0382
-0.7194 -1.8288 0.7378
-0.5707 -1.8803 0.7376
-0.4183 -1.9198 0.7375
-0.2633 -1.9470 0.7374
-0.1066 -1.9617 0.7373
0.0507 -1.9640 0.7373
0.2077 -1.9537 0.7374
0.3634 -1.9309 0.7374
0.5168 -1.8957 0.7376
0.6670 -1.8485 0.7377
2.2453 -4.9426 2.0382
2.6334 -4.7464 2.0382
3.0043 -4.5197 2.0382
3.3558 -4.2639 2.0382
3.6856 -3.9809 2.0382
3.8234 -3.5176 1.9523
3.9523 -3.0905 1.8858
4.1859 -2.7635 1.8858
4.3925 -2.4189 1.8858
4.5708 -2.0589 1.8858
4.7196 -1.6859 1.8858
4.8380 -1.3022 1.8858
4.9252 -0.9104 1.8858
4.9807 -0.5130 1.8858
5.0043 -0.1125 1.8858
4.9957 0.2884 1.8858
4.9550 0.6873 1.8858
4.8825 1.0816 1.8858
4.7788 1.4686 1.8858
4.6445 1.8461 1.8858
4.4804 2.2114 1.8858
4.2878 2.5625 1.8858
4.0677 2.8969 1.8858
3.9001 3.2786 1.9245
3.8382 3.7910 2.0382
3.5215 4.0854 2.0382
3.1823 4.3535 2.0382
2.8229 4.5937 2.0382
2.4455 4.8043 2.0382
0.7545 1.8321 0.7492
0.6054 1.8869 0.7494
0.4523 1.9295 0.7495
0.2963 1.9596 0.7496
0.3762 5.3754 2.0382
-0.0556 5.3882 2.0382
-0.1792 1.9738 0.7496
-0.3367 1.9531 0.7496
-0.4920 1.9197 0.7495
-0.6442 1.8739 0.7493
-2.1550 4.9407 2.0382
-2.5442 4.7528 2.0382
-2.9172 4.5345 2.0382
-3.2716 4.2870 2.0382
-3.6052 4.0119 2.0382
-3.9158 3.7111 2.0382
-4.6912 -1.6891 2.0382
-4.5421 -2.0598 2.0382
-4.3638 -2.4175 2.0382
-4.1573 -2.7597 2.0382
-3.9240 -3.0844 2.0382
-3.6654 -3.3893 2.0382
-3.3830 -3.6726 2.0382
-3.0788 -3.9324 2.0382
-2.7547 -4.1669 2.0382
-2.4127 -4.3746 2.0382
-0.7445 -1.6498 0.7383
-0.6100 -1.7039 0.7382
-0.4716 -1.7471 0.7380
-0.3303 -1.7791 0.7379
-0.1868 -1.7998 0.7379
-0.0422 -1.8089 0.7378
0.1027 -1.8065 0.7378
0.2470 -1.7925 0.7379
0.3897 -1.7671 0.7380
0.5299 -1.7304 0.7381
0.6667 -1.6826 0.7382
2.2064 -4.4828 2.0382
2.5577 -4.2912 2.0382
2.8925 -4.0721 2.0382
3.2086 -3.8269 2.0382
3.5039 -3.5571 2.0382
3.7766 -3.2645 2.0382
3.8330 -2.8104 1.9410
3.9295 -2.4230 1.8858
4.1098 -2.1001 1.8858
4.2636 -1.7639 1.8858
4.3900 -1.4165 1.8858
4.4880 -1.0602 1.8858
4.5572 -0.6973 1.8858
4.5970 -0.3301 1.8858
4.6073 0.0390 1.8858
4.5881 0.4077 1.8858
4.5394 0.7736 1.8858
4.4616 1.1343 1.8858
4.3552 1.4875 1.8858
4.2209 1.8310 1.8858
4.0596 2.1626 1.8858
3.8987 2.4970 1.8986
3.8826 2.9505 2.0002
3.7019 3.3130 2.0382
3.4239 3.5981 2.0382
3.1241 3.8600 2.0382
2.8043 4.0971 2.0382
2.4667 4.3080 2.0382
0.7763 1.6496 0.7486
0.6417 1.7067 0.7488
0.5030 1.7528 0.7490
0.3610 1.7876 0.7491
0.2166 1.8109 0.7491
0.0708 1.8224 0.7492
-0.0754 1.8223 0.7492
-0.2211 1.8103 0.7491
-0.3654 1.7867 0.7491
-0.5073 1.7515 0.7490
-0.6460 1.7051 0.7488
-2.1246 4.4858 2.0382
-2.4774 4.3017 2.0382
-2.8145 4.0901 2.0382
-3.1336 3.8522 2.0382
-3.4328 3.5895 2.0382
-3.7100 3.3037 2.0382
-3.9636 2.9966 2.0382
-4.1919 2.6701 2.0382
-4.3934 2.3264 2.0382
-4.5668 1.9676 2.0382
-4.7110 1.5959 2.0382
-4.8250 1.2139 2.0382
-4.9081 0.8238 2.0382
-4.9598 0.4283 2.0382
-4.9796 0.0298 2.0382
-4.9675 -0.3691 2.0382
-4.9234 -0.7659 2.0382
-4.8477 -1.1580 2.0382
-4.7408 -1.5428 2.0382
-4.6033 -1.9179 2.0382
-4.4362 -2.2808 2.0382
-4.2404 -2.6293 2.0382
-4.0174 -2.9610 2.0382
-3.7683 -3.2738 2.0382
-3.4949 -3.5657 2.0382
-3.1989 -3.8348 2.0382
-2.8823 -4.0792 2.0382
-2.5470 -4.2975 2.0382
-2.1951 -4.4882 2.0382
-0.6625 -1.6843 0.7382
-0.5255 -1.7317 0.7381
-0.3852 -1.7681 0.7380
-0.2425 -1.7931 0.7379
-0.0982 -1.8067 0.7378
0.0467 -1.8088 0.7378
0.1913 -1.7993 0.7379
0.3347 -1.7783 0.7379
0.4760 -1.7459 0.7380
0.6142 -1.7024 0.7382
0.7486 -1.6480 0.7383
2.4237 -4.3687 2.0382
2.7651 -4.1601 2.0382
3.0887 -3.9247 2.0382
3.3923 -3.6642 2.0382
3.6739 -3.3802 2.0382
3.8235 -2.9900 1.9820
3.8566 -2.5462 1.8876
4.0432 -2.2267 1.8858
4.2074 -1.8954 1.8858
4.3444 -1.5521 1.8858
4.4535 -1.1989 1.8858
4.5339 -0.8383 1.8858
4.5851 -0.4725 1.8858
4.6069 -0.1038 1.8858
4.5990 0.2653 1.8858
4.5617 0.6326 1.8858
4.4951 0.9955 1.8858
4.3997 1.3519 1.8858
4.2761 1.6995 1.8858
4.1251 2.0359 1.8858
3.9478 2.3591 1.8858
3.8886 2.7691 1.9579
3.8032 3.1969 2.0382
3.5341 3.4905 2.0382
3.2425 3.7616 2.0382
2.9303 4.0085 2.0382
2.5993 4.2296 2.0382
2.2518 4.4236 2.0382
0.6943 1.6859 0.7487
0.5571 1.7363 0.7489
0.4162 1.7755 0.7490
0.2727 1.8033 0.7491
0.1273 1.8194 0.7492
-0.0188 1.8237 0.7492
-0.1649 1.8163 0.7492
-0.3098 1.7972 0.7491
-0.4528 1.7665 0.7490
-0.5928 1.7244 0.7489
-0.7289 1.6711 0.7487
-2.3427 4.3762 2.0382
-2.6861 4.1751 2.0382
-3.0124 3.9472 2.0382
-3.3196 3.6939 2.0382
-3.6055 3.4168 2.0382
-4.3383 -1.5623 2.0382
-4.2004 -1.9050 2.0382
-4.0354 -2.2357 2.0382
-3.8444 -2.5522 2.0382
-3.6286 -2.8524 2.0382
-3.3894 -3.1343 2.0382
-3.1282 -3.3962 2.0382
-2.8469 -3.6363 2.0382
-2.5472 -3.8532 2.0382
-2.2309 -4.0452 2.0382
-0.6887 -1.5264 0.7387
-0.5643 -1.5764 0.7386
-0.4363 -1.6164 0.7384
-0.3055 -1.6460 0.7383
-0.1728 -1.6651 0.7383
-0.0390 -1.6736 0.7383
0.0950 -1.6714 0.7383
0.2285 -1.6584 0.7383
0.3605 -1.6349 0.7384
0.4902 -1.6009 0.7385
0.6168 -1.5567 0.7386
0.7395 -1.5025 0.7388
2.3650 -3.9681 2.0382
2.6746 -3.7656 2.0382
2.9669 -3.5388 2.0382
3.2400 -3.2894 2.0382
3.4922 -3.0189 2.0382
3.7218 -2.7291 2.0382
3.8292 -2.3612 1.9872
3.8478 -1.9663 1.9092
3.9428 -1.6314 1.8858
4.0597 -1.3101 1.8858
4.1505 -0.9807 1.8858
4.2145 -0.6450 1.8858
4.2515 -0.3054 1.8858
4.2611 0.0359 1.8858
4.2433 0.3769 1.8858
4.1984 0.7153 1.8858
4.1265 1.0489 1.8858
4.0282 1.3756 1.8858
3.9040 1.6935 1.8858
3.8827 2.0682 1.9499
3.8707 2.4789 2.0379
3.6594 2.7807 2.0382
3.4242 3.0643 2.0382
3.1671 3.3280 2.0382
2.8898 3.5704 2.0382
2.5941 3.7898 2.0382
2.2818 3.9848 2.0382
0.7177 1.5251 0.7482
0.5933 1.5779 0.7484
0.4650 1.6205 0.7485
0.3337 1.6526 0.7486
0.2003 1.6741 0.7487
0.0655 1.6848 0.7487
-0.0697 1.6847 0.7487
-0.2044 1.6736 0.7487
-0.3378 1.6518 0.7486
-0.4691 1.6193 0.7485
-0.5972 1.5764 0.7484
-0.7215 1.5233 0.7482
-2.2917 3.9791 2.0382
-2.6035 3.7832 2.0382
-2.8987 3.5631 2.0382
-3.1753 3.3201 2.0382
-3.4318 3.0556 2.0382
-3.6663 2.7716 2.0382
-3.8774 2.4696 2.0382
-4.0637 2.1516 2.0382
-4.2240 1.8197 2.0382
-4.3573 1.4759 2.0382
-4.4627 1.1225 2.0382
-4.5395 0.7618 2.0382
-4.5871 0.3959 2.0382
-4.6054 0.0274 2.0382
-4.5941 -0.3416 2.0382
-4.5532 -0.7085 2.0382
-4.4831 -1.0711 2.0382
-4.3842 -1.4269 2.0382
-4.2570 -1.7738 2.0382
-4.1023 -2.1094 2.0382
-3.9213 -2.4316 2.0382
-3.7149 -2.7383 2.0382
-3.4846 -3.0275 2.0382
-3.2317 -3.2973 2.0382
-2.9580 -3.5461 2.0382
-2.6652 -3.7722 2.0382
-2.3551 -3.9740 2.0382
-0.7357 -1.5044 0.7388
-0.6129 -1.5582 0.7386
-0.4862 -1.6021 0.7385
-0.3564 -1.6358 0.7384
-0.2243 -1.6590 0.7383
-0.0909 -1.6716 0.7383
0.0432 -1.6735 0.7383
0.1770 -1.6647 0.7383
0.3097 -1.6453 0.7383
0.4404 -1.6153 0.7384
0.5683 -1.5750 0.7386
0.6926 -1.5247 0.7387
2.2411 -4.0397 2.0382
2.5568 -3.8468 2.0382
2.8560 -3.6293 2.0382
3.1368 -3.3885 2.0382
3.3972 -3.1259 2.0382
3.6358 -2.8433 2.0382
3.8210 -2.5229 2.0223
3.8410 -2.1155 1.9373
3.8908 -1.7528 1.8858
4.0209 -1.4367 1.8873
4.1185 -1.1089 1.8858
4.1929 -0.7754 1.8858
4.2404 -0.4371 1.8858
4.2606 -0.0962 1.8858
4.2534 0.2452 1.8858
4.2190 0.5849 1.8858
4.1575 0.9206 1.8858
4.0693 1.2502 1.8858
3.9551 1.5717 1.8858
3.8865 1.9179 1.9208
3.8757 2.3158 2.0015
3.7442 2.6662 2.0382
3.5179 2.9568 2.0382
3.2691 3.2285 2.0382
2.9994 3.4793 2.0382
2.7106 3.7077 2.0382
2.4044 3.9123 2.0382
0.7646 1.5020 0.7482
0.6419 1.5587 0.7484
0.5150 1.6052 0.7485
0.3848 1.6415 0.7486
0.2521 1.6671 0.7487
0.1177 1.6820 0.7487
-0.0174 1.6860 0.7487
-0.1524 1.6792 0.7487
-0.2865 1.6615 0.7487
-0.4186 1.6331 0.7486
-0.5481 1.5942 0.7485
-0.6739 1.5450 0.7483
-2.1671 4.0480 2.0382
-2.4847 3.8619 2.0382
-2.7866 3.6511 2.0382
-3.0706 3.4167 2.0382
-3.3351 3.1604 2.0382
-4.0276 -1.4506 2.0382
-3.8995 -1.7688 2.0382
-3.7463 -2.0758 2.0382
-3.5690 -2.3695 2.0382
-3.3686 -2.6482 2.0382
-3.1465 -2.9099 2.0382
-2.9040 -3.1529 2.0382
-2.6428 -3.3758 2.0382
-2.3645 -3.5771 2.0382
-0.7511 -1.3620 0.7392
-0.6396 -1.4176 0.7391
-0.5241 -1.4641 0.7389
-0.4052 -1.5013 0.7388
-0.2838 -1.5288 0.7387
-0.1605 -1.5465 0.7386
-0.0362 -1.5544 0.7386
0.0883 -1.5523 0.7386
0.2122 -1.5403 0.7387
0.3348 -1.5185 0.7387
0.4553 -1.4869 0.7388
0.5728 -1.4458 0.7390
0.6868 -1.3955 0.7391
2.1954 -3.6838 2.0382
2.4829 -3.4958 2.0382
2.7542 -3.2853 2.0382
3.0078 -3.0538 2.0382
3.2419 -2.8027 2.0382
3.4552 -2.5337 2.0382
3.6461 -2.2485 2.0382
3.8135 -1.9490 2.0382
3.8390 -1.5886 1.9777
3.8520 -1.2433 1.9273
3.8683 -0.9143 1.8931
3.9129 -0.5991 1.8858
3.9473 -0.2837 1.8858
3.9563 0.0332 1.8858
3.9399 0.3497 1.8858
3.8982 0.6641 1.8858
3.8789 0.9859 1.9091
3.8742 1.3229 1.9533
3.8671 1.6772 2.0117
3.7684 2.0071 2.0382
3.5948 2.3020 2.0382
3.3981 2.5820 2.0382
3.1797 2.8453 2.0382
2.9410 3.0902 2.0382
2.6835 3.3153 2.0382
2.4089 3.5191 2.0382
0.7774 1.3575 0.7477
0.6662 1.4155 0.7479
0.5507 1.4645 0.7481
0.4316 1.5041 0.7482
0.3098 1.5339 0.7483
0.1859 1.5538 0.7483
0.0608 1.5638 0.7484
-0.0647 1.5636 0.7484
-0.1898 1.5534 0.7483
-0.3136 1.5331 0.7483
-0.4354 1.5029 0.7482
-0.5543 1.4631 0.7481
-0.6697 1.4139 0.7479
-2.1281 3.6949 2.0382
-2.4176 3.5130 2.0382
-2.6917 3.3086 2.0382
-2.9486 3.0828 2.0382
-3.1867 2.8373 2.0382
-3.4044 2.5734 2.0382
-3.6004 2.2930 2.0382
-3.7733 1.9977 2.0382
-3.9221 1.6894 2.0382
-4.0458 1.3703 2.0382
-4.1436 1.0422 2.0382
-4.2149 0.7071 2.0382
-4.2591 0.3674 2.0382
-4.2759 0.0252 2.0382
-4.2654 -0.3173 2.0382
-4.2274 -0.6580 2.0382
-4.1622 -0.9946 2.0382
-4.0703 -1.3250 2.0382
-3.9521 -1.6469 2.0382
-3.8085 -1.9585 2.0382
-3.6404 -2.2576 2.0382
-3.4487 -2.5423 2.0382
-3.2349 -2.8108 2.0382
-3.0001 -3.0612 2.0382
-2.7460 -3.2921 2.0382
-2.4741 -3.5019 2.0382
-2.1862 -3.6892 2.0382
-0.6833 -1.3972 0.7391
-0.5692 -1.4472 0.7390
-0.4515 -1.4880 0.7388
-0.3310 -1.5193 0.7387
-0.2084 -1.5408 0.7387
-0.0844 -1.5525 0.7386
0.0401 -1.5543 0.7386
0.1644 -1.5461 0.7386
0.2876 -1.5281 0.7387
0.4090 -1.5003 0.7388
0.5278 -1.4628 0.7389
0.6432 -1.4160 0.7391
0.7545 -1.3602 0.7392
2.3735 -3.5712 2.0382
2.6513 -3.3693 2.0382
2.9119 -3.1457 2.0382
3.1538 -2.9020 2.0382
3.3753 -2.6398 2.0382
3.5750 -2.3607 2.0382
3.7516 -2.0665 2.0382
3.8332 -1.7272 2.0012
3.8473 -1.3748 1.9451
3.8587 -1.0390 1.9030
3.8928 -0.7201 1.8858
3.9370 -0.4059 1.8858
3.9558 -0.0894 1.8858
3.9492 0.2275 1.8858
3.9173 0.5430 1.8858
3.8831 0.8596 1.8969
3.8763 1.1907 1.9346
3.8702 1.5378 1.9873
3.8292 1.8895 2.0382
3.6647 2.1896 2.0382
3.4768 2.4755 2.0382
3.2666 2.7455 2.0382
3.0356 2.9977 2.0382
2.7852 3.2307 2.0382
2.5171 3.4429 2.0382
2.2328 3.6329 2.0382
0.7097 1.3941 0.7478
0.5958 1.4467 0.7480
0.4781 1.4899 0.7481
0.3572 1.5235 0.7482
0.2340 1.5473 0.7483
0.1093 1.5611 0.7484
-0.0162 1.5649 0.7484
-0.1415 1.5585 0.7484
-0.2659 1.5421 0.7483
-0.3886 1.5158 0.7482
-0.5087 1.4797 0.7481
-0.6256 1.4340 0.7480
-0.7383 1.3791 0.7478
-2.3074 3.5861 2.0382
-2.5877 3.3902 2.0382
-2.8514 3.1726 2.0382
-3.0969 2.9345 2.0382
-3.7517 -1.3514 2.0382
-3.6323 -1.6478 2.0382
-3.4896 -1.9337 2.0382
-3.3243 -2.2073 2.0382
-3.1376 -2.4668 2.0382
-2.9307 -2.7105 2.0382
-2.7048 -2.9369 2.0382
-2.4615 -3.1445 2.0382
-2.2023 -3.3319 2.0382
-0.6999 -1.2692 0.7395
-0.5960 -1.3210 0.7394
-0.4883 -1.3643 0.7392
-0.3776 -1.3989 0.7391
-0.2644 -1.4246 0.7390
-0.1496 -1.4411 0.7390
-0.0338 -1.4484 0.7390
0.0822 -1.4465 0.7390
0.1977 -1.4353 0.7390
0.3120 -1.4149 0.7391
0.4242 -1.3855 0.7392
0.5338 -1.3473 0.7393
0.6399 -1.3003 0.7394
0.7420 -1.2451 0.7396
2.3125 -3.2562 2.0382
2.5653 -3.0602 2.0382
2.8015 -2.8446 2.0382
3.0196 -2.6107 2.0382
3.2183 -2.3602 2.0382
3.3962 -2.0946 2.0382
3.5521 -1.8156 2.0382
3.6852 -1.5251 2.0382
3.7946 -1.2249 2.0382
3.8390 -0.9074 2.0168
3.8472 -0.5892 1.9904
3.8531 -0.2772 1.9761
3.8569 0.0322 1.9735
3.8585 0.3424 1.9825
3.8579 0.6569 2.0034
3.8551 0.9796 2.0367
3.7660 1.2858 2.0382
3.6501 1.5829 2.0382
3.5108 1.8697 2.0382
3.3490 2.1444 2.0382
3.1658 2.4053 2.0382
2.9624 2.6506 2.0382
2.7400 2.8789 2.0382
2.5002 3.0886 2.0382
2.2444 3.2785 2.0382
0.7240 1.2642 0.7474
0.6204 1.3183 0.7476
0.5129 1.3639 0.7477
0.4020 1.4007 0.7479
0.2885 1.4285 0.7479
0.1731 1.4470 0.7480
0.0566 1.4563 0.7480
-0.0602 1.4561 0.7480
-0.1767 1.4466 0.7480
-0.2920 1.4277 0.7479
-0.4055 1.3996 0.7479
-0.5163 1.3626 0.7477
-0.6237 1.3167 0.7476
-0.7271 1.2624 0.7474
-2.2525 3.2729 2.0382
-2.5078 3.0824 2.0382
-2.7471 2.8720 2.0382
-2.9689 2.6432 2.0382
-3.1717 2.3974 2.0382
-3.3543 2.1360 2.0382
-3.5153 1.8609 2.0382
-3.6539 1.5737 2.0382
-3.7691 1.2763 2.0382
-3.8602 0.9706 2.0382
-3.9265 0.6586 2.0382
-3.9676 0.3421 2.0382
-3.9832 0.0233 2.0382
-3.9733 -0.2958 2.0382
-3.9379 -0.6131 2.0382
-3.8771 -0.9266 2.0382
-3.7914 -1.2343 2.0382
-3.6813 -1.5343 2.0382
-3.5475 -1.8245 2.0382
-3.3908 -2.1030 2.0382
-3.2123 -2.3682 2.0382
-3.0131 -2.6182 2.0382
-2.7944 -2.8515 2.0382
-2.5576 -3.0665 2.0382
-2.3044 -3.2619 2.0382
-0.7389 -1.2469 0.7396
-0.6367 -1.3019 0.7394
-0.5304 -1.3486 0.7393
-0.4207 -1.3866 0.7391
-0.3084 -1.4157 0.7391
-0.1941 -1.4358 0.7390
-0.0786 -1.4467 0.7390
0.0374 -1.4483 0.7390
0.1532 -1.4407 0.7390
0.2680 -1.4239 0.7390
0.3811 -1.3980 0.7391
0.4918 -1.3631 0.7392
0.5993 -1.3195 0.7394
0.7030 -1.2674 0.7395
2.2107 -3.3264 2.0382
2.4694 -3.1384 2.0382
2.7122 -2.9302 2.0382
2.9375 -2.7033 2.0382
3.1438 -2.4590 2.0382
3.3299 -2.1990 2.0382
3.4945 -1.9250 2.0382
3.6365 -1.6387 2.0382
3.7552 -1.3420 2.0382
3.8351 -1.0330 2.0305
3.8443 -0.7113 1.9992
3.8511 -0.3974 1.9802
3.8557 -0.0874 1.9731
3.8581 0.2221 1.9776
3.8584 0.5345 1.9939
3.8565 0.8536 2.0223
3.8044 1.1685 2.0382
3.6977 1.4691 2.0382
3.5674 1.7601 2.0382
3.4142 2.0397 2.0382
3.2391 2.3062 2.0382
3.0434 2.5577 2.0382
2.8282 2.7927 2.0382
2.5949 3.0098 2.0382
2.3451 3.2075 2.0382
0.7628 1.2411 0.7474
0.6610 1.2983 0.7475
0.5549 1.3473 0.7477
0.4452 1.3875 0.7478
0.3326 1.4188 0.7479
0.2179 1.4409 0.7480
0.1018 1.4538 0.7480
-0.0150 1.4573 0.7480
-0.1318 1.4514 0.7480
-0.2476 1.4361 0.7480
-0.3619 1.4116 0.7479
-0.4738 1.3780 0.7478
-0.5826 1.3355 0.7477
-0.6876 1.2844 0.7475
-2.1498 3.3410 2.0382
-2.4109 3.1584 2.0382
-2.6566 2.9556 2.0382
-2.8853 2.7338 2.0382
-3.5046 -1.2625 2.0382
-3.3930 -1.5394 2.0382
-3.2596 -1.8064 2.0382
-3.1052 -2.0620 2.0382
-2.9308 -2.3044 2.0382
-2.7375 -2.5320 2.0382
-2.5265 -2.7435 2.0382
-2.2992 -2.9373 2.0382
-0.7468 -1.1299 0.7399
-0.6539 -1.1859 0.7398
-0.5569 -1.2344 0.7396
-0.4563 -1.2749 0.7395
-0.3528 -1.3072 0.7394
-0.2471 -1.3312 0.7393
-0.1398 -1.3466 0.7393
-0.0316 -1.3535 0.7393
0.0768 -1.3517 0.7393
0.1848 -1.3412 0.7393
0.2915 -1.3222 0.7393
0.3964 -1.2947 0.7394
0.4987 -1.2589 0.7395
0.5979 -1.2151 0.7397
0.6933 -1.1635 0.7398
0.7843 -1.1044 0.7400
2.3962 -2.8586 2.0382
2.6168 -2.6572 2.0382
2.8206 -2.4388 2.0382
3.0062 -2.2048 2.0382
3.1724 -1.9567 2.0382
3.3181 -1.6962 2.0382
3.4425 -1.4248 2.0382
3.5447 -1.1444 2.0382
3.6240 -0.8567 2.0382
3.6801 -0.5637 2.0382
3.7125 -0.2672 2.0382
3.7211 0.0309 2.0382
3.7058 0.3287 2.0382
3.6667 0.6242 2.0382
3.6041 0.9156 2.0382
3.5183 1.2010 2.0382
3.4101 1.4786 2.0382
3.2800 1.7466 2.0382
3.1289 2.0033 2.0382
2.9577 2.2470 2.0382
2.7677 2.4763 2.0382
2.5600 2.6896 2.0382
2.3359 2.8855 2.0382
0.7685 1.1226 0.7470
0.6762 1.1807 0.7472
0.5795 1.2312 0.7473
0.4790 1.2737 0.7475
0.3754 1.3081 0.7476
0.2694 1.3341 0.7476
0.1617 1.3514 0.7477
0.0529 1.3600 0.7477
-0.0563 1.3599 0.7477
-0.1650 1.3510 0.7477
-0.2728 1.3334 0.7476
-0.3787 1.3072 0.7476
-0.4822 1.2725 0.7475
-0.5825 1.2297 0.7473
-0.6791 1.1790 0.7472
-0.7713 1.1206 0.7470
-2.3431 2.8797 2.0382
-2.5666 2.6831 2.0382
-2.7738 2.4693 2.0382
-2.9633 2.2396 2.0382
-3.1338 1.9955 2.0382
-3.2842 1.7384 2.0382
-3.4137 1.4701 2.0382
-3.5212 1.1922 2.0382
-3.6062 0.9066 2.0382
-3.6681 0.6150 2.0382
-3.7065 0.3194 2.0382
-3.7211 0.0216 2.0382
-3.7118 -0.2765 2.0382
-3.6786 -0.5729 2.0382
-3.6218 -0.8658 2.0382
-3.5417 -1.1532 2.0382
-3.4388 -1.4334 2.0382
-3.3138 -1.7044 2.0382
-3.1674 -1.9646 2.0382
-3.0006 -2.2123 2.0382
-2.8144 -2.4458 2.0382
-2.6101 -2.6637 2.0382
-2.3890 -2.8645 2.0382
-0.7815 -1.1063 0.7400
-0.6904 -1.1652 0.7398
-0.5949 -1.2165 0.7397
-0.4956 -1.2601 0.7395
-0.3931 -1.2957 0.7394
-0.2882 -1.3229 0.7393
-0.1814 -1.3417 0.7393
-0.0735 -1.3519 0.7393
0.0349 -1.3534 0.7393
0.1431 -1.3463 0.7393
0.2504 -1.3306 0.7393
0.3561 -1.3063 0.7394
0.4595 -1.2737 0.7395
0.5600 -1.2330 0.7396
0.6569 -1.1843 0.7398
0.7497 -1.1281 0.7400
2.3066 -2.9316 2.0382
2.5334 -2.7372 2.0382
2.7439 -2.5252 2.0382
2.9366 -2.2971 2.0382
3.1104 -2.0543 2.0382
3.2642 -1.7983 2.0382
3.3969 -1.5309 2.0382
3.5078 -1.2538 2.0382
3.5961 -0.9687 2.0382
3.6612 -0.6776 2.0382
3.7028 -0.3822 2.0382
3.7206 -0.0845 2.0382
3.7145 0.2136 2.0382
3.6846 0.5103 2.0382
3.6310 0.8035 2.0382
3.5542 1.0915 2.0382
3.4546 1.3723 2.0382
3.3328 1.6442 2.0382
3.1897 1.9055 2.0382
3.0262 2.1544 2.0382
2.8434 2.3894 2.0382
2.6424 2.6090 2.0382
2.4244 2.8119 2.0382
2.1911 2.9966 2.0382
0.7125 1.1591 0.7471
0.6174 1.2126 0.7473
0.5183 1.2582 0.7474
0.4158 1.2958 0.7475
0.3107 1.3250 0.7476
0.2035 1.3457 0.7477
0.0950 1.3577 0.7477
-0.0141 1.3610 0.7477
-0.1231 1.3555 0.7477
-0.2313 1.3412 0.7477
-0.3380 1.3183 0.7476
-0.4425 1.2869 0.7475
-0.5441 1.2472 0.7474
-0.6423 1.1995 0.7472
-0.7362 1.1441 0.7471
-2.2525 2.9508 2.0382
-2.4820 2.7613 2.0382
-2.6957 2.5540 2.0382
-3.2816 -1.1824 2.0382
-3.1772 -1.4416 2.0382
-3.0522 -1.6917 2.0382
-2.9076 -1.9309 2.0382
-2.7443 -2.1578 2.0382
-2.5632 -2.3710 2.0382
-2.3657 -2.5689 2.0382
-0.7820 -0.9991 0.7404
-0.6995 -1.0584 0.7402
-0.6125 -1.1108 0.7400
-0.5216 -1.1562 0.7399
-0.4274 -1.1941 0.7397
-0.3304 -1.2244 0.7397
-0.2314 -1.2469 0.7396
-0.1309 -1.2614 0.7395
-0.0296 -1.2678 0.7395
0.0720 -1.2661 0.7395
0.1730 -1.2563 0.7396
0.2730 -1.2385 0.7396
0.3713 -1.2127 0.7397
0.4671 -1.1792 0.7398
0.5600 -1.1381 0.7399
0.6494 -1.0898 0.7401
0.7346 -1.0344 0.7402
2.2436 -2.6767 2.0382
2.4502 -2.4882 2.0382
2.6410 -2.2837 2.0382
2.8148 -2.0647 2.0382
2.9705 -1.8324 2.0382
3.1070 -1.5884 2.0382
3.2235 -1.3343 2.0382
