ply
format ascii 1.0
element vertex 2136
property float32 x
property float32 y
property float32 z
end_header
-16.4873 0.5722 -1.8822
-16.3546 -0.7508 -1.8680
-16.2227 -2.0623 -1.8664
-16.0951 -3.3803 -1.8781
-15.9626 -4.7214 -1.9025
-15.8180 -6.1015 -1.9398
-15.6726 -7.5459 -1.9928
-15.5273 -9.0829 -2.0642
-15.3653 -10.7360 -2.1547
-15.1839 -12.5430 -2.2685
-17.2150 7.9606 -2.1719
-17.0498 6.2733 -2.0778
-16.9052 4.7150 -2.0053
-16.7617 3.2485 -1.9493
-16.6139 1.8494 -1.9076
-16.4801 0.4994 -1.8811
-16.3474 -0.8225 -1.8676
-16.2155 -2.1338 -1.8667
-16.0879 -3.4527 -1.8791
-15.9552 -4.7956 -1.9042
-15.8102 -6.1785 -1.9423
-15.6644 -7.6270 -1.9962
-15.5188 -9.1697 -2.0685
-15.3561 -10.8302 -2.1603
-15.1735 -12.6470 -2.2755
-17.2252 8.0585 -1.6371
-17.0591 6.3628 -1.5648
-16.9125 4.7979 -1.5089
-16.7686 3.3268 -1.4658
-16.6212 1.9245 -1.4337
-16.4872 0.5722 -1.4131
-16.3545 -0.7509 -1.4025
-16.2227 -2.0625 -1.4015
-16.0950 -3.3807 -1.4105
-15.9624 -4.7220 -1.4292
-15.8186 -6.1026 -1.4578
-15.6732 -7.5473 -1.4983
-15.5274 -9.0843 -1.5527
-15.3654 -10.7378 -1.6218
-15.1839 -12.5452 -1.7085
-17.2157 7.9621 -1.6327
-17.0504 6.2744 -1.5613
-16.9044 4.7154 -1.5062
-16.7610 3.2488 -1.4638
-16.6138 1.8497 -1.4323
-16.4800 0.4995 -1.4123
-16.3473 -0.8226 -1.4022
-16.2155 -2.1341 -1.4017
-16.0878 -3.4531 -1.4112
-15.9551 -4.7962 -1.4305
-15.8109 -6.1796 -1.4597
-15.6650 -7.6284 -1.5009
-15.5189 -9.1712 -1.5560
-15.3561 -10.8320 -1.6260
-15.1735 -12.6492 -1.7138
-17.2259 8.0600 -1.0991
-17.0597 6.3639 -1.0496
-16.9118 4.7983 -1.0114
-16.7678 3.3270 -0.9820
-16.6211 1.9247 -0.9603
-16.4871 0.5723 -0.9463
-16.3544 -0.7510 -0.9392
-16.2226 -2.0628 -0.9387
-16.0949 -3.3812 -0.9451
-15.9623 -4.7226 -0.9582
-15.8193 -6.1038 -0.9781
-15.6738 -7.5488 -1.0061
-15.5275 -9.0858 -1.0436
-15.3654 -10.7395 -1.0913
-15.1839 -12.5473 -1.1512
-17.2164 7.9635 -1.0960
-17.0510 6.2755 -1.0473
-16.9037 4.7159 -1.0095
-16.7602 3.2490 -0.9807
-16.6137 1.8499 -0.9593
-16.4798 0.4995 -0.9458
-16.3472 -0.8227 -0.9390
-16.2154 -2.1344 -0.9389
-16.0877 -3.4536 -0.9456
-15.9550 -4.7968 -0.9591
-15.8115 -6.1808 -0.9794
-15.6657 -7.6298 -1.0079
-15.5190 -9.1726 -1.0460
-15.3562 -10.8338 -1.0943
-15.1735 -12.6514 -1.1549
-17.2265 8.0615 -0.5627
-17.0603 6.3650 -0.5361
-16.9110 4.7988 -0.5155
-16.7671 3.3273 -0.4998
-16.6210 1.9249 -0.4883
-16.4869 0.5724 -0.4810
-16.3544 -0.7511 -0.4774
-16.2225 -2.0631 -0.4775
-16.0947 -3.3816 -0.4812
-15.9622 -4.7232 -0.4886
-15.8199 -6.1049 -0.4998
-15.6745 -7.5502 -0.5155
-15.5276 -9.0872 -0.5362
-15.3655 -10.7413 -0.5626
-15.1839 -12.5495 -0.5956
-17.4085 9.8269 -0.5946
-17.2171 7.9650 -0.5610
-17.0517 6.2766 -0.5348
-16.9029 4.7163 -0.5145
-16.7594 3.2493 -0.4991
-16.6136 1.8501 -0.4878
-16.4797 0.4996 -0.4807
-16.3472 -0.8228 -0.4774
-16.2153 -2.1346 -0.4776
-16.0876 -3.4540 -0.4815
-15.9549 -4.7975 -0.4892
-15.8122 -6.1819 -0.5006
-15.6663 -7.6313 -0.5164
-15.5191 -9.1741 -0.5375
-15.3563 -10.8356 -0.5642
-15.1735 -12.6535 -0.5976
-17.2272 8.0629 -0.0271
-17.0610 6.3661 -0.0233
-16.9102 4.7992 -0.0205
-16.7663 3.3276 -0.0185
-16.6209 1.9252 -0.0172
-16.4868 0.5724 -0.0165
-16.3543 -0.7512 -0.0164
-16.2224 -2.0634 -0.0170
-16.0946 -3.3820 -0.0181
-15.9621 -4.7238 -0.0199
-15.8205 -6.1060 -0.0224
-15.6751 -7.5516 -0.0255
-15.5277 -9.0887 -0.0296
-15.3656 -10.7431 -0.0347
-15.1840 -12.5516 -0.0409
-17.4076 9.8278 -0.0317
-17.2178 7.9664 -0.0269
-17.0523 6.2776 -0.0232
-16.9022 4.7167 -0.0204
-16.7587 3.2496 -0.0184
-16.6135 1.8503 -0.0171
-16.4796 0.4996 -0.0165
-16.3471 -0.8229 -0.0165
-16.2152 -2.1349 -0.0170
-16.0875 -3.4545 -0.0182
-15.9547 -4.7981 -0.0200
-15.8128 -6.1830 -0.0225
-15.6669 -7.6327 -0.0257
-15.5191 -9.1755 -0.0299
-15.3563 -10.8374 -0.0350
-15.1735 -12.6557 -0.0413
-17.2279 8.0644 0.5085
-17.0616 6.3673 0.4894
-16.9095 4.7996 0.4744
-16.7656 3.3279 0.4628
-16.6208 1.9254 0.4540
-16.4867 0.5725 0.4480
-16.3542 -0.7514 0.4445
-16.2223 -2.0636 0.4435
-16.0945 -3.3825 0.4449
-15.9619 -4.7245 0.4488
-15.8212 -6.1071 0.4552
-15.6757 -7.5530 0.4644
-15.5277 -9.0901 0.4770
-15.3656 -10.7448 0.4933
-15.1840 -12.5537 0.5138
-17.4067 9.8288 0.5312
-17.2184 7.9678 0.5073
-17.0529 6.2787 0.4885
-16.9014 4.7171 0.4737
-16.7579 3.2499 0.4622
-16.6134 1.8505 0.4536
-16.4795 0.4997 0.4477
-16.3470 -0.8231 0.4444
-16.2151 -2.1352 0.4435
-16.0874 -3.4549 0.4451
-15.9546 -4.7987 0.4491
-15.8134 -6.1841 0.4556
-15.6676 -7.6341 0.4650
-15.5192 -9.1770 0.4778
-15.3564 -10.8392 0.4943
-15.1735 -12.6579 0.5151
11.2364 7.8173 0.6422
11.6407 13.2412 0.8404
-17.2286 8.0659 1.0450
-17.0622 6.3684 1.0030
-16.9087 4.8000 0.9701
-16.7648 3.3282 0.9448
-16.6207 1.9256 0.9258
-16.4866 0.5725 0.9132
-16.3542 -0.7515 0.9062
-16.2222 -2.0639 0.9046
-16.0944 -3.3829 0.9087
-15.9618 -4.7251 0.9182
-15.8218 -6.1082 0.9334
-15.6763 -7.5544 0.9551
-15.5278 -9.0915 0.9844
-15.3657 -10.7466 1.0220
-15.1840 -12.5559 1.0694
11.4829 13.1781 0.8335
-17.2191 7.9693 1.0424
-17.0535 6.2798 1.0010
-16.9007 4.7175 0.9685
-16.7572 3.2501 0.9436
-16.6132 1.8508 0.9250
-16.4794 0.4997 0.9127
-16.3470 -0.8232 0.9060
-16.2150 -2.1355 0.9047
-16.0873 -3.4554 0.9091
-15.9545 -4.7993 0.9189
-15.8141 -6.1853 0.9345
-15.6682 -7.6355 0.9565
-15.5193 -9.1784 0.9862
-15.3564 -10.8410 1.0244
-15.1735 -12.6600 1.0723
11.3497 13.1414 0.8282
12.4743 -4.6843 0.9942
12.0797 0.5281 0.8988
11.5897 1.4477 0.8686
11.9266 6.9430 1.0346
6.0223 4.1892 0.5515
-17.2293 8.0673 1.5832
-17.0628 6.3695 1.5183
-16.9080 4.8005 1.4672
-16.7641 3.3284 1.4282
-16.6206 1.9259 1.3991
-16.4865 0.5726 1.3798
-16.3541 -0.7516 1.3693
-16.2221 -2.0642 1.3672
-16.0943 -3.3834 1.3739
-15.9617 -4.7257 1.3891
-15.8225 -6.1093 1.4133
-15.6770 -7.5558 1.4475
-15.5279 -9.0930 1.4935
-15.3658 -10.7484 1.5525
-15.1840 -12.5580 1.6268
12.5497 -5.8379 1.0346
12.3450 -4.5739 0.9822
11.7869 6.9312 1.0253
6.0037 4.2155 0.5516
11.5294 13.2288 1.3326
-17.2198 7.9707 1.5792
-17.0542 6.2809 1.5151
-16.8999 4.7179 1.4648
-16.7564 3.2504 1.4264
-16.6131 1.8510 1.3978
-16.4793 0.4998 1.3791
-16.3469 -0.8233 1.3690
-16.2149 -2.1358 1.3673
-16.0872 -3.4558 1.3745
-15.9543 -4.8000 1.3902
-15.8147 -6.1864 1.4149
-15.6688 -7.6370 1.4496
-15.5194 -9.1799 1.4963
-15.3565 -10.8428 1.5561
-15.1736 -12.6622 1.6314
12.5767 -5.7834 1.0346
12.4456 -4.5491 0.9885
12.1113 0.6362 0.9015
11.6698 6.9315 1.0179
5.9849 4.2417 0.5516
11.3739 13.1668 1.3216
10.8853 -14.3913 1.8863
12.0419 -13.5059 1.8863
13.2097 -12.6070 1.8986
14.3597 -11.6473 1.9179
15.4285 -10.5756 1.9361
16.4026 -9.3985 1.9529
17.2692 -8.1247 1.9683
12.3214 -4.6262 1.3555
18.6331 -5.3299 1.9937
19.1101 -3.8347 2.0034
19.4399 -2.2940 2.0109
5.2688 -0.1944 0.5415
5.2768 0.2306 0.5425
5.2491 0.6556 0.5435
5.1856 1.0773 0.5445
5.0868 1.4925 0.5455
4.9533 1.8983 0.5465
4.7859 2.2915 0.5474
4.5860 2.6693 0.5484
4.3549 3.0288 0.5493
4.0944 3.3674 0.5502
3.8813 3.7549 0.5618
3.8210 4.3446 0.6035
10.8865 14.5981 1.9049
9.5473 15.2219 1.8851
8.2702 15.9011 1.8863
7.2446 17.1828 1.9689
6.0244 18.2765 2.0387
4.5179 18.6383 2.0387
2.9921 18.8758 2.0387
1.4575 18.9886 2.0387
-0.0760 18.9774 2.0387
-1.5982 18.8435 2.0387
-3.0997 18.5890 2.0387
-4.5710 18.2169 2.0387
-6.0032 17.7305 2.0387
-7.3878 17.1341 2.0387
-8.7167 16.4323 2.0387
-9.9822 15.6305 2.0387
-11.1774 14.7343 2.0387
-12.2955 13.7499 2.0387
-13.3306 12.6838 2.0387
-14.2770 11.5430 2.0387
-15.1300 10.3345 2.0387
-15.4412 8.8127 1.9817
-15.3061 7.1678 1.8868
-15.8090 5.9022 1.8863
-16.2162 4.6047 1.8863
-16.5217 3.2808 1.8863
-16.6205 1.9261 1.8746
-16.4864 0.5727 1.8487
-16.3540 -0.7517 1.8346
-16.2221 -2.0645 1.8320
-16.0942 -3.3838 1.8414
-15.9616 -4.7263 1.8622
-15.7470 -6.0810 1.8863
-15.2266 -7.3398 1.8863
-14.6093 -8.5564 1.8863
-13.8982 -9.7234 1.8863
-13.4511 -11.1268 1.9373
-13.1961 -12.8407 2.0387
-12.1492 -13.8965 2.0387
-11.0198 -14.8697 2.0387
-9.8143 -15.7538 2.0387
-8.5392 -16.5427 2.0387
-7.2016 -17.2307 2.0387
-5.8094 -17.8126 2.0387
-4.3707 -18.2838 2.0387
-2.8940 -18.6401 2.0387
-1.3884 -18.8782 2.0387
0.1367 -18.9953 2.0387
1.6716 -18.9893 2.0387
3.2064 -18.8590 2.0387
4.7307 -18.6040 2.0387
6.2344 -18.2248 2.0387
7.7070 -17.7225 2.0387
9.1380 -17.0995 2.0387
10.5174 -16.3588 2.0387
10.9502 -14.3456 1.8863
12.1029 -13.4548 1.8863
13.2743 -12.5577 1.8997
14.4202 -11.5916 1.9189
15.4841 -10.5140 1.9370
16.4527 -9.3315 1.9538
17.3132 -8.0526 1.9691
12.3813 -4.5867 1.3597
18.6628 -5.2497 1.9943
19.1319 -3.7517 2.0039
19.4535 -2.2089 2.0112
5.2701 -0.1713 0.5415
5.2762 0.2539 0.5425
5.2465 0.6787 0.5435
5.1812 1.1001 0.5445
5.0804 1.5149 0.5455
4.9450 1.9201 0.5465
4.7759 2.3125 0.5475
4.5742 2.6894 0.5484
4.3414 3.0478 0.5493
4.0794 3.3852 0.5502
3.8782 3.7851 0.5639
3.8175 4.3793 0.6061
10.8146 14.6354 1.9038
9.4846 15.2706 1.8863
8.1988 15.9345 1.8863
7.2250 17.3489 1.9847
5.9429 18.2995 2.0387
4.4351 18.6545 2.0387
2.9086 18.8851 2.0387
1.3737 18.9912 2.0387
-0.1594 18.9733 2.0387
-1.6807 18.8327 2.0387
-3.1808 18.5717 2.0387
-4.6502 18.1932 2.0387
-6.0800 17.7008 2.0387
-7.4618 17.0985 2.0387
-8.7874 16.3911 2.0387
-10.0493 15.5840 2.0387
-11.2404 14.6828 2.0387
-12.3541 13.6938 2.0387
-13.3845 12.6235 2.0387
-14.3260 11.4787 2.0387
-15.1737 10.2662 2.0387
-15.4328 8.7181 1.9759
-15.3321 7.0980 1.8863
-15.8337 5.8323 1.8863
-16.2355 4.5331 1.8863
-16.5354 3.2079 1.8863
-16.6130 1.8512 1.8729
-16.4791 0.4998 1.8476
-16.3468 -0.8234 1.8342
-16.2149 -2.1361 1.8322
-16.0870 -3.4563 1.8422
-15.9542 -4.8006 1.8637
-15.7211 -6.1507 1.8863
-15.1954 -7.4073 1.8863
-14.5729 -8.6214 1.8863
-13.8568 -9.7855 1.8863
-13.4409 -11.2183 1.9427
-13.1412 -12.9003 2.0387
-12.0896 -13.9517 2.0387
-10.9560 -14.9203 2.0387
-9.7465 -15.7994 2.0387
-8.4677 -16.5829 2.0387
-7.1271 -17.2652 2.0387
-5.7321 -17.8412 2.0387
-4.2911 -18.3062 2.0387
-2.8126 -18.6562 2.0387
-1.3057 -18.8877 2.0387
0.2203 -18.9982 2.0387
1.7554 -18.9854 2.0387
3.2899 -18.8484 2.0387
4.8134 -18.5866 2.0387
6.3156 -18.2005 2.0387
7.7862 -17.6916 2.0387
9.2147 -17.0621 2.0387
10.5815 -16.3006 2.0369
11.0148 -14.2995 1.8863
12.1637 -13.4034 1.8863
13.3387 -12.5080 1.9008
14.4805 -11.5357 1.9199
15.5395 -10.4521 1.9380
16.5026 -9.2641 1.9547
17.3567 -7.9803 1.9699
12.4753 -4.5593 1.3677
18.6921 -5.1694 1.9949
19.1534 -3.6685 2.0043
19.4667 -2.1238 2.0116
5.2714 -0.1482 0.5416
5.2755 0.2771 0.5426
5.2439 0.7018 0.5436
5.1766 1.1229 0.5446
5.0739 1.5373 0.5456
4.9367 1.9418 0.5466
4.7657 2.3335 0.5475
4.5623 2.7094 0.5485
4.3279 3.0668 0.5494
4.0643 3.4030 0.5503
3.8751 3.8155 0.5659
3.8139 4.4142 0.6087
10.7425 14.6723 1.9028
9.4158 15.3095 1.8863
8.1272 15.9676 1.8863
7.2051 17.5177 2.0007
5.8613 18.3220 2.0387
4.3522 18.6702 2.0387
2.8250 18.8941 2.0387
9.2423 -12.2164 2.0387
10.0926 -11.3174 2.0137
10.2979 -9.8263 1.8863
11.0762 -8.9825 1.8863
11.7833 -8.0757 1.8863
12.4760 -7.1476 1.8958
13.1052 -6.1647 1.9070
12.8483 -4.8234 1.8051
14.0875 -4.0291 1.9255
14.4281 -2.8948 1.9325
14.6616 -1.7299 1.9379
4.2811 -0.1580 0.5622
4.2460 0.1856 0.5578
4.2112 0.5259 0.5571
4.1763 0.8675 0.5602
4.1408 1.2148 0.5672
4.1042 1.5727 0.5782
4.0660 1.9465 0.5937
4.0256 2.3427 0.6143
3.9820 2.7690 0.6407
3.9344 3.2352 0.6740
3.8813 3.7543 0.7159
3.8211 4.3439 0.7686
8.4702 11.3554 1.8863
7.7358 12.3305 1.9428
7.0324 13.5173 2.0387
5.9062 14.0035 2.0387
4.7470 14.3952 2.0387
3.5630 14.6907 2.0387
2.3621 14.8887 2.0387
1.1525 14.9887 2.0387
-0.0580 14.9908 2.0387
-1.2614 14.8958 2.0387
-2.4501 14.7052 2.0387
-3.6166 14.4209 2.0387
-4.7536 14.0455 2.0387
-5.8543 13.5820 2.0387
-6.9121 13.0340 2.0387
-7.9207 12.4055 2.0387
-8.8743 11.7009 2.0387
-9.7675 10.9250 2.0387
-10.5951 10.0829 2.0387
-11.3527 9.1802 2.0387
-12.0359 8.2224 2.0387
-12.6412 7.2157 2.0387
-13.1651 6.1661 2.0387
-13.6050 5.0801 2.0387
-13.9585 3.9641 2.0387
-14.2237 2.8248 2.0387
-14.3992 1.6689 2.0387
-14.4841 0.5032 2.0387
-14.4780 -0.6655 2.0387
-14.3646 -1.8283 2.0364
-14.1932 -2.9845 2.0387
-13.9160 -4.1212 2.0387
-13.5508 -5.2337 2.0387
-13.0993 -6.3154 2.0387
-12.5642 -7.3597 2.0387
-11.9480 -8.3604 2.0387
-11.2544 -9.3112 2.0387
-10.4869 -10.2063 2.0387
-9.6498 -11.0400 2.0387
-8.7479 -11.8067 2.0387
-7.7861 -12.5014 2.0387
-6.7701 -13.1194 2.0387
-5.7057 -13.6562 2.0387
-4.5992 -14.1080 2.0387
-3.4573 -14.4712 2.0387
-2.2870 -14.7428 2.0387
-1.0954 -14.9204 2.0387
0.1099 -15.0019 2.0387
1.3212 -14.9862 2.0387
2.5306 -14.8726 2.0387
3.7300 -14.6608 2.0387
4.9115 -14.3517 2.0387
6.0669 -13.9464 2.0387
7.1881 -13.4469 2.0387
8.2674 -12.8561 2.0387
9.2970 -12.1772 2.0387
10.0838 -11.2080 2.0018
10.3421 -9.7820 1.8863
11.1166 -8.9346 1.8863
11.8197 -8.0245 1.8863
12.5125 -7.0956 1.8964
13.1370 -6.1093 1.9076
12.9113 -4.7824 1.8108
14.1088 -3.9682 1.9259
14.4436 -2.8319 1.9328
14.6712 -1.6657 1.9382
4.2791 -0.1391 0.5619
4.2441 0.2042 0.5576
4.2093 0.5444 0.5572
4.1744 0.8862 0.5605
4.1388 1.2340 0.5677
4.1022 1.5926 0.5790
4.0639 1.9675 0.5947
4.0233 2.3651 0.6156
3.9795 2.7933 0.6423
3.9316 3.2620 0.6761
3.8783 3.7844 0.7185
3.8176 4.3785 0.7719
8.4191 11.3911 1.8863
7.7236 12.4321 1.9537
6.9719 13.5462 2.0387
5.8437 14.0273 2.0387
4.6830 14.4138 2.0387
3.4979 14.7040 2.0387
2.2963 14.8966 2.0387
1.0864 14.9913 2.0387
-0.1239 14.9881 2.0387
-1.3267 14.8879 2.0387
-2.5144 14.6921 2.0387
-3.6794 14.4028 2.0387
-4.8146 14.0225 2.0387
-5.9132 13.5543 2.0387
-6.9684 13.0018 2.0387
-7.9742 12.3690 2.0387
-8.9247 11.6604 2.0387
-9.8144 10.8807 2.0387
-10.6383 10.0352 2.0387
-11.3919 9.1293 2.0387
-12.0710 8.1687 2.0387
-12.6719 7.1595 2.0387
-13.1913 6.1078 2.0387
-13.6265 5.0199 2.0387
-13.9753 3.9025 2.0387
-14.2356 2.7621 2.0387
-14.4062 1.6055 2.0387
-14.4862 0.4394 2.0387
-14.4743 -0.7292 2.0386
-14.3582 -1.8917 2.0366
-14.1804 -3.0470 2.0387
-13.8984 -4.1826 2.0387
-13.5284 -5.2935 2.0387
-13.0723 -6.3733 2.0387
-12.5326 -7.4154 2.0387
-11.9122 -8.4136 2.0387
-11.2144 -9.3616 2.0387
-10.4430 -10.2534 2.0387
-9.6023 -11.0836 2.0387
-8.6969 -11.8465 2.0387
-7.7321 -12.5371 2.0387
-6.7133 -13.1508 2.0387
-5.6464 -13.6831 2.0387
-4.5378 -14.1301 2.0387
-3.3942 -14.4884 2.0387
-2.2224 -14.7549 2.0387
-1.0299 -14.9273 2.0387
0.1759 -15.0036 2.0387
1.3873 -14.9826 2.0387
2.5963 -14.8635 2.0387
3.7950 -14.6464 2.0387
4.9752 -14.3320 2.0387
6.1290 -13.9215 2.0387
7.2482 -13.4171 2.0387
8.3249 -12.8213 2.0387
9.3516 -12.1377 2.0387
10.0752 -11.0999 1.9902
10.3860 -9.7374 1.8863
11.1569 -8.8865 1.8863
11.8461 -7.9666 1.8847
12.5487 -7.0435 1.8970
13.1685 -6.0538 1.9081
13.6977 -5.0054 1.9179
14.1297 -3.9072 1.9263
14.4588 -2.7690 1.9332
14.6804 -1.6014 1.9384
4.2772 -0.1202 0.5615
4.2422 0.2228 0.5575
4.2074 0.5630 0.5573
4.1725 0.9050 0.5608
4.1369 1.2532 0.5682
4.1002 1.6126 0.5797
4.0617 1.9885 0.5957
4.0210 2.3876 0.6169
3.9770 2.8177 0.6440
3.9289 3.2890 0.6781
3.8752 3.8148 0.7211
3.8140 4.4134 0.7751
8.3679 11.4265 1.8863
7.7112 12.5348 1.9647
6.9113 13.5749 2.0387
5.7812 14.0508 2.0387
4.6189 14.4321 2.0387
3.4327 14.7170 2.0387
2.2305 14.9043 2.0387
7.6008 -10.0445 2.0387
8.3998 -9.4173 2.0387
9.1460 -8.7255 2.0387
9.7492 -7.9050 2.0212
9.6766 -6.6308 1.8863
10.1916 -5.8379 1.8863
10.6399 -5.0043 1.8863
11.0182 -4.1357 1.8863
11.3236 -3.2381 1.8863
11.5719 -2.3214 1.8893
11.7516 -1.3864 1.8935
4.2811 -0.1580 0.6854
4.2460 0.1855 0.6800
4.2112 0.5258 0.6791
4.1763 0.8673 0.6828
4.1408 1.2146 0.6912
4.1043 1.5724 0.7046
4.0661 1.9463 0.7233
4.0256 2.3424 0.7482
3.9821 2.7686 0.7801
3.9344 3.2347 0.8205
3.8814 3.7537 0.8712
3.8212 4.3431 0.9349
7.5293 10.0917 2.0387
6.6795 10.6442 2.0387
5.7891 11.1244 2.0387
4.8645 11.5297 2.0387
3.9119 11.8577 2.0387
2.9380 12.1068 2.0387
1.9492 12.2758 2.0387
0.9523 12.3641 2.0387
-0.0462 12.3718 2.0387
-1.0399 12.2993 2.0387
-2.0223 12.1477 2.0387
-2.9873 11.9184 2.0387
-3.9288 11.6133 2.0387
-4.8410 11.2350 2.0387
-5.7184 10.7862 2.0387
-6.5557 10.2702 2.0387
-7.3480 9.6906 2.0387
-8.0906 9.0512 2.0387
-8.7792 8.3563 2.0387
-9.4098 7.6104 2.0387
-9.9789 6.8183 2.0387
-10.4833 5.9849 2.0387
-10.9202 5.1154 2.0387
-11.2870 4.2152 2.0387
-11.5820 3.2896 2.0387
-11.8033 2.3444 2.0387
-11.9497 1.3852 2.0387
-12.0206 0.4176 2.0387
-12.0154 -0.5524 2.0387
-11.9343 -1.5192 2.0387
-11.7777 -2.4769 2.0387
-11.5463 -3.4199 2.0387
-11.2415 -4.3424 2.0387
-10.8650 -5.2389 2.0387
-10.4188 -6.1039 2.0387
-9.9053 -6.9322 2.0387
-9.3276 -7.7185 2.0387
-8.6887 -8.4578 2.0387
-7.9923 -9.1456 2.0387
-7.2426 -9.7772 2.0387
-6.4436 -10.3485 2.0387
-5.6003 -10.8556 2.0387
-4.7176 -11.2951 2.0387
-3.8007 -11.6636 2.0387
-2.8554 -11.9584 2.0387
-1.8873 -12.1772 2.0387
-0.9027 -12.3180 2.0387
0.0924 -12.3794 2.0387
1.0914 -12.3605 2.0387
2.0879 -12.2609 2.0387
3.0752 -12.0806 2.0387
4.0469 -11.8203 2.0387
4.9962 -11.4813 2.0387
5.9166 -11.0652 2.0387
6.8019 -10.5745 2.0387
7.6456 -10.0120 2.0387
8.4419 -9.3812 2.0387
9.1851 -8.6860 2.0387
9.7432 -7.8294 2.0126
9.7064 -6.5887 1.8863
10.2178 -5.7935 1.8863
10.6624 -4.9578 1.8863
11.0368 -4.0875 1.8863
11.3381 -3.1885 1.8863
11.5839 -2.2709 1.8895
11.7590 -1.3349 1.8937
4.2791 -0.1391 0.6850
4.2441 0.2041 0.6798
4.2093 0.5444 0.6792
4.1744 0.8861 0.6832
4.1389 1.2338 0.6918
4.1022 1.5924 0.7055
4.0639 1.9672 0.7245
4.0233 2.3648 0.7497
3.9796 2.7929 0.7821
3.9317 3.2615 0.8229
3.8783 3.7838 0.8743
3.8177 4.3777 0.9389
7.4841 10.1237 2.0387
6.6319 10.6723 2.0387
5.7395 11.1485 2.0387
4.8132 11.5496 2.0387
3.8593 11.8733 2.0387
2.8844 12.1181 2.0387
1.8950 12.2827 2.0387
0.8978 12.3666 2.0387
-0.1006 12.3699 2.0387
-1.0938 12.2931 2.0387
-2.0755 12.1372 2.0387
-3.0393 11.9037 2.0387
-3.9794 11.5946 2.0387
-4.8898 11.2123 2.0387
-5.7652 10.7598 2.0387
-6.6002 10.2402 2.0387
-7.3898 9.6572 2.0387
-8.1296 9.0147 2.0387
-8.8151 8.3169 2.0387
-9.4425 7.5683 2.0387
-10.0081 6.7738 2.0387
-10.5089 5.9383 2.0387
-10.9420 5.0671 2.0387
-11.3050 4.1653 2.0387
-11.5959 3.2385 2.0387
-11.8132 2.2924 2.0387
-11.9555 1.3326 2.0387
-12.0223 0.3647 2.0387
-12.0130 -0.6053 2.0387
-11.9277 -1.5718 2.0387
-11.7670 -2.5288 2.0387
-11.5316 -3.4708 2.0387
-11.2228 -4.3920 2.0387
-10.8424 -5.2870 2.0387
-10.3925 -6.1501 2.0387
-9.8755 -6.9762 2.0387
-9.2943 -7.7600 2.0387
-8.6522 -8.4967 2.0387
-7.9528 -9.1817 2.0387
-7.2002 -9.8099 2.0387
-6.3987 -10.3779 2.0387
-5.5531 -10.8814 2.0387
-4.6684 -11.3170 2.0387
-3.7498 -11.6816 2.0387
-2.8031 -11.9723 2.0387
-1.8340 -12.1869 2.0387
-0.8486 -12.3234 2.0387
0.1468 -12.3805 2.0387
1.1459 -12.3572 2.0387
2.1420 -12.2531 2.0387
3.1287 -12.0685 2.0387
4.0993 -11.8038 2.0387
5.0472 -11.4605 2.0387
5.9659 -11.0404 2.0387
6.8490 -10.5456 2.0387
7.6904 -9.9794 2.0387
8.4839 -9.3449 2.0387
9.2240 -8.6464 2.0387
9.7373 -7.7545 2.0041
9.7359 -6.5465 1.8863
10.2438 -5.7489 1.8863
10.6846 -4.9112 1.8863
11.0551 -4.0391 1.8863
11.3524 -3.1386 1.8863
11.5956 -2.2204 1.8898
11.7661 -1.2834 1.8939
4.2772 -0.1202 0.6846
4.2422 0.2227 0.6797
4.2074 0.5629 0.6793
4.1725 0.9049 0.6835
4.1369 1.2530 0.6925
4.1002 1.6123 0.7064
4.0618 1.9883 0.7257
4.0210 2.3873 0.7513
3.9771 2.8173 0.7841
3.9289 3.2885 0.8255
3.8752 3.8142 0.8774
3.8141 4.4126 0.9428
7.4387 10.1554 2.0387
6.5842 10.7001 2.0387
5.6898 11.1723 2.0387
4.7618 11.5692 2.0387
3.8066 11.8887 2.0387
2.8307 12.1291 2.0387
1.8408 12.2893 2.0387
6.4458 -8.5163 2.0387
7.1214 -7.9824 2.0387
7.7519 -7.3941 2.0387
8.3329 -6.7554 2.0387
8.8601 -6.0703 2.0387
9.3298 -5.3435 2.0387
9.4100 -4.4252 1.9699
9.3432 -3.5065 1.8890
9.5871 -2.7412 1.8863
9.7812 -1.9619 1.8863
9.9104 -1.1690 1.8863
4.2811 -0.1579 0.8097
4.2460 0.1855 0.8033
4.2112 0.5257 0.8022
4.1763 0.8672 0.8066
4.1409 1.2144 0.8164
4.1043 1.5722 0.8321
4.0661 1.9460 0.8541
4.0256 2.3420 0.8833
3.9821 2.7682 0.9208
3.9345 3.2342 0.9682
3.8815 3.7530 1.0278
3.8213 4.3423 1.1027
6.3856 8.5569 2.0387
5.6667 9.0279 2.0387
4.9130 9.4381 2.0387
4.1298 9.7850 2.0387
3.3225 10.0666 2.0387
2.4965 10.2815 2.0387
1.6573 10.4285 2.0387
0.8107 10.5072 2.0387
-0.0379 10.5173 2.0387
-0.8829 10.4592 2.0387
-1.7189 10.3337 2.0387
-2.5407 10.1419 2.0387
-3.3429 9.8855 2.0387
-4.1207 9.5665 2.0387
-4.8692 9.1871 2.0387
-5.5840 8.7501 2.0387
-6.2607 8.2584 2.0387
-6.8953 7.7155 2.0387
-7.4840 7.1248 2.0387
-8.0234 6.4902 2.0387
-8.5104 5.8158 2.0387
-8.9422 5.1058 2.0387
-9.3162 4.3647 2.0387
-9.6305 3.5971 2.0387
-9.8831 2.8075 2.0387
-10.0727 2.0010 2.0387
-10.1982 1.1823 2.0387
-10.2590 0.3565 2.0387
-10.2545 -0.4715 2.0387
-10.1850 -1.2967 2.0387
-10.0507 -2.1141 2.0387
-9.8525 -2.9186 2.0387
-9.5913 -3.7055 2.0387
-9.2688 -4.4700 2.0387
-8.8868 -5.2067 2.0387
-8.4472 -5.9127 2.0387
-7.9528 -6.5820 2.0387
-7.4064 -7.2110 2.0387
-6.8111 -7.7954 2.0387
-6.1704 -8.3317 2.0387
-5.4881 -8.8161 2.0387
-4.7682 -9.2455 2.0387
-4.0152 -9.6168 2.0387
-3.2336 -9.9275 2.0387
-2.4282 -10.1751 2.0387
-1.6039 -10.3579 2.0387
-0.7661 -10.4741 2.0387
0.0799 -10.5228 2.0387
0.9288 -10.5032 2.0387
1.7749 -10.4149 2.0387
2.6128 -10.2583 2.0387
3.4367 -10.0340 2.0387
4.2412 -9.7431 2.0387
5.0208 -9.3871 2.0387
5.7700 -8.9681 2.0387
6.4838 -8.4886 2.0387
7.1570 -7.9517 2.0387
7.7849 -7.3606 2.0387
8.3630 -6.7192 2.0387
8.8873 -6.0317 2.0387
9.3537 -5.3027 2.0387
9.4057 -4.3728 1.9649
9.3453 -3.4605 1.8863
9.5994 -2.6992 1.8863
9.7899 -1.9190 1.8863
9.9156 -1.1255 1.8863
4.2791 -0.1390 0.8092
4.2441 0.2041 0.8031
4.2093 0.5443 0.8023
4.1744 0.8860 0.8070
4.1389 1.2336 0.8171
4.1023 1.5921 0.8331
4.0640 1.9669 0.8555
4.0234 2.3644 0.8851
3.9796 2.7925 0.9231
3.9318 3.2610 0.9711
3.8784 3.7832 1.0315
3.8178 4.3769 1.1074
6.3473 8.5841 2.0387
5.6264 9.0519 2.0387
4.8710 9.4586 2.0387
4.0863 9.8020 2.0387
3.2778 10.0801 2.0387
2.4510 10.2913 2.0387
1.6113 10.4346 2.0387
0.7644 10.5095 2.0387
-0.0841 10.5159 2.0387
-0.9288 10.4541 2.0387
-1.7642 10.3249 2.0387
-2.5850 10.1296 2.0387
-3.3860 9.8697 2.0387
-4.1623 9.5473 2.0387
-4.9091 9.1647 2.0387
-5.6219 8.7246 2.0387
-6.2964 8.2301 2.0387
-6.9286 7.6845 2.0387
-7.5147 7.0913 2.0387
-8.0514 6.4544 2.0387
-8.5354 5.7780 2.0387
-8.9641 5.0662 2.0387
-9.3349 4.3235 2.0387
-9.6459 3.5545 2.0387
-9.8951 2.7639 2.0387
-10.0812 1.9565 2.0387
-10.2032 1.1374 2.0387
-10.2604 0.3113 2.0387
-10.2524 -0.5167 2.0387
-10.1793 -1.3415 2.0387
-10.0415 -2.1583 2.0387
-9.8398 -2.9620 2.0387
-9.5753 -3.7479 2.0387
-9.2495 -4.5109 2.0387
-8.8642 -5.2467 2.0387
-8.4216 -5.9502 2.0387
-7.9243 -6.6174 2.0387
-7.3751 -7.2440 2.0387
-6.7773 -7.8260 2.0387
-6.1342 -8.3595 2.0387
-5.4498 -8.8410 2.0387
-4.7280 -9.2673 2.0387
-3.9733 -9.6354 2.0387
-3.1902 -9.9426 2.0387
-2.3836 -10.1868 2.0387
-1.5585 -10.3659 2.0387
-0.7202 -10.4785 2.0387
0.1262 -10.5235 2.0387
0.9751 -10.5001 2.0387
1.8209 -10.4082 2.0387
2.6581 -10.2478 2.0387
3.4811 -10.0199 2.0387
4.2844 -9.7253 2.0387
5.0624 -9.3658 2.0387
5.8099 -8.9435 2.0387
6.5216 -8.4608 2.0387
7.1924 -7.9208 2.0387
7.8178 -7.3269 2.0387
8.3931 -6.6828 2.0387
8.9142 -5.9930 2.0387
9.3774 -5.2618 2.0387
9.4014 -4.3207 1.9599
9.3607 -3.4196 1.8863
9.6114 -2.6570 1.8863
9.7985 -1.8760 1.8863
9.9205 -1.0819 1.8863
4.2772 -0.1202 0.8087
4.2422 0.2227 0.8029
4.2074 0.5629 0.8025
4.1725 0.9047 0.8074
4.1369 1.2529 0.8178
4.1002 1.6121 0.8342
4.0618 1.9880 0.8569
4.0211 2.3869 0.8870
3.9771 2.8169 0.9255
3.9290 3.2880 0.9741
3.8753 3.8135 1.0352
3.8142 4.4118 1.1120
6.3090 8.6111 2.0387
5.5860 9.0756 2.0387
4.8289 9.4790 2.0387
4.0428 9.8189 2.0387
3.2332 10.0933 2.0387
2.4055 10.3008 2.0387
1.5653 10.4404 2.0387
5.5878 -7.3810 2.0387
6.1721 -6.9169 2.0387
6.7172 -6.4060 2.0387
7.2192 -5.8516 2.0387
7.6748 -5.2573 2.0387
8.0804 -4.6272 2.0387
8.4334 -3.9654 2.0387
8.7311 -3.2763 2.0387
8.9713 -2.5647 2.0387
9.1380 -1.8327 2.0355
9.0692 -1.0696 1.9939
4.2811 -0.1579 0.9353
4.2460 0.1855 0.9279
4.2112 0.5257 0.9267
4.1763 0.8671 0.9317
4.1409 1.2143 0.9430
4.1043 1.5720 0.9610
4.0662 1.9457 0.9863
4.0257 2.3417 1.0199
3.9822 2.7678 1.0630
3.9346 3.2337 1.1176
3.8816 3.7524 1.1861
3.8214 4.3415 1.2723
5.5358 7.4165 2.0387
4.9138 7.8264 2.0387
4.2614 8.1839 2.0387
3.5831 8.4867 2.0387
2.8836 8.7331 2.0387
2.1675 8.9217 2.0387
1.4397 9.0515 2.0387
0.7051 9.1221 2.0387
-0.0317 9.1332 2.0387
-0.7657 9.0850 2.0387
-1.4922 8.9783 2.0387
-2.2067 8.8139 2.0387
-2.9046 8.5931 2.0387
-3.5815 8.3177 2.0387
-4.2333 7.9896 2.0387
-4.8559 7.6111 2.0387
-5.4457 7.1850 2.0387
-5.9989 6.7139 2.0387
-6.5123 6.2009 2.0387
-6.9829 5.6496 2.0387
-7.4079 5.0632 2.0387
-7.7848 4.4457 2.0387
-8.1114 3.8008 2.0387
-8.3858 3.1326 2.0387
-8.6065 2.4452 2.0387
-8.7721 1.7428 2.0387
-8.8818 1.0298 2.0387
-8.9348 0.3105 2.0387
-8.9309 -0.4107 2.0387
-8.8702 -1.1294 2.0387
-8.7529 -1.8413 2.0387
-8.5796 -2.5420 2.0387
-8.3516 -3.2270 2.0387
-8.0699 -3.8924 2.0387
-7.7363 -4.5338 2.0387
-7.3526 -5.1474 2.0387
-6.9212 -5.7292 2.0387
-6.4445 -6.2757 2.0387
-5.9253 -6.7831 2.0387
-5.3668 -7.2483 2.0387
-4.7722 -7.6682 2.0387
-4.1452 -8.0399 2.0387
-3.4896 -8.3609 2.0387
-2.8094 -8.6290 2.0387
-2.1088 -8.8421 2.0387
-1.3922 -8.9987 2.0387
-0.6642 -9.0974 2.0387
0.0706 -9.1374 2.0387
0.8076 -9.1180 2.0387
1.5417 -9.0391 2.0387
2.2683 -8.9010 2.0387
2.9825 -8.7042 2.0387
3.6795 -8.4498 2.0387
4.3545 -8.1392 2.0387
5.0031 -7.7741 2.0387
5.6206 -7.3570 2.0387
6.2028 -6.8902 2.0387
6.7457 -6.3768 2.0387
7.2453 -5.8202 2.0387
7.6982 -5.2239 2.0387
8.1011 -4.5919 2.0387
8.4511 -3.9284 2.0387
8.7457 -3.2380 2.0387
8.9827 -2.5254 2.0387
9.1342 -1.7902 2.0329
9.0655 -1.0289 1.9921
4.2791 -0.1390 0.9347
4.2441 0.2041 0.9276
4.2093 0.5442 0.9268
4.1744 0.8858 0.9321
4.1389 1.2335 0.9438
4.1023 1.5919 0.9621
4.0640 1.9667 0.9879
4.0234 2.3641 1.0220
3.9797 2.7920 1.0657
3.9318 3.2605 1.1209
3.8785 3.7825 1.1903
3.8179 4.3761 1.2776
5.5028 7.4402 2.0387
4.8790 7.8473 2.0387
4.2250 8.2018 2.0387
3.5455 8.5016 2.0387
2.8449 8.7448 2.0387
2.1281 8.9303 2.0387
1.3998 9.0569 2.0387
0.6649 9.1242 2.0387
-0.0718 9.1321 2.0387
-0.8055 9.0807 2.0387
-1.5316 8.9708 2.0387
-2.2452 8.8032 2.0387
-2.9421 8.5794 2.0387
-3.6178 8.3011 2.0387
-4.2681 7.9702 2.0387
-4.8890 7.5891 2.0387
-5.4768 7.1604 2.0387
-6.0279 6.6869 2.0387
-6.5391 6.1718 2.0387
-7.0073 5.6185 2.0387
-7.4297 5.0303 2.0387
-7.8039 4.4112 2.0387
-8.1278 3.7649 2.0387
-8.3993 3.0955 2.0387
-8.6170 2.4072 2.0387
-8.7796 1.7042 2.0387
-8.8861 0.9907 2.0387
-8.9361 0.2712 2.0387
-8.9291 -0.4500 2.0387
-8.8652 -1.1685 2.0387
-8.7448 -1.8799 2.0387
-8.5686 -2.5798 2.0387
-8.3376 -3.2639 2.0387
-8.0530 -3.9280 2.0387
-7.7166 -4.5680 2.0387
-7.3303 -5.1800 2.0387
-6.8963 -5.7600 2.0387
-6.4172 -6.3044 2.0387
-5.8959 -6.8096 2.0387
-5.3353 -7.2724 2.0387
-4.7388 -7.6897 2.0387
-4.1102 -8.0587 2.0387
-3.4531 -8.3769 2.0387
-2.7717 -8.6420 2.0387
-2.0701 -8.8521 2.0387
-1.3528 -9.0056 2.0387
-0.6242 -9.1011 2.0387
0.1108 -9.1378 2.0387
0.8477 -9.1152 2.0387
1.5816 -9.0331 2.0387
2.3076 -8.8918 2.0387
3.0210 -8.6918 2.0387
3.7169 -8.4343 2.0387
4.3906 -8.1206 2.0387
5.0376 -7.7527 2.0387
5.6533 -7.3328 2.0387
6.2335 -6.8634 2.0387
6.7741 -6.3476 2.0387
7.2713 -5.7886 2.0387
7.7215 -5.1903 2.0387
8.1216 -4.5565 2.0387
8.4686 -3.8914 2.0387
8.7601 -3.1997 2.0387
8.9939 -2.4860 2.0387
9.1304 -1.7479 2.0303
9.0617 -0.9881 1.9903
4.2772 -0.1202 0.9342
4.2422 0.2227 0.9274
4.2074 0.5628 0.9269
4.1725 0.9046 0.9326
4.1370 1.2527 0.9446
4.1003 1.6119 0.9634
4.0619 1.9877 0.9895
4.0211 2.3866 1.0241
3.9772 2.8164 1.0684
3.9291 3.2874 1.1243
3.8754 3.8129 1.1946
3.8143 4.4110 1.2830
5.4696 7.4637 2.0387
4.8440 7.8680 2.0387
4.1886 8.2196 2.0387
3.5078 8.5163 2.0387
2.8062 8.7565 2.0387
2.0886 8.9387 2.0387
1.3599 9.0621 2.0387
4.9243 -6.5031 2.0387
5.4382 -6.0933 2.0387
5.9176 -5.6424 2.0387
6.3590 -5.1534 2.0387
6.7593 -4.6295 2.0387
7.1158 -4.0742 2.0387
7.4259 -3.4911 2.0387
7.6873 -2.8842 2.0387
7.8983 -2.2577 2.0387
8.0573 -1.6157 2.0387
8.1631 -0.9626 2.0387
4.2811 -0.1579 1.0624
4.2460 0.1854 1.0540
4.2112 0.5256 1.0527
4.1764 0.8670 1.0583
4.1409 1.2141 1.0711
4.1044 1.5718 1.0914
4.0662 1.9454 1.1201
4.0257 2.3413 1.1581
3.9822 2.7673 1.2070
3.9346 3.2332 1.2687
3.8816 3.7518 1.3464
3.8215 4.3407 1.4440
4.8787 6.5346 2.0387
4.3313 6.8970 2.0387
3.7571 7.2132 2.0387
3.1598 7.4814 2.0387
2.5436 7.7001 2.0387
1.9126 7.8679 2.0387
1.2711 7.9840 2.0387
0.6232 8.0478 2.0387
-0.0268 8.0592 2.0387
-0.6747 8.0183 2.0387
-1.3162 7.9256 2.0387
-1.9472 7.7819 2.0387
-2.5639 7.5884 2.0387
-3.1623 7.3465 2.0387
-3.7386 7.0580 2.0387
-4.2893 6.7248 2.0387
-4.8111 6.3492 2.0387
-5.3008 5.9338 2.0387
-5.7554 5.4812 2.0387
-6.1721 4.9945 2.0387
-6.5486 4.4766 2.0387
-6.8825 3.9310 2.0387
-7.1719 3.3611 2.0387
-7.4151 2.7704 2.0387
-7.6107 2.1626 2.0387
-7.7575 1.5414 2.0387
-7.8547 0.9108 2.0387
-7.9017 0.2746 2.0387
-7.8983 -0.3633 2.0387
-7.8444 -0.9990 2.0387
-7.7404 -1.6286 2.0387
-7.5869 -2.2481 2.0387
-7.3847 -2.8539 2.0387
-7.1350 -3.4420 2.0387
-6.8394 -4.0088 2.0387
-6.4995 -4.5509 2.0387
-6.1173 -5.0647 2.0387
-5.6952 -5.5470 2.0387
-5.2356 -5.9948 2.0387
-4.7413 -6.4049 2.0387
-4.2152 -6.7749 2.0387
-3.6606 -7.1021 2.0387
-3.0809 -7.3844 2.0387
-2.4797 -7.6197 2.0387
-1.8607 -7.8065 2.0387
-1.2278 -7.9432 2.0387
-0.5851 -8.0287 2.0387
0.0634 -8.0624 2.0387
0.7135 -8.0438 2.0387
1.3609 -7.9726 2.0387
2.0014 -7.8493 2.0387
2.6307 -7.6743 2.0387
3.2446 -7.4486 2.0387
3.8390 -7.1735 2.0387
4.4098 -6.8506 2.0387
4.9532 -6.4819 2.0387
5.4653 -6.0697 2.0387
5.9427 -5.6166 2.0387
6.3819 -5.1257 2.0387
6.7799 -4.6000 2.0387
7.1339 -4.0430 2.0387
7.4414 -3.4586 2.0387
7.7001 -2.8505 2.0387
7.9083 -2.2230 2.0387
8.0644 -1.5803 2.0387
8.1673 -0.9268 2.0387
4.2792 -0.1390 1.0618
4.2441 0.2040 1.0538
4.2094 0.5441 1.0528
4.1745 0.8857 1.0588
4.1389 1.2333 1.0720
4.1023 1.5917 1.0928
4.0640 1.9664 1.1219
4.0235 2.3637 1.1605
3.9797 2.7916 1.2100
3.9319 3.2599 1.2725
3.8786 3.7819 1.3511
3.8179 4.3753 1.4500
4.8496 6.5555 2.0387
4.3007 6.9154 2.0387
3.7251 7.2291 2.0387
3.1267 7.4947 2.0387
2.5095 7.7106 2.0387
1.8779 7.8756 2.0387
1.2358 7.9888 2.0387
0.5877 8.0498 2.0387
-0.0623 8.0583 2.0387
-0.7098 8.0145 2.0387
-1.3509 7.9190 2.0387
-1.9813 7.7726 2.0387
-2.5970 7.5764 2.0387
-3.1943 7.3320 2.0387
-3.7693 7.0409 2.0387
-4.3186 6.7054 2.0387
-4.8387 6.3276 2.0387
-5.3265 5.9100 2.0387
-5.7791 5.4555 2.0387
-6.1937 4.9670 2.0387
-6.5679 4.4476 2.0387
-6.8994 3.9005 2.0387
-7.1864 3.3294 2.0387
-7.4270 2.7376 2.0387
-7.6200 2.1290 2.0387
-7.7641 1.5073 2.0387
-7.8586 0.8762 2.0387
-7.9029 0.2399 2.0387
-7.8966 -0.3981 2.0387
-7.8400 -1.0335 2.0387
-7.7333 -1.6627 2.0387
-7.5771 -2.2816 2.0387
-7.3723 -2.8864 2.0387
-7.1201 -3.4735 2.0387
-6.8220 -4.0391 2.0387
-6.4797 -4.5797 2.0387
-6.0953 -5.0919 2.0387
-5.6711 -5.5724 2.0387
-5.2095 -6.0181 2.0387
-4.7133 -6.4262 2.0387
-4.1857 -6.7939 2.0387
-3.6296 -7.1187 2.0387
-3.0487 -7.3984 2.0387
-2.4464 -7.6312 2.0387
-1.8265 -7.8152 2.0387
-1.1930 -7.9492 2.0387
-0.5498 -8.0319 2.0387
0.0989 -8.0628 2.0387
0.7489 -8.0412 2.0387
1.3961 -7.9672 2.0387
2.0361 -7.8410 2.0387
2.6646 -7.6633 2.0387
3.2776 -7.4348 2.0387
3.8708 -7.1571 2.0387
4.4402 -6.8316 2.0387
4.9819 -6.4605 2.0387
5.4923 -6.0460 2.0387
5.9676 -5.5908 2.0387
6.4047 -5.0979 2.0387
6.8004 -4.5704 2.0387
7.1519 -4.0118 2.0387
7.4568 -3.4260 2.0387
7.7128 -2.8168 2.0387
7.9182 -2.1883 2.0387
8.0714 -1.5449 2.0387
8.1714 -0.8909 2.0387
4.2772 -0.1202 1.0612
4.2422 0.2226 1.0535
4.2075 0.5627 1.0529
4.1725 0.9045 1.0593
4.1370 1.2525 1.0729
4.1003 1.6117 1.0941
4.0619 1.9874 1.1238
4.0212 2.3862 1.1629
3.9772 2.8160 1.2130
3.9291 3.2869 1.2764
3.8755 3.8122 1.3559
3.8144 4.4102 1.4561
4.8204 6.5763 2.0387
4.2699 6.9337 2.0387
3.6930 7.2448 2.0387
3.0934 7.5077 2.0387
2.4754 7.7209 2.0387
1.8431 7.8831 2.0387
1.2006 7.9935 2.0387
4.3952 -5.8030 2.0387
4.8532 -5.4366 2.0387
5.2803 -5.0337 2.0387
5.6734 -4.5970 2.0387
6.0300 -4.1293 2.0387
6.3474 -3.6336 2.0387
6.6235 -3.1134 2.0387
6.8562 -2.5720 2.0387
7.0440 -2.0132 2.0387
7.1855 -1.4407 2.0387
7.2797 -0.8583 2.0387
4.2811 -0.1579 1.1914
4.2460 0.1854 1.1820
4.2113 0.5255 1.1804
4.1764 0.8669 1.1867
4.1409 1.2139 1.2009
4.1044 1.5716 1.2237
4.0662 1.9451 1.2558
4.0258 2.3410 1.2983
3.9823 2.7669 1.3529
3.9347 3.2326 1.4220
3.8346 3.7056 1.4905
3.8216 4.3399 1.6181
4.3546 5.8313 2.0387
3.8667 6.1554 2.0387
3.3546 6.4386 2.0387
2.8219 6.6790 2.0387
2.2721 6.8752 2.0387
1.7090 7.0261 2.0387
1.1363 7.1309 2.0387
0.5577 7.1890 2.0387
-0.0230 7.2003 2.0387
-0.6018 7.1649 2.0387
-1.1753 7.0832 2.0387
-1.7395 6.9558 2.0387
-2.2911 6.7839 2.0387
-2.8264 6.5686 2.0387
-3.3422 6.3115 2.0387
-3.8352 6.0143 2.0387
-4.3024 5.6791 2.0387
-4.7409 5.3082 2.0387
-5.1482 4.9039 2.0387
-5.5216 4.4688 2.0387
-5.8589 4.0059 2.0387
-6.1582 3.5179 2.0387
-6.4177 3.0081 2.0387
-6.6357 2.4796 2.0387
-6.8111 1.9357 2.0387
-6.9428 1.3798 2.0387
-7.0299 0.8153 2.0387
-7.0721 0.2458 2.0387
-7.0690 -0.3252 2.0387
-7.0206 -0.8942 2.0387
-6.9274 -1.4577 2.0387
-6.7897 -2.0122 2.0387
-6.6084 -2.5542 2.0387
-6.3846 -3.0804 2.0387
-6.1195 -3.5875 2.0387
-5.8149 -4.0722 2.0387
-5.4724 -4.5316 2.0387
-5.0942 -4.9626 2.0387
-4.6825 -5.3626 2.0387
-4.2397 -5.7288 2.0387
-3.7687 -6.0589 2.0387
-3.2723 -6.3507 2.0387
-2.7536 -6.6022 2.0387
-2.2157 -6.8116 2.0387
-1.6621 -6.9775 2.0387
-1.0963 -7.0986 2.0387
-0.5218 -7.1739 2.0387
0.0577 -7.2029 2.0387
0.6384 -7.1851 2.0387
1.2165 -7.1204 2.0387
1.7882 -7.0092 2.0387
2.3498 -6.8519 2.0387
2.8975 -6.6494 2.0387
3.4276 -6.4029 2.0387
3.9366 -6.1138 2.0387
4.4209 -5.7840 2.0387
4.8773 -5.4156 2.0387
5.3026 -5.0108 2.0387
5.6939 -4.5723 2.0387
6.0483 -4.1029 2.0387
6.3636 -3.6059 2.0387
6.6373 -3.0844 2.0387
6.8676 -2.5420 2.0387
7.0529 -1.9823 2.0387
7.1918 -1.4091 2.0387
7.2834 -0.8264 2.0387
4.2792 -0.1390 1.1907
4.2441 0.2040 1.1817
4.2094 0.5441 1.1805
4.1745 0.8856 1.1872
4.1390 1.2331 1.2020
4.1024 1.5915 1.2252
4.0641 1.9661 1.2578
4.0235 2.3634 1.3009
3.9798 2.7912 1.3563
3.9320 3.2594 1.4263
3.8515 3.7547 1.5036
3.8180 4.3745 1.6248
4.3287 5.8500 2.0387
3.8394 6.1719 2.0387
3.3261 6.4528 2.0387
2.7923 6.6908 2.0387
2.2417 6.8846 2.0387
1.6780 7.0330 2.0387
1.1048 7.1353 2.0387
0.5260 7.1908 2.0387
-0.0546 7.1996 2.0387
-0.6333 7.1616 2.0387
-1.2063 7.0774 2.0387
-1.7700 6.9476 2.0387
-2.3207 6.7732 2.0387
-2.8551 6.5556 2.0387
-3.3697 6.2963 2.0387
-3.8614 5.9970 2.0387
-4.3271 5.6598 2.0387
-4.7640 5.2870 2.0387
-5.1694 4.8809 2.0387
-5.5409 4.4443 2.0387
-5.8762 3.9799 2.0387
-6.1734 3.4906 2.0387
-6.4306 2.9797 2.0387
-6.6464 2.4503 2.0387
-6.8194 1.9056 2.0387
-6.9487 1.3492 2.0387
-7.0334 0.7843 2.0387
-7.0731 0.2147 2.0387
-7.0675 -0.3563 2.0387
-7.0167 -0.9251 2.0387
-6.9210 -1.4882 2.0387
-6.7809 -2.0421 2.0387
-6.5973 -2.5834 2.0387
-6.3711 -3.1086 2.0387
-6.1039 -3.6145 2.0387
-5.7972 -4.0980 2.0387
-5.4527 -4.5559 2.0387
-5.0726 -4.9853 2.0387
-4.6591 -5.3834 2.0387
-4.2148 -5.7478 2.0387
-3.7423 -6.0758 2.0387
-3.2446 -6.3655 2.0387
-2.7247 -6.6147 2.0387
-2.1859 -6.8218 2.0387
-1.6315 -6.9853 2.0387
-1.0651 -7.1039 2.0387
-0.4903 -7.1767 2.0387
0.0894 -7.2031 2.0387
0.6700 -7.1828 2.0387
1.2478 -7.1156 2.0387
1.8191 -7.0018 2.0387
2.3801 -6.8420 2.0387
2.9269 -6.6371 2.0387
3.4560 -6.3882 2.0387
3.9637 -6.0969 2.0387
4.4466 -5.7649 2.0387
4.9013 -5.3944 2.0387
5.3249 -4.9877 2.0387
5.7142 -4.5474 2.0387
6.0666 -4.0765 2.0387
6.3796 -3.5780 2.0387
6.6510 -3.0553 2.0387
6.8789 -2.5119 2.0387
7.0617 -1.9513 2.0387
7.1981 -1.3776 2.0387
7.2870 -0.7944 2.0387
4.2772 -0.1201 1.1900
4.2422 0.2226 1.1814
4.2075 0.5626 1.1807
4.1726 0.9044 1.1878
4.1370 1.2523 1.2030
4.1003 1.6114 1.2268
4.0619 1.9871 1.2599
4.0212 2.3858 1.3036
3.9773 2.8156 1.3597
3.9292 3.2863 1.4306
3.8756 3.8115 1.5196
3.8145 4.4094 1.6316
4.3027 5.8686 2.0387
3.8119 6.1884 2.0387
3.2975 6.4669 2.0387
2.7627 6.7026 2.0387
2.2113 6.8939 2.0387
1.6469 7.0398 2.0387
1.0734 7.1395 2.0387
3.9628 -5.2309 2.0387
4.3752 -4.9001 2.0387
4.7596 -4.5365 2.0387
5.1135 -4.1426 2.0387
5.4344 -3.7208 2.0387
5.7200 -3.2740 2.0387
5.9684 -2.8050 2.0387
6.1778 -2.3172 2.0387
6.3467 -1.8136 2.0387
6.4739 -1.2978 2.0387
6.5587 -0.7732 2.0387
4.2811 -0.1579 1.3224
4.2460 0.1854 1.3119
4.2113 0.5254 1.3102
4.1764 0.8667 1.3171
4.1410 1.2138 1.3329
4.1044 1.5713 1.3581
4.0663 1.9448 1.3936
4.0258 2.3406 1.4407
3.9823 2.7664 1.5012
3.9348 3.2321 1.5777
3.7688 3.6413 1.6252
3.8217 4.3391 1.7949
3.9263 5.2564 2.0387
3.4868 5.5492 2.0387
3.0255 5.8052 2.0387
2.5455 6.0226 2.0387
2.0500 6.2003 2.0387
1.5424 6.3372 2.0387
1.0259 6.4325 2.0387
0.5040 6.4858 2.0387
-0.0198 6.4968 2.0387
-0.5422 6.4657 2.0387
-1.0598 6.3927 2.0387
-1.5693 6.2786 2.0387
-2.0674 6.1241 2.0387
-2.5509 5.9305 2.0387
-3.0169 5.6990 2.0387
-3.4625 5.4313 2.0387
-3.8848 5.1291 2.0387
-4.2813 4.7946 2.0387
-4.6495 4.4298 2.0387
-4.9872 4.0371 2.0387
-5.2924 3.6191 2.0387
-5.5632 3.1785 2.0387
-5.7979 2.7180 2.0387
-5.9953 2.2406 2.0387
-6.1540 1.7492 2.0387
-6.2731 1.2468 2.0387
-6.3520 0.7368 2.0387
-6.3902 0.2221 2.0387
-6.3873 -0.2939 2.0387
-6.3436 -0.8081 2.0387
-6.2592 -1.3173 2.0387
-6.1345 -1.8183 2.0387
-5.9705 -2.3080 2.0387
-5.7679 -2.7834 2.0387
-5.5281 -3.2413 2.0387
-5.2525 -3.6791 2.0387
-4.9427 -4.0937 2.0387
-4.6007 -4.4827 2.0387
-4.2284 -4.8436 2.0387
-3.8281 -5.1738 2.0387
-3.4024 -5.4714 2.0387
-2.9538 -5.7343 2.0387
-2.4851 -5.9606 2.0387
-1.9992 -6.1490 2.0387
-1.4993 -6.2980 2.0387
-0.9885 -6.4065 2.0387
-0.4699 -6.4736 2.0387
0.0530 -6.4989 2.0387
0.5768 -6.4820 2.0387
1.0982 -6.4229 2.0387
1.6137 -6.3217 2.0387
2.1200 -6.1791 2.0387
2.6136 -5.9957 2.0387
3.0912 -5.7728 2.0387
3.5497 -5.5116 2.0387
3.9859 -5.2137 2.0387
4.3969 -4.8811 2.0387
4.7797 -4.5158 2.0387
5.1319 -4.1203 2.0387
5.4509 -3.6970 2.0387
5.7346 -3.2489 2.0387
5.9808 -2.7789 2.0387
6.1880 -2.2901 2.0387
6.3547 -1.7858 2.0387
6.4797 -1.2694 2.0387
6.5620 -0.7444 2.0387
4.2792 -0.1390 1.3216
4.2441 0.2040 1.3116
4.2094 0.5440 1.3103
4.1745 0.8855 1.3177
4.1390 1.2329 1.3340
4.1024 1.5912 1.3598
4.0641 1.9658 1.3959
4.0235 2.3630 1.4436
3.9799 2.7907 1.5049
3.9320 3.2589 1.5824
3.7761 3.6805 1.6354
3.8181 4.3737 1.8023
3.9029 5.2733 2.0387
3.4622 5.5642 2.0387
2.9998 5.8180 2.0387
2.5189 6.0334 2.0387
2.0226 6.2088 2.0387
1.5144 6.3435 2.0387
0.9975 6.4365 2.0387
0.4755 6.4875 2.0387
-0.0484 6.4962 2.0387
-0.5706 6.4628 2.0387
-1.0878 6.3876 2.0387
-1.5967 6.2712 2.0387
-2.0941 6.1146 2.0387
-2.5768 5.9188 2.0387
-3.0418 5.6853 2.0387
-3.4861 5.4157 2.0387
-3.9071 5.1117 2.0387
-4.3021 4.7754 2.0387
-4.6688 4.4090 2.0387
-5.0048 4.0150 2.0387
-5.3081 3.5957 2.0387
-5.5769 3.1539 2.0387
-5.8097 2.6924 2.0387
-6.0049 2.2141 2.0387
-6.1615 1.7220 2.0387
-6.2785 1.2192 2.0387
-6.3551 0.7088 2.0387
-6.3911 0.1940 2.0387
-6.3860 -0.3220 2.0387
-6.3400 -0.8360 2.0387
-6.2534 -1.3449 2.0387
-6.1266 -1.8454 2.0387
-5.9604 -2.3344 2.0387
-5.7558 -2.8088 2.0387
-5.5140 -3.2658 2.0387
-5.2365 -3.7023 2.0387
-4.9249 -4.1156 2.0387
-4.5811 -4.5032 2.0387
-4.2072 -4.8624 2.0387
-3.8055 -5.1909 2.0387
-3.3785 -5.4867 2.0387
-2.9287 -5.7476 2.0387
-2.4590 -5.9719 2.0387
-1.9723 -6.1581 2.0387
-1.4717 -6.3049 2.0387
-0.9603 -6.4112 2.0387
-0.4415 -6.4761 2.0387
0.0816 -6.4991 2.0387
0.6054 -6.4799 2.0387
1.1265 -6.4184 2.0387
1.6416 -6.3150 2.0387
2.1473 -6.1701 2.0387
2.6401 -5.9846 2.0387
3.1168 -5.7595 2.0387
3.5741 -5.4962 2.0387
4.0090 -5.1964 2.0387
4.4185 -4.8620 2.0387
4.7998 -4.4950 2.0387
5.1502 -4.0979 2.0387
5.4673 -3.6732 2.0387
5.7490 -3.2238 2.0387
5.9932 -2.7527 2.0387
6.1982 -2.2630 2.0387
6.3626 -1.7579 2.0387
6.4853 -1.2410 2.0387
6.5653 -0.7156 2.0387
4.2772 -0.1201 1.3208
4.2422 0.2226 1.3113
4.2075 0.5625 1.3105
4.1726 0.9042 1.3184
4.1370 1.2522 1.3352
4.1004 1.6112 1.3615
4.0620 1.9868 1.3982
4.0213 2.3855 1.4466
3.9774 2.8151 1.5087
3.9240 3.2814 1.5851
3.7912 3.7278 1.6490
3.8146 4.4085 1.8098
3.8795 5.2901 2.0387
3.4375 5.5790 2.0387
2.9740 5.8308 2.0387
2.4922 6.0440 2.0387
1.9952 6.2172 2.0387
1.4864 6.3496 2.0387
0.9692 6.4404 2.0387
3.6022 -4.7538 2.0387
3.9766 -4.4528 2.0387
4.3257 -4.1221 2.0387
4.6469 -3.7639 2.0387
4.9381 -3.3804 2.0387
5.1973 -2.9743 2.0387
5.4227 -2.5482 2.0387
5.6127 -2.1049 2.0387
5.7659 -1.6474 2.0387
5.8813 -1.1789 2.0387
5.9582 -0.7023 2.0387
4.2811 -0.1579 1.4556
4.2460 0.1854 1.4441
4.1849 0.5221 1.4332
4.1764 0.8666 1.4498
4.1410 1.2136 1.4672
4.1045 1.5711 1.4949
4.0663 1.9445 1.5339
4.0259 2.3403 1.5856
3.9824 2.7660 1.6521
3.9348 3.2315 1.7362
3.7876 3.6586 1.7971
3.9456 4.4788 2.0387
3.5691 4.7771 2.0387
3.1700 5.0437 2.0387
2.7510 5.2768 2.0387
2.3149 5.4750 2.0387
1.8647 5.6371 2.0387
1.4033 5.7621 2.0387
0.9338 5.8494 2.0387
0.4593 5.8985 2.0387
-0.0172 5.9092 2.0387
-0.4924 5.8815 2.0387
-0.9633 5.8158 2.0387
-1.4269 5.7125 2.0387
-1.8803 5.5725 2.0387
-2.3206 5.3969 2.0387
-2.7449 5.1867 2.0387
-3.1507 4.9435 2.0387
-3.5354 4.6689 2.0387
-3.8966 4.3647 2.0387
-4.2322 4.0329 2.0387
-4.5399 3.6757 2.0387
-4.8181 3.2953 2.0387
-5.0649 2.8943 2.0387
-5.2789 2.4751 2.0387
-5.4588 2.0404 2.0387
-5.6035 1.5929 2.0387
-5.7122 1.1355 2.0387
-5.7841 0.6710 2.0387
-5.8189 0.2023 2.0387
-5.8163 -0.2677 2.0387
-5.7764 -0.7360 2.0387
-5.6994 -1.1997 2.0387
-5.5858 -1.6559 2.0387
-5.4362 -2.1018 2.0387
-5.2515 -2.5346 2.0387
-5.0329 -2.9515 2.0387
-4.7817 -3.3499 2.0387
-4.4993 -3.7272 2.0387
-4.1876 -4.0810 2.0387
-3.8483 -4.4092 2.0387
-3.4837 -4.7095 2.0387
-3.0959 -4.9799 2.0387
-2.6873 -5.2187 2.0387
-2.2606 -5.4242 2.0387
-1.8183 -5.5950 2.0387
-1.3633 -5.7300 2.0387
-0.8984 -5.8281 2.0387
-0.4266 -5.8886 2.0387
0.0490 -5.9109 2.0387
0.5254 -5.8949 2.0387
0.9995 -5.8405 2.0387
1.4681 -5.7479 2.0387
0.6966 -2.0294 0.7365
2.3767 -5.4504 2.0387
2.8107 -5.2472 2.0387
3.2271 -5.0093 2.0387
3.6232 -4.7382 2.0387
3.9964 -4.4355 2.0387
4.3439 -4.1032 2.0387
4.6636 -3.7436 2.0387
4.9531 -3.3588 2.0387
5.2105 -2.9515 2.0387
5.4340 -2.5244 2.0387
5.6220 -2.0803 2.0387
5.7732 -1.6221 2.0387
5.8865 -1.1531 2.0387
5.9613 -0.6762 2.0387
4.2792 -0.1390 1.4548
4.2441 0.2039 1.4438
4.1814 0.5403 1.4328
4.1745 0.8853 1.4505
4.1390 1.2328 1.4684
4.1024 1.5910 1.4967
4.0642 1.9655 1.5363
4.0236 2.3626 1.5888
3.9799 2.7903 1.6562
3.9321 3.2583 1.7413
3.8132 3.7159 1.8170
3.9257 4.4958 2.0387
3.5479 4.7925 2.0387
3.1476 5.0573 2.0387
2.7276 5.2885 2.0387
2.2907 5.4848 2.0387
1.8398 5.6449 2.0387
1.3778 5.7679 2.0387
0.9080 5.8531 2.0387
0.4333 5.9001 2.0387
-0.0431 5.9087 2.0387
-0.5182 5.8789 2.0387
-0.9888 5.8111 2.0387
-1.4519 5.7058 2.0387
-1.9047 5.5639 2.0387
-2.3441 5.3863 2.0387
-2.7675 5.1743 2.0387
-3.1722 4.9293 2.0387
-3.5557 4.6530 2.0387
-3.9156 4.3473 2.0387
-4.2497 4.0141 2.0387
-4.5559 3.6555 2.0387
-4.8324 3.2740 2.0387
-5.0774 2.8719 2.0387
-5.2896 2.4518 2.0387
-5.4676 2.0163 2.0387
-5.6104 1.5682 2.0387
-5.7171 1.1104 2.0387
-5.7870 0.6455 2.0387
-5.8197 0.1767 2.0387
-5.8151 -0.2933 2.0387
-5.7732 -0.7614 2.0387
-5.6942 -1.2248 2.0387
-5.5786 -1.6805 2.0387
-5.4270 -2.1258 2.0387
-5.2405 -2.5577 2.0387
-5.0200 -2.9737 2.0387
-4.7671 -3.3710 2.0387
-4.4831 -3.7471 2.0387
-4.1698 -4.0997 2.0387
-3.8291 -4.4264 2.0387
-3.4631 -4.7250 2.0387
-3.0741 -4.9938 2.0387
-2.6645 -5.2308 2.0387
-2.2368 -5.4344 2.0387
-1.7938 -5.6033 2.0387
-1.3381 -5.7363 2.0387
-0.8728 -5.8323 2.0387
-0.4007 -5.8908 2.0387
0.0750 -5.9111 2.0387
0.5514 -5.8930 2.0387
1.0252 -5.8364 2.0387
1.4935 -5.7418 2.0387
0.7055 -2.0263 0.7364
2.4008 -5.4402 2.0387
2.8339 -5.2351 2.0387
3.2493 -4.9954 2.0387
3.6442 -4.7225 2.0387
4.0160 -4.4181 2.0387
4.3621 -4.0843 2.0387
4.6802 -3.7232 2.0387
4.9680 -3.3372 2.0387
5.2236 -2.9287 2.0387
5.4452 -2.5006 2.0387
5.6312 -2.0556 2.0387
5.7803 -1.5968 2.0387
5.8916 -1.1272 2.0387
5.9642 -0.6500 2.0387
4.2773 -0.1201 1.4539
4.2422 0.2225 1.4435
4.1787 0.5586 1.4327
4.1726 0.9041 1.4512
4.1371 1.2520 1.4697
4.1004 1.6109 1.4985
4.0620 1.9865 1.5388
4.0213 2.3851 1.5921
3.9774 2.8146 1.6603
3.9194 3.2769 1.7421
4.2598 4.1878 2.0387
3.9057 4.5128 2.0387
3.5266 4.8078 2.0387
3.1252 5.0707 2.0387
2.7042 5.3001 2.0387
2.2664 5.4944 2.0387
1.8148 5.6526 2.0387
1.3524 5.7735 2.0387
0.8822 5.8566 2.0387
3.2965 -4.3493 2.0387
3.6388 -4.0736 2.0387
3.9579 -3.7709 2.0387
4.2515 -3.4429 2.0387
4.5176 -3.0920 2.0387
4.7545 -2.7204 2.0387
4.9604 -2.3306 2.0387
5.1340 -1.9251 2.0387
5.2740 -1.5067 2.0387
5.3794 -1.0781 2.0387
5.4496 -0.6423 2.0387
4.2811 -0.1578 1.5915
4.2461 0.1853 1.5789
4.1231 0.5143 1.5438
4.1765 0.8665 1.5851
4.1410 1.2134 1.6040
4.1045 1.5709 1.6342
4.0664 1.9442 1.6768
4.0259 2.3399 1.7333
3.9824 2.7655 1.8059
4.0613 3.3348 1.9586
3.9316 3.7970 2.0387
3.6105 4.0975 2.0387
3.2663 4.3707 2.0387
2.9014 4.6150 2.0387
2.5182 4.8286 2.0387
0.7727 1.8268 0.7433
0.6232 1.8831 0.7441
0.4696 1.9271 0.7449
0.3129 1.9585 0.7457
0.4212 5.3999 2.0387
-0.0149 5.4102 2.0387
-0.4500 5.3854 2.0387
-0.3236 1.9556 0.7486
-0.4800 1.9228 0.7493
-0.6332 1.8774 0.7499
-2.1248 4.9434 2.0387
-2.5136 4.7512 2.0387
-2.8856 4.5288 2.0387
-3.2383 4.2775 2.0387
-3.5695 3.9991 2.0387
-3.8771 3.6954 2.0387
-4.1594 3.3683 2.0387
-4.4145 3.0199 2.0387
-4.6409 2.6525 2.0387
-4.8373 2.2684 2.0387
-5.0023 1.8701 2.0387
-5.1351 1.4600 2.0387
-5.2348 1.0408 2.0387
-5.3008 0.6150 2.0387
-5.3327 0.1854 2.0387
-5.3303 -0.2453 2.0387
-5.2937 -0.6746 2.0387
-5.2231 -1.0996 2.0387
-5.1188 -1.5177 2.0387
-4.9815 -1.9263 2.0387
-4.8121 -2.3229 2.0387
-4.6116 -2.7048 2.0387
-4.3811 -3.0698 2.0387
-4.1221 -3.4154 2.0387
-3.8362 -3.7395 2.0387
-3.5252 -4.0399 2.0387
-3.1908 -4.3147 2.0387
-2.8353 -4.5621 2.0387
-2.4609 -4.7804 2.0387
-0.7549 -1.8121 0.7436
-0.6065 -1.8671 0.7428
-0.4541 -1.9099 0.7420
-0.2988 -1.9404 0.7412
-0.1416 -1.9584 0.7405
0.0166 -1.9636 0.7397
0.1747 -1.9562 0.7390
0.3316 -1.9362 0.7383
0.4865 -1.9037 0.7377
0.6383 -1.8588 0.7371
2.1758 -4.9878 2.0387
2.5727 -4.8015 2.0387
2.9535 -4.5834 2.0387
3.3157 -4.3350 2.0387
3.6569 -4.0578 2.0387
3.9746 -3.7536 2.0387
4.2667 -3.4244 2.0387
4.5313 -3.0723 2.0387
4.7665 -2.6996 2.0387
4.9707 -2.3088 2.0387
5.1425 -1.9026 2.0387
5.2806 -1.4835 2.0387
5.3842 -1.0545 2.0387
5.4524 -0.6184 2.0387
4.2792 -0.1390 1.5905
4.2442 0.2039 1.5785
4.1197 0.5322 1.5434
4.1745 0.8852 1.5858
4.1391 1.2326 1.6054
4.1025 1.5908 1.6362
4.0642 1.9652 1.6795
4.0236 2.3623 1.7368
3.9800 2.7898 1.8103
4.0288 3.3378 1.9501
3.9147 3.8140 2.0387
3.5923 4.1131 2.0387
3.2469 4.3848 2.0387
2.8809 4.6274 2.0387
2.4968 4.8394 2.0387
0.7647 1.8302 0.7434
0.6149 1.8858 0.7442
0.4611 1.9291 0.7450
0.3043 1.9599 0.7457
0.3975 5.4014 2.0387
-0.0387 5.4098 2.0387
-0.1738 1.9750 0.7480
-0.3322 1.9542 0.7487
-0.4884 1.9206 0.7493
-0.6414 1.8746 0.7500
-2.1464 4.9337 2.0387
-2.5344 4.7399 2.0387
-2.9053 4.5158 2.0387
-3.2569 4.2630 2.0387
-3.5869 3.9832 2.0387
-3.8932 3.6781 2.0387
-4.1740 3.3498 2.0387
-4.4276 3.0003 2.0387
-4.6524 2.6319 2.0387
-4.8471 2.2470 2.0387
-5.0104 1.8480 2.0387
-5.1414 1.4373 2.0387
-5.2392 1.0177 2.0387
-5.3034 0.5917 2.0387
-5.3334 0.1619 2.0387
-5.3292 -0.2688 2.0387
-5.2907 -0.6979 2.0387
-5.2182 -1.1226 2.0387
-5.1121 -1.5403 2.0387
-4.9731 -1.9483 2.0387
-4.8020 -2.3441 2.0387
-4.5997 -2.7252 2.0387
-4.3677 -3.0892 2.0387
-4.1072 -3.4336 2.0387
-3.8199 -3.7565 2.0387
-3.5075 -4.0555 2.0387
-3.1720 -4.3289 2.0387
-2.8154 -4.5748 2.0387
-2.4399 -4.7915 2.0387
-0.7469 -1.8154 0.7436
-0.5983 -1.8697 0.7428
-0.4457 -1.9119 0.7420
-0.2903 -1.9417 0.7412
-0.1330 -1.9590 0.7404
0.0252 -1.9636 0.7397
0.1833 -1.9555 0.7390
0.3401 -1.9348 0.7383
0.4949 -1.9015 0.7376
0.6465 -1.8560 0.7370
2.1978 -4.9785 2.0387
2.5939 -4.7904 2.0387
2.9738 -4.5706 2.0387
3.3349 -4.3206 2.0387
3.6748 -4.0419 2.0387
3.9912 -3.7363 2.0387
4.2819 -3.4057 2.0387
4.5449 -3.0524 2.0387
4.7785 -2.6787 2.0387
4.9809 -2.2870 2.0387
5.1509 -1.8800 2.0387
5.2872 -1.4603 2.0387
5.3888 -1.0309 2.0387
5.4551 -0.5945 2.0387
4.2773 -0.1201 1.5896
4.2423 0.2225 1.5782
4.1171 0.5503 1.5433
4.1726 0.9040 1.5866
4.1371 1.2518 1.6067
4.1004 1.6107 1.6383
4.0621 1.9862 1.6823
4.0214 2.3847 1.7404
3.9775 2.8142 1.8149
4.0020 3.3453 1.9442
3.8977 3.8310 2.0387
3.5740 4.1286 2.0387
3.2274 4.3988 2.0387
2.8604 4.6398 2.0387
2.4754 4.8501 2.0387
0.7566 1.8336 0.7434
0.6066 1.8885 0.7442
0.4526 1.9311 0.7450
0.2957 1.9612 0.7458
3.0337 -4.0016 2.0387
3.3484 -3.7477 2.0387
3.6418 -3.4689 2.0387
3.9117 -3.1671 2.0387
4.1563 -2.8442 2.0387
4.3739 -2.5022 2.0387
4.5632 -2.1436 2.0387
4.7227 -1.7706 2.0387
4.8513 -1.3857 2.0387
4.9482 -0.9915 2.0387
5.0127 -0.5907 2.0387
4.2811 -0.1578 1.7302
4.2461 0.1853 1.7166
4.1011 0.5115 1.6693
4.1765 0.8663 1.7232
4.1410 1.2132 1.7438
4.1045 1.5706 1.7766
4.0664 1.9439 1.8228
