ply
format ascii 1.0
element vertex 2168
property float32 x
property float32 y
property float32 z
end_header
-3.4935 8.3606 2.0386
-4.1497 8.0408 2.0386
-4.7774 7.6700 2.0386
-5.3729 7.2510 2.0386
-5.9325 6.7865 2.0386
-6.4528 6.2796 2.0386
-6.9307 5.7335 2.0386
-7.3634 5.1517 2.0386
-7.7483 4.5380 2.0386
-8.0832 3.8962 2.0386
-8.3660 3.2303 2.0386
-8.5951 2.5445 2.0386
-8.7692 1.8429 2.0386
-8.8873 1.1301 2.0386
-8.9487 0.4101 2.0386
-8.9530 -0.3124 2.0386
-8.9001 -1.0330 2.0386
-8.7905 -1.7473 2.0386
-8.6246 -2.4510 2.0386
-8.4035 -3.1397 2.0386
-8.1285 -3.8091 2.0386
-7.8010 -4.4550 2.0386
-7.4232 -5.0735 2.0386
-6.9971 -5.6606 2.0386
-6.5252 -6.2126 2.0386
-6.0105 -6.7258 2.0386
-5.4559 -7.1971 2.0386
-7.9097 0.4164 2.0386
-7.9178 -0.2225 2.0386
-7.8751 -0.8600 2.0386
-7.7821 -1.4923 2.0386
-7.6393 -2.1154 2.0386
-7.4474 -2.7254 2.0386
-7.2077 -3.3186 2.0386
-6.9215 -3.8913 2.0386
-6.5905 -4.4398 2.0386
-6.2167 -4.9607 2.0386
-5.8023 -5.4506 2.0386
-5.3498 -5.9065 2.0386
-4.8619 -6.3252 2.0386
-4.3417 -6.7042 2.0386
-3.7922 -7.0408 2.0386
-3.2169 -7.3328 2.0386
-2.6194 -7.5782 2.0386
-2.0033 -7.7751 2.0386
-1.3727 -7.9222 2.0386
-0.7313 -8.0183 2.0386
-0.0835 -8.0626 2.0386
0.5666 -8.0546 2.0386
1.2149 -7.9941 2.0386
1.8570 -7.8813 2.0386
2.4886 -7.7168 2.0386
3.1057 -7.5014 2.0386
3.7040 -7.2365 2.0386
4.2796 -6.9234 2.0386
4.8284 -6.5643 2.0386
5.3467 -6.1613 2.0386
5.8310 -5.7170 2.0386
6.2778 -5.2343 2.0386
6.6842 -4.7163 2.0386
7.0471 -4.1664 2.0386
7.3642 -3.5884 2.0386
7.6331 -2.9861 2.0386
7.8519 -2.3635 2.0386
8.0191 -1.7249 2.0386
4.2206 -0.5576 1.0579
4.1667 -0.2121 1.0366
4.1146 0.1221 1.0228
4.0636 0.4495 1.0160
4.0129 0.7746 1.0159
3.9619 1.1016 1.0226
3.9099 1.4349 1.0362
3.8563 1.7791 1.0572
3.8001 2.1394 1.0863
3.7404 2.5223 1.1247
3.6760 2.9353 1.1738
3.6054 3.3882 1.2357
3.5265 3.8941 1.3135
4.9636 6.4573 2.0386
4.4227 6.8275 2.0386
3.8541 7.1523 2.0386
3.2618 7.4296 2.0386
2.6497 7.6577 2.0386
2.0220 7.8353 2.0386
1.3828 7.9615 2.0386
0.7363 8.0356 2.0386
0.0869 8.0573 2.0386
-0.5613 8.0268 2.0386
-1.2041 7.9444 2.0386
-1.8374 7.8108 2.0386
-2.4572 7.6271 2.0386
-3.0595 7.3948 2.0386
-3.6406 7.1153 2.0386
-4.1968 6.7907 2.0386
-4.7248 6.4232 2.0386
-5.2214 6.0152 2.0386
-5.6834 5.5694 2.0386
-6.1081 5.0887 2.0386
-6.4929 4.5763 2.0386
-6.8356 4.0352 2.0386
-7.1341 3.4691 2.0386
-7.3866 2.8813 2.0386
-7.5916 2.2757 2.0386
-7.7479 1.6560 2.0386
-7.8546 1.0259 2.0386
-7.9111 0.3895 2.0386
-7.9170 -0.2494 2.0386
-7.8722 -0.8868 2.0386
-7.7771 -1.5187 2.0386
-7.6322 -2.1414 2.0386
-7.4383 -2.7507 2.0386
-7.1966 -3.3431 2.0386
-6.9085 -3.9148 2.0386
-6.5756 -4.4623 2.0386
-6.2000 -4.9819 2.0386
-5.7840 -5.4705 2.0386
-5.3299 -5.9248 2.0386
-4.8407 -6.3420 2.0386
-4.3191 -6.7192 2.0386
-3.7685 -7.0540 2.0386
-3.1922 -7.3441 2.0386
-2.5938 -7.5874 2.0386
-1.9771 -7.7823 2.0386
-1.3459 -7.9273 2.0386
-0.7042 -8.0212 2.0386
-0.0562 -8.0633 2.0386
0.5940 -8.0531 2.0386
1.2420 -7.9904 2.0386
1.8838 -7.8754 2.0386
2.5149 -7.7088 2.0386
3.1313 -7.4913 2.0386
3.7287 -7.2243 2.0386
4.3032 -6.9092 2.0386
4.8508 -6.5482 2.0386
5.3678 -6.1434 2.0386
5.8505 -5.6974 2.0386
6.2958 -5.2132 2.0386
6.7003 -4.6938 2.0386
7.0614 -4.1427 2.0386
7.3765 -3.5636 2.0386
7.6433 -2.9603 2.0386
7.8600 -2.3370 2.0386
8.0250 -1.6978 2.0386
4.2183 -0.5428 1.0568
4.1645 -0.1978 1.0359
4.1125 0.1360 1.0224
4.0615 0.4632 1.0159
4.0108 0.7883 1.0160
3.9597 1.1155 1.0230
3.9077 1.4491 1.0369
3.8540 1.7939 1.0582
3.7977 2.1550 1.0877
3.7378 2.5390 1.1265
3.6732 2.9534 1.1761
3.6022 3.4083 1.2387
3.5230 3.9168 1.3172
4.9415 6.4738 2.0386
4.3993 6.8421 2.0386
3.8296 7.1650 2.0386
3.2364 7.4402 2.0386
2.6236 7.6662 2.0386
1.9953 7.8417 2.0386
1.3557 7.9657 2.0386
0.7090 8.0376 2.0386
0.0596 8.0571 2.0386
-0.5885 8.0244 2.0386
-1.2310 7.9398 2.0386
-1.8638 7.8041 2.0386
-2.4829 7.6183 2.0386
-3.0844 7.3839 2.0386
-3.6645 7.1025 2.0386
-4.2196 6.7761 2.0386
-4.7464 6.4068 2.0386
-5.2415 5.9972 2.0386
-5.7020 5.5499 2.0386
-6.1251 5.0678 2.0386
-6.5082 4.5541 2.0386
-6.8491 4.0119 2.0386
-7.1456 3.4447 2.0386
-7.3962 2.8562 2.0386
-7.5992 2.2499 2.0386
-7.7534 1.6296 2.0386
-7.8580 0.9993 2.0386
-7.9124 0.3626 2.0386
-7.9161 -0.2762 2.0386
-7.8692 -0.9135 2.0386
-7.7720 -1.5451 2.0386
-7.6250 -2.1673 2.0386
-7.4291 -2.7760 2.0386
-7.1854 -3.3676 2.0386
-6.8953 -3.9384 2.0386
-6.5606 -4.4847 2.0386
-6.1833 -5.0031 2.0386
-5.7656 -5.4903 2.0386
-5.3100 -5.9432 2.0386
-4.8193 -6.3587 2.0386
-7.0781 0.3726 2.0386
-7.0852 -0.1991 2.0386
-7.0470 -0.7697 2.0386
-6.9636 -1.3355 2.0386
-6.8355 -1.8931 2.0386
-6.6635 -2.4389 2.0386
-6.4486 -2.9696 2.0386
-6.1921 -3.4817 2.0386
-5.8955 -3.9722 2.0386
-5.5606 -4.4379 2.0386
-5.1894 -4.8757 2.0386
-4.7841 -5.2829 2.0386
-4.3473 -5.6569 2.0386
-3.8815 -5.9951 2.0386
-3.3898 -6.2954 2.0386
-2.8750 -6.5556 2.0386
-2.3405 -6.7740 2.0386
-1.7896 -6.9491 2.0386
-1.2257 -7.0796 2.0386
-0.6526 -7.1645 2.0386
-0.0737 -7.2030 2.0386
0.5070 -7.1949 2.0386
1.0859 -7.1398 2.0386
1.6592 -7.0381 2.0386
2.2230 -6.8903 2.0386
2.7736 -6.6971 2.0386
3.3073 -6.4597 2.0386
3.8206 -6.1795 2.0386
4.3099 -5.8582 2.0386
4.7720 -5.4980 2.0386
5.2036 -5.1010 2.0386
5.6017 -4.6698 2.0386
5.9637 -4.2073 2.0386
6.2871 -3.7166 2.0386
6.5694 -3.2008 2.0386
6.8089 -2.6634 2.0386
7.0038 -2.1080 2.0386
7.1527 -1.5384 2.0386
4.2206 -0.5576 1.1861
4.1668 -0.2120 1.1622
4.1147 0.1221 1.1468
4.0636 0.4495 1.1391
4.0129 0.7745 1.1390
3.9619 1.1015 1.1464
3.9100 1.4347 1.1616
3.8563 1.7788 1.1850
3.8001 2.1391 1.2176
3.7405 2.5219 1.2605
3.6761 2.9348 1.3154
3.6055 3.3877 1.3847
3.5266 3.8935 1.4717
4.4309 5.7630 2.0386
3.9485 6.0942 2.0386
3.4415 6.3849 2.0386
2.9131 6.6333 2.0386
2.3669 6.8379 2.0386
1.8066 6.9974 2.0386
1.2360 7.1111 2.0386
0.6587 7.1783 2.0386
0.0785 7.1987 2.0386
-0.5007 7.1725 2.0386
-1.0752 7.0998 2.0386
-1.6414 6.9814 2.0386
-2.1957 6.8182 2.0386
-2.7344 6.6113 2.0386
-3.2544 6.3622 2.0386
-3.7522 6.0728 2.0386
-4.2249 5.7447 2.0386
-4.6694 5.3804 2.0386
-5.0832 4.9822 2.0386
-5.4636 4.5526 2.0386
-5.8084 4.0944 2.0386
-6.1155 3.6106 2.0386
-6.3829 3.1042 2.0386
-6.6092 2.5784 2.0386
-6.7929 2.0365 2.0386
-6.9331 1.4820 2.0386
-7.0287 0.9182 2.0386
-7.0793 0.3486 2.0386
-7.0845 -0.2232 2.0386
-7.0444 -0.7936 2.0386
-6.9591 -1.3592 2.0386
-6.8292 -1.9163 2.0386
-6.6553 -2.4615 2.0386
-6.4386 -2.9915 2.0386
-6.1804 -3.5028 2.0386
-5.8822 -3.9923 2.0386
-5.5457 -4.4569 2.0386
-5.1730 -4.8935 2.0386
-4.7663 -5.2994 2.0386
-4.3282 -5.6718 2.0386
-3.8614 -6.0085 2.0386
-3.3686 -6.3071 2.0386
-2.8529 -6.5656 2.0386
-2.3177 -6.7823 2.0386
-1.7661 -6.9555 2.0386
-1.2018 -7.0841 2.0386
-0.6283 -7.1671 2.0386
-0.0493 -7.2036 2.0386
0.5315 -7.1935 2.0386
1.1102 -7.1365 2.0386
1.6831 -7.0328 2.0386
2.2464 -6.8830 2.0386
2.7964 -6.6879 2.0386
3.3294 -6.4487 2.0386
3.8417 -6.1668 2.0386
4.3299 -5.8438 2.0386
4.7908 -5.4820 2.0386
5.2210 -5.0835 2.0386
5.6177 -4.6510 2.0386
5.9781 -4.1872 2.0386
6.2998 -3.6953 2.0386
6.5804 -3.1785 2.0386
6.8180 -2.6403 2.0386
7.0110 -2.0843 2.0386
7.1579 -1.5142 2.0386
4.2183 -0.5427 1.1849
4.1645 -0.1978 1.1614
4.1125 0.1359 1.1463
4.0615 0.4632 1.1389
4.0108 0.7882 1.1391
3.9598 1.1154 1.1469
3.9078 1.4489 1.1624
3.8540 1.7936 1.1862
3.7977 2.1547 1.2192
3.7379 2.5386 1.2626
3.6732 2.9530 1.3180
3.6023 3.4078 1.3880
3.5231 3.9162 1.4758
4.4111 5.7777 2.0386
3.9277 6.1072 2.0386
3.4196 6.3962 2.0386
2.8904 6.6428 2.0386
2.3436 6.8455 2.0386
1.7828 7.0031 2.0386
1.2118 7.1149 2.0386
0.6343 7.1801 2.0386
0.0541 7.1986 2.0386
-0.5250 7.1703 2.0386
-1.0992 7.0958 2.0386
-1.6650 6.9754 2.0386
-2.2187 6.8104 2.0386
-2.7567 6.6017 2.0386
-3.2758 6.3509 2.0386
-3.7726 6.0597 2.0386
-4.2442 5.7301 2.0386
-4.6875 5.3643 2.0386
-5.0999 4.9647 2.0386
-5.4789 4.5339 2.0386
-5.8221 4.0746 2.0386
-6.1275 3.5897 2.0386
-6.3933 3.0825 2.0386
-6.6178 2.5559 2.0386
-6.7997 2.0134 2.0386
-6.9380 1.4584 2.0386
-7.0317 0.8943 2.0386
-7.0804 0.3245 2.0386
-7.0838 -0.2472 2.0386
-7.0417 -0.8175 2.0386
-6.9545 -1.3828 2.0386
-6.8227 -1.9395 2.0386
-6.6471 -2.4842 2.0386
-6.4286 -3.0134 2.0386
-6.1687 -3.5239 2.0386
-5.8687 -4.0124 2.0386
-5.5307 -4.4758 2.0386
-5.1565 -4.9112 2.0386
-4.7485 -5.3157 2.0386
-4.3092 -5.6868 2.0386
-6.3947 0.3367 2.0386
-6.4012 -0.1800 2.0386
-6.3665 -0.6955 2.0386
-6.2911 -1.2067 2.0386
-6.1752 -1.7104 2.0386
-6.0195 -2.2035 2.0386
-5.8251 -2.6828 2.0386
-5.5930 -3.1454 2.0386
-5.3248 -3.5883 2.0386
-5.0219 -4.0086 2.0386
-4.6862 -4.4038 2.0386
-4.3198 -4.7712 2.0386
-3.9249 -5.1085 2.0386
-3.5040 -5.4133 2.0386
-3.0597 -5.6839 2.0386
-2.5947 -5.9182 2.0386
-2.1119 -6.1148 2.0386
-1.6144 -6.2721 2.0386
-1.1054 -6.3892 2.0386
-0.5880 -6.4650 2.0386
-0.0657 -6.4990 2.0386
0.4583 -6.4909 2.0386
0.9804 -6.4405 2.0386
1.4973 -6.3480 2.0386
2.0056 -6.2140 2.0386
2.5019 -6.0391 2.0386
2.9829 -5.8244 2.0386
3.4453 -5.5712 2.0386
3.8861 -5.2811 2.0386
4.3023 -4.9558 2.0386
4.6909 -4.5976 2.0386
5.0494 -4.2087 2.0386
5.3753 -3.7916 2.0386
5.6663 -3.3491 2.0386
5.9204 -2.8842 2.0386
6.1359 -2.3998 2.0386
6.3113 -1.8993 2.0386
6.4453 -1.3861 2.0386
4.2206 -0.5575 1.3163
4.1668 -0.2120 1.2898
4.1147 0.1220 1.2727
4.0636 0.4494 1.2641
4.0129 0.7744 1.2640
3.9620 1.1013 1.2721
3.9100 1.4345 1.2890
3.8564 1.7786 1.3149
3.8002 2.1388 1.3510
3.7405 2.5216 1.3985
3.6762 2.9344 1.4593
3.5483 3.3334 1.5116
3.5267 3.8928 1.6324
3.9953 5.1954 2.0386
3.5609 5.4945 2.0386
3.1040 5.7572 2.0386
2.6278 5.9818 2.0386
2.1355 6.1670 2.0386
1.6304 6.3116 2.0386
1.1158 6.4149 2.0386
0.5951 6.4763 2.0386
0.0717 6.4955 2.0386
-0.4510 6.4725 2.0386
-0.9696 6.4077 2.0386
-1.4807 6.3015 2.0386
-1.9812 6.1549 2.0386
-2.4679 5.9688 2.0386
-2.9376 5.7445 2.0386
-3.3874 5.4837 2.0386
-3.8146 5.1879 2.0386
-4.2164 4.8593 2.0386
-4.5905 4.5000 2.0386
-4.9345 4.1123 2.0386
-5.2463 3.6987 2.0386
-5.5240 3.2618 2.0386
-5.7659 2.8045 2.0386
-5.9706 2.3296 2.0386
-6.1368 1.8401 2.0386
-6.2635 1.3390 2.0386
-6.3501 0.8296 2.0386
-6.3958 0.3149 2.0386
-6.4005 -0.2017 2.0386
-6.3642 -0.7171 2.0386
-6.2870 -1.2281 2.0386
-6.1694 -1.7314 2.0386
-6.0121 -2.2240 2.0386
-5.8161 -2.7027 2.0386
-5.5825 -3.1644 2.0386
-5.3127 -3.6064 2.0386
-5.0084 -4.0258 2.0386
-4.6714 -4.4198 2.0386
-4.3037 -4.7860 2.0386
-3.9078 -5.1219 2.0386
-3.4858 -5.4254 2.0386
-3.0405 -5.6945 2.0386
-2.5747 -5.9273 2.0386
-2.0912 -6.1222 2.0386
-1.5932 -6.2779 2.0386
-1.0837 -6.3932 2.0386
-0.5661 -6.4673 2.0386
-0.0436 -6.4995 2.0386
0.4803 -6.4896 2.0386
1.0023 -6.4374 2.0386
1.5189 -6.3432 2.0386
2.0268 -6.2074 2.0386
2.5225 -6.0308 2.0386
3.0028 -5.8145 2.0386
3.4643 -5.5597 2.0386
3.9041 -5.2681 2.0386
4.3192 -4.9414 2.0386
4.7066 -4.5818 2.0386
5.0638 -4.1917 2.0386
5.3882 -3.7735 2.0386
5.6777 -3.3300 2.0386
5.9303 -2.8641 2.0386
6.1441 -2.3791 2.0386
6.3178 -1.8780 2.0386
6.4500 -1.3643 2.0386
4.2183 -0.5427 1.3150
4.1645 -0.1978 1.2889
4.1125 0.1359 1.2721
4.0615 0.4631 1.2640
4.0108 0.7881 1.2641
3.9598 1.1152 1.2727
3.9078 1.4487 1.2899
3.8541 1.7934 1.3162
3.7978 2.1544 1.3528
3.7379 2.5383 1.4008
3.6733 2.9526 1.4622
3.5553 3.3627 1.5195
3.5232 3.9155 1.6369
3.9775 5.2086 2.0386
3.5421 5.5063 2.0386
3.0843 5.7674 2.0386
2.6074 5.9904 2.0386
2.1145 6.1739 2.0386
1.6089 6.3168 2.0386
1.0940 6.4183 2.0386
0.5731 6.4779 2.0386
0.0497 6.4953 2.0386
-0.4729 6.4706 2.0386
-0.9913 6.4040 2.0386
-1.5020 6.2962 2.0386
-2.0020 6.1478 2.0386
-2.4880 5.9601 2.0386
-2.9569 5.7343 2.0386
-3.4059 5.4719 2.0386
-3.8320 5.1748 2.0386
-4.2327 4.8448 2.0386
-4.6056 4.4843 2.0386
-4.9482 4.0954 2.0386
-5.2586 3.6808 2.0386
-5.5349 3.2430 2.0386
-5.7752 2.7849 2.0386
-5.9783 2.3093 2.0386
-6.1429 1.8192 2.0386
-6.2680 1.3177 2.0386
-6.3528 0.8080 2.0386
-6.3968 0.2932 2.0386
-6.3998 -0.2234 2.0386
-6.3618 -0.7387 2.0386
-6.2829 -1.2494 2.0386
-6.1636 -1.7524 2.0386
-6.0046 -2.2444 2.0386
-5.8070 -2.7224 2.0386
-5.5718 -3.1835 2.0386
-5.3006 -3.6245 2.0386
-4.9948 -4.0429 2.0386
-4.6565 -4.4358 2.0386
-4.2876 -4.8007 2.0386
-3.8905 -5.1354 2.0386
-5.8224 0.3065 2.0386
-5.8283 -0.1639 2.0386
-5.7967 -0.6333 2.0386
-5.7279 -1.0989 2.0386
-5.6222 -1.5575 2.0386
-5.4803 -2.0064 2.0386
-5.3031 -2.4428 2.0386
-5.0915 -2.8638 2.0386
-4.8470 -3.2669 2.0386
-4.5710 -3.6493 2.0386
-4.2651 -4.0088 2.0386
-3.9313 -4.3430 2.0386
-3.5716 -4.6496 2.0386
-3.1883 -4.9267 2.0386
-2.7836 -5.1725 2.0386
-2.3603 -5.3853 2.0386
-0.6995 -2.0262 0.7424
-1.4680 -5.7063 2.0386
-1.0048 -5.8122 2.0386
-0.5341 -5.8806 2.0386
-0.0590 -5.9110 2.0386
0.4175 -5.9030 2.0386
0.8923 -5.8566 2.0386
1.3622 -5.7720 2.0386
1.8242 -5.6496 2.0386
2.2752 -5.4901 2.0386
2.7123 -5.2944 2.0386
3.1323 -5.0638 2.0386
3.5327 -4.7998 2.0386
3.9106 -4.5038 2.0386
4.2635 -4.1780 2.0386
4.5890 -3.8243 2.0386
4.8848 -3.4451 2.0386
5.1490 -3.0429 2.0386
5.3796 -2.6204 2.0386
5.5752 -2.1802 2.0386
5.7344 -1.7255 2.0386
5.8560 -1.2592 2.0386
4.2206 -0.5575 1.4488
4.1668 -0.2120 1.4197
4.1147 0.1220 1.4008
4.0636 0.4493 1.3914
4.0130 0.7743 1.3912
3.9620 1.1012 1.4001
3.9101 1.4343 1.4186
3.8564 1.7783 1.4471
3.8003 2.1385 1.4867
3.7406 2.5212 1.5389
3.6613 2.9220 1.5992
3.4996 3.2870 1.6403
3.5268 3.8922 1.7959
3.6321 4.7220 2.0386
3.2375 4.9943 2.0386
2.8224 5.2335 2.0386
2.3898 5.4382 2.0386
1.9424 5.6070 2.0386
1.4833 5.7391 2.0386
1.0155 5.8336 2.0386
0.5420 5.8899 2.0386
0.0660 5.9080 2.0386
-0.4095 5.8877 2.0386
-0.8813 5.8293 2.0386
-1.3464 5.7332 2.0386
-1.8020 5.6003 2.0386
-2.2450 5.4315 2.0386
-2.6726 5.2278 2.0386
-3.0822 4.9909 2.0386
-3.4713 4.7221 2.0386
-3.8374 4.4233 2.0386
-4.1781 4.0965 2.0386
-4.4916 3.7438 2.0386
-4.7757 3.3674 2.0386
-5.0287 2.9698 2.0386
-5.2492 2.5536 2.0386
-5.4358 2.1212 2.0386
-5.5873 1.6755 2.0386
-5.7029 1.2193 2.0386
-5.7817 0.7554 2.0386
-5.8234 0.2868 2.0386
-5.8277 -0.1837 2.0386
-5.7946 -0.6530 2.0386
-5.7242 -1.1183 2.0386
-5.6169 -1.5766 2.0386
-5.4735 -2.0251 2.0386
-5.2948 -2.4608 2.0386
-5.0819 -2.8811 2.0386
-4.8360 -3.2834 2.0386
-4.5587 -3.6650 2.0386
-4.2516 -4.0234 2.0386
-3.9167 -4.3564 2.0386
-3.5560 -4.6619 2.0386
-3.1717 -4.9377 2.0386
-2.7662 -5.1822 2.0386
-2.3421 -5.3935 2.0386
-0.6926 -2.0285 0.7424
-1.4487 -5.7115 2.0386
-0.9851 -5.8158 2.0386
-0.5142 -5.8827 2.0386
-0.0389 -5.9115 2.0386
0.4376 -5.9019 2.0386
0.9122 -5.8538 2.0386
1.3819 -5.7676 2.0386
0.6662 -2.0394 0.7367
2.2939 -5.4826 2.0386
2.7303 -5.2854 2.0386
3.1496 -5.0534 2.0386
3.5491 -4.7879 2.0386
3.9260 -4.4907 2.0386
4.2778 -4.1636 2.0386
4.6021 -3.8088 2.0386
4.8966 -3.4287 2.0386
5.1594 -3.0255 2.0386
5.3886 -2.6022 2.0386
5.5827 -2.1614 2.0386
5.7402 -1.7061 2.0386
5.8602 -1.2394 2.0386
4.2183 -0.5426 1.4473
4.1646 -0.1978 1.4187
4.1125 0.1359 1.4002
4.0615 0.4630 1.3912
4.0108 0.7880 1.3913
3.9598 1.1150 1.4007
3.9078 1.4485 1.4196
3.8541 1.7931 1.4486
3.7978 2.1541 1.4887
3.7380 2.5379 1.5414
3.6482 2.9319 1.5978
3.5041 3.3136 1.6477
3.5233 3.9149 1.8009
3.6159 4.7341 2.0386
3.2204 5.0050 2.0386
2.8046 5.2428 2.0386
2.3713 5.4460 2.0386
1.9233 5.6134 2.0386
1.4638 5.7438 2.0386
0.9956 5.8367 2.0386
0.5220 5.8915 2.0386
0.0460 5.9079 2.0386
-0.4294 5.8860 2.0386
-0.9010 5.8260 2.0386
-1.3658 5.7284 2.0386
-1.8209 5.5939 2.0386
-2.2633 5.4236 2.0386
-2.6902 5.2185 2.0386
-3.0990 4.9802 2.0386
-3.4872 4.7101 2.0386
-3.8522 4.4101 2.0386
-4.1919 4.0822 2.0386
-4.5041 3.7284 2.0386
-4.7869 3.3511 2.0386
-5.0387 2.9527 2.0386
-5.2578 2.5357 2.0386
-5.4429 2.1027 2.0386
-5.5929 1.6565 2.0386
-5.7069 1.1999 2.0386
-5.7842 0.7358 2.0386
-5.8243 0.2670 2.0386
-5.8271 -0.2035 2.0386
-5.7923 -0.6727 2.0386
-5.7204 -1.1377 2.0386
-5.6116 -1.5957 2.0386
-5.4667 -2.0437 2.0386
-5.2866 -2.4788 2.0386
-5.0722 -2.8985 2.0386
-4.8250 -3.2999 2.0386
-4.5464 -3.6805 2.0386
-4.2381 -4.0379 2.0386
-3.9020 -4.3699 2.0386
-3.5403 -4.6741 2.0386
-5.3354 0.2809 2.0386
-5.3408 -0.1502 2.0386
-5.3118 -0.5805 2.0386
-5.2486 -1.0071 2.0386
-5.1517 -1.4274 2.0386
-5.0215 -1.8387 2.0386
-4.8589 -2.2385 2.0386
-4.6649 -2.6243 2.0386
-4.4407 -2.9935 2.0386
-4.1875 -3.3437 2.0386
-3.9071 -3.6729 2.0386
-3.6010 -3.9789 2.0386
-3.2713 -4.2595 2.0386
-2.9199 -4.5131 2.0386
-2.5490 -4.7379 2.0386
-2.1610 -4.9324 2.0386
-0.6404 -1.8559 0.7425
-0.4889 -1.9014 0.7418
-0.3342 -1.9347 0.7411
-0.1773 -1.9555 0.7404
-0.0193 -1.9636 0.7397
0.1388 -1.9591 0.7391
0.2961 -1.9419 0.7384
0.4515 -1.9121 0.7378
0.6041 -1.8700 0.7373
0.7528 -1.8158 0.7368
2.4827 -4.8449 2.0386
2.8669 -4.6336 2.0386
3.2330 -4.3917 2.0386
3.5786 -4.1206 2.0386
3.9012 -3.8223 2.0386
4.1988 -3.4985 2.0386
4.4692 -3.1515 2.0386
4.7106 -2.7834 2.0386
4.9214 -2.3968 2.0386
5.1002 -1.9942 2.0386
5.2456 -1.5782 2.0386
5.3567 -1.1517 2.0386
4.2206 -0.5574 1.5838
4.1668 -0.2120 1.5520
4.0508 0.1201 1.5076
4.0637 0.4493 1.5211
4.0130 0.7742 1.5208
3.9620 1.1010 1.5306
3.9101 1.4341 1.5507
3.8565 1.7781 1.5819
3.8003 2.1382 1.6251
3.7407 2.5208 1.6820
3.6598 2.9204 1.7471
3.5240 3.3093 1.8050
3.6638 4.0425 2.0386
3.3241 4.3206 2.0386
2.9632 4.5701 2.0386
2.5836 4.7893 2.0386
0.7982 1.8156 0.7437
0.6495 1.8740 0.7444
0.4966 1.9202 0.7452
0.3404 1.9538 0.7459
0.4969 5.3922 2.0386
0.0611 5.4092 2.0386
-0.3742 5.3910 2.0386
-0.2961 1.9600 0.7486
-0.4529 1.9294 0.7492
-0.6067 1.8863 0.7497
-0.7565 1.8308 0.7502
-2.4474 4.7887 2.0386
-2.8228 4.5720 2.0386
-3.1794 4.3260 2.0386
-3.5150 4.0526 2.0386
-3.8274 3.7534 2.0386
-4.1148 3.4304 2.0386
-4.3754 3.0857 2.0386
-4.6075 2.7215 2.0386
-4.8097 2.3401 2.0386
-4.9808 1.9439 2.0386
-5.1198 1.5355 2.0386
-5.2258 1.1174 2.0386
-5.2981 0.6923 2.0386
-5.3363 0.2628 2.0386
-5.3403 -0.1684 2.0386
-5.3098 -0.5985 2.0386
-5.2452 -1.0249 2.0386
-5.1469 -1.4449 2.0386
-5.0153 -1.8558 2.0386
-4.8514 -2.2551 2.0386
-4.6561 -2.6402 2.0386
-4.4306 -3.0086 2.0386
-4.1762 -3.3581 2.0386
-3.8947 -3.6863 2.0386
-3.5876 -3.9912 2.0386
-3.2569 -4.2708 2.0386
-2.9046 -4.5232 2.0386
-2.5330 -4.7467 2.0386
-0.7818 -1.8009 0.7432
-0.6341 -1.8580 0.7425
-0.4824 -1.9031 0.7418
-0.3276 -1.9358 0.7411
-0.1707 -1.9561 0.7404
-0.0127 -1.9637 0.7397
0.1455 -1.9586 0.7390
0.3027 -1.9409 0.7384
0.4580 -1.9106 0.7378
0.6104 -1.8680 0.7373
0.7589 -1.8133 0.7368
2.4992 -4.8367 2.0386
2.8827 -4.6240 2.0386
3.2480 -4.3808 2.0386
3.5927 -4.1086 2.0386
3.9143 -3.8092 2.0386
4.2107 -3.4844 2.0386
4.4799 -3.1364 2.0386
4.7201 -2.7675 2.0386
4.9296 -2.3802 2.0386
5.1070 -1.9769 2.0386
5.2510 -1.5605 2.0386
5.3606 -1.1336 2.0386
4.2183 -0.5426 1.5822
4.1646 -0.1978 1.5510
4.0458 0.1336 1.5059
4.0615 0.4629 1.5209
4.0109 0.7879 1.5210
3.9599 1.1149 1.5312
3.9079 1.4483 1.5518
3.8542 1.7929 1.5834
3.7979 2.1538 1.6272
3.7381 2.5375 1.6848
3.6463 2.9298 1.7454
3.5413 3.3482 1.8198
3.6499 4.0548 2.0386
3.3093 4.3317 2.0386
2.9476 4.5799 2.0386
2.5673 4.7979 2.0386
0.7920 1.8183 0.7437
0.6431 1.8762 0.7445
0.4900 1.9219 0.7452
0.3338 1.9550 0.7459
0.4786 5.3936 2.0386
0.0428 5.4091 2.0386
-0.3925 5.3895 2.0386
-0.3027 1.9590 0.7486
-0.4594 1.9279 0.7492
-0.6131 1.8842 0.7497
-0.7627 1.8282 0.7503
-2.4635 4.7802 2.0386
-2.8382 4.5622 2.0386
-3.1940 4.3151 2.0386
-3.5286 4.0405 2.0386
-3.8401 3.7403 2.0386
-4.1263 3.4163 2.0386
-4.3857 3.0707 2.0386
-4.6166 2.7057 2.0386
-4.8175 2.3237 2.0386
-4.9873 1.9269 2.0386
-5.1249 1.5181 2.0386
-5.2295 1.0997 2.0386
-5.3004 0.6743 2.0386
-5.3372 0.2447 2.0386
-5.3397 -0.1865 2.0386
-5.3078 -0.6165 2.0386
-5.2418 -1.0427 2.0386
-5.1420 -1.4624 2.0386
-5.0091 -1.8729 2.0386
-4.8438 -2.2716 2.0386
-4.6472 -2.6560 2.0386
-4.4204 -3.0237 2.0386
-4.1650 -3.3723 2.0386
-3.8823 -3.6996 2.0386
-3.5741 -4.0035 2.0386
-3.2425 -4.2819 2.0386
-4.9154 0.2588 2.0386
-4.9203 -0.1384 2.0386
-4.8936 -0.5349 2.0386
-4.8353 -0.9279 2.0386
-4.7459 -1.3151 2.0386
-4.6259 -1.6941 2.0386
-4.4759 -2.0625 2.0386
-4.2970 -2.4177 2.0386
-4.0903 -2.7577 2.0386
-3.8569 -3.0803 2.0386
-3.5984 -3.3834 2.0386
-3.3163 -3.6650 2.0386
-3.0124 -3.9233 2.0386
-2.6886 -4.1566 2.0386
-2.3469 -4.3634 2.0386
-0.7253 -1.6561 0.7433
-0.5896 -1.7091 0.7426
-0.4500 -1.7511 0.7419
-0.3075 -1.7818 0.7413
-0.1631 -1.8009 0.7406
-0.0175 -1.8084 0.7400
0.1281 -1.8042 0.7394
0.2730 -1.7884 0.7388
0.4161 -1.7610 0.7383
0.5566 -1.7222 0.7378
0.6935 -1.6722 0.7373
2.2853 -4.4583 2.0386
2.6387 -4.2636 2.0386
2.9754 -4.0407 2.0386
3.2931 -3.7912 2.0386
3.5898 -3.5165 2.0386
3.8633 -3.2185 2.0386
4.1119 -2.8991 2.0386
4.3339 -2.5604 2.0386
4.5276 -2.2047 2.0386
4.6919 -1.8343 2.0386
4.8256 -1.4517 2.0386
4.9277 -1.0593 2.0386
4.2206 -0.5573 1.7217
4.1668 -0.2120 1.6872
4.0140 0.1190 1.6240
4.0304 0.4455 1.6400
4.0130 0.7741 1.6532
3.9621 1.1009 1.6638
3.9101 1.4339 1.6856
3.8565 1.7778 1.7194
3.8004 2.1379 1.7664
3.7407 2.5204 1.8282
3.7427 2.9859 1.9417
3.6624 3.4386 2.0386
3.3716 3.7193 2.0386
3.0592 3.9754 2.0386
2.7273 4.2052 2.0386
2.3782 4.4072 2.0386
0.7348 1.6709 0.7437
0.5979 1.7246 0.7444
0.4572 1.7670 0.7450
0.3135 1.7980 0.7457
0.1677 1.8172 0.7464
0.0209 1.8246 0.7470
-0.1261 1.8201 0.7476
-0.2722 1.8037 0.7482
-0.4165 1.7756 0.7487
-0.5580 1.7358 0.7492
-0.6959 1.6848 0.7497
-2.2533 4.4103 2.0386
-2.5992 4.2109 2.0386
-2.9279 3.9846 2.0386
-3.2371 3.7330 2.0386
-3.5251 3.4575 2.0386
-3.7900 3.1601 2.0386
-4.0302 2.8427 2.0386
-4.2442 2.5073 2.0386
-4.4306 2.1559 2.0386
-4.5884 1.7910 2.0386
-4.7165 1.4147 2.0386
-4.8143 1.0295 2.0386
-4.8809 0.6378 2.0386
-4.9162 0.2421 2.0386
-4.9198 -0.1552 2.0386
-4.8917 -0.5515 2.0386
-4.8322 -0.9443 2.0386
-4.7415 -1.3313 2.0386
-4.6201 -1.7099 2.0386
-4.4690 -2.0777 2.0386
-4.2889 -2.4323 2.0386
-4.0810 -2.7717 2.0386
-3.8465 -3.0935 2.0386
-3.5870 -3.3957 2.0386
-3.3039 -3.6764 2.0386
-2.9991 -3.9337 2.0386
-2.6745 -4.1659 2.0386
-2.3321 -4.3715 2.0386
-0.7197 -1.6585 0.7432
-0.5838 -1.7111 0.7426
-0.4441 -1.7526 0.7419
-0.3015 -1.7828 0.7412
-0.1570 -1.8015 0.7406
-0.0114 -1.8085 0.7400
0.1342 -1.8038 0.7394
0.2790 -1.7875 0.7388
0.4221 -1.7596 0.7383
0.5624 -1.7203 0.7378
0.6992 -1.6699 0.7373
2.3004 -4.4507 2.0386
2.6532 -4.2548 2.0386
2.9891 -4.0308 2.0386
3.3061 -3.7801 2.0386
3.6018 -3.5044 2.0386
3.8743 -3.2055 2.0386
4.1218 -2.8852 2.0386
4.3426 -2.5458 2.0386
4.5351 -2.1894 2.0386
4.6982 -1.8184 2.0386
4.8305 -1.4353 2.0386
4.9313 -1.0427 2.0386
4.2183 -0.5425 1.7200
4.1646 -0.1977 1.6860
4.0090 0.1324 1.6221
4.0386 0.4602 1.6439
4.0109 0.7878 1.6534
3.9599 1.1147 1.6645
3.9079 1.4481 1.6868
3.8542 1.7926 1.7211
3.7979 2.1535 1.7687
3.7381 2.5371 1.8311
3.7244 2.9921 1.9375
3.6506 3.4509 2.0386
3.3589 3.7306 2.0386
3.0456 3.9856 2.0386
2.7130 4.2143 2.0386
2.3632 4.4151 2.0386
0.7291 1.6733 0.7437
0.5921 1.7266 0.7444
0.4512 1.7686 0.7451
0.3074 1.7990 0.7457
0.1616 1.8178 0.7464
0.0147 1.8247 0.7470
-0.1323 1.8196 0.7476
-0.2783 1.8028 0.7482
-0.4225 1.7741 0.7487
-0.5639 1.7339 0.7492
-0.7016 1.6824 0.7497
-2.2682 4.4025 2.0386
-2.6134 4.2019 2.0386
-2.9413 3.9745 2.0386
-3.2497 3.7218 2.0386
-3.5367 3.4454 2.0386
-3.8006 3.1472 2.0386
-4.0397 2.8289 2.0386
-4.2526 2.4928 2.0386
-4.4378 2.1408 2.0386
-4.5944 1.7754 2.0386
-4.7213 1.3987 2.0386
-4.8177 1.0132 2.0386
-4.8831 0.6212 2.0386
-4.9170 0.2254 2.0386
-4.9193 -0.1719 2.0386
-4.8899 -0.5681 2.0386
-4.8290 -0.9608 2.0386
-4.7370 -1.3474 2.0386
-4.6144 -1.7256 2.0386
-4.4620 -2.0929 2.0386
-4.2807 -2.4469 2.0386
-4.0716 -2.7856 2.0386
-3.8361 -3.1066 2.0386
-3.5755 -3.4080 2.0386
-3.2915 -3.6877 2.0386
-2.9859 -3.9439 2.0386
-4.5488 0.2395 2.0386
-4.5534 -0.1282 2.0386
-4.5286 -0.4950 2.0386
-4.4746 -0.8588 2.0386
-4.3918 -1.2172 2.0386
-4.2806 -1.5679 2.0386
-4.1417 -1.9087 2.0386
-3.9761 -2.2375 2.0386
-3.7846 -2.5521 2.0386
-3.5685 -2.8505 2.0386
-3.3291 -3.1309 2.0386
-3.0679 -3.3913 2.0386
-2.7866 -3.6301 2.0386
-2.4869 -3.8458 2.0386
-2.1706 -4.0369 2.0386
-0.6708 -1.5321 0.7433
-0.5452 -1.5812 0.7427
-0.4161 -1.6200 0.7420
-0.2843 -1.6484 0.7414
-0.1506 -1.6661 0.7408
-0.0160 -1.6731 0.7403
0.1188 -1.6692 0.7397
0.2528 -1.6545 0.7392
0.3852 -1.6292 0.7387
0.5151 -1.5933 0.7382
0.6418 -1.5470 0.7378
0.7644 -1.4908 0.7374
2.4400 -3.9415 2.0386
2.7511 -3.7353 2.0386
3.0447 -3.5044 2.0386
3.3188 -3.2504 2.0386
3.5715 -2.9748 2.0386
3.8011 -2.6795 2.0386
4.0061 -2.3664 2.0386
4.1850 -2.0376 2.0386
4.3368 -1.6952 2.0386
4.4602 -1.3416 2.0386
4.5545 -0.9790 2.0386
4.6191 -0.6099 2.0386
4.1668 -0.2120 1.8255
4.0221 0.1192 1.7606
4.0490 0.4475 1.7825
4.0131 0.7740 1.7887
3.9621 1.1007 1.8001
3.9102 1.4337 1.8237
4.2265 1.9481 2.0386
4.0545 2.2805 2.0386
3.8561 2.5977 2.0386
3.6327 2.8977 2.0386
3.3859 3.1784 2.0386
3.1173 3.4380 2.0386
2.8287 3.6750 2.0386
2.5220 3.8876 2.0386
2.1994 4.0746 2.0386
0.6796 1.5448 0.7437
0.5531 1.5944 0.7443
0.4229 1.6337 0.7449
0.2901 1.6623 0.7455
0.1553 1.6801 0.7461
0.0195 1.6869 0.7467
-0.1163 1.6827 0.7473
-0.2514 1.6676 0.7478
-0.3848 1.6416 0.7483
-0.5157 1.6049 0.7488
-0.6431 1.5577 0.7492
-0.7664 1.5004 0.7496
-2.4043 3.8961 2.0386
-2.7085 3.6869 2.0386
-2.9948 3.4542 2.0386
-3.2614 3.1995 2.0386
-3.5067 2.9244 2.0386
-3.7290 2.6307 2.0386
-3.9272 2.3204 2.0386
-4.0999 1.9953 2.0386
-4.2460 1.6576 2.0386
-4.3647 1.3094 2.0386
-4.4552 0.9529 2.0386
-4.5169 0.5904 2.0386
-4.5496 0.2241 2.0386
-4.5529 -0.1436 2.0386
-4.5269 -0.5104 2.0386
-4.4717 -0.8740 2.0386
-4.3877 -1.2321 2.0386
-4.2753 -1.5825 2.0386
-4.1353 -1.9228 2.0386
-3.9685 -2.2510 2.0386
-3.7760 -2.5650 2.0386
-3.5589 -2.8627 2.0386
-3.3185 -3.1422 2.0386
-3.0565 -3.4018 2.0386
-2.7743 -3.6397 2.0386
-2.4739 -3.8543 2.0386
-2.1569 -4.0444 2.0386
-0.6656 -1.5344 0.7433
-0.5398 -1.5830 0.7426
-0.4106 -1.6214 0.7420
-0.2787 -1.6494 0.7414
-0.1450 -1.6666 0.7408
-0.0103 -1.6731 0.7402
0.1244 -1.6688 0.7397
0.2584 -1.6537 0.7392
0.3907 -1.6279 0.7387
0.5205 -1.5915 0.7382
0.6471 -1.5449 0.7377
0.7694 -1.4882 0.7373
2.4534 -3.9333 2.0386
2.7638 -3.7261 2.0386
3.0566 -3.4942 2.0386
3.3298 -3.2392 2.0386
3.5816 -2.9628 2.0386
3.8102 -2.6667 2.0386
4.0141 -2.3529 2.0386
4.1920 -2.0235 2.0386
4.3425 -1.6806 2.0386
4.4648 -1.3265 2.0386
4.5578 -0.9636 2.0386
4.6211 -0.5943 2.0386
4.1646 -0.1977 1.8242
4.0161 0.1326 1.7582
4.0606 0.4627 1.7884
4.0109 0.7876 1.7889
3.9600 1.1146 1.8009
3.9080 1.4479 1.8250
4.2199 1.9623 2.0386
4.0467 2.2942 2.0386
3.8472 2.6107 2.0386
3.6228 2.9099 2.0386
3.3750 3.1898 2.0386
3.1055 3.4485 2.0386
2.8161 3.6844 2.0386
2.5087 3.8960 2.0386
0.7966 1.4878 0.7431
0.6743 1.5471 0.7437
0.5476 1.5963 0.7443
0.4174 1.6351 0.7449
0.2844 1.6633 0.7456
0.1496 1.6806 0.7462
0.0138 1.6869 0.7467
-0.1220 1.6823 0.7473
-0.2571 1.6667 0.7478
-0.3904 1.6402 0.7483
-0.5211 1.6031 0.7488
-0.6484 1.5555 0.7493
-2.0979 4.0731 2.0386
-2.4174 3.8878 2.0386
-2.7209 3.6776 2.0386
-3.0064 3.4439 2.0386
-3.2721 3.1883 2.0386
-3.5165 2.9124 2.0386
-3.7379 2.6180 2.0386
-3.9350 2.3070 2.0386
-4.1065 1.9813 2.0386
-4.2515 1.6431 2.0386
-4.3690 1.2945 2.0386
-4.4583 0.9377 2.0386
-4.5189 0.5750 2.0386
-4.5503 0.2086 2.0386
-4.5524 -0.1591 2.0386
-4.5252 -0.5258 2.0386
-4.4688 -0.8892 2.0386
-4.3835 -1.2471 2.0386
-4.2700 -1.5970 2.0386
-4.1288 -1.9369 2.0386
-3.9609 -2.2646 2.0386
-3.7673 -2.5779 2.0386
-3.5492 -2.8748 2.0386
-3.3079 -3.1536 2.0386
-3.0450 -3.4122 2.0386
-2.7621 -3.6492 2.0386
-4.2256 0.2225 2.0386
-4.2298 -0.1191 2.0386
-4.2068 -0.4600 2.0386
-4.1566 -0.7979 2.0386
-4.0796 -1.1309 2.0386
-3.9763 -1.4567 2.0386
-3.8472 -1.7733 2.0386
-3.6931 -2.0786 2.0386
-3.5152 -2.3708 2.0386
-3.3143 -2.6480 2.0386
-3.0918 -2.9083 2.0386
-2.8491 -3.1501 2.0386
-2.5877 -3.3718 2.0386
-2.3091 -3.5720 2.0386
-0.7354 -1.3681 0.7439
-0.6227 -1.4229 0.7433
-0.5061 -1.4685 0.7427
-0.3862 -1.5046 0.7421
-0.2638 -1.5309 0.7416
-0.1397 -1.5474 0.7410
-0.0146 -1.5539 0.7405
0.1105 -1.5502 0.7400
0.2350 -1.5366 0.7395
0.3579 -1.5131 0.7390
0.4786 -1.4797 0.7386
0.5963 -1.4368 0.7382
0.7101 -1.3845 0.7378
2.2652 -3.6582 2.0386
2.5538 -3.4666 2.0386
2.8262 -3.2522 2.0386
3.0804 -3.0164 2.0386
3.3148 -2.7605 2.0386
3.5278 -2.4864 2.0386
3.7179 -2.1958 2.0386
3.8839 -1.8907 2.0386
4.0245 -1.5730 2.0386
4.1390 -1.2448 2.0386
4.2265 -0.9084 2.0386
4.2863 -0.5659 2.0386
4.3182 -0.2197 2.0386
4.1635 0.1233 1.9640
4.2972 0.4748 2.0386
4.2445 0.8185 2.0386
4.1640 1.1566 2.0386
4.0564 1.4871 2.0386
3.9224 1.8076 2.0386
3.7629 2.1161 2.0386
3.5789 2.4105 2.0386
3.3717 2.6890 2.0386
3.1428 2.9496 2.0386
2.8936 3.1907 2.0386
2.6259 3.4107 2.0386
2.3414 3.6082 2.0386
0.7443 1.3785 0.7431
0.6310 1.4339 0.7437
0.5136 1.4799 0.7442
0.3928 1.5164 0.7448
0.2695 1.5429 0.7454
0.1444 1.5594 0.7459
0.0184 1.5658 0.7465
-0.1078 1.5619 0.7470
-0.2331 1.5478 0.7475
-0.3570 1.5237 0.7480
-0.4784 1.4896 0.7484
-0.5968 1.4459 0.7488
-0.7111 1.3927 0.7492
-2.2325 3.6187 2.0386
-2.5152 3.4246 2.0386
-2.7812 3.2085 2.0386
-3.0290 2.9720 2.0386
-3.2569 2.7166 2.0386
-3.4636 2.4439 2.0386
-3.6478 2.1556 2.0386
-3.8083 1.8537 2.0386
-3.9441 1.5400 2.0386
-4.0544 1.2165 2.0386
-4.1386 0.8853 2.0386
-4.1960 0.5485 2.0386
-4.2263 0.2082 2.0386
-4.2294 -0.1335 2.0386
-4.2052 -0.4742 2.0386
-4.1539 -0.8121 2.0386
-4.0758 -1.1448 2.0386
-3.9713 -1.4702 2.0386
-3.8412 -1.7864 2.0386
-3.6861 -2.0912 2.0386
-3.5072 -2.3828 2.0386
-3.3054 -2.6593 2.0386
-3.0820 -2.9188 2.0386
-2.8385 -3.1598 2.0386
-2.5763 -3.3806 2.0386
-2.2971 -3.5799 2.0386
-0.7307 -1.3706 0.7439
-0.6179 -1.4250 0.7433
-0.5011 -1.4702 0.7427
-0.3811 -1.5059 0.7421
-0.2586 -1.5318 0.7416
-0.1344 -1.5479 0.7410
-0.0094 -1.5539 0.7405
0.1158 -1.5499 0.7400
0.2402 -1.5358 0.7395
0.3631 -1.5119 0.7390
0.4837 -1.4781 0.7386
0.6012 -1.4348 0.7382
0.7148 -1.3821 0.7378
2.2776 -3.6506 2.0386
2.5656 -3.4581 2.0386
2.8373 -3.2427 2.0386
3.0907 -3.0060 2.0386
3.3242 -2.7494 2.0386
3.5362 -2.4745 2.0386
3.7254 -2.1833 2.0386
3.8903 -1.8776 2.0386
4.0299 -1.5594 2.0386
4.1432 -1.2308 2.0386
4.2296 -0.8941 2.0386
4.2882 -0.5514 2.0386
4.3189 -0.2050 2.0386
4.1407 0.1367 1.9534
4.2955 0.4894 2.0386
4.2416 0.8328 2.0386
4.1600 1.1707 2.0386
4.0513 1.5008 2.0386
3.9162 1.8208 2.0386
3.7556 2.1288 2.0386
3.5706 2.4226 2.0386
3.3625 2.7003 2.0386
3.1327 2.9601 2.0386
2.8827 3.2004 2.0386
2.6142 3.4195 2.0386
2.3291 3.6160 2.0386
0.7396 1.3810 0.7431
0.6261 1.4360 0.7437
0.5085 1.4817 0.7443
0.3876 1.5177 0.7448
0.2642 1.5438 0.7454
0.1391 1.5599 0.7460
0.0130 1.5658 0.7465
-0.1131 1.5615 0.7470
-0.2384 1.5470 0.7475
-0.3621 1.5224 0.7480
-0.4835 1.4880 0.7484
-0.6016 1.4438 0.7488
-0.7158 1.3902 0.7492
-2.2447 3.6110 2.0386
-2.5267 3.4159 2.0386
-2.7920 3.1990 2.0386
-3.0390 2.9616 2.0386
-3.2660 2.7055 2.0386
-3.4718 2.4320 2.0386
-3.6550 2.1432 2.0386
-3.8145 1.8407 2.0386
-3.9493 1.5265 2.0386
-4.0585 1.2027 2.0386
-4.1415 0.8712 2.0386
-4.1978 0.5342 2.0386
-4.2270 0.1938 2.0386
-4.2290 -0.1478 2.0386
-4.2036 -0.4885 2.0386
-4.1512 -0.8262 2.0386
-4.0719 -1.1586 2.0386
-3.9664 -1.4837 2.0386
-3.8352 -1.7994 2.0386
-3.6791 -2.1038 2.0386
-3.4991 -2.3948 2.0386
-3.2964 -2.6705 2.0386
-3.0721 -2.9294 2.0386
-2.8278 -3.1695 2.0386
-2.5649 -3.3895 2.0386
-3.9381 0.2074 2.0386
-3.9421 -0.1110 2.0386
-3.9206 -0.4287 2.0386
-3.8738 -0.7438 2.0386
-3.8019 -1.0541 2.0386
-3.7055 -1.3578 2.0386
-3.5851 -1.6528 2.0386
-3.4415 -1.9374 2.0386
-3.2755 -2.2096 2.0386
-3.0882 -2.4679 2.0386
-2.8808 -2.7104 2.0386
-2.6545 -2.9356 2.0386
-2.4108 -3.1421 2.0386
-2.1512 -3.3285 2.0386
-0.6850 -1.2747 0.7438
-0.5800 -1.3258 0.7433
-0.4714 -1.3683 0.7428
-0.3596 -1.4020 0.7422
-0.2456 -1.4265 0.7417
-0.1299 -1.4419 0.7412
-0.0134 -1.4479 0.7407
0.1032 -1.4445 0.7402
0.2192 -1.4318 0.7398
0.3337 -1.4099 0.7393
0.4462 -1.3788 0.7389
0.5558 -1.3387 0.7385
0.6619 -1.2901 0.7382
0.7637 -1.2330 0.7379
2.3787 -3.2281 2.0386
2.6322 -3.0284 2.0386
2.8689 -2.8086 2.0386
3.0870 -2.5704 2.0386
3.2852 -2.3151 2.0386
3.4621 -2.0445 2.0386
3.6166 -1.7603 2.0386
3.7475 -1.4645 2.0386
3.8540 -1.1589 2.0386
3.9354 -0.8457 2.0386
3.9911 -0.5269 2.0386
4.0207 -0.2045 2.0386
4.0241 0.1192 2.0386
4.0012 0.4420 2.0386
3.9522 0.7619 2.0386
3.8773 1.0768 2.0386
3.7772 1.3845 2.0386
3.6525 1.6829 2.0386
3.5040 1.9702 2.0386
3.3328 2.2444 2.0386
3.1401 2.5037 2.0386
2.9270 2.7465 2.0386
2.6951 2.9711 2.0386
2.4458 3.1761 2.0386
0.7944 1.2239 0.7426
0.6934 1.2838 0.7431
0.5879 1.3354 0.7436
0.4785 1.3783 0.7442
0.3660 1.4122 0.7447
0.2512 1.4369 0.7453
0.1347 1.4523 0.7458
0.0173 1.4582 0.7463
-0.1001 1.4546 0.7468
-0.2169 1.4415 0.7472
-0.3322 1.4190 0.7477
-0.4454 1.3873 0.7481
-0.5556 1.3465 0.7485
-0.6621 1.2970 0.7488
-0.7642 1.2391 0.7491
-2.3433 3.1913 2.0386
-2.5913 2.9901 2.0386
-2.8223 2.7698 2.0386
-3.0348 2.5318 2.0386
-3.2275 2.2777 2.0386
-3.3993 2.0091 2.0386
-3.5490 1.7277 2.0386
-3.6756 1.4353 2.0386
-3.7785 1.1338 2.0386
-3.8570 0.8251 2.0386
-3.9105 0.5112 2.0386
-3.9388 0.1940 2.0386
-3.9417 -0.1244 2.0386
-3.9191 -0.4421 2.0386
-3.8713 -0.7569 2.0386
-3.7984 -1.0670 2.0386
-3.7010 -1.3703 2.0386
-3.5796 -1.6650 2.0386
-3.4350 -1.9491 2.0386
-3.2681 -2.2208 2.0386
-3.0799 -2.4784 2.0386
-2.8717 -2.7202 2.0386
-2.6446 -2.9447 2.0386
-2.4002 -3.1503 2.0386
-0.7813 -1.2180 0.7444
-0.6806 -1.2770 0.7438
-0.5755 -1.3278 0.7433
-0.4667 -1.3699 0.7427
-0.3549 -1.4032 0.7422
-0.2408 -1.4274 0.7417
-0.1250 -1.4423 0.7412
-0.0085 -1.4479 0.7407
0.1081 -1.4442 0.7402
0.2240 -1.4311 0.7397
0.3385 -1.4087 0.7393
0.4509 -1.3773 0.7389
0.5604 -1.3369 0.7385
0.6662 -1.2878 0.7382
0.7679 -1.2304 0.7379
2.3897 -3.2202 2.0386
2.6425 -3.0195 2.0386
2.8784 -2.7990 2.0386
3.0958 -2.5599 2.0386
3.2931 -2.3040 2.0386
3.4691 -2.0328 2.0386
3.6226 -1.7481 2.0386
3.7525 -1.4518 2.0386
3.8580 -1.1459 2.0386
3.9383 -0.8324 2.0386
3.9929 -0.5133 2.0386
4.0214 -0.1909 2.0386
4.0237 0.1328 2.0386
3.9997 0.4556 2.0386
3.9495 0.7753 2.0386
3.8736 1.0899 2.0386
3.7725 1.3972 2.0386
3.6467 1.6952 2.0386
3.4973 1.9820 2.0386
3.3252 2.2556 2.0386
3.1315 2.5143 2.0386
2.9176 2.7563 2.0386
2.6849 2.9801 2.0386
2.4350 3.1842 2.0386
0.7903 1.2266 0.7426
0.6891 1.2862 0.7431
0.5833 1.3374 0.7437
0.4738 1.3799 0.7442
0.3612 1.4134 0.7447
0.2463 1.4378 0.7453
0.1297 1.4527 0.7458
0.0124 1.4582 0.7463
-0.1051 1.4542 0.7468
-0.2218 1.4407 0.7472
-0.3370 1.4179 0.7477
-0.4501 1.3858 0.7481
-0.5601 1.3446 0.7485
-0.6665 1.2948 0.7488
-0.7684 1.2365 0.7491
-2.3540 3.1832 2.0386
-2.6014 2.9812 2.0386
-2.8316 2.7601 2.0386
-3.0433 2.5214 2.0386
-3.2352 2.2667 2.0386
-3.4060 1.9975 2.0386
-3.5547 1.7156 2.0386
-3.6804 1.4228 2.0386
-3.7823 1.1210 2.0386
-3.8597 0.8120 2.0386
-3.9122 0.4979 2.0386
-3.9394 0.1806 2.0386
-3.9412 -0.1378 2.0386
-3.9176 -0.4554 2.0386
-3.8687 -0.7701 2.0386
-3.7948 -1.0799 2.0386
-3.6963 -1.3829 2.0386
-3.5739 -1.6772 2.0386
-3.4284 -1.9608 2.0386
-3.2606 -2.2319 2.0386
-3.0716 -2.4889 2.0386
-2.8625 -2.7300 2.0386
-2.6347 -2.9537 2.0386
-2.3895 -3.1586 2.0386
-3.6803 0.1938 2.0386
-3.6840 -0.1038 2.0386
-3.6639 -0.4008 2.0386
-3.6201 -0.6952 2.0386
-3.5530 -0.9852 2.0386
-3.4628 -1.2690 2.0386
-3.3502 -1.5448 2.0386
-3.2159 -1.8107 2.0386
-3.0607 -2.0651 2.0386
-2.8856 -2.3064 2.0386
-2.6917 -2.5330 2.0386
-2.4801 -2.7434 2.0386
-2.2523 -2.9362 2.0386
-0.7337 -1.1356 0.7443
-0.6398 -1.1911 0.7438
-0.5418 -1.2388 0.7433
-0.4402 -1.2785 0.7428
-0.3358 -1.3100 0.7423
-0.2293 -1.3329 0.7418
-0.1212 -1.3473 0.7413
-0.0123 -1.3529 0.7409
0.0966 -1.3498 0.7404
0.2050 -1.3379 0.7400
0.3121 -1.3174 0.7396
0.4171 -1.2883 0.7392
0.5196 -1.2509 0.7389
0.6186 -1.2054 0.7385
0.7138 -1.1521 0.7382
2.2220 -3.0147 2.0386
2.4587 -2.8280 2.0386
2.6795 -2.6228 2.0386
2.8832 -2.4002 2.0386
3.0682 -2.1617 2.0386
3.2333 -1.9090 2.0386
3.3774 -1.6436 2.0386
3.4996 -1.3674 2.0386
3.5990 -1.0821 2.0386
3.6750 -0.7896 2.0386
3.7270 -0.4919 2.0386
3.7546 -0.1910 2.0386
3.7578 0.1112 2.0386
3.7364 0.4127 2.0386
3.6906 0.7114 2.0386
3.6208 1.0054 2.0386
3.5274 1.2927 2.0386
3.4110 1.5714 2.0386
3.2725 1.8396 2.0386
3.1127 2.0957 2.0386
2.9327 2.3380 2.0386
2.7338 2.5647 2.0386
2.5174 2.7745 2.0386
2.2847 2.9661 2.0386
0.7422 1.1431 0.7426
0.6478 1.1991 0.7431
0.5493 1.2472 0.7436
0.4471 1.2873 0.7441
0.3421 1.3189 0.7446
0.2348 1.3420 0.7451
0.1260 1.3564 0.7456
0.0164 1.3619 0.7461
-0.0933 1.3585 0.7465
-0.2024 1.3463 0.7470
-0.3101 1.3253 0.7474
-0.4158 1.2957 0.7478
-0.5187 1.2576 0.7481
-0.6182 1.2114 0.7484
-0.7136 1.1573 0.7487
-2.1892 2.9822 2.0386
-2.4210 2.7943 2.0386
-2.6370 2.5885 2.0386
-2.8357 2.3662 2.0386
-3.0159 2.1287 2.0386
-3.1765 1.8777 2.0386
-3.3164 1.6147 2.0386
-3.4349 1.3415 2.0386
-3.5311 1.0597 2.0386
-3.6044 0.7712 2.0386
-3.6545 0.4778 2.0386
-3.6810 0.1813 2.0386
-3.6837 -0.1163 2.0386
-3.6625 -0.4132 2.0386
-3.6178 -0.7075 2.0386
-3.5496 -0.9973 2.0386
-3.4585 -1.2808 2.0386
-3.3450 -1.5562 2.0386
-3.2098 -1.8216 2.0386
-3.0538 -2.0755 2.0386
-2.8778 -2.3162 2.0386
-2.6831 -2.5421 2.0386
-2.4708 -2.7518 2.0386
-2.2423 -2.9439 2.0386
-0.7299 -1.1381 0.7443
-0.6358 -1.1932 0.7438
-0.5376 -1.2407 0.7433
-0.4359 -1.2800 0.7428
-0.3314 -1.3111 0.7423
-0.2248 -1.3337 0.7418
-0.1166 -1.3477 0.7413
-0.0078 -1.3529 0.7409
0.1012 -1.3494 0.7404
0.2095 -1.3372 0.7400
0.3165 -1.3163 0.7396
0.4215 -1.2869 0.7392
0.5238 -1.2492 0.7388
0.6227 -1.2033 0.7385
0.7177 -1.1497 0.7382
2.2322 -3.0072 2.0386
2.4683 -2.8198 2.0386
2.6885 -2.6137 2.0386
2.8913 -2.3904 2.0386
3.0755 -2.1514 2.0386
3.2398 -1.8981 2.0386
3.3830 -1.6322 2.0386
3.5043 -1.3556 2.0386
3.6027 -1.0699 2.0386
3.6777 -0.7772 2.0386
3.7286 -0.4793 2.0386
3.7552 -0.1783 2.0386
3.7574 0.1239 2.0386
3.7350 0.4253 2.0386
3.6882 0.7239 2.0386
3.6174 1.0176 2.0386
3.5230 1.3046 2.0386
3.4056 1.5829 2.0386
3.2662 1.8507 2.0386
3.1055 2.1062 2.0386
2.9247 2.3478 2.0386
2.7251 2.5739 2.0386
2.5079 2.7830 2.0386
2.2746 2.9737 2.0386
0.7383 1.1456 0.7426
0.6438 1.2013 0.7431
0.5450 1.2491 0.7437
0.4428 1.2888 0.7442
0.3376 1.3201 0.7447
0.2302 1.3428 0.7452
0.1214 1.3568 0.7456
0.0118 1.3619 0.7461
-0.0979 1.3582 0.7466
-0.2069 1.3456 0.7470
-0.3146 1.3242 0.7474
-0.4201 1.2943 0.7478
-0.5229 1.2558 0.7481
-0.6223 1.2093 0.7485
-0.7175 1.1548 0.7488
-2.1993 2.9747 2.0386
-2.4305 2.7860 2.0386
-2.6457 2.5795 2.0386
-2.8437 2.3565 2.0386
-3.0231 2.1184 2.0386
-3.1828 1.8669 2.0386
-3.3218 1.6035 2.0386
-3.4394 1.3298 2.0386
-3.5346 1.0477 2.0386
-3.6070 0.7590 2.0386
-3.6561 0.4654 2.0386
-3.6816 0.1688 2.0386
-3.6832 -0.1288 2.0386
-3.6611 -0.4257 2.0386
-3.6154 -0.7198 2.0386
-3.5463 -1.0094 2.0386
-3.4542 -1.2926 2.0386
-3.3398 -1.5675 2.0386
-3.2037 -1.8326 2.0386
-3.0467 -2.0859 2.0386
-2.8700 -2.3260 2.0386
-2.6745 -2.5513 2.0386
-2.4615 -2.7603 2.0386
-2.2324 -2.9516 2.0386
-3.4475 0.1816 2.0386
-3.4510 -0.0972 2.0386
-3.4321 -0.3755 2.0386
-3.3911 -0.6513 2.0386
-3.3281 -0.9231 2.0386
-3.2436 -1.1889 2.0386
-3.1381 -1.4472 2.0386
-3.0122 -1.6963 2.0386
-2.8668 -1.9346 2.0386
-2.7026 -2.1606 2.0386
-2.5209 -2.3728 2.0386
-2.3227 -2.5698 2.0386
-0.7705 -1.0047 0.7447
-0.6870 -1.0636 0.7443
-0.5991 -1.1156 0.7438
-0.5072 -1.1603 0.7433
-0.4121 -1.1975 0.7429
-0.3144 -1.2270 0.7424
-0.2145 -1.2485 0.7419
-0.1133 -1.2619 0.7415
-0.0114 -1.2672 0.7410
0.0907 -1.2642 0.7406
0.1922 -1.2531 0.7402
0.2925 -1.2339 0.7398
0.3909 -1.2067 0.7395
0.4868 -1.1716 0.7391
0.5796 -1.1290 0.7388
0.6687 -1.0791 0.7386
0.7535 -1.0221 0.7383
2.3022 -2.6474 2.0386
2.5089 -2.4552 2.0386
2.6994 -2.2468 2.0386
2.8725 -2.0235 2.0386
3.0270 -1.7869 2.0386
3.1619 -1.5385 2.0386
3.2762 -1.2799 2.0386
3.3692 -1.0129 2.0386
3.4403 -0.7391 2.0386
3.4889 -0.4605 2.0386
3.5148 -0.1788 2.0386
3.5177 0.1041 2.0386
3.4977 0.3863 2.0386
3.4549 0.6659 2.0386
3.3896 0.9410 2.0386
3.3022 1.2099 2.0386
3.1933 1.4708 2.0386
3.0637 1.7220 2.0386
2.9142 1.9617 2.0386
2.7458 2.1885 2.0386
2.5597 2.4008 2.0386
2.3571 2.5973 2.0386
0.7789 1.0109 0.7422
0.6951 1.0703 0.7427
0.6067 1.1226 0.7432
0.5145 1.1677 0.7436
0.4188 1.2052 0.7441
0.3204 1.2348 0.7446
0.2200 1.2564 0.7450
0.1181 1.2699 0.7455
0.0155 1.2750 0.7459
-0.0872 1.2719 0.7463
-0.1893 1.2604 0.7468
-0.2901 1.2408 0.7471
-0.3890 1.2131 0.7475
-0.4854 1.1775 0.7478
-0.5786 1.1342 0.7481
-0.6679 1.0835 0.7484
-0.7529 1.0258 0.7486
-2.2674 2.6175 2.0386
-2.4697 2.4248 2.0386
-2.6559 2.2166 2.0386
-2.8248 1.9942 2.0386
-2.9753 1.7591 2.0386
-3.1064 1.5128 2.0386
-3.2175 1.2568 2.0386
-3.3076 0.9928 2.0386
-3.3764 0.7225 2.0386
-3.4233 0.4476 2.0386
-3.4481 0.1699 2.0386
-3.4506 -0.1090 2.0386
-3.4308 -0.3871 2.0386
-3.3889 -0.6629 2.0386
-3.3250 -0.9344 2.0386
-3.2396 -1.1999 2.0386
-3.1332 -1.4579 2.0386
-3.0065 -1.7066 2.0386
-2.8602 -1.9444 2.0386
-2.6953 -2.1698 2.0386
-2.5129 -2.3814 2.0386
-2.3140 -2.5777 2.0386
-0.7671 -1.0074 0.7447
-0.6834 -1.0659 0.7443
-0.5953 -1.1176 0.7438
-0.5033 -1.1620 0.7433
-0.4081 -1.1989 0.7428
-0.3102 -1.2280 0.7424
-0.2103 -1.2492 0.7419
-0.1091 -1.2623 0.7415
-0.0071 -1.2672 0.7410
0.0950 -1.2639 0.7406
0.1964 -1.2525 0.7402
0.2967 -1.2329 0.7398
0.3950 -1.2054 0.7395
0.4908 -1.1700 0.7391
0.5835 -1.1271 0.7388
0.6724 -1.0768 0.7386
0.7570 -1.0196 0.7383
2.3112 -2.6397 2.0386
2.5172 -2.4467 2.0386
2.7070 -2.2376 2.0386
2.8794 -2.0138 2.0386
3.0331 -1.7767 2.0386
3.1671 -1.5278 2.0386
3.2806 -1.2688 2.0386
3.3726 -1.0014 2.0386
3.4428 -0.7275 2.0386
3.4905 -0.4486 2.0386
3.5154 -0.1669 2.0386
3.5174 0.1160 2.0386
3.4964 0.3981 2.0386
3.4526 0.6775 2.0386
3.3864 0.9525 2.0386
3.2981 1.2211 2.0386
3.1883 1.4816 2.0386
3.0578 1.7323 2.0386
2.9075 1.9715 2.0386
2.7384 2.1977 2.0386
2.5515 2.4094 2.0386
2.3483 2.6052 2.0386
0.7755 1.0135 0.7422
0.6915 1.0726 0.7427
0.6029 1.1247 0.7432
0.5105 1.1694 0.7436
0.4147 1.2066 0.7441
0.3163 1.2359 0.7446
0.2157 1.2572 0.7451
0.1138 1.2703 0.7455
0.0112 1.2751 0.7459
-0.0915 1.2716 0.7464
-0.1936 1.2598 0.7468
-0.2943 1.2398 0.7471
-0.3932 1.2117 0.7475
-0.4894 1.1758 0.7478
-0.5824 1.1322 0.7481
-0.6716 1.0812 0.7484
-0.7563 1.0233 0.7487
-2.2762 2.6097 2.0386
-2.4779 2.4163 2.0386
-2.6634 2.2075 2.0386
-2.8315 1.9845 2.0386
-2.9812 1.7489 2.0386
-3.1115 1.5022 2.0386
-3.2217 1.2458 2.0386
-3.3110 0.9816 2.0386
-3.3788 0.7110 2.0386
-3.4248 0.4360 2.0386
-3.4487 0.1581 2.0386
-3.4502 -0.1207 2.0386
-3.4295 -0.3988 2.0386
-3.3866 -0.6744 2.0386
-3.3218 -0.9457 2.0386
-3.2355 -1.2110 2.0386
-3.1283 -1.4686 2.0386
-3.0007 -1.7168 2.0386
-2.8537 -1.9541 2.0386
-2.6880 -2.1790 2.0386
-2.5048 -2.3900 2.0386
-2.3053 -2.5857 2.0386
-0.7637 -1.0100 0.7447
-3.2359 0.1705 2.0386
-3.2391 -0.0913 2.0386
-3.2214 -0.3525 2.0386
-3.1829 -0.6115 2.0386
-3.1237 -0.8665 2.0386
-3.0444 -1.1161 2.0386
-2.9453 -1.3586 2.0386
-2.8271 -1.5924 2.0386
-2.6905 -1.8160 2.0386
-2.5364 -2.0281 2.0386
-2.3657 -2.2272 2.0386
-2.1796 -2.4121 2.0386
-0.7229 -0.9430 0.7447
-0.6446 -0.9982 0.7442
-0.5620 -1.0470 0.7438
-0.4759 -1.0890 0.7433
-0.3866 -1.1239 0.7429
-0.2949 -1.1516 0.7425
-0.2012 -1.1718 0.7420
-0.1062 -1.1844 0.7416
-0.0105 -1.1893 0.7412
0.0853 -1.1865 0.7408
0.1806 -1.1761 0.7404
0.2747 -1.1580 0.7401
0.3671 -1.1325 0.7397
0.4571 -1.0996 0.7394
0.5442 -1.0596 0.7391
0.6278 -1.0127 0.7389
0.7074 -0.9593 0.7386
0.7824 -0.8996 0.7384
2.3540 -2.3031 2.0386
2.5326 -2.1075 2.0386
2.6950 -1.8981 2.0386
2.8398 -1.6761 2.0386
2.9663 -1.4431 2.0386
3.0735 -1.2005 2.0386
3.1607 -0.9500 2.0386
3.2273 -0.6932 2.0386
3.2729 -0.4319 2.0386
3.2972 -0.1677 2.0386
3.3000 0.0976 2.0386
3.2812 0.3623 2.0386
3.2411 0.6245 2.0386
3.1798 0.8826 2.0386
3.0979 1.1349 2.0386
2.9958 1.3796 2.0386
2.8743 1.6152 2.0386
2.7341 1.8401 2.0386
2.5762 2.0529 2.0386
2.4017 2.2521 2.0386
2.2117 2.4365 2.0386
0.7310 0.9485 0.7423
0.6523 1.0041 0.7427
0.5694 1.0532 0.7432
0.4828 1.0955 0.7436
0.3931 1.1307 0.7441
0.3008 1.1585 0.7445
0.2066 1.1788 0.7449
0.1110 1.1914 0.7454
0.0148 1.1962 0.7458
-0.0816 1.1932 0.7462
-0.1774 1.1825 0.7465
-0.2720 1.1641 0.7469
-0.3648 1.1381 0.7472
-0.4552 1.1047 0.7476
-0.5426 1.0641 0.7478
-0.6264 1.0166 0.7481
-0.7061 0.9624 0.7483
-2.1277 2.4569 2.0386
-2.3177 2.2760 2.0386
-2.4925 2.0806 2.0386
-2.6511 1.8719 2.0386
-2.7924 1.6513 2.0386
-2.9156 1.4201 2.0386
-3.0198 1.1798 2.0386
-3.1045 0.9320 2.0386
-3.1691 0.6783 2.0386
-3.2132 0.4202 2.0386
-3.2364 0.1595 2.0386
-3.2388 -0.1023 2.0386
-3.2202 -0.3635 2.0386
-3.1808 -0.6223 2.0386
-3.1208 -0.8771 2.0386
-3.0406 -1.1264 2.0386
-2.9407 -1.3686 2.0386
-2.8217 -1.6020 2.0386
-2.6843 -1.8252 2.0386
-2.5295 -2.0368 2.0386
-2.3582 -2.2353 2.0386
-2.1714 -2.4195 2.0386
-0.7197 -0.9454 0.7446
-0.6412 -1.0004 0.7442
-0.5585 -1.0489 0.7438
-0.4722 -1.0906 0.7433
-0.3828 -1.1252 0.7429
-0.2909 -1.1526 0.7424
-0.1972 -1.1724 0.7420
-0.1022 -1.1847 0.7416
-0.0064 -1.1893 0.7412
0.0893 -1.1863 0.7408
0.1846 -1.1755 0.7404
0.2786 -1.1571 0.7400
0.3709 -1.1313 0.7397
0.4608 -1.0981 0.7394
0.5478 -1.0578 0.7391
0.6312 -1.0106 0.7389
0.7106 -0.9569 0.7386
0.7855 -0.8969 0.7384
2.3618 -2.2952 2.0386
2.5398 -2.0990 2.0386
2.7014 -1.8890 2.0386
2.8455 -1.6665 2.0386
2.9712 -1.4331 2.0386
3.0776 -1.1901 2.0386
3.1639 -0.9393 2.0386
3.2297 -0.6823 2.0386
3.2744 -0.4208 2.0386
3.2977 -0.1565 2.0386
3.2996 0.1088 2.0386
3.2800 0.3734 2.0386
3.2389 0.6355 2.0386
3.1768 0.8934 2.0386
3.0940 1.1453 2.0386
2.9911 1.3897 2.0386
2.8688 1.6249 2.0386
2.7278 1.8493 2.0386
2.5692 2.0616 2.0386
2.3940 2.2602 2.0386
2.2034 2.4439 2.0386
0.7277 0.9509 0.7423
0.6489 1.0063 0.7427
0.5659 1.0552 0.7432
0.4791 1.0972 0.7436
0.3893 1.1320 0.7441
0.2969 1.1595 0.7445
0.2026 1.1794 0.7450
0.1070 1.1917 0.7454
0.0107 1.1962 0.7458
-0.0856 1.1929 0.7462
-0.1814 1.1819 0.7466
-0.2759 1.1631 0.7469
-0.3687 1.1368 0.7473
-0.4589 1.1031 0.7476
-0.5462 1.0622 0.7479
-0.6299 1.0144 0.7481
-0.7094 0.9600 0.7483
-2.1360 2.4496 2.0386
-2.3254 2.2681 2.0386
-2.4995 2.0721 2.0386
-2.6574 1.8629 2.0386
-2.7980 1.6417 2.0386
-2.9204 1.4101 2.0386
-3.0238 1.1695 2.0386
-3.1076 0.9214 2.0386
-3.1714 0.6675 2.0386
-3.2146 0.4093 2.0386
-3.2370 0.1485 2.0386
-3.2384 -0.1133 2.0386
-3.2190 -0.3744 2.0386
-3.1787 -0.6331 2.0386
-3.1178 -0.8878 2.0386
-3.0368 -1.1368 2.0386
-2.9361 -1.3786 2.0386
-2.8163 -1.6116 2.0386
-2.6782 -1.8343 2.0386
-2.5226 -2.0454 2.0386
-2.3506 -2.2433 2.0386
-2.1632 -2.4270 2.0386
-0.7165 -0.9478 0.7446
-3.0424 0.1603 2.0386
-3.0454 -0.0859 2.0386
-3.0288 -0.3315 2.0386
-2.9925 -0.5750 2.0386
-2.9369 -0.8148 2.0386
-2.8622 -1.0495 2.0386
-2.7690 -1.2775 2.0386
-2.6578 -1.4973 2.0386
-2.5293 -1.7076 2.0386
-2.3844 -1.9070 2.0386
-2.2239 -2.0942 2.0386
-0.7487 -0.8288 0.7450
-0.6794 -0.8865 0.7446
-0.6058 -0.9384 0.7442
-0.5282 -0.9843 0.7438
-0.4472 -1.0238 0.7433
-0.3633 -1.0566 0.7429
-0.2770 -1.0826 0.7425
-0.1889 -1.1016 0.7421
-0.0996 -1.1135 0.7417
-0.0097 -1.1181 0.7413
0.0804 -1.1155 0.7410
0.1699 -1.1057 0.7406
0.2584 -1.0887 0.7403
0.3453 -1.0647 0.7400
0.4299 -1.0338 0.7397
0.5118 -0.9962 0.7394
0.5904 -0.9521 0.7391
0.6652 -0.9018 0.7389
0.7358 -0.8457 0.7387
2.2125 -2.1642 2.0386
2.3804 -1.9804 2.0386
2.5329 -1.7836 2.0386
2.6690 -1.5750 2.0386
2.7878 -1.3560 2.0386
2.8884 -1.1281 2.0386
2.9704 -0.8927 2.0386
3.0329 -0.6514 2.0386
3.0758 -0.4058 2.0386
3.0986 -0.1576 2.0386
3.1012 0.0917 2.0386
3.0836 0.3404 2.0386
3.0459 0.5868 2.0386
2.9884 0.8293 2.0386
2.9114 1.0663 2.0386
2.8155 1.2963 2.0386
2.7014 1.5177 2.0386
2.5697 1.7291 2.0386
2.4214 1.9291 2.0386
2.2574 2.1163 2.0386
0.7566 0.8333 0.7420
0.6872 0.8914 0.7424
0.6133 0.9437 0.7428
0.5354 0.9899 0.7432
0.4540 1.0296 0.7436
0.3696 1.0626 0.7440
0.2829 1.0888 0.7444
0.1944 1.1078 0.7448
0.1045 1.1197 0.7452
0.0141 1.1242 0.7456
-0.0765 1.1214 0.7460
-0.1665 1.1113 0.7464
-0.2554 1.0940 0.7467
-0.3427 1.0696 0.7470
-0.4276 1.0382 0.7473
-0.5098 1.0000 0.7476
-0.5886 0.9554 0.7478
-0.6635 0.9046 0.7480
-0.7341 0.8478 0.7482
-2.1787 2.1401 2.0386
-2.3432 1.9564 2.0386
-2.4923 1.7602 2.0386
-2.6253 1.5527 2.0386
-2.7411 1.3353 2.0386
-2.8392 1.1094 2.0386
-2.9188 0.8764 2.0386
-2.9796 0.6378 2.0386
-3.0210 0.3951 2.0386
-3.0429 0.1499 2.0386
-3.0451 -0.0962 2.0386
-3.0277 -0.3418 2.0386
-2.9906 -0.5852 2.0386
-2.9341 -0.8248 2.0386
-2.8587 -1.0593 2.0386
-2.7647 -1.2869 2.0386
-2.6527 -1.5064 2.0386
-2.5236 -1.7162 2.0386
-2.3779 -1.9151 2.0386
-2.2168 -2.1018 2.0386
-0.7459 -0.8313 0.7450
-0.6764 -0.8888 0.7446
-0.6026 -0.9405 0.7442
-0.5249 -0.9861 0.7437
-0.4437 -1.0253 0.7433
-0.3597 -1.0579 0.7429
-0.2733 -1.0836 0.7425
-0.1852 -1.1023 0.7421
-0.0959 -1.1138 0.7417
-0.0059 -1.1182 0.7413
0.0842 -1.1153 0.7409
0.1737 -1.1051 0.7406
0.2621 -1.0879 0.7403
0.3489 -1.0636 0.7399
0.4334 -1.0323 0.7396
0.5152 -0.9944 0.7394
0.5936 -0.9501 0.7391
0.6683 -0.8996 0.7389
0.7386 -0.8432 0.7387
2.2199 -2.1568 2.0386
2.3871 -1.9724 2.0386
2.5389 -1.7750 2.0386
2.6743 -1.5660 2.0386
2.7924 -1.3466 2.0386
