ply
format ascii 1.0
element vertex 2179
property float32 x
property float32 y
property float32 z
end_header
10.5418 5.3616 1.9550
10.0282 6.1648 1.9469
9.4494 6.9169 1.9378
8.8111 7.6128 1.9278
8.1199 8.2485 1.9171
7.3766 8.8139 1.9045
6.5963 9.3151 1.8920
5.8028 9.7807 1.8858
4.9941 10.2137 1.8858
4.1535 10.5803 1.8858
3.5521 11.7576 2.0382
2.5924 12.0038 2.0382
1.6162 12.1724 2.0382
0.6297 12.2623 2.0382
-0.3607 12.2731 2.0382
-1.3489 12.2046 2.0382
-2.3285 12.0572 2.0382
-3.2932 11.8319 2.0382
-4.2370 11.5301 2.0382
-5.1538 11.1536 2.0382
-6.0378 10.7048 2.0382
-6.8831 10.1866 2.0382
-7.6846 9.6021 2.0382
-8.4369 8.9550 2.0382
-9.1352 8.2494 2.0382
-9.7750 7.4898 2.0382
-10.3520 6.6809 2.0382
-10.8625 5.8279 2.0382
-11.3031 4.9362 2.0382
-11.6709 4.0114 2.0382
-11.9632 3.0595 2.0382
-12.1782 2.0867 2.0382
-12.3143 1.0991 2.0382
-12.3704 0.1032 2.0382
-12.3460 -0.8947 2.0382
-12.2413 -1.8879 2.0382
-12.0566 -2.8700 2.0382
-11.7931 -3.8345 2.0382
-11.4524 -4.7751 2.0382
-11.0366 -5.6857 2.0382
-10.5482 -6.5601 2.0382
-9.9904 -7.3925 2.0382
-9.3668 -8.1775 2.0382
-8.6813 -8.9097 2.0382
-7.9384 -9.5842 2.0382
10.0527 -0.2343 1.9483
10.0312 0.5762 1.9479
9.9389 1.3809 1.9463
9.7769 2.1733 1.9437
9.5469 2.9471 1.9400
9.2511 3.6961 1.9353
8.8926 4.4146 1.9296
8.4749 5.0971 1.9230
8.0018 5.7387 1.9155
7.4778 6.3350 1.9073
6.9076 6.8820 1.8983
6.2962 7.3763 1.8888
5.6703 7.8448 1.8858
5.0180 8.2739 1.8858
4.3336 8.6492 1.8858
3.9142 9.6932 2.0382
3.1196 9.9754 2.0382
2.3050 10.1930 2.0382
1.4757 10.3446 2.0382
0.6370 10.4293 2.0382
-0.2058 10.4466 2.0382
-1.0472 10.3963 2.0382
-1.8820 10.2788 2.0382
-2.7047 10.0948 2.0382
-3.5102 9.8454 2.0382
-4.2932 9.5323 2.0382
-5.0488 9.1573 2.0382
-5.7721 8.7229 2.0382
-6.4584 8.2317 2.0382
-7.1033 7.6870 2.0382
-7.7026 7.0921 2.0382
-8.2525 6.4507 2.0382
-8.7493 5.7670 2.0382
-9.1898 5.0453 2.0382
-9.5711 4.2904 2.0382
-9.8905 3.5066 2.0382
-10.1461 2.6994 2.0382
-10.3360 1.8739 2.0382
-10.4588 1.0353 2.0382
-10.5138 0.1892 2.0382
-10.5004 -0.6591 2.0382
-10.4186 -1.5040 2.0382
-10.2688 -2.3399 2.0382
-10.0520 -3.1614 2.0382
-9.7695 -3.9632 2.0382
-9.4229 -4.7398 2.0382
-9.0145 -5.4862 2.0382
-8.5469 -6.1975 2.0382
-8.0230 -6.8690 2.0382
-7.4464 -7.4960 2.0382
-6.8206 -8.0746 2.0382
-6.1499 -8.6007 2.0382
-5.4385 -9.0709 2.0382
-4.6911 -9.4821 2.0382
-3.9127 -9.8314 2.0382
-3.1084 -10.1165 2.0382
-2.2835 -10.3355 2.0382
-0.8854 -6.4323 1.2501
-0.3617 -6.4370 1.2413
0.1581 -6.4416 1.2406
0.6806 -6.4463 1.2480
1.9560 -10.4030 2.0382
2.7875 -10.2104 2.0382
3.6005 -9.9511 2.0382
4.0615 -8.9069 1.8858
4.7648 -8.5486 1.8858
5.4366 -8.1347 1.8858
6.0793 -7.6763 1.8879
6.7101 -7.1959 1.8976
7.3001 -6.6610 1.9067
4.0402 -3.1291 0.9863
8.3374 -5.4424 1.9226
8.7753 -4.7673 1.9293
9.1538 -4.0548 1.9350
9.4695 -3.3105 1.9398
9.7193 -2.5403 1.9435
9.9010 -1.7503 1.9462
10.0129 -0.9470 1.9478
10.0539 -0.1369 1.9484
10.0239 0.6732 1.9478
9.9231 1.4768 1.9461
9.7528 2.2673 1.9433
9.5148 3.0385 1.9395
9.2113 3.7841 1.9346
8.8455 4.4985 1.9288
8.4209 5.1764 1.9221
7.9415 5.8128 1.9146
7.4117 6.4033 1.9063
6.8362 6.9442 1.8972
6.2203 7.4320 1.8876
5.5938 7.8990 1.8858
4.9374 8.3218 1.8858
4.2495 8.6906 1.8858
3.8200 9.7304 2.0382
3.0227 10.0050 2.0382
2.2061 10.2147 2.0382
1.3754 10.3583 2.0382
0.5359 10.4350 2.0382
-0.3070 10.4441 2.0382
-1.1479 10.3857 2.0382
-1.9815 10.2602 2.0382
-2.8025 10.0682 2.0382
-3.6055 9.8111 2.0382
-4.3855 9.4904 2.0382
-5.1374 9.1082 2.0382
-5.8565 8.6669 2.0382
-6.5381 8.1691 2.0382
-7.1777 7.6181 2.0382
-7.7713 7.0174 2.0382
-8.3150 6.3708 2.0382
-8.8052 5.6823 2.0382
-9.2388 4.9563 2.0382
-9.6127 4.1974 2.0382
-9.9246 3.4108 2.0382
-10.1724 2.6011 2.0382
-10.3543 1.7738 2.0382
-10.4690 0.9340 2.0382
-10.5158 0.0873 2.0382
-10.4942 -0.7608 2.0382
-10.4042 -1.6049 2.0382
-10.2463 -2.4394 2.0382
-10.0215 -3.2588 2.0382
-9.7312 -4.0581 2.0382
-9.3771 -4.8311 2.0382
-8.9614 -5.5736 2.0382
-8.4869 -6.2804 2.0382
-7.9565 -6.9467 2.0382
-7.3738 -7.5681 2.0382
-6.7424 -8.1406 2.0382
8.6303 -0.2015 1.9263
8.6128 0.4944 1.9259
8.5351 1.1856 1.9246
8.3982 1.8665 1.9223
8.2033 2.5320 1.9192
7.9525 3.1770 1.9152
7.6479 3.7964 1.9103
7.2926 4.3857 1.9047
6.8897 4.9408 1.8984
6.4427 5.4578 1.8914
5.9621 5.9397 1.8858
5.4622 6.3989 1.8858
4.9272 6.8164 1.8858
4.3606 7.1896 1.8858
3.9369 7.8571 1.9714
3.4016 8.4234 2.0382
2.7111 8.6689 2.0382
2.0032 8.8581 2.0382
1.2825 8.9900 2.0382
0.5536 9.0637 2.0382
-0.1788 9.0787 2.0382
-0.9101 9.0350 2.0382
-1.6356 8.9327 2.0382
-2.3506 8.7727 2.0382
-3.0505 8.5558 2.0382
-3.7309 8.2835 2.0382
-4.3874 7.9574 2.0382
-5.0158 7.5796 2.0382
-5.6119 7.1526 2.0382
-6.1721 6.6789 2.0382
-6.6925 6.1617 2.0382
-7.1699 5.6042 2.0382
-7.6011 5.0099 2.0382
-7.9834 4.3827 2.0382
-8.3141 3.7265 2.0382
-8.5911 3.0456 2.0382
-8.8125 2.3443 2.0382
-8.9768 1.6271 2.0382
-9.0829 0.8988 2.0382
-9.1300 0.1639 2.0382
-9.1178 -0.5727 2.0382
-9.0462 -1.3062 2.0382
-8.9156 -2.0319 2.0382
-8.7267 -2.7449 2.0382
-8.4809 -3.4408 2.0382
-8.1795 -4.1147 2.0382
-7.8246 -4.7624 2.0382
-7.4183 -5.3795 2.0382
-6.9632 -5.9619 2.0382
-6.4624 -6.5058 2.0382
-5.9191 -7.0076 2.0382
-5.3367 -7.4639 2.0382
-4.7192 -7.8716 2.0382
-4.0706 -8.2281 2.0382
-3.3950 -8.5310 2.0382
-2.6971 -8.7782 2.0382
-1.9813 -8.9680 2.0382
-0.8854 -6.4329 1.4409
-0.3617 -6.4376 1.4307
0.1581 -6.4423 1.4299
0.6807 -6.4470 1.4385
1.6971 -9.0266 2.0382
2.4186 -8.8596 2.0382
3.1241 -8.6347 2.0382
3.7598 -8.2456 2.0118
4.1346 -7.4183 1.8858
4.7177 -7.0593 1.8858
5.2697 -6.6544 1.8858
5.7870 -6.2063 1.8858
6.2826 -5.7329 1.8907
4.0397 -3.1289 1.1363
7.1678 -4.6793 1.9043
7.5410 -4.0971 1.9100
7.8635 -3.4835 1.9149
8.1324 -2.8434 1.9190
8.3453 -2.1814 1.9222
8.5002 -1.5030 1.9244
8.5959 -0.8133 1.9258
8.6314 -0.1179 1.9263
8.6066 0.5777 1.9258
8.5218 1.2680 1.9243
8.3778 1.9474 1.9220
8.1761 2.6107 1.9187
7.9187 3.2528 1.9146
7.6079 3.8688 1.9097
7.2467 4.4543 1.9040
6.8382 5.0050 1.8976
6.3862 5.5171 1.8905
5.9040 5.9969 1.8858
5.3997 6.4513 1.8858
4.8608 6.8636 1.8858
4.2906 7.2313 1.8858
3.9321 8.0411 2.0079
3.3198 8.4558 2.0382
2.6269 8.6946 2.0382
1.9173 8.8770 2.0382
1.1953 9.0019 2.0382
0.4658 9.0686 2.0382
-0.2668 9.0765 2.0382
-0.9976 9.0258 2.0382
-1.7221 8.9166 2.0382
-2.4355 8.7496 2.0382
-3.1333 8.5260 2.0382
-3.8111 8.2471 2.0382
-4.4644 7.9147 2.0382
-5.0891 7.5309 2.0382
-5.6812 7.0981 2.0382
-6.2367 6.6191 2.0382
-6.7522 6.0968 2.0382
-7.2242 5.5347 2.0382
-7.6497 4.9362 2.0382
-8.0259 4.3053 2.0382
-8.3502 3.6459 2.0382
-8.6206 2.9623 2.0382
-8.8353 2.2589 2.0382
-8.9926 1.5402 2.0382
-9.0917 0.8108 2.0382
-9.1317 0.0755 2.0382
-9.1123 -0.6610 2.0382
-9.0336 -1.3938 2.0382
-8.8959 -2.1182 2.0382
-8.7002 -2.8295 2.0382
-8.4476 -3.5229 2.0382
-8.1397 -4.1940 2.0382
-7.7784 -4.8382 2.0382
-7.3661 -5.4513 2.0382
-6.9054 -6.0293 2.0382
-6.3994 -6.5684 2.0382
-5.8511 -7.0649 2.0382
7.5487 -0.1765 1.9095
7.5340 0.4322 1.9091
7.4671 1.0369 1.9080
7.3488 1.6330 1.9061
7.1801 2.2159 1.9033
6.9627 2.7813 1.8999
6.6985 3.3248 1.8957
6.3899 3.8426 1.8908
6.0396 4.3309 1.8853
5.6705 4.8033 1.8858
5.2632 5.2432 1.8858
4.8221 5.6488 1.8858
4.3499 6.0175 1.8858
3.9309 6.4809 1.9255
3.5937 7.1717 2.0382
3.0033 7.4368 2.0382
2.3937 7.6536 2.0382
1.7687 7.8208 2.0382
1.1324 7.9374 2.0382
0.4888 8.0025 2.0382
-0.1579 8.0157 2.0382
-0.8036 7.9771 2.0382
-1.4441 7.8868 2.0382
-2.0754 7.7454 2.0382
-2.6934 7.5538 2.0382
-3.2940 7.3132 2.0382
-3.8736 7.0252 2.0382
-4.4282 6.6915 2.0382
-4.9544 6.3142 2.0382
-5.4487 5.8959 2.0382
-5.9080 5.4391 2.0382
-6.3291 4.9467 2.0382
-6.7095 4.4219 2.0382
-7.0466 3.8681 2.0382
-7.3382 3.2888 2.0382
-7.5823 2.6876 2.0382
-7.7773 2.0686 2.0382
-7.9219 1.4356 2.0382
-8.0152 0.7928 2.0382
-8.0563 0.1443 2.0382
-8.0451 -0.5056 2.0382
-7.9815 -1.1527 2.0382
-7.8658 -1.7929 2.0382
-7.6989 -2.4219 2.0382
-7.4816 -3.0356 2.0382
-7.2154 -3.6300 2.0382
-6.9020 -4.2012 2.0382
-6.5433 -4.7453 2.0382
-6.1417 -5.2588 2.0382
-5.6997 -5.7383 2.0382
-5.2203 -6.1806 2.0382
-4.7066 -6.5829 2.0382
-4.1619 -6.9423 2.0382
-3.5897 -7.2565 2.0382
-2.9939 -7.5234 2.0382
-2.3784 -7.7412 2.0382
-1.7472 -7.9085 2.0382
-0.8855 -6.4336 1.6341
-0.3617 -6.4382 1.6225
0.1581 -6.4429 1.6216
0.6807 -6.4476 1.6314
1.4966 -7.9601 2.0382
2.1328 -7.8130 2.0382
2.7550 -7.6148 2.0382
3.3590 -7.3667 2.0382
3.7852 -6.7916 1.9576
4.1606 -6.2259 1.8858
4.6476 -5.8690 1.8858
5.1040 -5.4740 1.8858
5.5268 -5.0435 1.8858
4.0092 -3.1055 1.2786
6.2762 -4.0975 1.8903
6.6009 -3.5865 1.8953
6.8813 -3.0487 1.8996
7.1151 -2.4880 1.9031
7.3002 -1.9085 1.9059
7.4350 -1.3149 1.9079
7.5184 -0.7116 1.9091
7.5497 -0.1034 1.9095
7.5287 0.5051 1.9090
7.4556 1.1090 1.9078
7.3311 1.7038 1.9058
7.1565 2.2848 1.9030
6.9334 2.8478 1.8994
6.6638 3.3884 1.8951
6.3500 3.9029 1.8902
5.9949 4.3874 1.8846
5.6234 4.8579 1.8858
5.2120 5.2937 1.8858
4.7670 5.6951 1.8858
4.2913 6.0592 1.8858
3.9269 6.6181 1.9549
3.5239 7.2061 2.0382
2.9310 7.4654 2.0382
2.3194 7.6764 2.0382
1.6928 7.8375 2.0382
1.0554 7.9479 2.0382
0.4112 8.0068 2.0382
-0.2356 8.0138 2.0382
-0.8809 7.9690 2.0382
-1.5205 7.8725 2.0382
-2.1504 7.7250 2.0382
-2.7665 7.5275 2.0382
-3.3648 7.2811 2.0382
-3.9416 6.9875 2.0382
-4.4930 6.6484 2.0382
-5.0155 6.2661 2.0382
-5.5058 5.8430 2.0382
-5.9606 5.3818 2.0382
-6.3770 4.8853 2.0382
-6.7523 4.3569 2.0382
-7.0841 3.7998 2.0382
-7.3700 3.2177 2.0382
-7.6083 2.6142 2.0382
-7.7974 1.9933 2.0382
-7.9359 1.3589 2.0382
-8.0229 0.7152 2.0382
-8.0577 0.0663 2.0382
-8.0402 -0.5835 2.0382
-7.9703 -1.2301 2.0382
-7.8485 -1.8691 2.0382
-7.6754 -2.4965 2.0382
-7.4522 -3.1081 2.0382
-7.1802 -3.6999 2.0382
-6.8612 -4.2680 2.0382
-6.4973 -4.8086 2.0382
-6.0907 -5.3182 2.0382
-5.6441 -5.7934 2.0382
-5.1604 -6.2311 2.0382
6.6973 -0.1568 1.8962
6.6847 0.3832 1.8959
6.6261 0.9199 1.8949
6.5221 1.4491 1.8932
6.3737 1.9668 1.8909
6.1822 2.4692 1.8878
5.9546 2.9553 1.8858
5.6951 3.4245 1.8858
5.3989 3.8712 1.8858
5.0677 4.2925 1.8858
4.7039 4.6858 1.8858
4.3098 5.0484 1.8858
3.9239 5.4280 1.9032
3.7191 6.1313 2.0382
3.2121 6.4100 2.0382
2.6845 6.6471 2.0382
2.1396 6.8410 2.0382
1.5810 6.9905 2.0382
1.0122 7.0947 2.0382
0.4369 7.1529 2.0382
-0.1411 7.1648 2.0382
-0.7183 7.1302 2.0382
-1.2909 7.0495 2.0382
-1.8551 6.9230 2.0382
-2.4075 6.7517 2.0382
-2.9443 6.5365 2.0382
-3.4623 6.2789 2.0382
-3.9579 5.9805 2.0382
-4.4281 5.6432 2.0382
-4.8698 5.2692 2.0382
-5.2801 4.8608 2.0382
-5.6563 4.4206 2.0382
-5.9961 3.9515 2.0382
-6.2971 3.4564 2.0382
-6.5574 2.9386 2.0382
-6.7753 2.4013 2.0382
-6.9493 1.8481 2.0382
-7.0782 1.2825 2.0382
-7.1612 0.7081 2.0382
-7.1977 0.1287 2.0382
-7.1874 -0.4519 2.0382
-7.1303 -1.0301 2.0382
-7.0267 -1.6019 2.0382
-6.8772 -2.1637 2.0382
-6.6829 -2.7118 2.0382
-6.4449 -3.2426 2.0382
-6.1647 -3.7526 2.0382
-5.8441 -4.2385 2.0382
-5.4852 -4.6970 2.0382
-5.0904 -5.1251 2.0382
-4.6621 -5.5200 2.0382
-4.2032 -5.8790 2.0382
-3.7166 -6.1998 2.0382
-3.2056 -6.4803 2.0382
-2.6735 -6.7185 2.0382
-2.1238 -6.9130 2.0382
-1.5602 -7.0623 2.0382
-0.8856 -6.4342 1.8302
-0.3617 -6.4389 1.8172
0.1581 -6.4436 1.8162
0.6807 -6.4483 1.8271
1.3364 -7.1083 2.0382
1.9045 -6.9770 2.0382
2.4602 -6.8001 2.0382
2.9996 -6.5789 2.0382
3.5193 -6.3148 2.0382
3.8019 -5.6893 1.9296
4.1505 -5.2416 1.8858
4.5582 -4.8889 1.8858
4.9360 -4.5046 1.8858
3.9681 -3.0738 1.4169
5.5921 -3.6511 1.8858
5.8662 -3.1876 1.8858
6.1075 -2.7061 1.8875
6.3139 -2.2080 1.8906
6.4774 -1.6937 1.8931
6.5965 -1.1668 1.8948
6.6703 -0.6316 1.8959
6.6982 -0.0919 1.8962
6.6800 0.4479 1.8959
6.6159 0.9839 1.8948
6.5066 1.5119 1.8930
6.3529 2.0280 1.8905
6.1564 2.5284 1.8874
5.9255 3.0127 1.8858
5.6615 3.4794 1.8858
5.3609 3.9232 1.8858
5.0257 4.3413 1.8858
4.6582 4.7310 1.8858
4.2605 5.0898 1.8858
3.9206 5.5355 1.9276
3.6594 6.1670 2.0382
3.1498 6.4407 2.0382
2.6199 6.6727 2.0382
2.0732 6.8613 2.0382
1.5131 7.0054 2.0382
0.9434 7.1041 2.0382
0.3676 7.1568 2.0382
-0.2106 7.1631 2.0382
-0.7874 7.1230 2.0382
-1.3591 7.0367 2.0382
-1.9221 6.9048 2.0382
-2.4728 6.7281 2.0382
-3.0076 6.5078 2.0382
-3.5230 6.2452 2.0382
-4.0158 5.9421 2.0382
-4.4827 5.6002 2.0382
-4.9208 5.2219 2.0382
-5.3271 4.8096 2.0382
-5.6991 4.3658 2.0382
-6.0343 3.8934 2.0382
-6.3306 3.3954 2.0382
-6.5859 2.8751 2.0382
-6.7985 2.3357 2.0382
-6.9672 1.7808 2.0382
-7.0906 1.2139 2.0382
-7.1681 0.6387 2.0382
-7.1989 0.0590 2.0382
-7.1830 -0.5216 2.0382
-7.1203 -1.0991 2.0382
-7.0111 -1.6700 2.0382
-6.8562 -2.2303 2.0382
-6.6566 -2.7765 2.0382
-6.4134 -3.3050 2.0382
-6.1283 -3.8123 2.0382
-5.8030 -4.2950 2.0382
-5.4397 -4.7500 2.0382
-5.0406 -5.1743 2.0382
-4.6085 -5.5650 2.0382
6.0087 -0.1409 1.8855
5.9977 0.3436 1.8853
5.9456 0.8252 1.8844
5.8620 1.3022 1.8858
5.7361 1.7698 1.8858
5.5730 2.2257 1.8858
5.3737 2.6668 1.8858
5.1397 3.0903 1.8858
4.8725 3.4936 1.8858
4.5738 3.8739 1.8858
4.2455 4.2289 1.8858
3.9174 4.5885 1.8991
3.7928 5.2463 2.0382
3.3568 5.5339 2.0382
2.8993 5.7856 2.0382
2.4231 5.9996 2.0382
1.9313 6.1747 2.0382
1.4271 6.3097 2.0382
0.9137 6.4038 2.0382
0.3944 6.4564 2.0382
-0.1274 6.4671 2.0382
-0.6484 6.4359 2.0382
-1.1652 6.3630 2.0382
-1.6745 6.2488 2.0382
-2.1731 6.0941 2.0382
-2.6576 5.8998 2.0382
-3.1251 5.6672 2.0382
-3.5724 5.3978 2.0382
-3.9967 5.0933 2.0382
-4.3953 4.7555 2.0382
-4.7655 4.3868 2.0382
-5.1050 3.9894 2.0382
-5.4114 3.5659 2.0382
-5.6829 3.1191 2.0382
-5.9177 2.6517 2.0382
-6.1141 2.1666 2.0382
-6.2709 1.6675 2.0382
-6.3871 1.1570 2.0382
-6.4617 0.6387 2.0382
-6.4944 0.1159 2.0382
-6.4849 -0.4080 2.0382
-6.4331 -0.9296 2.0382
-6.3395 -1.4455 2.0382
-6.2044 -1.9523 2.0382
-6.0289 -2.4467 2.0382
-5.8140 -2.9255 2.0382
-5.5610 -3.3854 2.0382
-5.2717 -3.8236 2.0382
-4.9479 -4.2371 2.0382
-4.5916 -4.6231 2.0382
-4.2051 -4.9792 2.0382
-3.7911 -5.3030 2.0382
-3.3522 -5.5922 2.0382
-2.8913 -5.8451 2.0382
-2.4113 -6.0599 2.0382
-1.9155 -6.2352 2.0382
-1.4071 -6.3698 2.0382
-0.8895 -6.4629 2.0382
-0.3659 -6.5137 2.0382
0.1600 -6.5221 2.0382
0.6849 -6.4879 2.0382
1.2053 -6.4113 2.0382
1.7177 -6.2929 2.0382
2.2189 -6.1334 2.0382
2.7054 -5.9340 2.0382
3.1742 -5.6958 2.0382
3.6221 -5.4206 2.0382
3.8128 -4.8153 1.9206
4.1115 -4.4101 1.8858
4.4524 -4.0635 1.8858
3.9494 -3.0595 1.5633
5.0445 -3.2938 1.8858
5.2919 -2.8758 1.8858
5.5047 -2.4393 1.8858
5.6815 -1.9871 1.8858
5.8213 -1.5223 1.8858
5.9183 -1.0471 1.8843
5.9844 -0.5669 1.8852
6.0096 -0.0827 1.8855
5.9936 0.4017 1.8852
5.9366 0.8827 1.8842
5.8489 1.3589 1.8858
5.7184 1.8253 1.8858
5.5509 2.2795 1.8858
5.3475 2.7186 1.8858
5.1094 3.1399 1.8858
4.8383 3.5405 1.8858
4.5359 3.9179 1.8858
4.2042 4.2697 1.8858
3.9131 4.6745 1.9189
3.7417 5.2827 2.0382
3.3030 5.5661 2.0382
2.8430 5.8133 2.0382
2.3648 6.0227 2.0382
1.8713 6.1931 2.0382
1.3659 6.3232 2.0382
0.8516 6.4124 2.0382
0.3318 6.4599 2.0382
-0.1901 6.4656 2.0382
-0.7107 6.4294 2.0382
-1.2268 6.3515 2.0382
-1.7350 6.2324 2.0382
-2.2321 6.0728 2.0382
-2.7147 5.8739 2.0382
-3.1799 5.6368 2.0382
-3.6246 5.3631 2.0382
-4.0460 5.0544 2.0382
-4.4413 4.7129 2.0382
-4.8079 4.3406 2.0382
-5.1435 3.9399 2.0382
-5.4459 3.5135 2.0382
-5.7131 3.0640 2.0382
-5.9433 2.5943 2.0382
-6.1351 2.1074 2.0382
-6.2870 1.6067 2.0382
-6.3982 1.0951 2.0382
-6.4679 0.5761 2.0382
-6.4955 0.0530 2.0382
-6.4809 -0.4708 2.0382
-6.4241 -0.9919 2.0382
-6.3254 -1.5069 2.0382
-6.1855 -2.0124 2.0382
-6.0052 -2.5051 2.0382
-5.7856 -2.9817 2.0382
-5.5282 -3.4393 2.0382
-5.2346 -3.8746 2.0382
-4.9067 -4.2849 2.0382
-4.5467 -4.6675 2.0382
-4.1568 -5.0198 2.0382
5.4658 -0.1284 1.8858
5.4566 0.3124 1.8858
5.4120 0.7509 1.8858
5.3321 1.1843 1.8858
5.2177 1.6097 1.8858
5.0695 2.0244 1.8858
4.8884 2.4257 1.8858
4.6756 2.8111 1.8858
4.4326 3.1780 1.8858
4.1610 3.5241 1.8858
3.9070 3.8914 1.9075
3.8250 4.4800 2.0382
3.4507 4.7728 2.0382
3.0541 5.0346 2.0382
2.6379 5.2636 2.0382
2.2046 5.4584 2.0382
1.7572 5.6178 2.0382
1.2984 5.7407 2.0382
0.8313 5.8264 2.0382
0.3588 5.8742 2.0382
-0.1159 5.8839 2.0382
-0.5899 5.8556 2.0382
-1.0602 5.7892 2.0382
-1.5236 5.6853 2.0382
-1.9771 5.5444 2.0382
-2.4180 5.3676 2.0382
-2.8433 5.1559 2.0382
-3.2502 4.9107 2.0382
-3.6362 4.6336 2.0382
-3.9987 4.3262 2.0382
-4.3354 3.9907 2.0382
-4.6441 3.6290 2.0382
-4.9229 3.2438 2.0382
-5.1697 2.8372 2.0382
-5.3831 2.4119 2.0382
-5.5617 1.9708 2.0382
-5.7042 1.5165 2.0382
-5.8097 1.0522 2.0382
-5.8774 0.5807 2.0382
-5.9070 0.1052 2.0382
-5.8981 -0.3713 2.0382
-5.8509 -0.8457 2.0382
-5.7655 -1.3148 2.0382
-5.6426 -1.7757 2.0382
-5.4828 -2.2253 2.0382
-5.2872 -2.6606 2.0382
-5.0571 -3.0788 2.0382
-4.7938 -3.4772 2.0382
-4.4992 -3.8531 2.0382
-4.1752 -4.2041 2.0382
-3.8237 -4.5278 2.0382
-3.4472 -4.8221 2.0382
-3.0481 -5.0850 2.0382
-2.6289 -5.3149 2.0382
-2.1925 -5.5101 2.0382
-1.7417 -5.6694 2.0382
-1.2794 -5.7918 2.0382
-0.8087 -5.8764 2.0382
-0.3327 -5.9226 2.0382
0.1455 -5.9302 2.0382
0.6227 -5.8991 2.0382
1.0959 -5.8295 2.0382
1.5618 -5.7219 2.0382
0.7298 -2.0174 0.7373
2.4599 -5.3956 2.0382
2.8862 -5.1792 2.0382
3.2935 -4.9290 2.0382
3.6792 -4.6468 2.0382
3.8193 -4.0969 1.9265
4.0486 -3.6952 1.8858
3.9305 -3.0451 1.7109
4.4119 -2.8810 1.8137
4.8124 -2.6154 1.8858
5.0060 -2.2185 1.8858
5.1670 -1.8074 1.8858
5.2942 -1.3847 1.8858
5.3869 -0.9533 1.8858
5.4444 -0.5159 1.8858
5.4666 -0.0754 1.8858
5.4531 0.3652 1.8858
5.4042 0.8033 1.8858
5.3202 1.2358 1.8858
5.2017 1.6601 1.8858
5.0494 2.0733 1.8858
4.8645 2.4729 1.8858
4.6480 2.8562 1.8858
4.4015 3.2207 1.8858
4.1265 3.5641 1.8858
3.9045 3.9651 1.9250
3.7813 4.5168 2.0382
3.4042 4.8060 2.0382
3.0051 5.0639 2.0382
2.5867 5.2889 2.0382
2.1516 5.4795 2.0382
1.7026 5.6345 2.0382
1.2427 5.7530 2.0382
0.7748 5.8341 2.0382
0.3019 5.8774 2.0382
-0.1729 5.8826 2.0382
-0.6467 5.8496 2.0382
-1.1162 5.7787 2.0382
-1.5786 5.6703 2.0382
-2.0308 5.5251 2.0382
-2.4699 5.3440 2.0382
-2.8932 5.1282 2.0382
-3.2977 4.8791 2.0382
-3.6810 4.5982 2.0382
-4.0406 4.2874 2.0382
-4.3740 3.9486 2.0382
-4.6793 3.5841 2.0382
-4.9542 3.1960 2.0382
-5.1972 2.7870 2.0382
-5.4064 2.3597 2.0382
-5.5807 1.9169 2.0382
-5.7188 1.4612 2.0382
-5.8198 0.9959 2.0382
-5.8830 0.5238 2.0382
-5.9080 0.0480 2.0382
-5.8945 -0.4285 2.0382
-5.8426 -0.9024 2.0382
-5.7527 -1.3707 2.0382
-5.6253 -1.8304 2.0382
-5.4612 -2.2784 2.0382
-5.2614 -2.7118 2.0382
-5.0272 -3.1278 2.0382
-4.7601 -3.5236 2.0382
-4.4618 -3.8966 2.0382
-4.1344 -4.2444 2.0382
-3.7798 -4.5647 2.0382
5.0042 -0.1177 1.8858
4.9959 0.2858 1.8858
4.9551 0.6874 1.8858
4.8822 1.0841 1.8858
4.7775 1.4737 1.8858
4.6419 1.8535 1.8858
4.4762 2.2210 1.8858
4.2814 2.5739 1.8858
4.0634 2.9131 1.8878
3.8968 3.3001 1.9286
3.8229 3.8075 2.0382
3.5027 4.1025 2.0382
3.1600 4.3706 2.0382
2.7969 4.6104 2.0382
2.4157 4.8202 2.0382
0.7421 1.8372 0.7491
0.5916 1.8913 0.7493
0.4372 1.9330 0.7494
0.2800 1.9621 0.7495
0.3286 5.3795 2.0382
-0.1062 5.3885 2.0382
-0.1987 1.9720 0.7495
-0.3570 1.9495 0.7495
-0.5130 1.9142 0.7493
-0.6656 1.8664 0.7492
-2.2144 4.9155 2.0382
-2.6038 4.7216 2.0382
-2.9765 4.4970 2.0382
-3.3299 4.2431 2.0382
-3.6619 3.9616 2.0382
-3.9701 3.6542 2.0382
-4.2528 3.3230 2.0382
-4.5079 2.9701 2.0382
-4.7339 2.5977 2.0382
-4.9292 2.2083 2.0382
-5.0925 1.8043 2.0382
-5.2229 1.3884 2.0382
-5.3193 0.9632 2.0382
-5.3812 0.5315 2.0382
-5.4082 0.0961 2.0382
-5.4000 -0.3402 2.0382
-5.3566 -0.7745 2.0382
-5.2783 -1.2040 2.0382
-5.1656 -1.6258 2.0382
-5.0192 -2.0373 2.0382
-4.8401 -2.4358 2.0382
-4.6293 -2.8186 2.0382
-4.3882 -3.1832 2.0382
-4.1185 -3.5273 2.0382
-3.8218 -3.8485 2.0382
-3.5000 -4.1447 2.0382
-3.1553 -4.4140 2.0382
-2.7899 -4.6546 2.0382
-2.4062 -4.8649 2.0382
-0.7265 -1.8260 0.7379
-0.5770 -1.8783 0.7377
-0.4238 -1.9185 0.7376
-0.2678 -1.9463 0.7375
-0.1102 -1.9615 0.7375
0.0482 -1.9640 0.7375
0.2062 -1.9538 0.7375
0.3630 -1.9309 0.7376
0.5174 -1.8956 0.7377
0.6685 -1.8479 0.7378
2.2515 -4.9388 2.0382
2.6417 -4.7408 2.0382
3.0146 -4.5119 2.0382
3.3677 -4.2536 2.0382
3.6987 -3.9677 2.0382
3.8223 -3.4888 1.9450
3.9114 -3.0305 1.8600
4.1992 -2.7422 1.8858
4.4053 -2.3944 1.8858
4.5827 -2.0311 1.8858
4.7302 -1.6548 1.8858
4.8467 -1.2678 1.8858
4.9317 -0.8729 1.8858
4.9845 -0.4725 1.8858
5.0049 -0.0693 1.8858
4.9927 0.3342 1.8858
4.9481 0.7353 1.8858
4.8713 1.1314 1.8858
4.7629 1.5199 1.8858
4.6236 1.8983 1.8858
4.4543 2.2642 1.8858
4.2562 2.6152 1.8858
4.0305 2.9490 1.8858
3.8947 3.3637 1.9436
3.7857 3.8442 2.0382
3.4627 4.1361 2.0382
3.1175 4.4010 2.0382
2.7520 4.6372 2.0382
2.3689 4.8433 2.0382
0.7242 1.8443 0.7491
0.5732 1.8970 0.7493
0.4185 1.9372 0.7494
0.2609 1.9647 0.7495
0.2765 5.3825 2.0382
-0.1584 5.3872 2.0382
-0.2178 1.9700 0.7495
-0.3759 1.9459 0.7494
-0.5315 1.9091 0.7493
-0.6836 1.8598 0.7492
-2.2620 4.8938 2.0382
-2.6495 4.6962 2.0382
-3.0200 4.4680 2.0382
-3.3710 4.2107 2.0382
-3.7002 3.9260 2.0382
-4.0055 3.6157 2.0382
-4.2849 3.2818 2.0382
-4.5366 2.9264 2.0382
-4.7589 2.5518 2.0382
-4.9505 2.1605 2.0382
-5.1099 1.7550 2.0382
-5.2363 1.3378 2.0382
-5.3286 0.9116 2.0382
-5.3863 0.4793 2.0382
-5.4091 0.0437 2.0382
-5.3966 -0.3925 2.0382
-5.3490 -0.8263 2.0382
-5.2666 -1.2551 2.0382
-5.1498 -1.6759 2.0382
-4.9994 -2.0859 2.0382
-4.8164 -2.4827 2.0382
-4.6019 -2.8634 2.0382
-4.3573 -3.2257 2.0382
-4.0842 -3.5671 2.0382
-3.7844 -3.8854 2.0382
-3.4598 -4.1785 2.0382
4.6068 -0.1086 1.8858
4.5992 0.2630 1.8858
4.5618 0.6326 1.8858
4.4947 0.9979 1.8858
4.3985 1.3566 1.8858
4.2737 1.7063 1.8858
4.1212 2.0447 1.8858
3.9420 2.3695 1.8858
3.8855 2.7853 1.9606
3.7919 3.2111 2.0382
3.5199 3.5056 2.0382
3.2252 3.7772 2.0382
2.9097 4.0242 2.0382
2.5754 4.2450 2.0382
2.2244 4.4383 2.0382
0.6829 1.6906 0.7487
0.5444 1.7404 0.7488
0.4024 1.7788 0.7489
0.2576 1.8055 0.7490
0.1112 1.8205 0.7491
-0.0359 1.8235 0.7491
-0.1828 1.8146 0.7490
-0.3285 1.7939 0.7490
-0.4721 1.7614 0.7489
-0.6125 1.7175 0.7487
-0.7489 1.6623 0.7486
-2.3976 4.3474 2.0382
-2.7407 4.1405 2.0382
-3.0661 3.9067 2.0382
-3.3717 3.6475 2.0382
-3.6555 3.3645 2.0382
-3.9157 3.0595 2.0382
-4.1505 2.7345 2.0382
-4.3585 2.3914 2.0382
-4.5382 2.0330 2.0382
-4.6885 1.6610 2.0382
-4.8085 1.2780 2.0382
-4.8972 0.8865 2.0382
-4.9541 0.4891 2.0382
-4.9788 0.0883 2.0382
-4.9711 -0.3134 2.0382
-4.9310 -0.7131 2.0382
-4.8589 -1.1085 2.0382
-4.7551 -1.4968 2.0382
-4.6202 -1.8756 2.0382
-4.4552 -2.2423 2.0382
-4.2611 -2.5946 2.0382
-4.0392 -2.9302 2.0382
-3.7908 -3.2468 2.0382
-3.5176 -3.5424 2.0382
-3.2214 -3.8150 2.0382
-2.9041 -4.0629 2.0382
-2.5678 -4.2842 2.0382
-2.2147 -4.4778 2.0382
-0.6691 -1.6816 0.7383
-0.5314 -1.7299 0.7382
-0.3903 -1.7669 0.7381
-0.2467 -1.7925 0.7380
-0.1015 -1.8065 0.7379
0.0444 -1.8088 0.7379
0.1899 -1.7994 0.7380
0.3343 -1.7783 0.7380
0.4765 -1.7458 0.7381
0.6156 -1.7019 0.7383
0.7508 -1.6469 0.7384
2.4314 -4.3635 2.0382
2.7746 -4.1529 2.0382
3.0996 -3.9152 2.0382
3.4043 -3.6522 2.0382
3.6868 -3.3653 2.0382
3.8223 -2.9616 1.9748
3.8652 -2.5245 1.8858
4.0550 -2.2041 1.8858
4.2184 -1.8698 1.8858
4.3542 -1.5234 1.8858
4.4616 -1.1673 1.8858
4.5399 -0.8037 1.8858
4.5886 -0.4352 1.8858
4.6074 -0.0640 1.8858
4.5963 0.3075 1.8858
4.5553 0.6767 1.8858
4.4847 1.0414 1.8858
4.3850 1.3991 1.8858
4.2568 1.7475 1.8858
4.1011 2.0844 1.8858
3.9187 2.4074 1.8858
3.8837 2.8414 1.9735
3.7605 3.2476 2.0382
3.4857 3.5394 2.0382
3.1884 3.8082 2.0382
2.8705 4.0521 2.0382
2.5341 4.2697 2.0382
2.1813 4.4595 2.0382
0.6665 1.6972 0.7487
0.5275 1.7456 0.7488
0.3851 1.7826 0.7489
0.2401 1.8079 0.7490
0.0936 1.8215 0.7491
-0.0536 1.8231 0.7491
-0.2004 1.8128 0.7490
-0.3459 1.7906 0.7490
-0.4891 1.7568 0.7489
-0.6291 1.7114 0.7487
-0.7650 1.6549 0.7486
-2.4397 4.3240 2.0382
-2.7808 4.1139 2.0382
-3.1039 3.8769 2.0382
-3.4070 3.6147 2.0382
-3.6880 3.3290 2.0382
-3.9452 3.0215 2.0382
-4.1769 2.6942 2.0382
-4.3816 2.3493 2.0382
-4.5578 1.9890 2.0382
-4.7046 1.6155 2.0382
-4.8208 1.2314 2.0382
-4.9057 0.8391 2.0382
-4.9587 0.4411 2.0382
-4.9796 0.0400 2.0382
-4.9680 -0.3615 2.0382
-4.9241 -0.7609 2.0382
-4.8481 -1.1555 2.0382
-4.7405 -1.5428 2.0382
-4.6020 -1.9203 2.0382
-4.4334 -2.2855 2.0382
-4.2359 -2.6359 2.0382
-4.0107 -2.9693 2.0382
-3.7593 -3.2835 2.0382
-3.4833 -3.5764 2.0382
-3.1844 -3.8461 2.0382
4.2605 -0.1006 1.8858
4.2536 0.2430 1.8858
4.2191 0.5849 1.8858
4.1571 0.9228 1.8858
4.0682 1.2545 1.8858
3.9528 1.5779 1.8858
3.8837 1.9267 1.9213
3.8728 2.3279 2.0030
3.7362 2.6781 2.0382
3.5074 2.9700 2.0382
3.2559 3.2424 2.0382
2.9833 3.4937 2.0382
2.6915 3.7223 2.0382
2.3823 3.9266 2.0382
0.7553 1.5068 0.7481
0.6314 1.5630 0.7483
0.5033 1.6090 0.7484
0.3720 1.6445 0.7485
0.2382 1.6692 0.7486
0.1028 1.6830 0.7486
-0.0332 1.6858 0.7486
-0.1690 1.6776 0.7486
-0.3037 1.6585 0.7486
-0.4365 1.6285 0.7485
-0.5663 1.5878 0.7483
-0.6924 1.5368 0.7482
-2.2179 4.0213 2.0382
-2.5352 3.8299 2.0382
-2.8362 3.6136 2.0382
-3.1188 3.3737 2.0382
-3.3813 3.1119 2.0382
-3.6219 2.8297 2.0382
-3.8391 2.5291 2.0382
-4.0314 2.2119 2.0382
-4.1975 1.8802 2.0382
-4.3365 1.5361 2.0382
-4.4473 1.1818 2.0382
-4.5293 0.8197 2.0382
-4.5819 0.4522 2.0382
-4.6046 0.0814 2.0382
-4.5974 -0.2900 2.0382
-4.5603 -0.6597 2.0382
-4.4935 -1.0253 2.0382
-4.3974 -1.3844 2.0382
-4.2726 -1.7347 2.0382
-4.1200 -2.0738 2.0382
-3.9404 -2.3996 2.0382
-3.7351 -2.7098 2.0382
-3.5054 -3.0026 2.0382
-3.2528 -3.2758 2.0382
-2.9788 -3.5279 2.0382
-2.6854 -3.7570 2.0382
-2.3744 -3.9617 2.0382
-0.7424 -1.5011 0.7389
-0.6190 -1.5558 0.7387
-0.4916 -1.6005 0.7386
-0.3611 -1.6347 0.7385
-0.2282 -1.6584 0.7384
-0.0939 -1.6714 0.7384
0.0411 -1.6735 0.7384
0.1757 -1.6648 0.7384
0.3093 -1.6453 0.7384
0.4408 -1.6151 0.7385
0.5695 -1.5745 0.7387
0.6946 -1.5237 0.7388
2.2482 -4.0350 2.0382
2.5656 -3.8402 2.0382
2.8662 -3.6205 2.0382
3.1480 -3.3773 2.0382
3.4092 -3.1121 2.0382
3.6481 -2.8268 2.0382
3.8197 -2.4948 2.0153
3.8396 -2.0873 1.9309
3.9010 -1.7292 1.8858
4.0266 -1.4090 1.8858
4.1260 -1.0797 1.8858
4.1985 -0.7435 1.8858
4.2436 -0.4026 1.8858
4.2612 -0.0593 1.8858
4.2509 0.2842 1.8858
4.2131 0.6257 1.8858
4.1479 0.9630 1.8858
4.0557 1.2939 1.8858
3.9372 1.6162 1.8858
3.8826 1.9732 1.9302
3.8713 2.3783 2.0141
3.7100 2.7141 2.0382
3.4784 3.0037 2.0382
3.2243 3.2738 2.0382
2.9493 3.5224 2.0382
2.6553 3.7481 2.0382
2.3441 3.9494 2.0382
0.7406 1.5141 0.7481
0.6162 1.5691 0.7483
0.4877 1.6138 0.7484
0.3560 1.6480 0.7485
0.2220 1.6714 0.7486
0.0865 1.6839 0.7486
-0.0496 1.6854 0.7486
-0.1853 1.6759 0.7486
-0.3198 1.6554 0.7486
-0.4522 1.6241 0.7485
-0.5816 1.5822 0.7483
-0.7073 1.5300 0.7482
-2.2568 3.9997 2.0382
-2.5723 3.8052 2.0382
-2.8711 3.5860 2.0382
-3.1514 3.3434 2.0382
-3.4114 3.0790 2.0382
-3.6493 2.7946 2.0382
-3.8635 2.4918 2.0382
-4.0527 2.1728 2.0382
-4.2157 1.8395 2.0382
-4.3513 1.4940 2.0382
-4.4587 1.1387 2.0382
-4.5372 0.7759 2.0382
-4.5862 0.4078 2.0382
-4.6053 0.0368 2.0382
-4.5945 -0.3345 2.0382
-4.5539 -0.7039 2.0382
-4.4835 -1.0688 2.0382
-4.3839 -1.4270 2.0382
-4.2558 -1.7760 2.0382
-4.0998 -2.1137 2.0382
-3.9171 -2.4377 2.0382
-3.7088 -2.7459 2.0382
-3.4762 -3.0365 2.0382
-3.2210 -3.3073 2.0382
-2.9446 -3.5566 2.0382
3.9557 -0.0935 1.8858
3.9494 0.2255 1.8858
3.9174 0.5429 1.8858
3.8811 0.8611 1.8961
3.8737 1.1944 1.9338
3.8675 1.5437 1.9871
3.8255 1.8976 2.0382
3.6593 2.1993 2.0382
3.4693 2.4866 2.0382
3.2569 2.7577 2.0382
3.0234 3.0107 2.0382
2.7703 3.2441 2.0382
2.4994 3.4564 2.0382
2.2122 3.6461 2.0382
0.7010 1.3986 0.7478
0.5860 1.4507 0.7479
0.4672 1.4934 0.7481
0.3453 1.5263 0.7482
0.2211 1.5493 0.7482
0.0954 1.5621 0.7483
-0.0308 1.5647 0.7483
-0.1569 1.5571 0.7483
-0.2819 1.5393 0.7482
-0.4051 1.5115 0.7481
-0.5256 1.4738 0.7480
-0.6427 1.4264 0.7479
-0.7555 1.3698 0.7477
-2.3542 3.5563 2.0382
-2.6337 3.3554 2.0382
-2.8961 3.1327 2.0382
-3.1398 2.8895 2.0382
-3.3632 2.6275 2.0382
-3.5648 2.3483 2.0382
-3.7433 2.0537 2.0382
-3.8976 1.7456 2.0382
-4.0266 1.4261 2.0382
-4.1294 1.0972 2.0382
-4.2054 0.7610 2.0382
-4.2542 0.4197 2.0382
-4.2752 0.0754 2.0382
-4.2685 -0.2694 2.0382
-4.2340 -0.6127 2.0382
-4.1719 -0.9521 2.0382
-4.0826 -1.2855 2.0382
-3.9667 -1.6106 2.0382
-3.8249 -1.9254 2.0382
-3.6582 -2.2279 2.0382
-3.4675 -2.5159 2.0382
-3.2542 -2.7877 2.0382
-3.0196 -3.0413 2.0382
-2.7653 -3.2752 2.0382
-2.4929 -3.4879 2.0382
-2.2041 -3.6778 2.0382
-0.6894 -1.3941 0.7392
-0.5749 -1.4450 0.7391
-0.4566 -1.4864 0.7389
-0.3353 -1.5183 0.7388
-0.2119 -1.5403 0.7388
-0.0872 -1.5523 0.7387
0.0381 -1.5543 0.7387
0.1632 -1.5462 0.7387
0.2872 -1.5281 0.7388
0.4094 -1.5001 0.7389
0.5289 -1.4624 0.7390
0.6451 -1.4152 0.7391
0.7570 -1.3588 0.7393
2.3817 -3.5651 2.0382
2.6607 -3.3612 2.0382
2.9224 -3.1354 2.0382
3.1649 -2.8893 2.0382
3.3867 -2.6244 2.0382
3.5864 -2.3426 2.0382
3.7626 -2.0456 2.0382
3.8318 -1.6988 1.9952
3.8458 -1.3459 1.9400
3.8582 -1.0101 1.8993
3.8980 -0.6906 1.8858
3.9400 -0.3739 1.8858
3.9563 -0.0553 1.8858
3.9469 0.2637 1.8858
3.9118 0.5808 1.8858
3.8786 0.9002 1.8991
3.8731 1.2354 1.9395
3.8666 1.5870 1.9945
3.8068 1.9345 2.0382
3.6377 2.2346 2.0382
3.4450 2.5200 2.0382
3.2299 2.7891 2.0382
2.9940 3.0398 2.0382
2.7387 3.2707 2.0382
2.4657 3.4804 2.0382
2.1768 3.6673 2.0382
0.6875 1.4054 0.7478
0.5720 1.4564 0.7479
0.4527 1.4979 0.7481
0.3305 1.5296 0.7482
0.2061 1.5513 0.7482
0.0803 1.5629 0.7483
-0.0460 1.5643 0.7483
-0.1720 1.5555 0.7482
-0.2968 1.5365 0.7482
-0.4197 1.5075 0.7481
-0.5399 1.4686 0.7480
-0.6565 1.4201 0.7478
-0.7688 1.3624 0.7477
-2.3886 3.5334 2.0382
-2.6661 3.3298 2.0382
-2.9264 3.1045 2.0382
-3.1678 2.8590 2.0382
-3.3886 2.5948 2.0382
-3.5875 2.3137 2.0382
-3.7632 2.0174 2.0382
-3.9144 1.7078 2.0382
-4.0403 1.3871 2.0382
-4.1400 1.0572 2.0382
-4.2127 0.7202 2.0382
-4.2582 0.3784 2.0382
-4.2759 0.0340 2.0382
-4.2658 -0.3107 2.0382
-4.2280 -0.6537 2.0382
-4.1626 -0.9925 2.0382
-4.0701 -1.3250 2.0382
-3.9510 -1.6490 2.0382
-3.8062 -1.9625 2.0382
-3.6365 -2.2632 2.0382
-3.4431 -2.5494 2.0382
-3.2271 -2.8190 2.0382
-2.9901 -3.0704 2.0382
-2.7335 -3.3019 2.0382
3.8531 -0.0913 1.9718
3.8556 0.2200 1.9762
3.8559 0.5342 1.9925
3.8539 0.8552 2.0211
3.8034 1.1726 2.0382
3.6956 1.4750 2.0382
3.5639 1.7677 2.0382
3.4091 2.0488 2.0382
3.2322 2.3165 2.0382
3.0343 2.5690 2.0382
2.8168 2.8048 2.0382
2.5810 3.0223 2.0382
2.3286 3.2201 2.0382
0.7557 1.2455 0.7473
0.6529 1.3025 0.7475
0.5458 1.3510 0.7476
0.4351 1.3908 0.7477
0.3216 1.4214 0.7478
0.2059 1.4428 0.7479
0.0889 1.4547 0.7479
-0.0287 1.4571 0.7479
-0.1461 1.4501 0.7479
-0.2626 1.4335 0.7479
-0.3773 1.4076 0.7478
-0.4895 1.3725 0.7477
-0.5986 1.3284 0.7476
-0.7036 1.2757 0.7474
-2.1934 3.3132 2.0382
-2.4538 3.1260 2.0382
-2.6982 2.9184 2.0382
-2.9253 2.6918 2.0382
-3.1333 2.4477 2.0382
-3.3211 2.1876 2.0382
-3.4874 1.9131 2.0382
-3.6310 1.6261 2.0382
-3.7511 1.3284 2.0382
-3.8469 1.0219 2.0382
-3.9177 0.7087 2.0382
-3.9630 0.3907 2.0382
-3.9826 0.0701 2.0382
-3.9763 -0.2511 2.0382
-3.9440 -0.5709 2.0382
-3.8861 -0.8871 2.0382
-3.8029 -1.1976 2.0382
-3.6949 -1.5004 2.0382
-3.5628 -1.7937 2.0382
-3.4074 -2.0753 2.0382
-3.2298 -2.3436 2.0382
-3.0311 -2.5967 2.0382
-2.8126 -2.8329 2.0382
-2.5757 -3.0508 2.0382
-2.3219 -3.2488 2.0382
-0.7450 -1.2432 0.7397
-0.6424 -1.2991 0.7395
-0.5356 -1.3464 0.7394
-0.4254 -1.3851 0.7392
-0.3125 -1.4148 0.7391
-0.1975 -1.4353 0.7391
-0.0812 -1.4465 0.7390
0.0355 -1.4483 0.7390
0.1521 -1.4408 0.7391
0.2676 -1.4239 0.7391
0.3815 -1.3978 0.7392
0.4928 -1.3627 0.7393
0.6010 -1.3187 0.7394
0.7054 -1.2661 0.7396
2.2183 -3.3207 2.0382
2.4782 -3.1308 2.0382
2.7220 -2.9206 2.0382
2.9479 -2.6913 2.0382
3.1545 -2.4447 2.0382
3.3405 -2.1822 2.0382
3.5048 -1.9056 2.0382
3.6461 -1.6166 2.0382
3.7636 -1.3173 2.0382
3.8335 -1.0034 2.0259
3.8425 -0.6807 1.9956
3.8491 -0.3655 1.9777
3.8535 -0.0540 1.9717
3.8557 0.2575 1.9776
3.8557 0.5724 1.9953
3.8536 0.8944 2.0254
3.7917 1.2093 2.0382
3.6811 1.5107 2.0382
3.5465 1.8021 2.0382
3.3890 2.0817 2.0382
3.2095 2.3476 2.0382
3.0092 2.5983 2.0382
2.7894 2.8319 2.0382
2.5516 3.0471 2.0382
2.2972 3.2424 2.0382
0.7436 1.2527 0.7473
0.6402 1.3088 0.7475
0.5327 1.3563 0.7476
0.4216 1.3949 0.7478
0.3078 1.4245 0.7478
0.1919 1.4447 0.7479
0.0748 1.4555 0.7479
-0.0428 1.4568 0.7479
-0.1602 1.4486 0.7479
-0.2764 1.4309 0.7479
-0.3909 1.4038 0.7478
-0.5028 1.3676 0.7477
-0.6114 1.3225 0.7475
-0.7160 1.2688 0.7474
-2.2254 3.2918 2.0382
-2.4840 3.1021 2.0382
-2.7264 2.8922 2.0382
-2.9513 2.6634 2.0382
-3.1570 2.4173 2.0382
-3.3422 2.1553 2.0382
-3.5058 1.8792 2.0382
-3.6467 1.5909 2.0382
-3.7639 1.2920 2.0382
-3.8567 0.9846 2.0382
-3.9245 0.6707 2.0382
-3.9667 0.3524 2.0382
-3.9832 0.0315 2.0382
-3.9737 -0.2897 2.0382
-3.9384 -0.6091 2.0382
-3.8775 -0.9247 2.0382
-3.7912 -1.2344 2.0382
-3.6803 -1.5362 2.0382
-3.5454 -1.8281 2.0382
-3.3872 -2.1084 2.0382
-3.2070 -2.3748 2.0382
-3.0059 -2.6260 2.0382
-2.7851 -2.8601 2.0382
-2.5461 -3.0756 2.0382
3.7206 -0.0883 2.0382
3.7147 0.2117 2.0382
3.6847 0.5103 2.0382
3.6307 0.8055 2.0382
3.5532 1.0953 2.0382
3.4526 1.3778 2.0382
3.3296 1.6513 2.0382
3.1850 1.9139 2.0382
3.0197 2.1641 2.0382
2.8349 2.4000 2.0382
2.6317 2.6203 2.0382
2.4114 2.8235 2.0382
2.1756 3.0083 2.0382
0.7058 1.1632 0.7470
0.6098 1.2164 0.7472
0.5098 1.2618 0.7473
0.4064 1.2989 0.7475
0.3003 1.3275 0.7476
0.1923 1.3474 0.7476
0.0830 1.3586 0.7476
-0.0268 1.3608 0.7477
-0.1365 1.3542 0.7476
-0.2452 1.3388 0.7476
-0.3524 1.3146 0.7475
-0.4572 1.2818 0.7474
-0.5590 1.2406 0.7473
-0.6572 1.1914 0.7471
-0.7510 1.1344 0.7470
-2.2925 2.9204 2.0382
-2.5209 2.7265 2.0382
-2.7330 2.5148 2.0382
-2.9274 2.2866 2.0382
-3.1028 2.0436 2.0382
-3.2581 1.7871 2.0382
-3.3923 1.5190 2.0382
-3.5044 1.2409 2.0382
-3.5939 0.9546 2.0382
-3.6599 0.6619 2.0382
-3.7022 0.3649 2.0382
-3.7205 0.0653 2.0382
-3.7145 -0.2348 2.0382
-3.6844 -0.5335 2.0382
-3.6302 -0.8288 2.0382
-3.5525 -1.1189 2.0382
-3.4515 -1.4018 2.0382
-3.3281 -1.6757 2.0382
-3.1829 -1.9387 2.0382
-3.0170 -2.1893 2.0382
-2.8313 -2.4257 2.0382
-2.6272 -2.6463 2.0382
-2.4059 -2.8498 2.0382
-2.1688 -3.0347 2.0382
-0.6961 -1.1617 0.7399
-0.6002 -1.2139 0.7398
-0.5005 -1.2582 0.7396
-0.3975 -1.2943 0.7395
-0.2920 -1.3220 0.7394
-0.1845 -1.3412 0.7394
-0.0759 -1.3517 0.7393
0.0332 -1.3534 0.7393
0.1421 -1.3464 0.7394
0.2501 -1.3306 0.7394
0.3564 -1.3062 0.7395
0.4605 -1.2733 0.7396
0.5616 -1.2322 0.7397
0.6591 -1.1831 0.7399
0.7523 -1.1263 0.7400
2.3148 -2.9246 2.0382
2.5425 -2.7282 2.0382
2.7535 -2.5141 2.0382
2.9466 -2.2837 2.0382
3.1204 -2.0385 2.0382
3.2738 -1.7801 2.0382
3.4059 -1.5104 2.0382
3.5157 -1.2307 2.0382
3.6027 -0.9432 2.0382
3.6661 -0.6497 2.0382
3.7057 -0.3521 2.0382
3.7211 -0.0523 2.0382
3.7124 0.2477 2.0382
3.6795 0.5460 2.0382
3.6227 0.8406 2.0382
3.5423 1.1296 2.0382
3.4390 1.4112 2.0382
3.3133 1.6834 2.0382
3.1662 1.9447 2.0382
2.9985 2.1932 2.0382
2.8114 2.4273 2.0382
2.6061 2.6456 2.0382
2.3839 2.8467 2.0382
0.7865 1.1101 0.7469
0.6945 1.1700 0.7471
0.5980 1.2223 0.7472
0.4975 1.2667 0.7474
0.3938 1.3027 0.7475
0.2874 1.3303 0.7476
0.1792 1.3492 0.7476
0.0698 1.3593 0.7476
-0.0400 1.3605 0.7477
-0.1496 1.3528 0.7476
-0.2582 1.3363 0.7476
-0.3651 1.3111 0.7475
-0.4696 1.2773 0.7474
-0.5710 1.2352 0.7473
-0.6687 1.1850 0.7471
-0.7620 1.1270 0.7469
-2.3208 2.8981 2.0382
-2.5473 2.7020 2.0382
-2.7573 2.4882 2.0382
-2.9495 2.2582 2.0382
-3.1225 2.0135 2.0382
-3.2753 1.7555 2.0382
-3.4069 1.4861 2.0382
-3.5164 1.2069 2.0382
-3.6030 0.9197 2.0382
-3.6663 0.6265 2.0382
-3.7057 0.3290 2.0382
-3.7210 0.0293 2.0382
-3.7122 -0.2708 2.0382
-3.6791 -0.5691 2.0382
-3.6221 -0.8640 2.0382
-3.5415 -1.1533 2.0382
-3.4379 -1.4352 2.0382
-3.3118 -1.7079 2.0382
-3.1641 -1.9695 2.0382
-2.9957 -2.2184 2.0382
-2.8078 -2.4530 2.0382
-2.6015 -2.6717 2.0382
-2.3782 -2.8730 2.0382
3.4841 -0.0829 2.0382
3.4786 0.1981 2.0382
3.4505 0.4777 2.0382
3.4001 0.7541 2.0382
3.3275 1.0255 2.0382
3.2333 1.2901 2.0382
3.1181 1.5463 2.0382
2.9827 1.7922 2.0382
2.8280 2.0265 2.0382
2.6549 2.2475 2.0382
2.4646 2.4538 2.0382
2.2584 2.6442 2.0382
0.7464 1.0321 0.7466
0.6608 1.0890 0.7468
0.5709 1.1388 0.7470
0.4773 1.1813 0.7471
0.3805 1.2160 0.7472
0.2812 1.2428 0.7473
0.1800 1.2614 0.7473
0.0777 1.2719 0.7474
-0.0251 1.2740 0.7474
-0.1278 1.2678 0.7474
-0.2296 1.2533 0.7473
-0.3299 1.2307 0.7473
-0.4281 1.2000 0.7472
-0.5234 1.1615 0.7470
-0.6153 1.1154 0.7469
-0.7032 1.0620 0.7467
-2.1471 2.7350 2.0382
-2.3609 2.5533 2.0382
-2.5595 2.3550 2.0382
-2.7415 2.1413 2.0382
-2.9058 1.9137 2.0382
-3.0512 1.6735 2.0382
-3.1768 1.4224 2.0382
-3.2818 1.1619 2.0382
-3.3655 0.8938 2.0382
-3.4274 0.6197 2.0382
-3.4670 0.3415 2.0382
-3.4840 0.0610 2.0382
-3.4784 -0.2200 2.0382
-3.4501 -0.4997 2.0382
-3.3994 -0.7763 2.0382
-3.3265 -1.0479 2.0382
-3.2319 -1.3128 2.0382
-3.1163 -1.5692 2.0382
-2.9804 -1.8155 2.0382
-2.8250 -2.0501 2.0382
-2.6511 -2.2714 2.0382
-2.4599 -2.4780 2.0382
-2.2527 -2.6685 2.0382
-0.7376 -1.0322 0.7403
-0.6520 -1.0881 0.7401
-0.5622 -1.1370 0.7400
-0.4688 -1.1785 0.7399
-0.3723 -1.2123 0.7398
-0.2735 -1.2383 0.7397
-0.1728 -1.2563 0.7396
-0.0711 -1.2661 0.7396
0.0311 -1.2677 0.7396
0.1331 -1.2611 0.7396
0.2342 -1.2463 0.7397
0.3338 -1.2235 0.7397
0.4313 -1.1927 0.7398
0.5260 -1.1542 0.7399
0.6173 -1.1081 0.7401
0.7046 -1.0549 0.7402
2.1675 -2.7385 2.0382
2.3806 -2.5547 2.0382
2.5783 -2.3542 2.0382
2.7591 -2.1385 2.0382
2.9218 -1.9089 2.0382
3.0655 -1.6670 2.0382
3.1892 -1.4144 2.0382
3.2921 -1.1526 2.0382
3.3735 -0.8834 2.0382
3.4330 -0.6086 2.0382
3.4701 -0.3299 2.0382
3.4846 -0.0491 2.0382
3.4764 0.2318 2.0382
3.4457 0.5111 2.0382
3.3925 0.7870 2.0382
3.3173 1.0577 2.0382
3.2206 1.3214 2.0382
3.1029 1.5764 2.0382
2.9651 1.8210 2.0382
2.8082 2.0538 2.0382
2.6330 2.2731 2.0382
2.4407 2.4776 2.0382
2.2326 2.6659 2.0382
0.7364 1.0392 0.7467
0.6503 1.0954 0.7468
0.5599 1.1443 0.7470
0.4658 1.1859 0.7471
0.3687 1.2196 0.7472
0.2691 1.2454 0.7473
0.1678 1.2631 0.7474
0.0654 1.2726 0.7474
-0.0375 1.2737 0.7474
-0.1401 1.2665 0.7474
-0.2417 1.2511 0.7473
-0.3418 1.2274 0.7472
-0.4397 1.1958 0.7471
-0.5346 1.1564 0.7470
-0.6261 1.1094 0.7469
-0.7134 1.0552 0.7467
-2.1735 2.7141 2.0382
-2.3856 2.5303 2.0382
-2.5823 2.3301 2.0382
-2.7622 2.1147 2.0382
-2.9243 1.8855 2.0382
-3.0674 1.6439 2.0382
-3.1905 1.3915 2.0382
-3.2930 1.1301 2.0382
-3.3741 0.8611 2.0382
-3.4333 0.5865 2.0382
-3.4702 0.3079 2.0382
-3.4845 0.0273 2.0382
-3.4762 -0.2537 2.0382
-3.4452 -0.5331 2.0382
-3.3918 -0.8092 2.0382
-3.3163 -1.0801 2.0382
-3.2192 -1.3440 2.0382
-3.1011 -1.5994 2.0382
-2.9627 -1.8443 2.0382
-2.8050 -2.0774 2.0382
-2.6290 -2.2970 2.0382
-2.4359 -2.5017 2.0382
-2.2268 -2.6902 2.0382
3.2693 -0.0779 2.0382
3.2642 0.1858 2.0382
3.2379 0.4482 2.0382
3.1906 0.7075 2.0382
3.1225 0.9622 2.0382
3.0341 1.2105 2.0382
2.9261 1.4509 2.0382
2.7990 1.6817 2.0382
2.6539 1.9016 2.0382
2.4915 2.1090 2.0382
2.3129 2.3026 2.0382
0.7760 0.9085 0.7463
0.7003 0.9682 0.7464
0.6200 1.0216 0.7466
0.5356 1.0684 0.7468
0.4478 1.1082 0.7469
0.3569 1.1408 0.7470
0.2638 1.1659 0.7471
0.1689 1.1834 0.7471
0.0729 1.1932 0.7471
-0.0236 1.1952 0.7471
-0.1199 1.1894 0.7471
-0.2154 1.1758 0.7471
-0.3095 1.1546 0.7470
-0.4016 1.1258 0.7469
-0.4910 1.0896 0.7468
-0.5773 1.0464 0.7467
-0.6597 0.9964 0.7465
-0.7378 0.9398 0.7464
-2.2156 2.3960 2.0382
-2.4020 2.2099 2.0382
-2.5728 2.0093 2.0382
-2.7269 1.7957 2.0382
-2.8633 1.5703 2.0382
-2.9812 1.3346 2.0382
-3.0797 1.0902 2.0382
-3.1582 0.8385 2.0382
-3.2162 0.5814 2.0382
-3.2533 0.3203 2.0382
-3.2692 0.0571 2.0382
-3.2639 -0.2066 2.0382
-3.2374 -0.4690 2.0382
-3.1897 -0.7285 2.0382
-3.1213 -0.9834 2.0382
-3.0326 -1.2319 2.0382
-2.9240 -1.4725 2.0382
-2.7965 -1.7037 2.0382
-2.6506 -1.9237 2.0382
-2.4875 -2.1314 2.0382
-2.3081 -2.3252 2.0382
-0.7681 -0.9100 0.7407
-0.6922 -0.9688 0.7405
-0.6119 -1.0213 0.7403
-0.5276 -1.0671 0.7402
-0.4399 -1.1061 0.7401
-0.3494 -1.1379 0.7400
-0.2566 -1.1623 0.7399
-0.1622 -1.1791 0.7399
-0.0667 -1.1883 0.7398
0.0292 -1.1898 0.7398
0.1249 -1.1836 0.7399
0.2198 -1.1698 0.7399
0.3133 -1.1483 0.7400
0.4048 -1.1194 0.7400
0.4937 -1.0833 0.7402
0.5794 -1.0400 0.7403
0.6613 -0.9901 0.7404
0.7390 -0.9337 0.7406
2.2337 -2.3971 2.0382
2.4191 -2.2091 2.0382
2.5888 -2.0067 2.0382
2.7415 -1.7913 2.0382
2.8764 -1.5643 2.0382
2.9925 -1.3273 2.0382
3.0890 -1.0816 2.0382
3.1655 -0.8290 2.0382
3.2213 -0.5712 2.0382
3.2561 -0.3097 2.0382
3.2698 -0.0462 2.0382
3.2622 0.2174 2.0382
3.2333 0.4795 2.0382
3.1835 0.7384 2.0382
3.1129 0.9924 2.0382
3.0222 1.2398 2.0382
2.9118 1.4791 2.0382
2.7825 1.7087 2.0382
2.6352 1.9272 2.0382
2.4709 2.1330 2.0382
2.2905 2.3249 2.0382
0.7672 0.9160 0.7463
0.6909 0.9750 0.7465
0.6101 1.0276 0.7466
0.5253 1.0736 0.7468
0.4370 1.1125 0.7469
0.3459 1.1442 0.7470
0.2525 1.1684 0.7471
0.1574 1.1850 0.7471
0.0613 1.1938 0.7471
-0.0351 1.1949 0.7471
-0.1314 1.1882 0.7471
-0.2268 1.1737 0.7471
-0.3207 1.1515 0.7470
-0.4125 1.1218 0.7469
-0.5016 1.0848 0.7468
-0.5874 1.0408 0.7467
-0.6693 0.9899 0.7465
-0.7469 0.9326 0.7463
-2.2388 2.3744 2.0382
-2.4233 2.1865 2.0382
-2.5922 1.9844 2.0382
-2.7442 1.7692 2.0382
-2.8784 1.5425 2.0382
-2.9940 1.3057 2.0382
-3.0902 1.0603 2.0382
-3.1662 0.8079 2.0382
-3.2217 0.5502 2.0382
-3.2563 0.2888 2.0382
-3.2697 0.0254 2.0382
-3.2619 -0.2382 2.0382
-3.2328 -0.5004 2.0382
-3.1826 -0.7594 2.0382
-3.1117 -1.0136 2.0382
-3.0206 -1.2613 2.0382
-2.9097 -1.5008 2.0382
-2.7799 -1.7307 2.0382
-2.6319 -1.9494 2.0382
-2.4668 -2.1554 2.0382
-2.2855 -2.3475 2.0382
-0.7593 -0.9173 0.7407
3.0731 -0.0734 2.0382
3.0683 0.1745 2.0382
3.0436 0.4211 2.0382
2.9991 0.6649 2.0382
2.9352 0.9043 2.0382
2.8522 1.1378 2.0382
2.7506 1.3637 2.0382
2.6312 1.5807 2.0382
2.4948 1.7874 2.0382
2.3421 1.9824 2.0382
2.1743 2.1645 2.0382
0.7293 0.8538 0.7461
0.6582 0.9099 0.7463
0.5827 0.9601 0.7464
0.5034 1.0041 0.7466
0.4208 1.0415 0.7467
0.3355 1.0721 0.7468
0.2479 1.0957 0.7468
0.1587 1.1121 0.7469
0.0685 1.1213 0.7469
-0.0221 1.1232 0.7469
-0.1127 1.1177 0.7469
-0.2024 1.1050 0.7469
-0.2909 1.0850 0.7468
-0.3774 1.0580 0.7467
-0.4615 1.0240 0.7466
-0.5425 0.9834 0.7465
-0.6200 0.9364 0.7464
-0.6935 0.8832 0.7462
-0.7623 0.8244 0.7460
-2.2580 2.0773 2.0382
-2.4185 1.8887 2.0382
-2.5634 1.6879 2.0382
-2.6916 1.4760 2.0382
-2.8024 1.2544 2.0382
-2.8950 1.0246 2.0382
-2.9687 0.7881 2.0382
-3.0232 0.5463 2.0382
-3.0581 0.3010 2.0382
-3.0730 0.0535 2.0382
-3.0680 -0.1943 2.0382
-3.0430 -0.4410 2.0382
-2.9982 -0.6849 2.0382
-2.9339 -0.9245 2.0382
-2.8504 -1.1581 2.0382
-2.7484 -1.3842 2.0382
-2.6285 -1.6015 2.0382
-2.4914 -1.8083 2.0382
-2.3380 -2.0035 2.0382
-2.1694 -2.1856 2.0382
-0.7221 -0.8555 0.7409
-0.6508 -0.9108 0.7407
-0.5753 -0.9602 0.7405
-0.4960 -1.0033 0.7404
-0.4136 -1.0399 0.7403
-0.3285 -1.0698 0.7402
-0.2413 -1.0927 0.7401
-0.1525 -1.1086 0.7401
-0.0627 -1.1173 0.7401
0.0274 -1.1187 0.7401
0.1174 -1.1129 0.7401
0.2067 -1.0998 0.7401
0.2946 -1.0796 0.7402
0.3806 -1.0525 0.7403
0.4641 -1.0185 0.7404
0.5447 -0.9778 0.7405
0.6217 -0.9309 0.7406
0.6947 -0.8779 0.7408
0.7632 -0.8191 0.7410
2.2738 -2.0765 2.0382
2.4332 -1.8863 2.0382
2.5768 -1.6838 2.0382
2.7036 -1.4705 2.0382
2.8127 -1.2477 2.0382
2.9035 -1.0168 2.0382
2.9754 -0.7794 2.0382
3.0279 -0.5370 2.0382
3.0607 -0.2912 2.0382
3.0735 -0.0436 2.0382
3.0664 0.2042 2.0382
3.0393 0.4506 2.0382
2.9925 0.6939 2.0382
2.9262 0.9327 2.0382
2.8409 1.1653 2.0382
2.7372 1.3903 2.0382
2.6157 1.6061 2.0382
2.4773 1.8115 2.0382
2.3227 2.0050 2.0382
0.7880 0.7998 0.7459
0.7210 0.8608 0.7461
0.6493 0.9163 0.7463
0.5734 0.9657 0.7464
0.4937 1.0089 0.7466
0.4107 1.0455 0.7467
0.3251 1.0753 0.7468
0.2373 1.0980 0.7468
0.1480 1.1136 0.7469
0.0577 1.1219 0.7469
-0.0330 1.1229 0.7469
-0.1235 1.1166 0.7469
-0.2131 1.1030 0.7469
-0.3014 1.0821 0.7468
-0.3877 1.0543 0.7467
-0.4714 1.0195 0.7466
-0.5520 0.9781 0.7465
-0.6291 0.9303 0.7463
-0.7020 0.8765 0.7462
-0.7703 0.8169 0.7460
-2.2781 2.0553 2.0382
-2.4368 1.8653 2.0382
-2.5797 1.6630 2.0382
-2.7058 1.4499 2.0382
-2.8145 1.2272 2.0382
-2.9048 0.9966 2.0382
-2.9763 0.7593 2.0382
-3.0285 0.5170 2.0382
-3.0609 0.2713 2.0382
-3.0735 0.0238 2.0382
-3.0661 -0.2241 2.0382
-3.0387 -0.4705 2.0382
-2.9915 -0.7140 2.0382
-2.9249 -0.9529 2.0382
-2.8392 -1.1857 2.0382
-2.7349 -1.4108 2.0382
-2.6129 -1.6269 2.0382
-2.4738 -1.8324 2.0382
-2.3185 -2.0260 2.0382
-0.7810 -0.8022 0.7410
-0.7138 -0.8625 0.7408
2.8928 -0.0692 2.0382
2.8884 0.1641 2.0382
2.8652 0.3963 2.0382
2.8233 0.6258 2.0382
2.7631 0.8512 2.0382
2.6850 1.0709 2.0382
2.5894 1.2837 2.0382
2.4770 1.4880 2.0382
2.3486 1.6826 2.0382
2.2049 1.8661 2.0382
0.7490 0.7455 0.7458
0.6865 0.8036 0.7459
0.6195 0.8564 0.7461
0.5485 0.9036 0.7463
0.4738 0.9450 0.7464
0.3961 0.9802 0.7465
0.3157 1.0090 0.7466
0.2333 1.0312 0.7466
0.1494 1.0467 0.7467
0.0645 1.0553 0.7467
-0.0208 1.0571 0.7467
-0.1060 1.0520 0.7467
-0.1905 1.0400 0.7467
-0.2738 1.0212 0.7466
-0.3552 0.9957 0.7465
-0.4344 0.9638 0.7464
-0.5107 0.9255 0.7463
-0.5836 0.8813 0.7462
-0.6527 0.8313 0.7460
-0.7176 0.7759 0.7459
-2.1257 1.9554 2.0382
-2.2768 1.7779 2.0382
-2.4132 1.5889 2.0382
-2.5339 1.3894 2.0382
-2.6381 1.1808 2.0382
-2.7253 0.9644 2.0382
-2.7947 0.7417 2.0382
-2.8460 0.5142 2.0382
-2.8788 0.2832 2.0382
-2.8928 0.0502 2.0382
-2.8881 -0.1831 2.0382
-2.8645 -0.4153 2.0382
-2.8223 -0.6449 2.0382
-2.7617 -0.8704 2.0382
-2.6832 -1.0903 2.0382
-2.5871 -1.3031 2.0382
-2.4742 -1.5076 2.0382
-2.3451 -1.7023 2.0382
-2.2007 -1.8860 2.0382
-0.7426 -0.7482 0.7412
-0.6798 -0.8055 0.7410
-0.6127 -0.8576 0.7409
-0.5416 -0.9040 0.7407
-0.4670 -0.9447 0.7406
-0.3894 -0.9791 0.7405
-0.3093 -1.0073 0.7404
-0.2272 -1.0289 0.7403
-0.1436 -1.0438 0.7403
-0.0591 -1.0520 0.7403
0.0258 -1.0533 0.7403
0.1106 -1.0478 0.7403
0.1946 -1.0355 0.7403
0.2773 -1.0165 0.7404
0.3583 -0.9909 0.7404
0.4370 -0.9589 0.7405
0.5128 -0.9207 0.7407
0.5853 -0.8765 0.7408
0.6541 -0.8265 0.7409
0.7186 -0.7712 0.7411
0.7784 -0.7109 0.7413
2.2904 -1.7757 2.0382
2.4256 -1.5851 2.0382
2.5449 -1.3843 2.0382
2.6477 -1.1746 2.0382
2.7332 -0.9573 2.0382
2.8008 -0.7338 2.0382
2.8503 -0.5057 2.0382
2.8812 -0.2743 2.0382
2.8933 -0.0412 2.0382
2.8866 0.1921 2.0382
2.8611 0.4240 2.0382
2.8171 0.6531 2.0382
2.7547 0.8779 2.0382
2.6744 1.0969 2.0382
2.5768 1.3087 2.0382
2.4625 1.5119 2.0382
2.3321 1.7052 2.0382
2.1867 1.8874 2.0382
0.7417 0.7528 0.7458
0.6787 0.8102 0.7460
0.6112 0.8624 0.7461
0.5397 0.9089 0.7463
0.4646 0.9495 0.7464
0.3866 0.9840 0.7465
0.3060 1.0120 0.7466
0.2233 1.0334 0.7466
0.1393 1.0481 0.7467
0.0543 1.0559 0.7467
-0.0311 1.0569 0.7467
-0.1162 1.0509 0.7467
-0.2006 1.0381 0.7467
-0.2837 1.0185 0.7466
-0.3649 0.9922 0.7465
-0.4437 0.9595 0.7464
-0.5196 0.9205 0.7463
-0.5921 0.8756 0.7462
-0.6607 0.8249 0.7460
-0.7250 0.7689 0.7458
-2.1446 1.9348 2.0382
-2.2940 1.7558 2.0382
-2.4285 1.5654 2.0382
-2.5473 1.3647 2.0382
-2.6495 1.1552 2.0382
-2.7346 0.9380 2.0382
-2.8018 0.7147 2.0382
-2.8509 0.4866 2.0382
-2.8814 0.2553 2.0382
-2.8933 0.0222 2.0382
-2.8862 -0.2111 2.0382
-2.8604 -0.4430 2.0382
-2.8160 -0.6722 2.0382
-2.7533 -0.8971 2.0382
-2.6726 -1.1162 2.0382
-2.5744 -1.3282 2.0382
-2.4595 -1.5315 2.0382
-2.3286 -1.7250 2.0382
-2.1824 -1.9072 2.0382
-0.7353 -0.7553 0.7412
-0.6720 -0.8120 0.7410
2.7265 -0.0654 2.0382
2.7223 0.1545 2.0382
2.7004 0.3733 2.0382
2.6610 0.5897 2.0382
2.6043 0.8021 2.0382
2.5307 1.0092 2.0382
2.4406 1.2097 2.0382
2.3347 1.4023 2.0382
2.2137 1.5857 2.0382
0.7601 0.6433 0.7455
0.7058 0.7025 0.7456
0.6469 0.7572 0.7458
0.5838 0.8070 0.7460
0.5168 0.8515 0.7461
0.4465 0.8905 0.7462
0.3732 0.9236 0.7463
0.2975 0.9508 0.7464
0.2199 0.9717 0.7465
0.1408 0.9863 0.7465
0.0608 0.9944 0.7465
-0.0196 0.9961 0.7465
-0.0999 0.9913 0.7465
-0.1795 0.9800 0.7465
-0.2580 0.9623 0.7464
-0.3348 0.9383 0.7464
-0.4093 0.9082 0.7463
-0.4812 0.8722 0.7462
-0.5500 0.8304 0.7460
-0.6151 0.7833 0.7459
-0.6762 0.7311 0.7457
-0.7329 0.6741 0.7455
-2.1460 1.6757 2.0382
-2.2745 1.4974 2.0382
-2.3883 1.3094 2.0382
-2.4865 1.1128 2.0382
-2.5686 0.9088 2.0382
-2.6341 0.6990 2.0382
-2.6824 0.4845 2.0382
-2.7132 0.2667 2.0382
-2.7265 0.0472 2.0382
-2.7220 -0.1727 2.0382
-2.6997 -0.3916 2.0382
-2.6600 -0.6079 2.0382
-2.6028 -0.8204 2.0382
-2.5288 -1.0277 2.0382
-2.4382 -1.2283 2.0382
-2.3318 -1.4210 2.0382
-2.2101 -1.6044 2.0382
-0.7545 -0.6467 0.7415
-0.6999 -0.7053 0.7413
-0.6408 -0.7593 0.7412
-0.5775 -0.8084 0.7410
-0.5105 -0.8522 0.7409
-0.4402 -0.8905 0.7408
-0.3671 -0.9230 0.7407
-0.2915 -0.9495 0.7406
-0.2141 -0.9699 0.7405
-0.1353 -0.9840 0.7405
-0.0557 -0.9917 0.7404
0.0243 -0.9929 0.7404
0.1042 -0.9877 0.7405
0.1834 -0.9762 0.7405
0.2614 -0.9583 0.7405
0.3378 -0.9341 0.7406
0.4119 -0.9040 0.7407
0.4834 -0.8679 0.7408
0.5517 -0.8262 0.7409
0.6165 -0.7792 0.7411
0.6773 -0.7270 0.7413
0.7337 -0.6702 0.7414
