ply
format ascii 1.0
element vertex 2169
property float32 x
property float32 y
property float32 z
end_header
-0.3722 7.1678 2.0382
-0.9480 7.1149 2.0382
-1.5178 7.0161 2.0382
-2.0778 6.8718 2.0382
-2.6245 6.6829 2.0382
-3.1544 6.4508 2.0382
-3.6639 6.1769 2.0382
-4.1499 5.8629 2.0382
-4.6092 5.5109 2.0382
-5.0388 5.1230 2.0382
-5.4359 4.7017 2.0382
-5.7979 4.2499 2.0382
-6.1226 3.7703 2.0382
-6.4077 3.2661 2.0382
-6.6514 2.7404 2.0382
-6.8521 2.1967 2.0382
-7.0084 1.6386 2.0382
-7.1194 1.0695 2.0382
-7.1842 0.4932 2.0382
-7.2024 -0.0866 2.0382
-7.1739 -0.6661 2.0382
-7.0988 -1.2415 2.0382
-6.9775 -1.8092 2.0382
-6.8109 -2.3654 2.0382
-6.6000 -2.9064 2.0382
-6.3460 -3.4288 2.0382
-6.0508 -3.9291 2.0382
-5.7161 -4.4041 2.0382
-5.3441 -4.8506 2.0382
-4.9373 -5.2657 2.0382
-4.4982 -5.6467 2.0382
-4.0298 -5.9911 2.0382
-3.5351 -6.2966 2.0382
-3.0172 -6.5612 2.0382
-2.4797 -6.7831 2.0382
-1.9260 -6.9610 2.0382
-1.3597 -7.0936 2.0382
-0.7846 -7.1800 2.0382
-0.2043 -7.2198 2.0382
0.3772 -7.2126 2.0382
0.9563 -7.1585 2.0382
1.5290 -7.0578 2.0382
2.0918 -6.9112 2.0382
2.6408 -6.7198 2.0382
3.1725 -6.4846 2.0382
3.6834 -6.2074 2.0382
4.1703 -5.8899 2.0382
4.6298 -5.5343 2.0382
3.1308 -3.1826 1.2614
2.9410 -2.5435 1.0988
2.7937 -2.0476 0.9790
2.6747 -1.6470 0.8881
2.5754 -1.3127 0.8174
2.4902 -1.0260 0.7618
2.4155 -0.7744 0.7177
2.3486 -0.5491 0.6826
2.2876 -0.3437 0.6548
2.2310 -0.1532 0.6332
2.1777 0.0261 0.6168
2.1268 0.1975 0.6051
2.0776 0.3634 0.5976
2.0292 0.5262 0.5941
1.9811 0.6881 0.5945
1.9327 0.8512 0.5988
6.1493 3.3231 1.9824
5.9769 3.8819 2.0217
5.6902 4.3852 2.0382
5.3178 4.8282 2.0382
4.9111 5.2397 2.0382
4.4728 5.6172 2.0382
4.0056 5.9583 2.0382
3.5126 6.2607 2.0382
2.9970 6.5226 2.0382
2.4621 6.7422 2.0382
1.9113 6.9182 2.0382
1.3481 7.0494 2.0382
0.7763 7.1350 2.0382
0.1995 7.1744 2.0382
-0.3787 7.1674 2.0382
-0.9545 7.1141 2.0382
-1.5242 7.0147 2.0382
-2.0841 6.8699 2.0382
-2.6306 6.6806 2.0382
-3.1602 6.4480 2.0382
-3.6695 6.1736 2.0382
-4.1552 5.8591 2.0382
-4.6142 5.5067 2.0382
-5.0434 5.1184 2.0382
-5.4402 4.6968 2.0382
-5.8018 4.2446 2.0382
-6.1260 3.7648 2.0382
-6.4107 3.2602 2.0382
-6.6539 2.7344 2.0382
-6.8541 2.1905 2.0382
-7.0099 1.6322 2.0382
-7.1203 1.0630 2.0382
-7.1846 0.4867 2.0382
-7.2023 -0.0931 2.0382
-7.1733 -0.6726 2.0382
-7.0977 -1.2479 2.0382
-6.9759 -1.8155 2.0382
-6.8088 -2.3715 2.0382
-6.5973 -2.9124 2.0382
-6.3429 -3.4346 2.0382
-6.0472 -3.9346 2.0382
-5.7121 -4.4093 2.0382
-5.3397 -4.8554 2.0382
-4.9325 -5.2702 2.0382
-4.4931 -5.6508 2.0382
-4.0244 -5.9948 2.0382
-3.5294 -6.2998 2.0382
-3.0113 -6.5639 2.0382
-2.4736 -6.7854 2.0382
-1.9197 -6.9627 2.0382
-1.3533 -7.0948 2.0382
-0.7780 -7.1808 2.0382
-0.1978 -7.2200 2.0382
0.3838 -7.2122 2.0382
0.9628 -7.1576 2.0382
1.5354 -7.0564 2.0382
2.0980 -6.9093 2.0382
2.6469 -6.7173 2.0382
3.1783 -6.4817 2.0382
3.6890 -6.2041 2.0382
4.1756 -5.8861 2.0382
4.6348 -5.5301 2.0382
3.1284 -3.1744 1.2592
2.9391 -2.5372 1.0972
2.7922 -2.0426 0.9779
2.6735 -1.6429 0.8872
2.5744 -1.3092 0.8167
2.4894 -1.0230 0.7613
-3.7356 5.2977 2.0382
-4.1506 4.9807 2.0382
-4.5388 4.6313 2.0382
-4.8978 4.2517 2.0382
-5.2251 3.8444 2.0382
-5.5188 3.4121 2.0382
-5.7767 2.9575 2.0382
-5.9974 2.4835 2.0382
-6.1792 1.9933 2.0382
-6.3210 1.4898 2.0382
-6.4219 0.9765 2.0382
-6.4812 0.4566 2.0382
-6.4985 -0.0665 2.0382
-6.4735 -0.5894 2.0382
-6.4066 -1.1086 2.0382
-6.2980 -1.6210 2.0382
-6.1484 -2.1229 2.0382
-5.9589 -2.6114 2.0382
-5.7306 -3.0830 2.0382
-5.4649 -3.5348 2.0382
-5.1637 -3.9637 2.0382
-4.8288 -4.3671 2.0382
-4.4624 -4.7421 2.0382
-4.0669 -5.0865 2.0382
-3.6449 -5.3978 2.0382
-3.1991 -5.6742 2.0382
-2.7324 -5.9136 2.0382
-2.2479 -6.1147 2.0382
-1.7487 -6.2760 2.0382
-1.2381 -6.3965 2.0382
-0.7195 -6.4754 2.0382
-0.1961 -6.5123 2.0382
0.3285 -6.5067 2.0382
0.8509 -6.4589 2.0382
1.3677 -6.3691 2.0382
1.8755 -6.2378 2.0382
2.3711 -6.0661 2.0382
2.8512 -5.8549 2.0382
3.3125 -5.6058 2.0382
3.7523 -5.3203 2.0382
4.1675 -5.0003 2.0382
3.1358 -3.1994 1.4030
2.9448 -2.5562 1.2215
2.7967 -2.0577 1.0878
2.6772 -1.6553 0.9864
2.5775 -1.3197 0.9076
2.4921 -1.0321 0.8456
2.4171 -0.7799 0.7964
2.3501 -0.5540 0.7573
2.2889 -0.3482 0.7264
2.2323 -0.1574 0.7022
2.1789 0.0221 0.6839
2.1280 0.1936 0.6708
2.0787 0.3596 0.6624
2.0303 0.5225 0.6585
1.9822 0.6844 0.6588
1.9338 0.8475 0.6634
5.7113 3.0728 2.0382
5.4444 3.5219 2.0382
5.1424 3.9480 2.0382
4.8071 4.3485 2.0382
4.4408 4.7206 2.0382
4.0459 5.0621 2.0382
3.6249 5.3707 2.0382
3.1805 5.6445 2.0382
2.7156 5.8818 2.0382
2.2331 6.0809 2.0382
1.7363 6.2406 2.0382
1.2283 6.3600 2.0382
0.7123 6.4382 2.0382
0.1917 6.4747 2.0382
-0.3301 6.4693 2.0382
-0.8498 6.4221 2.0382
-1.3641 6.3333 2.0382
-1.8697 6.2034 2.0382
-2.3632 6.0334 2.0382
-2.8415 5.8243 2.0382
-3.3016 5.5774 2.0382
-3.7404 5.2943 2.0382
-4.1551 4.9769 2.0382
-4.5430 4.6271 2.0382
-4.9016 4.2472 2.0382
-5.2286 3.8397 2.0382
-5.5219 3.4071 2.0382
-5.7794 2.9523 2.0382
-5.9996 2.4781 2.0382
-6.1810 1.9876 2.0382
-6.3224 1.4841 2.0382
-6.4228 0.9707 2.0382
-6.4817 0.4507 2.0382
-6.4984 -0.0724 2.0382
-6.4730 -0.5952 2.0382
-6.4056 -1.1145 2.0382
-6.2965 -1.6267 2.0382
-6.1465 -2.1285 2.0382
-5.9565 -2.6168 2.0382
-5.7278 -3.0882 2.0382
-5.4617 -3.5397 2.0382
-5.1601 -3.9684 2.0382
-4.8248 -4.3714 2.0382
-4.4581 -4.7462 2.0382
-4.0623 -5.0902 2.0382
-3.6400 -5.4011 2.0382
-3.1939 -5.6771 2.0382
-2.7270 -5.9161 2.0382
-2.2423 -6.1167 2.0382
-1.7430 -6.2776 2.0382
-1.2323 -6.3976 2.0382
-0.7136 -6.4761 2.0382
-0.1902 -6.5124 2.0382
0.3344 -6.5064 2.0382
0.8567 -6.4581 2.0382
1.3735 -6.3678 2.0382
1.8812 -6.2361 2.0382
2.3766 -6.0639 2.0382
2.8565 -5.8523 2.0382
3.3176 -5.6028 2.0382
3.7571 -5.3168 2.0382
4.1721 -4.9965 2.0382
3.1334 -3.1911 1.4006
2.9429 -2.5499 1.2197
2.7952 -2.0527 1.0865
2.6760 -1.6512 0.9854
2.5765 -1.3162 0.9068
2.4912 -1.0291 0.8450
2.4163 -0.7772 0.7959
2.3493 -0.5516 0.7569
2.2883 -0.3460 0.7260
2.2316 -0.1553 0.7020
2.1783 0.0241 0.6838
2.1274 0.1955 0.6707
2.0781 0.3615 0.6624
2.0298 0.5243 0.6584
1.9817 0.6862 0.6588
1.9332 0.8493 0.6635
5.7085 3.0780 2.0382
5.4412 3.5268 2.0382
5.1388 3.9527 2.0382
4.8032 4.3528 2.0382
4.4365 4.7246 2.0382
4.0413 5.0657 2.0382
3.6200 5.3740 2.0382
3.1754 5.6474 2.0382
2.7102 5.8842 2.0382
2.2276 6.0829 2.0382
1.7306 6.2422 2.0382
1.2225 6.3611 2.0382
0.7065 6.4388 2.0382
0.1859 6.4749 2.0382
-0.3360 6.4690 2.0382
-0.8557 6.4213 2.0382
-1.3699 6.3320 2.0382
-1.8753 6.2017 2.0382
-2.3687 6.0313 2.0382
-2.8468 5.8217 2.0382
-3.3067 5.5744 2.0382
-3.7452 5.2910 2.0382
-4.1596 4.9732 2.0382
-4.5472 4.6230 2.0382
-4.9055 4.2428 2.0382
-5.2321 3.8350 2.0382
-5.5250 3.4021 2.0382
-5.7821 2.9470 2.0382
-6.0019 2.4727 2.0382
-6.1828 1.9820 2.0382
-6.3238 1.4783 2.0382
-6.4237 0.9648 2.0382
-6.4821 0.4448 2.0382
-6.4984 -0.0783 2.0382
-6.4725 -0.6011 2.0382
-6.4046 -1.1203 2.0382
-6.2951 -1.6324 2.0382
-6.1446 -2.1341 2.0382
-5.9542 -2.6222 2.0382
-5.7250 -3.0934 2.0382
-5.4585 -3.5447 2.0382
-5.1565 -3.9731 2.0382
-4.8209 -4.3758 2.0382
-4.4538 -4.7502 2.0382
-4.0577 -5.0939 2.0382
-3.6351 -5.4044 2.0382
-3.1888 -5.6800 2.0382
-2.7217 -5.9186 2.0382
-2.2368 -6.1188 2.0382
-1.7373 -6.2792 2.0382
-1.2265 -6.3988 2.0382
-0.7077 -6.4767 2.0382
-0.1843 -6.5126 2.0382
0.3403 -6.5061 2.0382
0.8626 -6.4573 2.0382
1.3792 -6.3665 2.0382
1.8868 -6.2344 2.0382
2.3821 -6.0617 2.0382
2.8618 -5.8497 2.0382
3.3227 -5.5997 2.0382
3.7619 -5.3134 2.0382
4.1766 -4.9927 2.0382
3.1309 -3.1828 1.3982
2.9411 -2.5436 1.2180
2.7937 -2.0477 1.0852
2.6747 -1.6471 0.9844
2.5754 -1.3128 0.9061
2.4903 -1.0261 0.8444
2.4156 -0.7745 0.7955
2.3486 -0.5492 0.7565
2.2876 -0.3438 0.7257
2.2310 -0.1533 0.7017
2.1777 0.0261 0.6836
2.1269 0.1974 0.6706
2.0776 0.3633 0.6623
2.0292 0.5261 0.6584
1.9811 0.6880 0.6588
1.9327 0.8512 0.6636
5.7057 3.0832 2.0382
5.4380 3.5318 2.0382
5.1352 3.9574 2.0382
4.7992 4.3571 2.0382
4.4322 4.7286 2.0382
4.0367 5.0694 2.0382
3.6151 5.3773 2.0382
3.1702 5.6503 2.0382
2.7049 5.8867 2.0382
2.2221 6.0849 2.0382
1.7250 6.2438 2.0382
1.2167 6.3622 2.0382
0.7006 6.4395 2.0382
0.1800 6.4750 2.0382
-0.3418 6.4687 2.0382
-0.8615 6.4205 2.0382
-1.3756 6.3308 2.0382
-1.8809 6.2000 2.0382
-2.3742 6.0291 2.0382
-2.8521 5.8191 2.0382
-3.3117 5.5714 2.0382
-3.7500 5.2876 2.0382
-4.1641 4.9694 2.0382
-4.5514 4.6189 2.0382
-4.9094 4.2384 2.0382
-5.2356 3.8302 2.0382
-5.5281 3.3971 2.0382
-5.7848 2.9418 2.0382
-6.0042 2.4672 2.0382
-6.1847 1.9764 2.0382
-6.3251 1.4726 2.0382
-6.4246 0.9590 2.0382
-6.4825 0.4390 2.0382
-6.4983 -0.0842 2.0382
-6.4720 -0.6070 2.0382
-6.4036 -1.1261 2.0382
-6.2936 -1.6381 2.0382
-6.1427 -2.1397 2.0382
-5.9518 -2.6276 2.0382
-5.7222 -3.0986 2.0382
-5.4553 -3.5496 2.0382
-5.1529 -3.9778 2.0382
-4.8169 -4.3802 2.0382
-4.4495 -4.7543 2.0382
-4.0531 -5.0975 2.0382
-3.6302 -5.4077 2.0382
-3.1836 -5.6828 2.0382
-2.7163 -5.9211 2.0382
-2.2313 -6.1208 2.0382
-1.7316 -6.2807 2.0382
-1.2207 -6.3999 2.0382
-0.7018 -6.4774 2.0382
-0.1784 -6.5128 2.0382
0.3462 -6.5058 2.0382
0.8684 -6.4565 2.0382
1.3850 -6.3653 2.0382
1.8925 -6.2327 2.0382
2.3876 -6.0596 2.0382
2.8671 -5.8471 2.0382
3.3278 -5.5967 2.0382
3.7667 -5.3100 2.0382
4.1811 -4.9889 2.0382
3.1285 -3.1745 1.3959
2.9392 -2.5374 1.2163
2.7923 -2.0427 1.0839
2.6735 -1.6430 0.9834
2.5744 -1.3093 0.9053
2.4894 -1.0231 0.8438
-3.3983 4.8192 2.0382
-3.7757 4.5307 2.0382
-4.1289 4.2128 2.0382
-4.4553 3.8674 2.0382
-4.7530 3.4969 2.0382
-5.0201 3.1036 2.0382
-5.2546 2.6900 2.0382
-5.4552 2.2589 2.0382
-5.6205 1.8129 2.0382
-5.7494 1.3549 2.0382
-5.8411 0.8880 2.0382
-5.8949 0.4151 2.0382
-5.9104 -0.0606 2.0382
-5.8876 -0.5362 2.0382
-5.8266 -1.0084 2.0382
-5.7278 -1.4743 2.0382
-5.5917 -1.9308 2.0382
-5.4192 -2.3750 2.0382
-5.2115 -2.8038 2.0382
-4.9698 -3.2147 2.0382
-4.6958 -3.6047 2.0382
-4.3912 -3.9714 2.0382
-4.0580 -4.3125 2.0382
-3.6983 -4.6255 2.0382
-3.3145 -4.9086 2.0382
-2.9091 -5.1599 2.0382
-2.4847 -5.3776 2.0382
-0.7401 -2.0134 0.7380
-1.5902 -5.7071 2.0382
-1.1259 -5.8166 2.0382
-0.6542 -5.8884 2.0382
-0.1784 -5.9219 2.0382
0.2987 -5.9169 2.0382
0.7737 -5.8734 2.0382
1.2437 -5.7917 2.0382
1.7055 -5.6724 2.0382
0.7809 -1.9980 0.7382
2.5927 -5.3244 2.0382
3.0123 -5.0978 2.0382
3.4122 -4.8383 2.0382
3.7899 -4.5473 2.0382
3.1359 -3.1996 1.5429
2.9448 -2.5564 1.3432
2.7968 -2.0578 1.1962
2.6772 -1.6554 1.0846
2.5775 -1.3198 0.9980
2.4921 -1.0322 0.9298
2.4172 -0.7799 0.8757
2.3501 -0.5541 0.8327
2.2889 -0.3483 0.7986
2.2323 -0.1575 0.7721
2.1789 0.0221 0.7519
2.1280 0.1936 0.7375
2.0787 0.3596 0.7283
2.0303 0.5224 0.7239
1.9822 0.6844 0.7242
1.9338 0.8474 0.7293
5.1953 2.7951 2.0382
4.9526 3.2036 2.0382
4.6779 3.5913 2.0382
4.3730 3.9556 2.0382
4.0399 4.2942 2.0382
3.6806 4.6049 2.0382
3.2977 4.8858 2.0382
2.8934 5.1349 2.0382
2.4705 5.3507 2.0382
2.0316 5.5319 2.0382
1.5796 5.6773 2.0382
1.1174 5.7859 2.0382
0.6480 5.8570 2.0382
0.1744 5.8902 2.0382
-0.3003 5.8853 2.0382
-0.7732 5.8423 2.0382
-1.2410 5.7615 2.0382
-1.7009 5.6433 2.0382
-2.1499 5.4886 2.0382
-2.5850 5.2983 2.0382
-3.0035 5.0737 2.0382
-3.4027 4.8161 2.0382
-3.7799 4.5273 2.0382
-4.1327 4.2090 2.0382
-4.4589 3.8634 2.0382
-4.7562 3.4926 2.0382
-5.0229 3.0991 2.0382
-5.2571 2.6853 2.0382
-5.4573 2.2539 2.0382
-5.6222 1.8078 2.0382
-5.7506 1.3497 2.0382
-5.8419 0.8827 2.0382
-5.8953 0.4098 2.0382
-5.9104 -0.0660 2.0382
-5.8872 -0.5415 2.0382
-5.8257 -1.0137 2.0382
-5.7264 -1.4795 2.0382
-5.5899 -1.9359 2.0382
-5.4171 -2.3799 2.0382
-5.2089 -2.8086 2.0382
-4.9669 -3.2192 2.0382
-4.6925 -3.6090 2.0382
-4.3876 -3.9754 2.0382
-4.0541 -4.3161 2.0382
-3.6941 -4.6289 2.0382
-3.3100 -4.9116 2.0382
-2.9044 -5.1625 2.0382
-2.4798 -5.3798 2.0382
-0.7383 -2.0140 0.7380
-1.5850 -5.7085 2.0382
-1.1206 -5.8177 2.0382
-0.6489 -5.8890 2.0382
-0.1730 -5.9220 2.0382
0.3040 -5.9166 2.0382
0.7790 -5.8727 2.0382
1.2489 -5.7906 2.0382
1.7106 -5.6709 2.0382
2.1611 -5.5143 2.0382
2.5975 -5.3220 2.0382
3.0169 -5.0951 2.0382
3.4166 -4.8352 2.0382
3.7940 -4.5439 2.0382
3.1334 -3.1913 1.5402
2.9430 -2.5501 1.3413
2.7953 -2.0528 1.1948
2.6760 -1.6513 1.0835
2.5765 -1.3163 0.9971
2.4912 -1.0292 0.9291
2.4164 -0.7773 0.8752
2.3494 -0.5517 0.8322
2.2883 -0.3460 0.7983
2.2317 -0.1554 0.7718
2.1784 0.0241 0.7518
2.1274 0.1955 0.7374
2.0782 0.3614 0.7282
2.0298 0.5243 0.7239
1.9817 0.6862 0.7243
1.9333 0.8493 0.7294
5.1928 2.7998 2.0382
4.9497 3.2081 2.0382
4.6747 3.5956 2.0382
4.3694 3.9596 2.0382
4.0360 4.2979 2.0382
3.6764 4.6083 2.0382
3.2932 4.8887 2.0382
2.8887 5.1375 2.0382
2.4656 5.3530 2.0382
2.0266 5.5338 2.0382
1.5744 5.6787 2.0382
1.1122 5.7869 2.0382
0.6427 5.8576 2.0382
0.1691 5.8904 2.0382
-0.3057 5.8851 2.0382
-0.7785 5.8416 2.0382
-1.2463 5.7604 2.0382
-1.7061 5.6418 2.0382
-2.1549 5.4867 2.0382
-2.5898 5.2960 2.0382
-3.0081 5.0710 2.0382
-3.4070 4.8130 2.0382
-3.7840 4.5239 2.0382
-4.1365 4.2053 2.0382
-4.4624 3.8594 2.0382
-4.7594 3.4883 2.0382
-5.0257 3.0945 2.0382
-5.2595 2.6805 2.0382
-5.4593 2.2490 2.0382
-5.6238 1.8027 2.0382
-5.7519 1.3445 2.0382
-5.8427 0.8774 2.0382
-5.8956 0.4044 2.0382
-5.9103 -0.0713 2.0382
-5.8867 -0.5469 2.0382
-5.8248 -1.0190 2.0382
-5.7251 -1.4847 2.0382
-5.5882 -1.9410 2.0382
-5.4149 -2.3848 2.0382
-5.2064 -2.8133 2.0382
-4.9640 -3.2237 2.0382
-4.6893 -3.6132 2.0382
-4.3840 -3.9794 2.0382
-4.0501 -4.3198 2.0382
-3.6899 -4.6323 2.0382
-3.3056 -4.9146 2.0382
-2.8997 -5.1651 2.0382
-2.4749 -5.3821 2.0382
-0.7365 -2.0147 0.7380
-1.5798 -5.7099 2.0382
-1.1153 -5.8187 2.0382
-0.6436 -5.8896 2.0382
-0.1676 -5.9222 2.0382
0.3094 -5.9163 2.0382
0.7843 -5.8720 2.0382
1.2542 -5.7895 2.0382
1.7158 -5.6693 2.0382
2.1661 -5.5124 2.0382
2.6023 -5.3196 2.0382
3.0215 -5.0924 2.0382
3.4210 -4.8321 2.0382
3.7981 -4.5404 2.0382
3.1310 -3.1830 1.5376
2.9411 -2.5438 1.3394
2.7938 -2.0479 1.1933
2.6748 -1.6472 1.0824
2.5755 -1.3129 0.9963
2.4903 -1.0262 0.9285
2.4156 -0.7746 0.8746
2.3487 -0.5493 0.8318
2.2876 -0.3438 0.7979
2.2310 -0.1533 0.7715
2.1778 0.0260 0.7516
2.1269 0.1974 0.7373
2.0776 0.3633 0.7281
2.0292 0.5261 0.7239
1.9812 0.6880 0.7243
1.9327 0.8511 0.7295
5.1902 2.8045 2.0382
4.9468 3.2126 2.0382
4.6714 3.5998 2.0382
4.3658 3.9636 2.0382
4.0321 4.3016 2.0382
3.6723 4.6116 2.0382
3.2888 4.8917 2.0382
2.8841 5.1401 2.0382
2.4607 5.3552 2.0382
2.0215 5.5356 2.0382
1.5693 5.6801 2.0382
1.1069 5.7879 2.0382
0.6374 5.8582 2.0382
0.1637 5.8906 2.0382
-0.3110 5.8848 2.0382
-0.7838 5.8409 2.0382
-1.2515 5.7592 2.0382
-1.7112 5.6402 2.0382
-2.1599 5.4847 2.0382
-2.5946 5.2936 2.0382
-3.0127 5.0682 2.0382
-3.4114 4.8100 2.0382
-3.7881 4.5204 2.0382
-4.1403 4.2015 2.0382
-4.4659 3.8553 2.0382
-4.7626 3.4840 2.0382
-5.0285 3.0900 2.0382
-5.2620 2.6757 2.0382
-5.4614 2.2440 2.0382
-5.6255 1.7976 2.0382
-5.7531 1.3393 2.0382
-5.8435 0.8721 2.0382
-5.8960 0.3991 2.0382
-5.9103 -0.0767 2.0382
-5.8862 -0.5522 2.0382
-5.8239 -1.0243 2.0382
-5.7238 -1.4899 2.0382
-5.5864 -1.9461 2.0382
-5.4127 -2.3898 2.0382
-5.2039 -2.8181 2.0382
-4.9611 -3.2282 2.0382
-4.6860 -3.6175 2.0382
-4.3804 -3.9834 2.0382
-4.0462 -4.3235 2.0382
-3.6857 -4.6356 2.0382
-3.3011 -4.9176 2.0382
-2.8950 -5.1678 2.0382
-2.4700 -5.3844 2.0382
-0.7347 -2.0154 0.7380
-1.5746 -5.7114 2.0382
-1.1100 -5.8197 2.0382
-0.6382 -5.8901 2.0382
-0.1623 -5.9223 2.0382
0.3148 -5.9160 2.0382
0.7897 -5.8712 2.0382
1.2594 -5.7883 2.0382
1.7209 -5.6678 2.0382
2.1711 -5.5104 2.0382
2.6072 -5.3173 2.0382
3.0261 -5.0896 2.0382
3.4254 -4.8289 2.0382
3.8022 -4.5370 2.0382
3.1285 -3.1747 1.5350
2.9392 -2.5375 1.3375
2.7923 -2.0429 1.1919
2.6736 -1.6431 1.0813
2.5744 -1.3094 0.9954
2.4894 -1.0232 0.9278
-3.1118 4.4128 2.0382
-3.4574 4.1485 2.0382
-3.7807 3.8574 2.0382
-4.0796 3.5411 2.0382
-4.3521 3.2018 2.0382
-4.5965 2.8416 2.0382
-4.8112 2.4629 2.0382
-4.9948 2.0681 2.0382
-5.1461 1.6597 2.0382
-5.2640 1.2404 2.0382
-5.3479 0.8129 2.0382
-5.3970 0.3799 2.0382
-5.4112 -0.0556 2.0382
-5.3902 -0.4910 2.0382
-5.3343 -0.9234 2.0382
-5.2437 -1.3499 2.0382
-5.1190 -1.7678 2.0382
-4.9611 -2.1743 2.0382
-4.7708 -2.5669 2.0382
-4.5496 -2.9429 2.0382
-4.2987 -3.3000 2.0382
-4.0198 -3.6356 2.0382
-3.7147 -3.9478 2.0382
-3.3854 -4.2343 2.0382
-3.0341 -4.4934 2.0382
-2.6629 -4.7234 2.0382
-2.2744 -4.9227 2.0382
-0.6779 -1.8442 0.7385
-0.5273 -1.8925 0.7384
-0.3733 -1.9287 0.7383
-0.2169 -1.9523 0.7382
-0.0591 -1.9634 0.7382
0.0990 -1.9618 0.7383
0.2565 -1.9475 0.7383
0.4124 -1.9207 0.7384
0.5657 -1.8815 0.7385
0.7153 -1.8301 0.7387
2.3733 -4.8740 2.0382
2.7575 -4.6667 2.0382
3.1236 -4.4292 2.0382
3.4693 -4.1629 2.0382
3.1360 -3.1998 1.6854
2.9449 -2.5565 1.4673
2.7968 -2.0580 1.3067
2.6773 -1.6555 1.1848
2.5776 -1.3199 1.0901
2.4921 -1.0323 1.0157
2.4172 -0.7800 0.9565
2.3501 -0.5542 0.9095
2.2890 -0.3483 0.8723
2.2323 -0.1575 0.8433
2.1790 0.0220 0.8213
2.1280 0.1935 0.8055
2.0787 0.3595 0.7954
2.0303 0.5224 0.7906
1.9823 0.6843 0.7910
1.9338 0.8474 0.7965
4.7571 2.5592 2.0382
4.5350 2.9334 2.0382
4.2835 3.2884 2.0382
4.0043 3.6220 2.0382
3.6993 3.9321 2.0382
3.3704 4.2166 2.0382
3.0197 4.4738 2.0382
2.6495 4.7020 2.0382
2.2623 4.8997 2.0382
0.6832 1.8603 0.7485
0.5313 1.9095 0.7486
0.3759 1.9462 0.7487
0.2180 1.9703 0.7488
0.1597 5.3938 2.0382
-0.2750 5.3893 2.0382
-0.2601 1.9651 0.7487
-0.4174 1.9377 0.7486
-0.5720 1.8976 0.7485
-0.7228 1.8452 0.7483
-2.3672 4.8516 2.0382
-2.7503 4.6458 2.0382
-3.1158 4.4099 2.0382
-3.4612 4.1454 2.0382
-3.7842 3.8539 2.0382
-4.0828 3.5374 2.0382
-4.3550 3.1979 2.0382
-4.5991 2.8375 2.0382
-4.8135 2.4585 2.0382
-4.9967 2.0636 2.0382
-5.1476 1.6550 2.0382
-5.2652 1.2356 2.0382
-5.3486 0.8080 2.0382
-5.3974 0.3750 2.0382
-5.4112 -0.0605 2.0382
-5.3898 -0.4959 2.0382
-5.3335 -0.9282 2.0382
-5.2425 -1.3546 2.0382
-5.1174 -1.7724 2.0382
-4.9591 -2.1788 2.0382
-4.7685 -2.5712 2.0382
-4.5469 -2.9471 2.0382
-4.2957 -3.3039 2.0382
-4.0165 -3.6393 2.0382
-3.7111 -3.9512 2.0382
-3.3816 -4.2374 2.0382
-3.0300 -4.4962 2.0382
-2.6586 -4.7258 2.0382
-2.2700 -4.9247 2.0382
-0.6763 -1.8448 0.7385
-0.5256 -1.8930 0.7384
-0.3716 -1.9290 0.7383
-0.2151 -1.9525 0.7382
-0.0574 -1.9634 0.7382
0.1008 -1.9617 0.7383
0.2583 -1.9473 0.7383
0.4142 -1.9203 0.7384
0.5674 -1.8809 0.7385
0.7169 -1.8294 0.7387
2.3777 -4.8719 2.0382
2.7617 -4.6642 2.0382
3.1276 -4.4263 2.0382
3.4731 -4.1597 2.0382
3.1335 -3.1915 1.6825
2.9430 -2.5502 1.4652
2.7953 -2.0530 1.3051
2.6760 -1.6514 1.1836
2.5765 -1.3164 1.0892
2.4912 -1.0293 1.0149
2.4164 -0.7773 0.9559
2.3494 -0.5518 0.9090
2.2883 -0.3461 0.8719
2.2317 -0.1555 0.8430
2.1784 0.0240 0.8211
2.1275 0.1954 0.8054
2.0782 0.3614 0.7953
2.0298 0.5242 0.7906
1.9817 0.6861 0.7910
1.9333 0.8492 0.7966
4.7548 2.5635 2.0382
4.5323 2.9375 2.0382
4.2805 3.2923 2.0382
4.0010 3.6256 2.0382
3.6957 3.9354 2.0382
3.3665 4.2197 2.0382
3.0156 4.4766 2.0382
2.6453 4.7044 2.0382
2.2578 4.9017 2.0382
0.6815 1.8609 0.7485
0.5296 1.9099 0.7486
0.3741 1.9465 0.7487
0.2162 1.9705 0.7488
0.1548 5.3939 2.0382
-0.2799 5.3890 2.0382
-0.2619 1.9649 0.7487
-0.4192 1.9373 0.7486
-0.5737 1.8971 0.7485
-0.7245 1.8445 0.7483
-2.3716 4.8494 2.0382
-2.7546 4.6433 2.0382
-3.1198 4.4071 2.0382
-3.4649 4.1423 2.0382
-3.7877 3.8505 2.0382
-4.0860 3.5337 2.0382
-4.3579 3.1939 2.0382
-4.6017 2.8333 2.0382
-4.8157 2.4542 2.0382
-4.9986 2.0590 2.0382
-5.1491 1.6504 2.0382
-5.2663 1.2308 2.0382
-5.3493 0.8032 2.0382
-5.3977 0.3701 2.0382
-5.4111 -0.0654 2.0382
-5.3894 -0.5008 2.0382
-5.3326 -0.9330 2.0382
-5.2413 -1.3594 2.0382
-5.1158 -1.7771 2.0382
-4.9571 -2.1834 2.0382
-4.7662 -2.5756 2.0382
-4.5442 -2.9512 2.0382
-4.2927 -3.3078 2.0382
-4.0132 -3.6429 2.0382
-3.7075 -3.9545 2.0382
-3.3777 -4.2405 2.0382
-3.0259 -4.4989 2.0382
-2.6543 -4.7282 2.0382
-2.2655 -4.9268 2.0382
-0.6746 -1.8454 0.7385
-0.5239 -1.8935 0.7384
-0.3698 -1.9293 0.7383
-0.2134 -1.9527 0.7382
-0.0556 -1.9635 0.7382
0.1026 -1.9616 0.7383
0.2601 -1.9471 0.7383
0.4159 -1.9199 0.7384
0.5691 -1.8804 0.7385
0.7186 -1.8288 0.7387
2.3821 -4.8697 2.0382
2.7659 -4.6617 2.0382
3.1316 -4.4235 2.0382
3.4769 -4.1566 2.0382
3.1311 -3.1832 1.6797
2.9412 -2.5439 1.4631
2.7938 -2.0480 1.3036
2.6748 -1.6473 1.1824
2.5755 -1.3130 1.0883
2.4903 -1.0263 1.0142
2.4156 -0.7747 0.9553
2.3487 -0.5494 0.9086
2.2877 -0.3439 0.8716
2.2311 -0.1534 0.8427
2.1778 0.0260 0.8209
2.1269 0.1973 0.8052
2.0776 0.3632 0.7953
2.0293 0.5260 0.7906
1.9812 0.6880 0.7911
1.9327 0.8511 0.7967
4.7525 2.5678 2.0382
4.5296 2.9416 2.0382
4.2775 3.2961 2.0382
3.9977 3.6293 2.0382
3.6921 3.9388 2.0382
3.3627 4.2227 2.0382
3.0116 4.4793 2.0382
2.6410 4.7068 2.0382
2.2533 4.9038 2.0382
0.6798 1.8615 0.7485
0.5278 1.9104 0.7486
0.3723 1.9469 0.7487
0.2144 1.9707 0.7488
0.1499 5.3941 2.0382
-0.2848 5.3888 2.0382
-0.2636 1.9647 0.7487
-0.4209 1.9369 0.7486
-0.5754 1.8966 0.7485
-0.7261 1.8439 0.7483
-2.3760 4.8473 2.0382
-2.7588 4.6408 2.0382
-3.1238 4.4043 2.0382
-3.4687 4.1391 2.0382
-3.7912 3.8471 2.0382
-4.0892 3.5300 2.0382
-4.3608 3.1900 2.0382
-4.6043 2.8291 2.0382
-4.8180 2.4498 2.0382
-5.0005 2.0545 2.0382
-5.1506 1.6457 2.0382
-5.2674 1.2261 2.0382
-5.3501 0.7983 2.0382
-5.3981 0.3653 2.0382
-5.4111 -0.0704 2.0382
-5.3889 -0.5057 2.0382
-5.3318 -0.9379 2.0382
-5.2400 -1.3642 2.0382
-5.1142 -1.7817 2.0382
-4.9552 -2.1879 2.0382
-4.7639 -2.5799 2.0382
-4.5416 -2.9553 2.0382
-4.2897 -3.3117 2.0382
-4.0099 -3.6466 2.0382
-3.7039 -3.9579 2.0382
-3.3739 -4.2436 2.0382
-3.0218 -4.5017 2.0382
-2.6501 -4.7306 2.0382
-2.2610 -4.9288 2.0382
-0.6729 -1.8460 0.7385
-0.5222 -1.8940 0.7384
-0.3681 -1.9297 0.7383
-0.2116 -1.9529 0.7382
-0.0538 -1.9635 0.7382
0.1044 -1.9615 0.7383
0.2618 -1.9468 0.7383
0.4176 -1.9196 0.7384
0.5708 -1.8799 0.7385
0.7203 -1.8281 0.7387
2.3866 -4.8675 2.0382
2.7701 -4.6592 2.0382
3.1356 -4.4206 2.0382
3.4806 -4.1534 2.0382
3.1286 -3.1750 1.6768
2.9393 -2.5377 1.4610
2.7924 -2.0430 1.3020
2.6736 -1.6432 1.1812
2.5745 -1.3095 1.0873
2.4894 -1.0232 1.0134
-2.8651 4.0627 2.0382
-3.1832 3.8194 2.0382
-3.4809 3.5513 2.0382
-3.7560 3.2601 2.0382
-4.0069 2.9477 2.0382
-4.2319 2.6160 2.0382
-4.4295 2.2673 2.0382
-4.5984 1.9038 2.0382
-4.7376 1.5278 2.0382
-4.8461 1.1418 2.0382
-4.9232 0.7482 2.0382
-4.9684 0.3496 2.0382
-4.9814 -0.0513 2.0382
-4.9620 -0.4521 2.0382
-4.9105 -0.8501 2.0382
-4.8270 -1.2427 2.0382
-4.7122 -1.6274 2.0382
-4.5667 -2.0016 2.0382
-4.3916 -2.3630 2.0382
-4.1878 -2.7091 2.0382
-3.9568 -3.0377 2.0382
-3.7001 -3.3466 2.0382
-3.4192 -3.6339 2.0382
-3.1161 -3.8976 2.0382
-2.7927 -4.1361 2.0382
-2.4511 -4.3477 2.0382
-0.7590 -1.6429 0.7390
-0.6243 -1.6984 0.7389
-0.4856 -1.7429 0.7388
-0.3438 -1.7762 0.7387
-0.1998 -1.7980 0.7387
-0.0545 -1.8082 0.7387
0.0912 -1.8068 0.7387
0.2362 -1.7936 0.7387
0.3798 -1.7689 0.7388
0.5209 -1.7327 0.7389
0.6587 -1.6854 0.7391
2.1845 -4.4865 2.0382
2.5381 -4.2957 2.0382
2.8752 -4.0771 2.0382
3.1934 -3.8320 2.0382
3.1361 -3.2000 1.8311
2.9450 -2.5567 1.5940
2.7969 -2.0581 1.4196
2.6773 -1.6557 1.2871
2.5776 -1.3200 1.1843
2.4922 -1.0324 1.1033
2.4172 -0.7801 1.0391
2.3502 -0.5543 0.9880
2.2890 -0.3484 0.9476
2.2323 -0.1576 0.9160
2.1790 0.0220 0.8921
2.1281 0.1935 0.8750
2.0787 0.3595 0.8640
2.0304 0.5223 0.8588
1.9823 0.6843 0.8592
1.9338 0.8473 0.8652
4.3798 2.3561 2.0382
4.1753 2.7006 2.0382
3.9438 3.0275 2.0382
3.6868 3.3347 2.0382
3.4060 3.6202 2.0382
3.1032 3.8823 2.0382
2.7803 4.1191 2.0382
2.4395 4.3292 2.0382
0.7644 1.6555 0.7480
0.6287 1.7119 0.7481
0.4889 1.7571 0.7482
0.3459 1.7909 0.7483
0.2006 1.8131 0.7483
0.0540 1.8234 0.7483
-0.0930 1.8218 0.7483
-0.2393 1.8083 0.7483
-0.3841 1.7831 0.7482
-0.5264 1.7462 0.7481
-0.6652 1.6980 0.7479
-2.1795 4.4669 2.0382
-2.5323 4.2774 2.0382
-2.8688 4.0601 2.0382
-3.1867 3.8166 2.0382
-3.4841 3.5482 2.0382
-3.7590 3.2567 2.0382
-4.0096 2.9440 2.0382
-4.2342 2.6122 2.0382
-4.4315 2.2633 2.0382
-4.6002 1.8996 2.0382
-4.7390 1.5235 2.0382
-4.8472 1.1374 2.0382
-4.9239 0.7437 2.0382
-4.9688 0.3451 2.0382
-4.9814 -0.0559 2.0382
-4.9616 -0.4566 2.0382
-4.9097 -0.8546 2.0382
-4.8259 -1.2471 2.0382
-4.7107 -1.6317 2.0382
-4.5649 -2.0058 2.0382
-4.3894 -2.3670 2.0382
-4.1854 -2.7129 2.0382
-3.9541 -3.0413 2.0382
-3.6971 -3.3500 2.0382
-3.4159 -3.6370 2.0382
-3.1126 -3.9005 2.0382
-2.7889 -4.1386 2.0382
-2.4471 -4.3499 2.0382
-0.7576 -1.6436 0.7390
-0.6228 -1.6990 0.7389
-0.4840 -1.7434 0.7388
-0.3422 -1.7765 0.7387
-0.1981 -1.7982 0.7387
-0.0528 -1.8083 0.7387
0.0928 -1.8067 0.7387
0.2379 -1.7934 0.7387
0.3814 -1.7685 0.7388
0.5225 -1.7323 0.7389
0.6602 -1.6848 0.7391
2.1886 -4.4845 2.0382
2.5420 -4.2934 2.0382
2.8789 -4.0744 2.0382
3.1969 -3.8291 2.0382
3.1336 -3.1917 1.8279
2.9431 -2.5504 1.5918
2.7954 -2.0531 1.4179
2.6761 -1.6515 1.2858
2.5766 -1.3165 1.1832
2.4913 -1.0294 1.1025
2.4164 -0.7774 1.0384
2.3494 -0.5518 0.9875
2.2883 -0.3462 0.9472
2.2317 -0.1555 0.9157
2.1784 0.0240 0.8919
2.1275 0.1954 0.8748
2.0782 0.3613 0.8639
2.0298 0.5242 0.8588
1.9817 0.6861 0.8592
1.9333 0.8492 0.8653
4.3776 2.3601 2.0382
4.1728 2.7044 2.0382
3.9411 3.0311 2.0382
3.6838 3.3380 2.0382
3.4027 3.6233 2.0382
3.0997 3.8851 2.0382
2.7766 4.1216 2.0382
2.4356 4.3314 2.0382
0.7629 1.6562 0.7480
0.6272 1.7125 0.7481
0.4873 1.7576 0.7482
0.3443 1.7912 0.7483
0.1990 1.8132 0.7483
0.0523 1.8234 0.7483
-0.0946 1.8217 0.7483
-0.2410 1.8081 0.7483
-0.3857 1.7828 0.7482
-0.5280 1.7458 0.7481
-0.6667 1.6974 0.7479
-2.1836 4.4649 2.0382
-2.5362 4.2751 2.0382
-2.8725 4.0575 2.0382
-3.1902 3.8137 2.0382
-3.4873 3.5450 2.0382
-3.7619 3.2533 2.0382
-4.0122 2.9404 2.0382
-4.2366 2.6084 2.0382
-4.4336 2.2593 2.0382
-4.6019 1.8955 2.0382
-4.7404 1.5192 2.0382
-4.8482 1.1330 2.0382
-4.9246 0.7393 2.0382
-4.9691 0.3406 2.0382
-4.9813 -0.0604 2.0382
-4.9612 -0.4611 2.0382
-4.9089 -0.8590 2.0382
-4.8248 -1.2515 2.0382
-4.7092 -1.6360 2.0382
-4.5631 -2.0099 2.0382
-4.3873 -2.3710 2.0382
-4.1829 -2.7167 2.0382
-3.9513 -3.0449 2.0382
-3.6940 -3.3533 2.0382
-3.4127 -3.6401 2.0382
-3.1091 -3.9033 2.0382
-2.7852 -4.1412 2.0382
-2.4432 -4.3522 2.0382
-0.7561 -1.6443 0.7390
-0.6213 -1.6995 0.7389
-0.4825 -1.7438 0.7388
-0.3406 -1.7768 0.7387
-0.1965 -1.7984 0.7387
-0.0512 -1.8083 0.7387
0.0945 -1.8066 0.7387
0.2395 -1.7932 0.7387
0.3830 -1.7682 0.7388
0.5241 -1.7318 0.7389
0.6618 -1.6842 0.7391
2.1926 -4.4825 2.0382
2.5459 -4.2911 2.0382
2.8825 -4.0718 2.0382
3.2004 -3.8262 2.0382
3.1311 -3.1834 1.8248
2.9412 -2.5441 1.5895
2.7939 -2.0481 1.4162
2.6749 -1.6474 1.2845
2.5755 -1.3131 1.1822
2.4904 -1.0263 1.1017
2.4156 -0.7747 1.0378
2.3487 -0.5494 0.9870
2.2877 -0.3440 0.9468
2.2311 -0.1534 0.9154
2.1778 0.0259 0.8917
2.1269 0.1972 0.8747
2.0776 0.3632 0.8638
2.0293 0.5260 0.8587
1.9812 0.6879 0.8592
1.9327 0.8510 0.8654
4.3755 2.3640 2.0382
4.1704 2.7081 2.0382
3.9383 3.0346 2.0382
3.6808 3.3414 2.0382
3.3994 3.6264 2.0382
3.0961 3.8879 2.0382
2.7728 4.1241 2.0382
2.4316 4.3336 2.0382
0.7614 1.6569 0.7480
0.6256 1.7130 0.7481
0.4857 1.7580 0.7482
0.3426 1.7916 0.7483
0.1973 1.8134 0.7483
0.0507 1.8235 0.7483
-0.0963 1.8216 0.7483
-0.2426 1.8079 0.7483
-0.3873 1.7824 0.7482
-0.5295 1.7453 0.7481
-0.6682 1.6968 0.7479
-2.1876 4.4629 2.0382
-2.5401 4.2728 2.0382
-2.8761 4.0549 2.0382
-3.1936 3.8108 2.0382
-3.4905 3.5418 2.0382
-3.7649 3.2499 2.0382
-4.0149 2.9368 2.0382
-4.2390 2.6045 2.0382
-4.4357 2.2553 2.0382
-4.6036 1.8913 2.0382
-4.7418 1.5149 2.0382
-4.8492 1.1286 2.0382
-4.9253 0.7348 2.0382
-4.9694 0.3361 2.0382
-4.9813 -0.0649 2.0382
-4.9608 -0.4656 2.0382
-4.9082 -0.8635 2.0382
-4.8236 -1.2559 2.0382
-4.7078 -1.6402 2.0382
-4.5613 -2.0141 2.0382
-4.3851 -2.3749 2.0382
-4.1805 -2.7205 2.0382
-3.9486 -3.0485 2.0382
-3.6910 -3.3567 2.0382
-3.4094 -3.6432 2.0382
-3.1055 -3.9061 2.0382
-2.7814 -4.1437 2.0382
-2.4392 -4.3544 2.0382
-0.7546 -1.6449 0.7390
-0.6197 -1.7001 0.7389
-0.4809 -1.7443 0.7388
-0.3390 -1.7772 0.7387
-0.1949 -1.7986 0.7387
-0.0496 -1.8084 0.7387
0.0961 -1.8065 0.7387
0.2411 -1.7930 0.7387
0.3846 -1.7679 0.7388
0.5256 -1.7313 0.7389
0.6633 -1.6836 0.7391
2.1967 -4.4805 2.0382
2.5498 -4.2888 2.0382
2.8862 -4.0692 2.0382
3.2038 -3.8233 2.0382
3.1287 -3.1752 1.8217
2.9394 -2.5378 1.5873
2.7924 -2.0431 1.4145
2.6737 -1.6434 1.2832
2.5745 -1.3096 1.1812
2.4895 -1.0233 1.1009
-2.6501 3.7577 2.0382
-2.9443 3.5326 2.0382
-3.2196 3.2846 2.0382
-3.4740 3.0152 2.0382
-3.7060 2.7262 2.0382
-3.9141 2.4195 2.0382
-4.0968 2.0969 2.0382
-4.2530 1.7607 2.0382
-4.3817 1.4129 2.0382
-4.4820 1.0559 2.0382
-4.5533 0.6919 2.0382
-4.5950 0.3232 2.0382
-4.6070 -0.0476 2.0382
-4.5890 -0.4183 2.0382
-4.5413 -0.7863 2.0382
-4.4640 -1.1494 2.0382
-4.3578 -1.5051 2.0382
-4.2232 -1.8512 2.0382
-4.0612 -2.1853 2.0382
-3.8727 -2.5054 2.0382
-3.6591 -2.8092 2.0382
-3.4216 -3.0949 2.0382
-3.1619 -3.3605 2.0382
-2.8816 -3.6044 2.0382
-2.5825 -3.8249 2.0382
-2.2666 -4.0205 2.0382
-0.7022 -1.5199 0.7394
-0.5776 -1.5713 0.7392
-0.4493 -1.6125 0.7391
-0.3181 -1.6433 0.7391
-0.1848 -1.6635 0.7390
-0.0504 -1.6729 0.7390
0.0843 -1.6716 0.7390
0.2186 -1.6594 0.7391
0.3514 -1.6365 0.7392
0.4819 -1.6031 0.7393
0.6094 -1.5593 0.7394
0.7330 -1.5054 0.7395
2.3471 -3.9725 2.0382
2.6588 -3.7704 2.0382
2.9531 -3.5438 2.0382
3.2282 -3.2942 2.0382
2.9415 -2.5538 1.7217
2.7969 -2.0583 1.5351
2.6774 -1.6558 1.3918
2.5776 -1.3201 1.2806
2.4922 -1.0325 1.1931
2.4173 -0.7802 1.1236
2.3502 -0.5543 1.0683
2.2890 -0.3485 1.0246
2.2324 -0.1577 0.9905
2.1790 0.0219 0.9646
2.1281 0.1934 0.9461
2.0788 0.3594 0.9342
2.0304 0.5223 0.9285
1.9823 0.6842 0.9289
1.9339 0.8473 0.9354
4.0510 2.1791 2.0382
3.8619 2.4977 2.0382
3.6478 2.8001 2.0382
3.4101 3.0843 2.0382
3.1504 3.3484 2.0382
2.8703 3.5908 2.0382
2.5717 3.8099 2.0382
2.2565 4.0043 2.0382
0.7067 1.5306 0.7476
0.5813 1.5827 0.7478
0.4520 1.6245 0.7479
0.3198 1.6557 0.7479
0.1855 1.6762 0.7480
0.0499 1.6857 0.7480
-0.0860 1.6843 0.7480
-0.2213 1.6718 0.7479
-0.3551 1.6485 0.7478
-0.4867 1.6144 0.7477
-0.6150 1.5699 0.7476
-0.7393 1.5151 0.7474
-2.3423 3.9563 2.0382
-2.6535 3.7553 2.0382
-2.9475 3.5300 2.0382
-3.2226 3.2817 2.0382
-3.4768 3.0121 2.0382
-3.7085 2.7229 2.0382
-3.9163 2.4159 2.0382
-4.0987 2.0932 2.0382
-4.2546 1.7568 2.0382
-4.3830 1.4089 2.0382
-4.4830 1.0518 2.0382
-4.5539 0.6877 2.0382
-4.5953 0.3191 2.0382
-4.6069 -0.0518 2.0382
-4.5886 -0.4224 2.0382
-4.5405 -0.7904 2.0382
-4.4630 -1.1535 2.0382
-4.3564 -1.5091 2.0382
-4.2215 -1.8550 2.0382
-4.0592 -2.1890 2.0382
-3.8705 -2.5089 2.0382
-3.6565 -2.8125 2.0382
-3.4188 -3.0980 2.0382
-3.1589 -3.3634 2.0382
-2.8783 -3.6070 2.0382
-2.5790 -3.8272 2.0382
-2.2629 -4.0226 2.0382
-0.7008 -1.5206 0.7393
-0.5762 -1.5718 0.7392
-0.4478 -1.6129 0.7391
-0.3166 -1.6436 0.7391
-0.1833 -1.6637 0.7390
-0.0489 -1.6730 0.7390
0.0859 -1.6715 0.7390
0.2201 -1.6592 0.7391
0.3529 -1.6362 0.7392
0.4834 -1.6026 0.7393
0.6108 -1.5587 0.7394
0.7343 -1.5047 0.7395
2.3507 -3.9704 2.0382
2.6622 -3.7679 2.0382
2.9563 -3.5411 2.0382
3.2312 -3.2913 2.0382
2.9432 -2.5506 1.7213
2.7954 -2.0533 1.5332
2.6761 -1.6517 1.3904
2.5766 -1.3166 1.2795
2.4913 -1.0295 1.1922
2.4165 -0.7775 1.1229
2.3495 -0.5519 1.0678
2.2884 -0.3462 1.0241
2.2317 -0.1556 0.9901
2.1784 0.0239 0.9644
2.1275 0.1953 0.9459
2.0782 0.3613 0.9341
2.0298 0.5241 0.9285
1.9818 0.6860 0.9290
1.9333 0.8491 0.9355
4.0490 2.1828 2.0382
3.8596 2.5012 2.0382
3.6452 2.8034 2.0382
3.4073 3.0874 2.0382
3.1474 3.3513 2.0382
2.8671 3.5934 2.0382
2.5682 3.8122 2.0382
2.2528 4.0063 2.0382
0.7053 1.5312 0.7476
0.5798 1.5832 0.7478
0.4505 1.6249 0.7479
0.3183 1.6560 0.7479
0.1839 1.6763 0.7480
0.0484 1.6858 0.7480
-0.0875 1.6842 0.7480
-0.2228 1.6716 0.7479
-0.3566 1.6482 0.7478
-0.4881 1.6140 0.7477
-0.6164 1.5693 0.7476
-0.7407 1.5144 0.7474
-2.3459 3.9541 2.0382
-2.6569 3.7529 2.0382
-2.9507 3.5273 2.0382
-3.2256 3.2788 2.0382
-3.4795 3.0089 2.0382
-3.7110 2.7195 2.0382
-3.9185 2.4124 2.0382
-4.1006 2.0895 2.0382
-4.2562 1.7530 2.0382
-4.3843 1.4050 2.0382
-4.4839 1.0477 2.0382
-4.5545 0.6836 2.0382
-4.5956 0.3149 2.0382
-4.6069 -0.0560 2.0382
-4.5882 -0.4266 2.0382
-4.5398 -0.7946 2.0382
-4.4619 -1.1575 2.0382
-4.3550 -1.5130 2.0382
-4.2199 -1.8589 2.0382
-4.0572 -2.1927 2.0382
-3.8682 -2.5124 2.0382
-3.6540 -2.8158 2.0382
-3.4160 -3.1011 2.0382
-3.1558 -3.3663 2.0382
-2.8750 -3.6096 2.0382
-2.5755 -3.8295 2.0382
-2.2593 -4.0247 2.0382
-0.6995 -1.5212 0.7393
-0.5748 -1.5723 0.7392
-0.4464 -1.6133 0.7391
-0.3151 -1.6439 0.7391
-0.1818 -1.6638 0.7390
-0.0474 -1.6730 0.7390
0.0874 -1.6714 0.7390
0.2216 -1.6590 0.7391
0.3543 -1.6359 0.7392
0.4848 -1.6022 0.7393
0.6122 -1.5582 0.7394
0.7357 -1.5040 0.7395
2.3543 -3.9682 2.0382
2.6656 -3.7655 2.0382
2.9595 -3.5384 2.0382
3.2342 -3.2883 2.0382
2.9413 -2.5443 1.7189
2.7939 -2.0483 1.5314
2.6749 -1.6476 1.3890
2.5756 -1.3132 1.2784
2.4904 -1.0264 1.1913
2.4157 -0.7748 1.1222
2.3487 -0.5495 1.0672
2.2877 -0.3440 1.0237
2.2311 -0.1535 0.9898
2.1778 0.0259 0.9641
2.1270 0.1972 0.9457
2.0777 0.3631 0.9340
2.0293 0.5259 0.9285
1.9812 0.6879 0.9290
1.9328 0.8510 0.9356
4.0470 2.1864 2.0382
3.8573 2.5047 2.0382
3.6427 2.8067 2.0382
3.4045 3.0905 2.0382
3.1443 3.3542 2.0382
2.8638 3.5960 2.0382
2.5648 3.8146 2.0382
2.2492 4.0084 2.0382
0.7039 1.5318 0.7476
0.5784 1.5837 0.7478
0.4491 1.6253 0.7479
0.3168 1.6563 0.7479
0.1824 1.6765 0.7480
0.0468 1.6858 0.7480
-0.0890 1.6841 0.7480
-0.2243 1.6714 0.7479
-0.3581 1.6479 0.7478
-0.4896 1.6135 0.7477
-0.6178 1.5687 0.7476
-0.7420 1.5137 0.7474
-2.3495 3.9520 2.0382
-2.6603 3.7505 2.0382
-2.9540 3.5246 2.0382
-3.2285 3.2758 2.0382
-3.4823 3.0058 2.0382
-3.7135 2.7161 2.0382
-3.9207 2.4088 2.0382
-4.1025 2.0858 2.0382
-4.2578 1.7491 2.0382
-4.3856 1.4010 2.0382
-4.4849 1.0437 2.0382
-4.5552 0.6795 2.0382
-4.5959 0.3107 2.0382
-4.6068 -0.0601 2.0382
-4.5879 -0.4308 2.0382
-4.5391 -0.7987 2.0382
-4.4609 -1.1616 2.0382
-4.3537 -1.5170 2.0382
-4.2182 -1.8627 2.0382
-4.0552 -2.1964 2.0382
-3.8659 -2.5159 2.0382
-3.6514 -2.8192 2.0382
-3.4132 -3.1042 2.0382
-3.1528 -3.3691 2.0382
-2.8718 -3.6122 2.0382
-2.5721 -3.8319 2.0382
-2.2556 -4.0267 2.0382
-0.6981 -1.5218 0.7393
-0.5733 -1.5729 0.7392
-0.4449 -1.6137 0.7391
-0.3136 -1.6442 0.7391
-0.1803 -1.6640 0.7390
-0.0458 -1.6731 0.7390
0.0889 -1.6713 0.7390
0.2231 -1.6588 0.7391
0.3558 -1.6356 0.7392
0.4863 -1.6018 0.7393
0.6136 -1.5576 0.7394
0.7370 -1.5034 0.7395
2.3579 -3.9661 2.0382
2.6690 -3.7631 2.0382
2.9627 -3.5357 2.0382
3.2372 -3.2854 2.0382
2.9394 -2.5380 1.7164
2.7925 -2.0433 1.5296
2.6737 -1.6435 1.3876
2.5746 -1.3097 1.2773
2.4895 -1.0234 1.1904
-2.4607 3.4891 2.0382
-2.7340 3.2801 2.0382
-2.9895 3.0498 2.0382
-3.2258 2.7996 2.0382
-3.4412 2.5312 2.0382
-3.6343 2.2464 2.0382
-3.8039 1.9469 2.0382
-3.9489 1.6347 2.0382
-4.0684 1.3117 2.0382
-4.1615 0.9802 2.0382
-4.2276 0.6422 2.0382
-4.2663 0.3000 2.0382
-4.2773 -0.0443 2.0382
-4.2606 -0.3885 2.0382
-4.2162 -0.7302 2.0382
-4.1445 -1.0672 2.0382
-4.0458 -1.3975 2.0382
-3.9208 -1.7188 2.0382
-3.7704 -2.0290 2.0382
-3.5954 -2.3261 2.0382
-3.3970 -2.6081 2.0382
-3.1766 -2.8733 2.0382
-2.9354 -3.1199 2.0382
-2.6751 -3.3463 2.0382
-2.3975 -3.5509 2.0382
-0.7637 -1.3548 0.7398
-0.6522 -1.4116 0.7396
-0.5364 -1.4593 0.7395
-0.4173 -1.4976 0.7394
-0.2954 -1.5263 0.7394
-0.1717 -1.5450 0.7393
-0.0468 -1.5538 0.7393
0.0783 -1.5525 0.7393
0.2030 -1.5412 0.7394
0.3263 -1.5199 0.7395
0.4476 -1.4889 0.7396
0.5659 -1.4482 0.7397
0.6807 -1.3981 0.7398
2.1789 -3.6880 2.0382
2.4683 -3.5004 2.0382
2.7416 -3.2901 2.0382
2.9970 -3.0584 2.0382
2.9901 -2.5962 1.8852
2.7970 -2.0584 1.6535
2.6774 -1.6559 1.4991
2.5777 -1.3202 1.3794
2.4922 -1.0326 1.2851
2.4173 -0.7803 1.2102
2.3502 -0.5544 1.1507
2.2891 -0.3485 1.1035
2.2324 -0.1577 1.0668
2.1790 0.0219 1.0389
2.1281 0.1933 1.0190
2.0788 0.3594 1.0061
2.0304 0.5222 1.0000
1.9823 0.6842 1.0005
1.9339 0.8472 1.0074
3.7615 2.0232 2.0382
3.5859 2.3191 2.0382
3.3871 2.5999 2.0382
3.1665 2.8638 2.0382
2.9253 3.1091 2.0382
2.6653 3.3342 2.0382
2.3880 3.5377 2.0382
0.7681 1.3630 0.7472
0.6560 1.4206 0.7473
0.5395 1.4690 0.7475
0.4195 1.5078 0.7475
0.2968 1.5368 0.7476
0.1721 1.5558 0.7476
0.0463 1.5646 0.7477
-0.0798 1.5633 0.7476
-0.2054 1.5517 0.7476
-0.3296 1.5301 0.7475
-0.4517 1.4985 0.7474
-0.5708 1.4571 0.7473
-0.6862 1.4063 0.7472
-2.1750 3.6735 2.0382
-2.4639 3.4869 2.0382
-2.7369 3.2776 2.0382
-2.9923 3.0471 2.0382
-3.2283 2.7967 2.0382
-3.4435 2.5281 2.0382
-3.6363 2.2431 2.0382
-3.8057 1.9435 2.0382
-3.9504 1.6311 2.0382
-4.0696 1.3081 2.0382
-4.1624 0.9765 2.0382
-4.2282 0.6384 2.0382
-4.2666 0.2961 2.0382
-4.2773 -0.0482 2.0382
-4.2603 -0.3923 2.0382
-4.2156 -0.7340 2.0382
-4.1435 -1.0710 2.0382
-4.0445 -1.4012 2.0382
-3.9193 -1.7223 2.0382
-3.7685 -2.0324 2.0382
-3.5933 -2.3293 2.0382
-3.3947 -2.6112 2.0382
-3.1739 -2.8762 2.0382
-2.9326 -3.1226 2.0382
-2.6721 -3.3487 2.0382
-2.3942 -3.5531 2.0382
-0.7625 -1.3554 0.7398
-0.6509 -1.4122 0.7396
-0.5351 -1.4598 0.7395
-0.4159 -1.4980 0.7394
-0.2940 -1.5265 0.7394
-0.1703 -1.5452 0.7393
-0.0454 -1.5538 0.7393
0.0797 -1.5524 0.7393
0.2044 -1.5410 0.7394
0.3277 -1.5197 0.7395
0.4489 -1.4885 0.7396
0.5673 -1.4477 0.7397
0.6820 -1.3975 0.7398
2.1823 -3.6861 2.0382
2.4715 -3.4982 2.0382
2.7446 -3.2876 2.0382
2.9998 -3.0557 2.0382
2.9914 -2.5925 1.8845
2.7955 -2.0534 1.6515
2.6762 -1.6518 1.4976
2.5767 -1.3167 1.3782
2.4913 -1.0295 1.2841
2.4165 -0.7776 1.2094
2.3495 -0.5520 1.1501
2.2884 -0.3463 1.1031
2.2318 -0.1556 1.0664
2.1784 0.0238 1.0387
2.1275 0.1952 1.0188
2.0782 0.3612 1.0060
2.0299 0.5241 1.0000
1.9818 0.6860 1.0005
1.9333 0.8491 1.0075
3.7596 2.0267 2.0382
3.5838 2.3224 2.0382
3.3848 2.6030 2.0382
3.1639 2.8667 2.0382
2.9225 3.1118 2.0382
2.6623 3.3366 2.0382
2.3848 3.5398 2.0382
0.7669 1.3637 0.7472
0.6547 1.4212 0.7473
0.5382 1.4695 0.7475
0.4182 1.5082 0.7475
0.2954 1.5371 0.7476
0.1707 1.5559 0.7476
0.0449 1.5646 0.7477
-0.0812 1.5632 0.7476
-0.2068 1.5515 0.7476
-0.3310 1.5298 0.7475
-0.4531 1.4981 0.7474
-0.5722 1.4566 0.7473
-0.6875 1.4056 0.7472
-2.1783 3.6715 2.0382
-2.4671 3.4847 2.0382
-2.7399 3.2751 2.0382
-2.9951 3.0443 2.0382
-3.2309 2.7938 2.0382
-3.4458 2.5250 2.0382
-3.6384 2.2398 2.0382
-3.8076 1.9403 2.0382
-3.9519 1.6275 2.0382
-4.0708 1.3044 2.0382
-4.1632 0.9727 2.0382
-4.2287 0.6346 2.0382
-4.2668 0.2922 2.0382
-4.2772 -0.0521 2.0382
-4.2599 -0.3962 2.0382
-4.2149 -0.7378 2.0382
-4.1426 -1.0748 2.0382
-4.0433 -1.4048 2.0382
-3.9177 -1.7259 2.0382
-3.7667 -2.0358 2.0382
-3.5912 -2.3326 2.0382
-3.3923 -2.6143 2.0382
-3.1713 -2.8791 2.0382
-2.9297 -3.1252 2.0382
-2.6691 -3.3511 2.0382
-2.3910 -3.5553 2.0382
-0.7613 -1.3561 0.7398
-0.6496 -1.4128 0.7396
-0.5338 -1.4603 0.7395
-0.4145 -1.4984 0.7394
-0.2926 -1.5268 0.7394
-0.1689 -1.5453 0.7393
-0.0440 -1.5539 0.7393
0.0811 -1.5524 0.7393
0.2058 -1.5408 0.7394
0.3291 -1.5194 0.7395
0.4503 -1.4881 0.7396
0.5686 -1.4471 0.7397
0.6832 -1.3969 0.7398
2.1856 -3.6841 2.0382
2.4746 -3.4959 2.0382
2.7475 -3.2851 2.0382
3.0026 -3.0530 2.0382
2.9927 -2.5889 1.8838
2.7940 -2.0484 1.6495
2.6750 -1.6477 1.4961
2.5756 -1.3133 1.3770
2.4904 -1.0265 1.2832
2.4157 -0.7749 1.2087
2.3488 -0.5496 1.1495
2.2877 -0.3441 1.1026
2.2311 -0.1536 1.0661
2.1779 0.0258 1.0384
2.1270 0.1971 1.0186
2.0777 0.3630 1.0059
2.0293 0.5259 1.0000
1.9812 0.6878 1.0005
1.9328 0.8509 1.0077
3.7578 2.0301 2.0382
3.5817 2.3256 2.0382
3.3824 2.6061 2.0382
3.1613 2.8696 2.0382
2.9197 3.1144 2.0382
2.6592 3.3390 2.0382
2.3816 3.5420 2.0382
0.7656 1.3644 0.7472
0.6534 1.4218 0.7473
0.5369 1.4700 0.7475
0.4168 1.5086 0.7475
0.2940 1.5373 0.7476
0.1693 1.5561 0.7476
0.0435 1.5647 0.7477
-0.0826 1.5631 0.7476
-0.2082 1.5513 0.7476
-0.3324 1.5295 0.7475
-0.4544 1.4976 0.7474
-0.5735 1.4561 0.7473
-0.6888 1.4050 0.7472
-2.1816 3.6696 2.0382
-2.4703 3.4824 2.0382
-2.7429 3.2727 2.0382
-2.9978 3.0416 2.0382
-3.2334 2.7908 2.0382
-3.4481 2.5219 2.0382
-3.6404 2.2365 2.0382
-3.8092 1.9364 2.0382
-3.9534 1.6239 2.0382
-4.0719 1.3007 2.0382
-4.1641 0.9689 2.0382
-4.2293 0.6307 2.0382
-4.2671 0.2884 2.0382
-4.2772 -0.0560 2.0382
-4.2596 -0.4001 2.0382
-4.2142 -0.7416 2.0382
-4.1416 -1.0785 2.0382
-4.0420 -1.4085 2.0382
-3.9162 -1.7294 2.0382
-3.7649 -2.0392 2.0382
-3.5891 -2.3358 2.0382
-3.3899 -2.6174 2.0382
-3.1687 -2.8820 2.0382
-2.9269 -3.1279 2.0382
-2.6660 -3.3535 2.0382
-2.3878 -3.5575 2.0382
-0.7600 -1.3568 0.7398
-0.6483 -1.4134 0.7396
-0.5325 -1.4608 0.7395
-0.4132 -1.4988 0.7394
-0.2913 -1.5271 0.7394
-0.1675 -1.5455 0.7393
-0.0426 -1.5539 0.7393
0.0826 -1.5523 0.7393
0.2072 -1.5406 0.7394
0.3305 -1.5191 0.7395
0.4516 -1.4876 0.7396
0.5699 -1.4466 0.7397
0.6845 -1.3962 0.7398
2.1889 -3.6821 2.0382
2.4778 -3.4937 2.0382
2.7505 -3.2826 2.0382
3.0053 -3.0502 2.0382
2.9940 -2.5853 1.8832
2.7925 -2.0434 1.6476
2.6737 -1.6436 1.4946
2.5746 -1.3098 1.3758
2.4896 -1.0235 1.2822
-2.2925 3.2505 2.0382
-2.5470 3.0557 2.0382
-2.7851 2.8411 2.0382
-3.0052 2.6080 2.0382
-3.2058 2.3580 2.0382
-3.3857 2.0926 2.0382
-3.5437 1.8136 2.0382
-3.6788 1.5227 2.0382
-3.7900 1.2219 2.0382
-3.8766 0.9130 2.0382
-3.9382 0.5982 2.0382
-3.9742 0.2793 2.0382
-3.9845 -0.0414 2.0382
-3.9689 -0.3620 2.0382
-3.9275 -0.6803 2.0382
-3.8606 -0.9943 2.0382
-3.7687 -1.3019 2.0382
-3.6522 -1.6011 2.0382
-3.5120 -1.8900 2.0382
-3.3490 -2.1668 2.0382
-3.1642 -2.4295 2.0382
-2.9589 -2.6765 2.0382
-2.7342 -2.9062 2.0382
-2.4918 -3.1170 2.0382
-2.2331 -3.3076 2.0382
-0.7116 -1.2623 0.7400
-0.6077 -1.3153 0.7399
-0.4998 -1.3598 0.7398
-0.3888 -1.3955 0.7397
-0.2753 -1.4222 0.7397
-0.1600 -1.4397 0.7396
-0.0436 -1.4478 0.7396
0.0730 -1.4467 0.7396
0.1891 -1.4361 0.7397
0.3041 -1.4163 0.7397
0.4170 -1.3873 0.7398
0.5273 -1.3494 0.7399
0.6342 -1.3027 0.7401
0.7371 -1.2476 0.7402
2.2991 -3.2606 2.0382
2.5537 -3.0647 2.0382
2.7916 -2.8490 2.0382
3.0114 -2.6148 2.0382
2.7970 -2.0586 1.7751
2.6774 -1.6560 1.6094
2.5777 -1.3203 1.4808
2.4923 -1.0327 1.3796
2.4173 -0.7804 1.2992
2.3502 -0.5545 1.2352
2.2891 -0.3486 1.1847
2.2324 -0.1578 1.1452
2.1791 0.0218 1.1153
2.1281 0.1933 1.0938
2.0788 0.3593 1.0800
2.0304 0.5222 1.0735
1.9823 0.6841 1.0739
1.9339 0.8472 1.0814
3.5042 1.8848 2.0382
3.3407 2.1604 2.0382
3.1555 2.4221 2.0382
2.9500 2.6679 2.0382
2.7253 2.8964 2.0382
2.4831 3.1062 2.0382
2.2248 3.2957 2.0382
0.7154 1.2694 0.7469
0.6109 1.3230 0.7471
0.5025 1.3681 0.7472
0.3907 1.4042 0.7473
0.2764 1.4312 0.7473
0.1603 1.4488 0.7474
0.0431 1.4571 0.7474
-0.0743 1.4558 0.7474
-0.1913 1.4451 0.7473
-0.3070 1.4249 0.7472
-0.4207 1.3955 0.7472
-0.5316 1.3570 0.7470
-0.6391 1.3097 0.7469
-0.7424 1.2538 0.7467
-2.2955 3.2484 2.0382
-2.5498 3.0534 2.0382
-2.7877 2.8386 2.0382
-3.0075 2.6053 2.0382
-3.2079 2.3551 2.0382
-3.3876 2.0895 2.0382
-3.5453 1.8104 2.0382
-3.6801 1.5194 2.0382
-3.7911 1.2184 2.0382
-3.8775 0.9095 2.0382
-3.9388 0.5946 2.0382
-3.9745 0.2757 2.0382
-3.9844 -0.0450 2.0382
-3.9685 -0.3656 2.0382
-3.9269 -0.6838 2.0382
-3.8597 -0.9978 2.0382
-3.7675 -1.3053 2.0382
-3.6508 -1.6044 2.0382
-3.5103 -1.8932 2.0382
-3.3471 -2.1698 2.0382
-3.1620 -2.4324 2.0382
-2.9564 -2.6792 2.0382
-2.7316 -2.9086 2.0382
-2.4890 -3.1193 2.0382
-2.2301 -3.3096 2.0382
-0.7105 -1.2630 0.7400
-0.6065 -1.3159 0.7399
-0.4986 -1.3603 0.7398
-0.3875 -1.3959 0.7397
-0.2740 -1.4224 0.7397
-0.1587 -1.4398 0.7396
-0.0423 -1.4479 0.7396
0.0743 -1.4466 0.7396
0.1904 -1.4359 0.7397
0.3053 -1.4160 0.7397
0.4183 -1.3870 0.7398
0.5286 -1.3489 0.7399
0.6354 -1.3022 0.7401
0.7382 -1.2470 0.7402
2.3021 -3.2585 2.0382
2.5565 -3.0624 2.0382
2.7942 -2.8464 2.0382
3.0138 -2.6120 2.0382
2.7955 -2.0536 1.7730
2.6762 -1.6519 1.6078
2.5767 -1.3169 1.4795
2.4914 -1.0296 1.3785
2.4165 -0.7777 1.2984
2.3495 -0.5521 1.2346
2.2884 -0.3464 1.1841
2.2318 -0.1557 1.1448
2.1785 0.0238 1.1150
2.1276 0.1952 1.0936
2.0783 0.3611 1.0799
2.0299 0.5240 1.0735
1.9818 0.6859 1.0740
1.9334 0.8490 1.0815
3.5025 1.8879 2.0382
3.3387 2.1635 2.0382
3.1533 2.4249 2.0382
2.9475 2.6706 2.0382
2.7227 2.8989 2.0382
2.4802 3.1084 2.0382
2.2218 3.2977 2.0382
0.7142 1.2700 0.7469
0.6097 1.3236 0.7471
0.5012 1.3685 0.7472
0.3894 1.4045 0.7473
0.2751 1.4314 0.7473
0.1590 1.4490 0.7474
0.0418 1.4571 0.7474
-0.0756 1.4558 0.7474
-0.1926 1.4449 0.7473
-0.3083 1.4246 0.7472
-0.4220 1.3951 0.7472
-0.5329 1.3565 0.7470
-0.6403 1.3091 0.7469
-0.7435 1.2531 0.7467
-2.2984 3.2463 2.0382
-2.5526 3.0511 2.0382
-2.7903 2.8360 2.0382
-3.0099 2.6026 2.0382
-3.2101 2.3522 2.0382
-3.3895 2.0865 2.0382
-3.5470 1.8071 2.0382
-3.6815 1.5160 2.0382
-3.7922 1.2150 2.0382
-3.8783 0.9060 2.0382
-3.9393 0.5910 2.0382
-3.9747 0.2721 2.0382
-3.9844 -0.0486 2.0382
-3.9682 -0.3692 2.0382
-3.9263 -0.6874 2.0382
-3.8588 -1.0013 2.0382
-3.7663 -1.3087 2.0382
-3.6493 -1.6077 2.0382
-3.5086 -1.8964 2.0382
-3.3451 -2.1729 2.0382
-3.1598 -2.4352 2.0382
-2.9540 -2.6819 2.0382
-2.7289 -2.9111 2.0382
-2.4861 -3.1215 2.0382
-2.2271 -3.3117 2.0382
-0.7093 -1.2636 0.7400
-0.6053 -1.3164 0.7399
-0.4974 -1.3607 0.7398
-0.3863 -1.3962 0.7397
-0.2727 -1.4227 0.7397
-0.1573 -1.4399 0.7396
-0.0410 -1.4479 0.7396
0.0756 -1.4465 0.7396
0.1917 -1.4358 0.7397
0.3066 -1.4158 0.7397
0.4195 -1.3866 0.7398
0.5298 -1.3484 0.7399
0.6366 -1.3016 0.7401
0.7393 -1.2463 0.7402
2.3050 -3.2564 2.0382
2.5592 -3.0601 2.0382
2.7968 -2.8439 2.0382
3.0161 -2.6093 2.0382
2.7941 -2.0486 1.7709
2.6750 -1.6478 1.6061
2.5757 -1.3134 1.4783
2.4905 -1.0266 1.3775
2.4157 -0.7750 1.2976
2.3488 -0.5497 1.2340
2.2878 -0.3442 1.1836
2.2312 -0.1536 1.1444
2.1779 0.0257 1.1147
2.1270 0.1971 1.0934
2.0777 0.3630 1.0798
2.0293 0.5258 1.0734
1.9813 0.6878 1.0740
1.9328 0.8509 1.0816
3.5008 1.8911 2.0382
3.3367 2.1665 2.0382
3.1511 2.4278 2.0382
2.9451 2.6733 2.0382
2.7201 2.9014 2.0382
2.4774 3.1107 2.0382
2.2188 3.2998 2.0382
0.7131 1.2707 0.7469
0.6085 1.3241 0.7471
0.5000 1.3690 0.7472
0.3882 1.4049 0.7473
0.2738 1.4317 0.7473
0.1577 1.4491 0.7474
0.0405 1.4572 0.7474
-0.0770 1.4557 0.7474
-0.1939 1.4447 0.7473
-0.3096 1.4244 0.7472
-0.4232 1.3947 0.7472
-0.5341 1.3560 0.7470
-0.6415 1.3085 0.7469
-0.7446 1.2524 0.7467
-2.3014 3.2442 2.0382
-2.5554 3.0488 2.0382
-2.7928 2.8335 2.0382
-3.0123 2.5998 2.0382
-3.2122 2.3493 2.0382
-3.3914 2.0834 2.0382
-3.5486 1.8039 2.0382
-3.6829 1.5126 2.0382
-3.7933 1.2116 2.0382
-3.8791 0.9025 2.0382
-3.9398 0.5874 2.0382
-3.9750 0.2685 2.0382
-3.9844 -0.0523 2.0382
-3.9679 -0.3728 2.0382
-3.9256 -0.6910 2.0382
-3.8579 -1.0048 2.0382
-3.7651 -1.3121 2.0382
-3.6479 -1.6111 2.0382
-3.5069 -1.8996 2.0382
-3.3431 -2.1759 2.0382
-3.1576 -2.4381 2.0382
-2.9516 -2.6845 2.0382
-2.7263 -2.9136 2.0382
-2.4833 -3.1238 2.0382
-2.2241 -3.3137 2.0382
-0.7082 -1.2643 0.7400
-0.6041 -1.3170 0.7399
-0.4961 -1.3612 0.7398
-0.3850 -1.3966 0.7397
-0.2714 -1.4229 0.7397
-0.1560 -1.4401 0.7396
-0.0397 -1.4479 0.7396
0.0769 -1.4464 0.7396
0.1930 -1.4356 0.7397
0.3079 -1.4155 0.7397
0.4208 -1.3862 0.7398
0.5310 -1.3480 0.7399
0.6378 -1.3010 0.7401
0.7405 -1.2456 0.7402
2.3080 -3.2543 2.0382
2.5620 -3.0577 2.0382
2.7994 -2.8413 2.0382
3.0185 -2.6066 2.0382
2.7926 -2.0436 1.7688
2.6738 -1.6437 1.6045
2.5746 -1.3099 1.4770
2.4896 -1.0236 1.3765
-2.1418 3.0366 2.0382
-2.3796 2.8547 2.0382
-2.6020 2.6542 2.0382
-2.8076 2.4364 2.0382
-2.9950 2.2028 2.0382
-3.1630 1.9548 2.0382
-3.3106 1.6942 2.0382
-3.4367 1.4224 2.0382
-3.5406 1.1414 2.0382
-3.6216 0.8528 2.0382
-3.6790 0.5587 2.0382
-3.7126 0.2608 2.0382
-3.7222 -0.0388 2.0382
-3.7076 -0.3382 2.0382
-3.6689 -0.6356 2.0382
-3.6064 -0.9289 2.0382
-3.5205 -1.2162 2.0382
-3.4117 -1.4958 2.0382
-3.2807 -1.7657 2.0382
-3.1284 -2.0241 2.0382
-2.9558 -2.2695 2.0382
-2.7639 -2.5002 2.0382
-2.5540 -2.7148 2.0382
-2.3276 -2.9116 2.0382
-0.7577 -1.1224 0.7404
-0.6649 -1.1795 0.7403
-0.5678 -1.2291 0.7401
-0.4671 -1.2707 0.7400
-0.3633 -1.3040 0.7400
-0.2572 -1.3289 0.7399
-0.1495 -1.3453 0.7399
-0.0408 -1.3529 0.7399
0.0682 -1.3518 0.7399
0.1767 -1.3420 0.7399
0.2841 -1.3234 0.7400
0.3897 -1.2964 0.7401
0.4927 -1.2609 0.7402
0.5926 -1.2173 0.7403
0.6887 -1.1658 0.7404
0.7804 -1.1067 0.7406
2.3854 -2.8629 2.0382
2.6077 -2.6614 2.0382
2.8130 -2.4426 2.0382
3.0000 -2.2081 2.0382
2.6775 -1.6562 1.7229
2.5778 -1.3204 1.5852
2.4923 -1.0328 1.4768
2.4174 -0.7804 1.3908
2.3503 -0.5546 1.3223
2.2891 -0.3487 1.2681
2.2324 -0.1579 1.2259
2.1791 0.0217 1.1939
2.1281 0.1932 1.1709
2.0788 0.3592 1.1561
2.0305 0.5221 1.1491
1.9824 0.6841 1.1496
1.9339 0.8471 1.1575
3.2737 1.7607 2.0382
3.1210 2.0183 2.0382
2.9480 2.2627 2.0382
2.7560 2.4924 2.0382
2.5462 2.7059 2.0382
2.3198 2.9019 2.0382
0.7613 1.1278 0.7466
0.6681 1.1856 0.7467
0.5706 1.2356 0.7468
0.4693 1.2777 0.7469
0.3649 1.3114 0.7470
0.2582 1.3366 0.7471
0.1497 1.3531 0.7471
