ply
format ascii 1.0
element vertex 2175
property float32 x
property float32 y
property float32 z
end_header
7.4612 -4.1773 1.9083
7.7939 -3.5726 1.9134
8.0741 -2.9401 1.9177
8.2993 -2.2846 1.9211
8.4673 -1.6112 1.9236
8.5766 -0.9252 1.9251
8.6261 -0.2318 1.9258
8.6156 0.4633 1.9255
8.5450 1.1546 1.9243
8.4150 1.8367 1.9222
8.2268 2.5042 1.9192
7.9823 3.1519 1.9153
7.6836 3.7749 1.9105
7.3335 4.3685 1.9050
6.9351 4.9284 1.8987
6.4889 5.4480 1.8909
6.0088 5.9325 1.8844
2.5055 7.6601 2.0384
1.8807 7.8369 2.0384
1.2438 7.9629 2.0384
0.5987 8.0372 2.0384
-0.0502 8.0593 2.0384
-0.6988 8.0291 2.0384
-1.3429 7.9468 2.0384
-1.9783 7.8129 2.0384
-2.6008 7.6283 2.0384
-3.2064 7.3942 2.0384
-3.7912 7.1120 2.0384
-4.3515 6.7838 2.0384
-4.8834 6.4115 2.0384
-5.3837 5.9975 2.0384
-5.8490 5.5447 2.0384
-6.2764 5.0558 2.0384
-6.6630 4.5342 2.0384
-7.0064 3.9831 2.0384
-7.3043 3.4062 2.0384
-7.5548 2.8071 2.0384
-7.7562 2.1898 2.0384
-7.9074 1.5584 2.0384
-8.0071 0.9168 2.0384
-8.0550 0.2692 2.0384
-8.0505 -0.3801 2.0384
-7.9938 -1.0269 2.0384
-7.8851 -1.6671 2.0384
-7.7254 -2.2964 2.0384
-7.5154 -2.9109 2.0384
-7.2567 -3.5064 2.0384
-6.9509 -4.0792 2.0384
-6.6000 -4.6255 2.0384
-6.2062 -5.1418 2.0384
-5.7721 -5.6247 2.0384
-5.3006 -6.0711 2.0384
-4.7947 -6.4781 2.0384
-4.2576 -6.8430 2.0384
-3.6929 -7.1636 2.0384
-3.1043 -7.4376 2.0384
-2.4955 -7.6634 2.0384
-1.8705 -7.8394 2.0384
-1.2333 -7.9645 2.0384
-0.5882 -8.0379 2.0384
0.0608 -8.0592 2.0384
0.7093 -8.0282 2.0384
1.3533 -7.9450 2.0384
1.9885 -7.8103 2.0384
2.6108 -7.6249 2.0384
3.2161 -7.3899 2.0384
3.8005 -7.1071 2.0384
4.0343 -6.2713 1.8860
4.5261 -5.9262 1.8860
4.9884 -5.5426 1.8860
5.4184 -5.1230 1.8860
5.8133 -4.6702 1.8860
6.1783 -4.1925 1.8884
6.5134 -3.6916 1.8936
6.8054 -3.1627 1.8980
7.0518 -2.6097 1.9017
7.2503 -2.0368 1.9047
7.3994 -1.4482 1.9070
7.4976 -0.8485 1.9084
7.5440 -0.2422 1.9090
7.5383 0.3658 1.9088
7.4805 0.9709 1.9078
7.3711 1.5685 1.9060
7.2111 2.1539 1.9035
7.0021 2.7226 1.9001
6.7457 3.2704 1.8960
6.4443 3.7933 1.8913
6.1005 4.2874 1.8859
5.7359 4.7649 1.8860
5.3338 5.2112 1.8860
4.8969 5.6236 1.8860
4.4283 5.9996 1.8860
3.9715 6.4019 1.9054
3.6836 7.1684 2.0384
3.0945 7.4417 2.0384
2.4855 7.6666 2.0384
1.8602 7.8418 2.0384
1.2229 7.9661 2.0384
0.5777 8.0387 2.0384
-0.0713 8.0591 2.0384
-0.7198 8.0272 2.0384
-1.3637 7.9433 2.0384
-1.9987 7.8077 2.0384
-2.6207 7.6215 2.0384
-3.2258 7.3857 2.0384
-3.8098 7.1021 2.0384
-4.3692 6.7724 2.0384
-4.9002 6.3987 2.0384
-5.3994 5.9834 2.0384
-5.8635 5.5294 2.0384
-6.2896 5.0394 2.0384
-6.6749 4.5167 2.0384
-7.0168 3.9647 2.0384
-7.3132 3.3870 2.0384
-7.5621 2.7873 2.0384
-7.7619 2.1695 2.0384
-7.9114 1.5377 2.0384
-8.0095 0.8958 2.0384
-8.0556 0.2481 2.0384
-8.0495 -0.4011 2.0384
-7.9910 -1.0478 2.0384
-7.8808 -1.6877 2.0384
-7.7193 -2.3166 2.0384
-7.5078 -2.9305 2.0384
-7.2475 -3.5254 2.0384
-6.9402 -4.0974 2.0384
-6.5878 -4.6428 2.0384
-6.1927 -5.1580 2.0384
-5.7574 -5.6398 2.0384
-5.2847 -6.0850 2.0384
-4.7777 -6.4906 2.0384
-4.2397 -6.8542 2.0384
-3.6742 -7.1732 2.0384
-3.0848 -7.4457 2.0384
-2.4754 -7.6699 2.0384
-1.8500 -7.8442 2.0384
-1.2125 -7.9677 2.0384
-0.5672 -8.0395 2.0384
0.0819 -8.0590 2.0384
0.7303 -8.0263 2.0384
1.3741 -7.9414 2.0384
2.0089 -7.8051 2.0384
2.6307 -7.6180 2.0384
3.2354 -7.3815 2.0384
3.8089 -7.0782 2.0329
4.0507 -6.2607 1.8860
4.5416 -5.9143 1.8860
5.0029 -5.5295 1.8860
5.4318 -5.1088 1.8860
5.8255 -4.6550 1.8860
6.1899 -4.1768 1.8886
6.5236 -3.6748 1.8937
6.8141 -3.1451 1.8981
7.0590 -2.5914 1.9018
7.2560 -2.0179 1.9048
7.4034 -1.4289 1.9070
7.4999 -0.8289 1.9084
7.5446 -0.2225 1.9090
7.5372 0.3855 1.9088
7.4777 0.9905 1.9078
7.3667 1.5877 1.9060
7.2051 2.1726 1.9034
6.9945 2.7407 1.9000
6.7366 3.2878 1.8959
6.4338 3.8098 1.8911
6.0887 4.3029 1.8857
5.7235 4.7799 1.8860
5.3201 5.2251 1.8860
4.8822 5.6364 1.8860
4.4126 6.0111 1.8860
3.9705 6.4377 1.9130
3.6648 7.1780 2.0384
3.0751 7.4497 2.0384
2.4654 7.6731 2.0384
1.8397 7.8467 2.0384
1.2021 7.9693 2.0384
0.5566 8.0402 2.0384
-0.0924 8.0589 2.0384
-0.7408 8.0253 2.0384
-1.3845 7.9396 2.0384
-2.0191 7.8024 2.0384
-2.6407 7.6146 2.0384
-3.2451 7.3773 2.0384
-3.8284 7.0921 2.0384
-4.3869 6.7609 2.0384
-4.9169 6.3858 2.0384
-5.4150 5.9693 2.0384
-5.8780 5.5140 2.0384
-6.3028 5.0229 2.0384
-6.6867 4.4992 2.0384
-7.0272 3.9464 2.0384
-7.3220 3.3679 2.0384
-7.5694 2.7675 2.0384
-7.7676 2.1492 2.0384
-7.9154 1.5169 2.0384
-8.0118 0.8748 2.0384
-8.0563 0.2271 2.0384
-8.0484 -0.4222 2.0384
-7.9883 -1.0687 2.0384
-7.8763 -1.7083 2.0384
-7.7132 -2.3368 2.0384
-7.5001 -2.9502 2.0384
-7.2383 -3.5443 2.0384
-6.9294 -4.1155 2.0384
-6.5757 -4.6600 2.0384
-6.1792 -5.1742 2.0384
-5.7426 -5.6548 2.0384
-5.2688 -6.0988 2.0384
-4.7607 -6.5031 2.0384
-4.2218 -6.8652 2.0384
-3.6554 -7.1828 2.0384
-3.0653 -7.4538 2.0384
-2.4554 -7.6763 2.0384
-1.8294 -7.8491 2.0384
-1.1917 -7.9709 2.0384
-0.5461 -8.0409 2.0384
0.1029 -8.0588 2.0384
0.7513 -8.0243 2.0384
1.3949 -7.9378 2.0384
2.0293 -7.7998 2.0384
2.6506 -7.6111 2.0384
3.2547 -7.3730 2.0384
3.8110 -7.0378 2.0242
4.0671 -6.2501 1.8860
4.5570 -5.9024 1.8860
5.0174 -5.5164 1.8860
5.4452 -5.0946 1.8860
5.8376 -4.6397 1.8860
6.2013 -4.1609 1.8888
6.5337 -3.6580 1.8939
6.8228 -3.1275 1.8983
7.0661 -2.5731 1.9020
7.2615 -1.9990 1.9049
7.4073 -1.4095 1.9071
7.5022 -0.8093 1.9084
7.5452 -0.2028 1.9090
7.5361 0.4052 1.9088
7.4749 1.0100 1.9077
7.3622 1.6069 1.9059
7.1990 2.1913 1.9033
6.9868 2.7588 1.8999
6.7275 3.3052 1.8958
6.4232 3.8263 1.8909
6.0784 4.3195 1.8860
5.7109 4.7948 1.8860
5.3064 5.2390 1.8860
2.2384 6.8436 2.0384
1.6803 7.0016 2.0384
1.1112 7.1142 2.0384
0.5349 7.1805 2.0384
-0.0449 7.2003 2.0384
-0.6244 7.1733 2.0384
-1.1998 7.0998 2.0384
-1.7674 6.9801 2.0384
-2.3236 6.8152 2.0384
-2.8647 6.6060 2.0384
-3.3871 6.3540 2.0384
-3.8877 6.0607 2.0384
-4.3629 5.7281 2.0384
-4.8099 5.3583 2.0384
-5.2256 4.9537 2.0384
-5.6074 4.5169 2.0384
-5.9528 4.0499 2.0384
-6.2596 3.5586 2.0384
-6.5258 3.0431 2.0384
-6.7496 2.5079 2.0384
-6.9295 1.9564 2.0384
-7.0645 1.3923 2.0384
-7.1537 0.8190 2.0384
-7.1964 0.2405 2.0384
-7.1924 -0.3396 2.0384
-7.1417 -0.9175 2.0384
-7.0447 -1.4894 2.0384
-6.9019 -2.0517 2.0384
-6.7144 -2.6006 2.0384
-6.4832 -3.1327 2.0384
-6.2100 -3.6445 2.0384
-5.8965 -4.1325 2.0384
-5.5447 -4.5938 2.0384
-5.1569 -5.0252 2.0384
-4.7356 -5.4240 2.0384
-4.2836 -5.7876 2.0384
-3.8038 -6.1137 2.0384
-3.2993 -6.3999 2.0384
-2.7734 -6.6449 2.0384
-2.2295 -6.8466 2.0384
-1.6711 -7.0038 2.0384
-1.1019 -7.1156 2.0384
-0.5255 -7.1812 2.0384
0.0543 -7.2002 2.0384
0.6337 -7.1725 2.0384
1.2091 -7.0982 2.0384
1.7765 -6.9778 2.0384
2.3325 -6.8121 2.0384
2.8733 -6.6023 2.0384
3.3955 -6.3495 2.0384
3.8263 -5.9479 2.0021
4.0437 -5.2945 1.8860
4.4567 -4.9518 1.8860
4.8409 -4.5770 1.8860
5.1936 -4.1724 1.8860
5.5127 -3.7408 1.8860
5.7959 -3.2849 1.8860
6.0415 -2.8077 1.8860
6.2592 -2.3164 1.8894
6.4343 -1.8075 1.8920
6.5657 -1.2850 1.8940
6.6523 -0.7528 1.8952
6.6932 -0.2149 1.8958
6.6882 0.3246 1.8956
6.6374 0.8615 1.8947
6.5410 1.3919 1.8932
6.4000 1.9116 1.8909
6.2157 2.4168 1.8880
5.9947 2.9063 1.8860
5.7413 3.3795 1.8860
5.4506 3.8307 1.8860
5.1246 4.2570 1.8860
4.7652 4.6557 1.8860
4.3750 5.0242 1.8860
3.9703 5.3790 1.8927
3.7958 6.1186 2.0384
3.2909 6.4044 2.0384
2.7647 6.6485 2.0384
2.2205 6.8495 2.0384
1.6620 7.0060 2.0384
1.0926 7.1171 2.0384
0.5161 7.1819 2.0384
-0.0637 7.2001 2.0384
-0.6431 7.1717 2.0384
-1.2183 7.0966 2.0384
-1.7857 6.9755 2.0384
-2.3414 6.8091 2.0384
-2.8819 6.5985 2.0384
-3.4038 6.3451 2.0384
-3.9035 6.0505 2.0384
-4.3779 5.7167 2.0384
-4.8239 5.3457 2.0384
-5.2385 4.9400 2.0384
-5.6192 4.5023 2.0384
-5.9634 4.0353 2.0384
-6.2689 3.5422 2.0384
-6.5337 3.0260 2.0384
-6.7561 2.4902 2.0384
-6.9346 1.9383 2.0384
-7.0681 1.3738 2.0384
-7.1558 0.8003 2.0384
-7.1970 0.2217 2.0384
-7.1915 -0.3584 2.0384
-7.1393 -0.9361 2.0384
-7.0408 -1.5078 2.0384
-6.8965 -2.0697 2.0384
-6.7075 -2.6182 2.0384
-6.4750 -3.1496 2.0384
-6.2005 -3.6607 2.0384
-5.8856 -4.1479 2.0384
-5.5326 -4.6083 2.0384
-5.1437 -5.0387 2.0384
-4.7214 -5.4364 2.0384
-4.2685 -5.7988 2.0384
-3.7878 -6.1236 2.0384
-3.2826 -6.4085 2.0384
-2.7560 -6.6521 2.0384
-2.2116 -6.8524 2.0384
-1.6528 -7.0082 2.0384
-1.0833 -7.1184 2.0384
-0.5067 -7.1826 2.0384
0.0731 -7.2000 2.0384
0.6525 -7.1708 2.0384
1.2276 -7.0950 2.0384
1.7948 -6.9731 2.0384
2.3503 -6.8060 2.0384
2.8906 -6.5947 2.0384
3.4121 -6.3406 2.0384
3.8280 -5.9164 1.9949
4.0575 -5.2839 1.8860
4.4697 -4.9402 1.8860
4.8529 -4.5643 1.8860
5.2045 -4.1588 1.8860
5.5224 -3.7264 1.8860
5.8045 -3.2697 1.8860
6.0496 -2.7922 1.8862
6.2656 -2.3001 1.8895
6.4393 -1.7907 1.8921
6.5693 -1.2679 1.8940
6.6543 -0.7354 1.8953
6.6938 -0.1974 1.8958
6.6873 0.3420 1.8956
6.6349 0.8788 1.8947
6.5371 1.4089 1.8931
6.3947 1.9282 1.8908
6.2090 2.4329 1.8878
5.9871 2.9220 1.8860
5.7324 3.3945 1.8860
5.4406 3.8449 1.8860
5.1134 4.2704 1.8860
4.7530 4.6682 1.8860
4.3618 5.0357 1.8860
3.9659 5.4026 1.8973
3.7798 6.1286 2.0384
3.2742 6.4129 2.0384
2.7473 6.6557 2.0384
2.2026 6.8552 2.0384
1.6436 7.0103 2.0384
1.0739 7.1199 2.0384
0.4973 7.1832 2.0384
-0.0825 7.2000 2.0384
-0.6619 7.1699 2.0384
-1.2369 7.0934 2.0384
-1.8039 6.9708 2.0384
-2.3592 6.8030 2.0384
-2.8992 6.5910 2.0384
-3.4204 6.3362 2.0384
-3.9193 6.0403 2.0384
-4.3928 5.7052 2.0384
-4.8378 5.3330 2.0384
-5.2515 4.9263 2.0384
-5.6310 4.4875 2.0384
-5.9740 4.0196 2.0384
-6.2782 3.5258 2.0384
-6.5416 3.0089 2.0384
-6.7626 2.4726 2.0384
-6.9397 1.9202 2.0384
-7.0717 1.3553 2.0384
-7.1579 0.7816 2.0384
-7.1976 0.2029 2.0384
-7.1905 -0.3772 2.0384
-7.1368 -0.9548 2.0384
-7.0368 -1.5262 2.0384
-6.8911 -2.0877 2.0384
-6.7007 -2.6357 2.0384
-6.4668 -3.1666 2.0384
-6.1909 -3.6769 2.0384
-5.8748 -4.1633 2.0384
-5.5206 -4.6227 2.0384
-5.1305 -5.0521 2.0384
-4.7072 -5.4487 2.0384
-4.2533 -5.8100 2.0384
-3.7718 -6.1335 2.0384
-3.2658 -6.4172 2.0384
-2.7386 -6.6593 2.0384
-2.1936 -6.8581 2.0384
-1.6345 -7.0125 2.0384
-1.0646 -7.1213 2.0384
-0.4879 -7.1839 2.0384
0.0920 -7.1998 2.0384
0.6713 -7.1691 2.0384
1.2462 -7.0918 2.0384
1.8130 -6.9684 2.0384
2.3681 -6.7999 2.0384
2.9078 -6.5871 2.0384
3.4286 -6.3317 2.0384
3.8296 -5.8852 1.9877
4.0713 -5.2733 1.8860
4.4826 -4.9285 1.8860
4.8648 -4.5516 1.8860
5.2154 -4.1452 1.8860
5.5322 -3.7119 1.8860
5.8130 -3.2545 1.8860
6.0572 -2.7765 1.8863
6.2719 -2.2838 1.8896
6.4442 -1.7740 1.8922
6.5727 -1.2507 1.8941
6.6563 -0.7180 1.8953
6.6943 -0.1799 1.8958
6.6863 0.3595 1.8956
6.6325 0.8962 1.8947
6.5332 1.4260 1.8930
6.3894 1.9449 1.8907
6.2023 2.4490 1.8877
5.9794 2.9376 1.8860
5.7235 3.4094 1.8860
5.4305 3.8591 1.8860
5.1022 4.2838 1.8860
4.7408 4.6806 1.8860
2.0197 6.1749 2.0384
1.5161 6.3174 2.0384
1.0026 6.4190 2.0384
0.4826 6.4789 2.0384
-0.0405 6.4967 2.0384
-0.5633 6.4724 2.0384
-1.0825 6.4060 2.0384
-1.5947 6.2981 2.0384
-2.0965 6.1492 2.0384
-2.5847 5.9605 2.0384
-3.0562 5.7331 2.0384
-3.5078 5.4685 2.0384
-3.9366 5.1684 2.0384
-4.3399 4.8347 2.0384
-4.7150 4.4697 2.0384
-5.0595 4.0756 2.0384
-5.3711 3.6551 2.0384
-5.6479 3.2108 2.0384
-5.8881 2.7457 2.0384
-6.0900 2.2628 2.0384
-6.2524 1.7653 2.0384
-6.3742 1.2562 2.0384
-6.4546 0.7390 2.0384
-6.4932 0.2170 2.0384
-6.4896 -0.3064 2.0384
-6.4439 -0.8278 2.0384
-6.3563 -1.3439 2.0384
-6.2275 -1.8512 2.0384
-6.0583 -2.3465 2.0384
-5.8497 -2.8266 2.0384
-5.6032 -3.2883 2.0384
-5.3203 -3.7287 2.0384
-5.0029 -4.1449 2.0384
-4.6530 -4.5341 2.0384
-4.2729 -4.8940 2.0384
-3.8650 -5.2221 2.0384
-3.4321 -5.5163 2.0384
-2.9769 -5.7746 2.0384
-2.5024 -5.9955 2.0384
-2.0116 -6.1775 2.0384
-1.5078 -6.3194 2.0384
-0.9942 -6.4203 2.0384
-0.4742 -6.4795 2.0384
0.0490 -6.4966 2.0384
0.5718 -6.4716 2.0384
1.0909 -6.4046 2.0384
1.6029 -6.2960 2.0384
2.1046 -6.1465 2.0384
2.5925 -5.9571 2.0384
3.0637 -5.7291 2.0384
3.5149 -5.4639 2.0384
3.8391 -5.0267 1.9845
4.0257 -4.4729 1.8881
4.3679 -4.1297 1.8860
4.6861 -3.7647 1.8860
4.9740 -3.3753 1.8860
5.2296 -2.9639 1.8860
5.4512 -2.5333 1.8860
5.6374 -2.0863 1.8860
5.7871 -1.6257 1.8860
5.8992 -1.1546 1.8860
5.9686 -0.6754 1.8846
6.0052 -0.1928 1.8851
6.0007 0.2912 1.8850
5.9611 0.7737 1.8860
5.8794 1.2511 1.8860
5.7596 1.7203 1.8860
5.6025 2.1784 1.8860
5.4089 2.6223 1.8860
5.1803 3.0492 1.8860
4.9180 3.4563 1.8860
4.6238 3.8410 1.8860
4.2996 4.2008 1.8860
3.9617 4.5496 1.8928
3.8582 5.2271 2.0384
3.4249 5.5207 2.0384
2.9694 5.7785 2.0384
2.4946 5.9988 2.0384
2.0036 6.1802 2.0384
1.4996 6.3214 2.0384
0.9858 6.4216 2.0384
0.4657 6.4801 2.0384
-0.0575 6.4966 2.0384
-0.5803 6.4709 2.0384
-1.0993 6.4031 2.0384
-1.6112 6.2939 2.0384
-2.1126 6.1437 2.0384
-2.6003 5.9537 2.0384
-3.0712 5.7251 2.0384
-3.5221 5.4593 2.0384
-3.9501 5.1580 2.0384
-4.3525 4.8233 2.0384
-4.7267 4.4573 2.0384
-5.0701 4.0623 2.0384
-5.3807 3.6410 2.0384
-5.6563 3.1960 2.0384
-5.8952 2.7303 2.0384
-6.0959 2.2469 2.0384
-6.2570 1.7489 2.0384
-6.3775 1.2395 2.0384
-6.4566 0.7221 2.0384
-6.4937 0.2000 2.0384
-6.4888 -0.3234 2.0384
-6.4417 -0.8447 2.0384
-6.3528 -1.3605 2.0384
-6.2226 -1.8675 2.0384
-6.0521 -2.3623 2.0384
-5.8423 -2.8418 2.0384
-5.5946 -3.3029 2.0384
-5.3105 -3.7426 2.0384
-4.9920 -4.1579 2.0384
-4.6411 -4.5463 2.0384
-4.2601 -4.9052 2.0384
-3.8514 -5.2322 2.0384
-3.4177 -5.5252 2.0384
-2.9618 -5.7824 2.0384
-2.4867 -6.0021 2.0384
-1.9955 -6.1828 2.0384
-1.4913 -6.3233 2.0384
-0.9774 -6.4229 2.0384
-0.4572 -6.4807 2.0384
0.0660 -6.4965 2.0384
0.5887 -6.4701 2.0384
1.1077 -6.4017 2.0384
1.6194 -6.2917 2.0384
2.1206 -6.1410 2.0384
2.6081 -5.9503 2.0384
3.0786 -5.7211 2.0384
3.5292 -5.4547 2.0384
3.8404 -5.0013 1.9784
4.0329 -4.4574 1.8860
4.3787 -4.1183 1.8860
4.6960 -3.7525 1.8860
4.9828 -3.3622 1.8860
5.2373 -2.9502 1.8860
5.4578 -2.5190 1.8860
5.6429 -2.0715 1.8860
5.7913 -1.6105 1.8860
5.9022 -1.1391 1.8860
5.9704 -0.6598 1.8846
6.0057 -0.1771 1.8851
5.9999 0.3069 1.8849
5.9590 0.7893 1.8860
5.8761 1.2665 1.8860
5.7551 1.7354 1.8860
5.5968 2.1930 1.8860
5.4021 2.6365 1.8860
5.1723 3.0628 1.8860
4.9089 3.4692 1.8860
4.6137 3.8531 1.8860
4.2886 4.2120 1.8860
3.9579 4.5694 1.8967
3.8445 5.2372 2.0384
3.4104 5.5297 2.0384
2.9542 5.7863 2.0384
2.4788 6.0053 2.0384
1.9874 6.1854 2.0384
1.4830 6.3253 2.0384
0.9690 6.4242 2.0384
0.4487 6.4813 2.0384
-0.0745 6.4964 2.0384
-0.5972 6.4693 2.0384
-1.1160 6.4002 2.0384
-1.6276 6.2896 2.0384
-2.1287 6.1382 2.0384
-2.6159 5.9469 2.0384
-3.0861 5.7170 2.0384
-3.5363 5.4500 2.0384
-3.9636 5.1477 2.0384
-4.3651 4.8119 2.0384
-4.7383 4.4449 2.0384
-5.0807 4.0490 2.0384
-5.3902 3.6269 2.0384
-5.6647 3.1812 2.0384
-5.9024 2.7149 2.0384
-6.1018 2.2310 2.0384
-6.2615 1.7325 2.0384
-6.3807 1.2228 2.0384
-6.4584 0.7052 2.0384
-6.4942 0.1830 2.0384
-6.4879 -0.3404 2.0384
-6.4394 -0.8615 2.0384
-6.3492 -1.3771 2.0384
-6.2177 -1.8837 2.0384
-6.0459 -2.3781 2.0384
-5.8348 -2.8571 2.0384
-5.5859 -3.3176 2.0384
-5.3007 -3.7565 2.0384
-4.9811 -4.1710 2.0384
-4.6292 -4.5584 2.0384
-4.2472 -4.9163 2.0384
-3.8377 -5.2422 2.0384
-3.4032 -5.5341 2.0384
-2.9467 -5.7901 2.0384
-2.4710 -6.0085 2.0384
-1.9793 -6.1880 2.0384
-1.4747 -6.3272 2.0384
-0.9606 -6.4254 2.0384
-0.4402 -6.4819 2.0384
0.0830 -6.4963 2.0384
0.6057 -6.4685 2.0384
1.1244 -6.3988 2.0384
1.6359 -6.2875 2.0384
2.1367 -6.1354 2.0384
2.6237 -5.9435 2.0384
3.0936 -5.7130 2.0384
3.5435 -5.4454 2.0384
3.8418 -4.9761 1.9724
4.0446 -4.4468 1.8860
4.3894 -4.1068 1.8860
4.7058 -3.7402 1.8860
4.9916 -3.3492 1.8860
5.2450 -2.9365 1.8860
5.4644 -2.5048 1.8860
5.6483 -2.0568 1.8860
5.7955 -1.5954 1.8860
5.9051 -1.1237 1.8860
5.9722 -0.6442 1.8847
6.0061 -0.1614 1.8851
5.9990 0.3226 1.8849
5.9569 0.8049 1.8860
5.8728 1.2818 1.8860
5.7506 1.7504 1.8860
5.5910 2.2077 1.8860
5.3951 2.6506 1.8860
5.1643 3.0763 1.8860
4.8999 3.4820 1.8860
4.6036 3.8652 1.8860
4.2776 4.2232 1.8860
1.8370 5.6163 2.0384
1.3789 5.7460 2.0384
0.9119 5.8383 2.0384
0.4390 5.8928 2.0384
-0.0368 5.9090 2.0384
-0.5124 5.8868 2.0384
-0.9846 5.8265 2.0384
-1.4504 5.7283 2.0384
-1.9069 5.5930 2.0384
-2.3509 5.4213 2.0384
-2.7797 5.2145 2.0384
-3.1904 4.9738 2.0384
-3.5805 4.7008 2.0384
-3.9473 4.3973 2.0384
-4.2884 4.0653 2.0384
-4.6018 3.7069 2.0384
-4.8853 3.3244 2.0384
-5.1370 2.9204 2.0384
-5.3554 2.4974 2.0384
-5.5391 2.0581 2.0384
-5.6868 1.6056 2.0384
-5.7976 1.1426 2.0384
-5.8707 0.6722 2.0384
-5.9058 0.1974 2.0384
-5.9025 -0.2787 2.0384
-5.8609 -0.7529 2.0384
-5.7813 -1.2223 2.0384
-5.6641 -1.6837 2.0384
-5.5102 -2.1342 2.0384
-5.3205 -2.5709 2.0384
-5.0963 -2.9908 2.0384
-4.8390 -3.3914 2.0384
-4.5503 -3.7699 2.0384
-4.2321 -4.1240 2.0384
-3.8863 -4.4513 2.0384
-3.5154 -4.7497 2.0384
-3.1216 -5.0172 2.0384
-2.7076 -5.2523 2.0384
-2.2760 -5.4532 2.0384
-1.8297 -5.6187 2.0384
-1.3714 -5.7478 2.0384
-0.9043 -5.8395 2.0384
-0.4313 -5.8933 2.0384
0.0446 -5.9089 2.0384
0.5201 -5.8862 2.0384
0.9922 -5.8252 2.0384
1.4579 -5.7264 2.0384
0.6947 -2.0288 0.7397
2.3580 -5.4182 2.0384
2.7865 -5.2108 2.0384
3.1969 -4.9696 2.0384
3.5866 -4.6961 2.0384
3.8470 -4.2743 1.9837
3.9727 -3.7562 1.8860
4.2622 -3.4242 1.8860
4.5240 -3.0699 1.8860
4.7565 -2.6958 1.8860
4.9581 -2.3041 1.8860
5.1274 -1.8975 1.8860
5.2636 -1.4786 1.8860
5.3655 -1.0501 1.8860
5.4326 -0.6148 1.8860
5.4645 -0.1755 1.8860
5.4609 0.2650 1.8860
5.4218 0.7037 1.8860
5.3476 1.1379 1.8860
5.2386 1.5647 1.8860
5.0957 1.9813 1.8860
4.9196 2.3851 1.8860
4.7117 2.7734 1.8860
4.4731 3.1437 1.8860
4.2055 3.4936 1.8860
3.9457 3.8551 1.9029
3.8805 4.4564 2.0384
3.5092 4.7543 2.0384
3.1151 5.0213 2.0384
2.7007 5.2558 2.0384
2.2689 5.4561 2.0384
1.8223 5.6211 2.0384
1.3639 5.7496 2.0384
0.8966 5.8407 2.0384
0.4235 5.8939 2.0384
-0.0523 5.9089 2.0384
-0.5278 5.8855 2.0384
-0.9998 5.8239 2.0384
-1.4654 5.7245 2.0384
-1.9215 5.5880 2.0384
-2.3651 5.4151 2.0384
-2.7933 5.2072 2.0384
-3.2034 4.9654 2.0384
-3.5928 4.6914 2.0384
-3.9588 4.3870 2.0384
-4.2991 4.0541 2.0384
-4.6115 3.6948 2.0384
-4.8939 3.3116 2.0384
-5.1446 2.9069 2.0384
-5.3620 2.4833 2.0384
-5.5445 2.0436 2.0384
-5.6910 1.5907 2.0384
-5.8006 1.1274 2.0384
-5.8725 0.6568 2.0384
-5.9063 0.1819 2.0384
-5.9018 -0.2943 2.0384
-5.8589 -0.7683 2.0384
-5.7781 -1.2374 2.0384
-5.6597 -1.6985 2.0384
-5.5046 -2.1486 2.0384
-5.3138 -2.5848 2.0384
-5.0885 -3.0042 2.0384
-4.8301 -3.4040 2.0384
-4.5404 -3.7818 2.0384
-4.2212 -4.1350 2.0384
-3.8747 -4.4614 2.0384
-3.5030 -4.7589 2.0384
-3.1085 -5.0254 2.0384
-2.6939 -5.2593 2.0384
-2.2618 -5.4591 2.0384
-1.8150 -5.6235 2.0384
-1.3564 -5.7513 2.0384
-0.8890 -5.8418 2.0384
-0.4158 -5.8944 2.0384
0.0600 -5.9088 2.0384
0.5355 -5.8848 2.0384
1.0075 -5.8226 2.0384
1.4729 -5.7226 2.0384
0.7000 -2.0270 0.7398
2.3722 -5.4121 2.0384
2.8001 -5.2035 2.0384
3.2099 -4.9612 2.0384
3.5989 -4.6868 2.0384
3.8481 -4.2532 1.9786
3.9826 -3.7458 1.8860
4.2712 -3.4130 1.8860
4.5320 -3.0581 1.8860
4.7635 -2.6834 1.8860
4.9641 -2.2912 1.8860
5.1324 -1.8841 1.8860
5.2674 -1.4648 1.8860
5.3682 -1.0361 1.8860
5.4342 -0.6006 1.8860
5.4649 -0.1612 1.8860
5.4602 0.2793 1.8860
5.4200 0.7179 1.8860
5.3446 1.1519 1.8860
5.2345 1.5784 1.8860
5.0905 1.9946 1.8860
4.9134 2.3980 1.8860
4.7044 2.7857 1.8860
4.4649 3.1554 1.8860
4.1964 3.5045 1.8860
3.9451 3.8746 1.9075
3.8688 4.4665 2.0384
3.4967 4.7634 2.0384
3.1019 5.0295 2.0384
2.6870 5.2629 2.0384
2.2546 5.4621 2.0384
1.8076 5.6258 2.0384
1.3489 5.7531 2.0384
0.8813 5.8430 2.0384
0.4081 5.8950 2.0384
-0.0677 5.9087 2.0384
-0.5432 5.8841 2.0384
-1.0151 5.8213 2.0384
-1.4804 5.7207 2.0384
-1.9361 5.5829 2.0384
-2.3792 5.4089 2.0384
-2.8069 5.1999 2.0384
-3.2164 4.9570 2.0384
-3.6050 4.6820 2.0384
-3.9702 4.3766 2.0384
-4.3097 4.0428 2.0384
-4.6211 3.6828 2.0384
-4.9026 3.2988 2.0384
-5.1522 2.8934 2.0384
-5.3684 2.4693 2.0384
-5.5498 2.0291 2.0384
-5.6951 1.5758 2.0384
-5.8035 1.1122 2.0384
-5.8742 0.6414 2.0384
-5.9068 0.1665 2.0384
-5.9010 -0.3098 2.0384
-5.8569 -0.7836 2.0384
-5.7748 -1.2525 2.0384
-5.6553 -1.7133 2.0384
-5.4990 -2.1630 2.0384
-5.3070 -2.5987 2.0384
-5.0806 -3.0174 2.0384
-4.8212 -3.4166 2.0384
-4.5305 -3.7937 2.0384
-4.2104 -4.1460 2.0384
-3.8630 -4.4715 2.0384
-3.4905 -4.7680 2.0384
-3.0954 -5.0335 2.0384
-2.6801 -5.2664 2.0384
-2.2475 -5.4650 2.0384
-1.8002 -5.6282 2.0384
-1.3413 -5.7548 2.0384
-0.8737 -5.8442 2.0384
-0.4004 -5.8955 2.0384
0.0755 -5.9086 2.0384
0.5509 -5.8834 2.0384
1.0227 -5.8199 2.0384
1.4879 -5.7187 2.0384
0.7053 -2.0252 0.7398
2.3863 -5.4058 2.0384
2.8137 -5.1962 2.0384
3.2229 -4.9528 2.0384
3.6111 -4.6773 2.0384
3.8493 -4.2321 1.9734
3.9923 -3.7353 1.8860
4.2801 -3.4018 1.8860
4.5400 -3.0463 1.8860
4.7705 -2.6709 1.8860
4.9700 -2.2782 1.8860
5.1373 -1.8707 1.8860
5.2712 -1.4511 1.8860
5.3709 -1.0220 1.8860
5.4358 -0.5864 1.8860
5.4653 -0.1469 1.8860
5.4594 0.2936 1.8860
5.4181 0.7321 1.8860
5.3415 1.1659 1.8860
5.2304 1.5921 1.8860
5.0852 2.0080 1.8860
4.9071 2.4108 1.8860
4.6971 2.7980 1.8860
4.4566 3.1670 1.8860
4.1872 3.5155 1.8860
3.9444 3.8943 1.9121
0.6163 1.8843 0.7470
0.4627 1.9280 0.7470
0.3060 1.9591 0.7471
0.4019 5.3952 2.0384
-0.0337 5.4100 2.0384
-0.1719 1.9755 0.7471
-0.3304 1.9551 0.7471
-0.4867 1.9220 0.7470
-0.6397 1.8764 0.7469
-2.1524 4.9635 2.0384
-2.5450 4.7741 2.0384
-2.9210 4.5538 2.0384
-3.2781 4.3038 2.0384
-3.6139 4.0260 2.0384
-3.9263 3.7220 2.0384
-4.2132 3.3939 2.0384
-4.4727 3.0437 2.0384
-4.7032 2.6737 2.0384
-4.9032 2.2865 2.0384
-5.0713 1.8843 2.0384
-5.2066 1.4700 2.0384
-5.3080 1.0461 2.0384
-5.3750 0.6154 2.0384
-5.4071 0.1807 2.0384
-5.4041 -0.2551 2.0384
-5.3660 -0.6893 2.0384
-5.2931 -1.1191 2.0384
-5.1858 -1.5415 2.0384
-5.0449 -1.9540 2.0384
-4.8712 -2.3538 2.0384
-4.6659 -2.7383 2.0384
-4.4304 -3.1050 2.0384
-4.1660 -3.4515 2.0384
-3.8747 -3.7757 2.0384
-3.5581 -4.0754 2.0384
-3.2185 -4.3486 2.0384
-2.8580 -4.5936 2.0384
-2.4790 -4.8087 2.0384
-0.7566 -1.8128 0.7401
-0.6082 -1.8676 0.7400
-0.4558 -1.9103 0.7400
-0.3005 -1.9406 0.7399
-0.1433 -1.9585 0.7399
0.0148 -1.9636 0.7399
0.1728 -1.9561 0.7399
0.3298 -1.9359 0.7399
0.4846 -1.9033 0.7400
0.6363 -1.8583 0.7401
2.1589 -4.9607 2.0384
2.5512 -4.7708 2.0384
2.9270 -4.5499 2.0384
3.2837 -4.2995 2.0384
3.6192 -4.0213 2.0384
3.8510 -3.6411 1.9968
3.9023 -3.1350 1.8860
4.1420 -2.8107 1.8860
4.3548 -2.4681 1.8860
4.5394 -2.1096 1.8860
4.6945 -1.7373 1.8860
4.8191 -1.3538 1.8860
4.9124 -0.9614 1.8860
4.9739 -0.5629 1.8860
5.0030 -0.1607 1.8860
4.9997 0.2426 1.8860
4.9640 0.6443 1.8860
4.8960 1.0418 1.8860
4.7962 1.4326 1.8860
4.6653 1.8140 1.8860
4.5042 2.1837 1.8860
4.3138 2.5392 1.8860
4.1010 2.8822 1.8886
3.9351 3.2689 1.9275
3.8697 3.7808 2.0384
3.5528 4.0800 2.0384
3.2128 4.3528 2.0384
2.8520 4.5973 2.0384
2.4727 4.8120 2.0384
0.7611 1.8303 0.7469
0.6114 1.8859 0.7470
0.4576 1.9292 0.7470
0.3009 1.9599 0.7471
0.3878 5.3962 2.0384
-0.0479 5.4099 2.0384
-0.1771 1.9750 0.7471
-0.3355 1.9542 0.7471
-0.4917 1.9207 0.7470
-0.6446 1.8747 0.7469
-2.1654 4.9579 2.0384
-2.5574 4.7675 2.0384
-2.9329 4.5461 2.0384
-3.2894 4.2953 2.0384
-3.6245 4.0165 2.0384
-3.9360 3.7117 2.0384
-4.2220 3.3828 2.0384
-4.4807 3.0320 2.0384
-4.7102 2.6614 2.0384
-4.9091 2.2736 2.0384
-5.0762 1.8711 2.0384
-5.2104 1.4564 2.0384
-5.3107 1.0322 2.0384
-5.3766 0.6013 2.0384
-5.4075 0.1666 2.0384
-5.4034 -0.2693 2.0384
-5.3642 -0.7034 2.0384
-5.2901 -1.1329 2.0384
-5.1818 -1.5551 2.0384
-5.0398 -1.9672 2.0384
-4.8651 -2.3665 2.0384
-4.6588 -2.7505 2.0384
-4.4222 -3.1166 2.0384
-4.1570 -3.4624 2.0384
-3.8648 -3.7859 2.0384
-3.5475 -4.0847 2.0384
-3.2071 -4.3570 2.0384
-2.8460 -4.6010 2.0384
-2.4664 -4.8152 2.0384
-0.7519 -1.8148 0.7401
-0.6033 -1.8692 0.7400
-0.4508 -1.9115 0.7400
-0.2954 -1.9414 0.7399
-0.1382 -1.9588 0.7399
0.0199 -1.9636 0.7399
0.1779 -1.9556 0.7399
0.3348 -1.9351 0.7399
0.4895 -1.9020 0.7400
0.6411 -1.8566 0.7401
2.1718 -4.9550 2.0384
2.5637 -4.7641 2.0384
2.9389 -4.5423 2.0384
3.2950 -4.2909 2.0384
3.6297 -4.0118 2.0384
3.8520 -3.6230 1.9924
3.9105 -3.1248 1.8860
4.1493 -2.7998 1.8860
4.3613 -2.4567 1.8860
4.5449 -2.0977 1.8860
4.6990 -1.7250 1.8860
4.8226 -1.3411 1.8860
4.9149 -0.9486 1.8860
4.9753 -0.5499 1.8860
5.0034 -0.1476 1.8860
4.9991 0.2557 1.8860
4.9623 0.6573 1.8860
4.8932 1.0546 1.8860
4.7925 1.4451 1.8860
4.6606 1.8262 1.8860
4.4985 2.1955 1.8860
4.3071 2.5505 1.8860
4.0878 2.8889 1.8860
3.9346 3.2859 1.9314
3.8598 3.7909 2.0384
3.5421 4.0893 2.0384
3.2014 4.3612 2.0384
2.8400 4.6048 2.0384
2.4601 4.8184 2.0384
0.7563 1.8323 0.7469
0.6065 1.8875 0.7470
0.4526 1.9304 0.7470
0.2957 1.9607 0.7471
0.3737 5.3972 2.0384
-0.0620 5.4098 2.0384
-0.1823 1.9745 0.7471
-0.3406 1.9533 0.7471
-0.4967 1.9194 0.7470
-0.6495 1.8730 0.7469
-2.1783 4.9522 2.0384
-2.5699 4.7607 2.0384
-2.9448 4.5384 2.0384
-3.3006 4.2866 2.0384
-3.6350 4.0070 2.0384
-3.9457 3.7014 2.0384
-4.2309 3.3718 2.0384
-4.4886 3.0202 2.0384
-4.7171 2.6491 2.0384
-4.9151 2.2608 2.0384
-5.0811 1.8578 2.0384
-5.2142 1.4427 2.0384
-5.3134 1.0183 2.0384
-5.3781 0.5873 2.0384
-5.4079 0.1524 2.0384
-5.4027 -0.2834 2.0384
-5.3623 -0.7174 2.0384
-5.2872 -1.1468 2.0384
-5.1777 -1.5687 2.0384
-5.0346 -1.9804 2.0384
-4.8588 -2.3792 2.0384
-4.6515 -2.7626 2.0384
-4.4141 -3.1281 2.0384
-4.1479 -3.4733 2.0384
-3.8549 -3.7959 2.0384
-3.5368 -4.0940 2.0384
-3.1957 -4.3654 2.0384
-2.8340 -4.6084 2.0384
-2.4538 -4.8216 2.0384
-0.7471 -1.8167 0.7401
-0.5984 -1.8707 0.7400
-0.4458 -1.9126 0.7400
-0.2904 -1.9422 0.7399
-0.1331 -1.9592 0.7399
0.0251 -1.9635 0.7399
0.1831 -1.9552 0.7399
0.3399 -1.9342 0.7399
0.4945 -1.9007 0.7400
0.6460 -1.8549 0.7401
2.1848 -4.9493 2.0384
2.5761 -4.7574 2.0384
2.9507 -4.5346 2.0384
3.3062 -4.2823 2.0384
3.6402 -4.0023 2.0384
3.8530 -3.6050 1.9881
3.9186 -3.1145 1.8860
4.1566 -2.7890 1.8860
4.3677 -2.4453 1.8860
4.5503 -2.0858 1.8860
4.7035 -1.7127 1.8860
4.8261 -1.3285 1.8860
4.9174 -0.9357 1.8860
4.9767 -0.5368 1.8860
5.0038 -0.1345 1.8860
4.9984 0.2688 1.8860
4.9605 0.6703 1.8860
4.8905 1.0674 1.8860
4.7887 1.4576 1.8860
4.6558 1.8384 1.8860
4.4927 2.2072 1.8860
4.3004 2.5617 1.8860
4.0803 2.8996 1.8860
3.9340 3.3030 1.9354
3.8499 3.8010 2.0384
0.5672 1.7340 0.7467
0.4258 1.7742 0.7467
0.2816 1.8028 0.7468
0.1356 1.8197 0.7468
-0.0114 1.8247 0.7468
-0.1582 1.8179 0.7468
-0.3040 1.7992 0.7468
-0.4478 1.7687 0.7467
-0.5887 1.7267 0.7467
-0.7257 1.6735 0.7466
-2.3429 4.3950 2.0384
-2.6891 4.1922 2.0384
-3.0178 3.9621 2.0384
-3.3270 3.7063 2.0384
-3.6145 3.4264 2.0384
-3.8786 3.1243 2.0384
-4.1175 2.8020 2.0384
-4.3297 2.4614 2.0384
-4.5138 2.1049 2.0384
-4.6686 1.7347 2.0384
-4.7931 1.3533 2.0384
-4.8865 0.9630 2.0384
-4.9482 0.5665 2.0384
-4.9777 0.1664 2.0384
-4.9749 -0.2349 2.0384
-4.9399 -0.6346 2.0384
-4.8728 -1.0302 2.0384
-4.7740 -1.4191 2.0384
-4.6443 -1.7988 2.0384
-4.4844 -2.1668 2.0384
-4.2954 -2.5208 2.0384
-4.0786 -2.8584 2.0384
-3.8352 -3.1775 2.0384
-3.5670 -3.4759 2.0384
-3.2756 -3.7518 2.0384
-2.9630 -4.0033 2.0384
-2.6311 -4.2288 2.0384
-2.2821 -4.4269 2.0384
-0.6968 -1.6695 0.7404
-0.5601 -1.7199 0.7403
-0.4198 -1.7593 0.7402
-0.2768 -1.7872 0.7402
-0.1320 -1.8036 0.7402
0.0136 -1.8084 0.7401
0.1592 -1.8015 0.7402
0.3037 -1.7829 0.7402
0.4463 -1.7528 0.7403
0.5860 -1.7113 0.7403
0.7219 -1.6588 0.7404
2.3486 -4.3920 2.0384
2.6945 -4.1886 2.0384
3.0230 -3.9581 2.0384
3.3318 -3.7019 2.0384
3.6190 -3.4217 2.0384
3.8520 -3.0946 2.0223
3.8762 -2.6305 1.9172
4.0090 -2.2722 1.8860
4.1789 -1.9421 1.8860
4.3217 -1.5993 1.8860
4.4364 -1.2463 1.8860
4.5223 -0.8851 1.8860
4.5789 -0.5182 1.8860
4.6057 -0.1479 1.8860
4.6027 0.2233 1.8860
4.5698 0.5932 1.8860
4.5072 0.9591 1.8860
4.4154 1.3188 1.8860
4.2949 1.6700 1.8860
4.1465 2.0103 1.8860
3.9712 2.3375 1.8860
3.9233 2.7573 1.9626
3.8311 3.1825 2.0384
3.5624 3.4806 2.0384
3.2707 3.7560 2.0384
2.9577 4.0071 2.0384
2.6255 4.2322 2.0384
2.2763 4.4299 2.0384
0.7004 1.6843 0.7466
0.5626 1.7355 0.7467
0.4211 1.7753 0.7468
0.2769 1.8036 0.7468
0.1308 1.8201 0.7468
-0.0161 1.8247 0.7468
-0.1630 1.8175 0.7468
-0.3087 1.7984 0.7468
-0.4525 1.7675 0.7467
-0.5932 1.7252 0.7467
-0.7301 1.6716 0.7466
-2.3544 4.3889 2.0384
-2.7000 4.1851 2.0384
-3.0282 3.9542 2.0384
-3.3366 3.6976 2.0384
-3.6235 3.4170 2.0384
-3.8868 3.1142 2.0384
-4.1249 2.7912 2.0384
-4.3362 2.4501 2.0384
-4.5193 2.0931 2.0384
-4.6731 1.7225 2.0384
-4.7966 1.3407 2.0384
-4.8890 0.9502 2.0384
-4.9496 0.5536 2.0384
-4.9781 0.1533 2.0384
-4.9743 -0.2479 2.0384
-4.9382 -0.6475 2.0384
-4.8701 -1.0430 2.0384
-4.7703 -1.4316 2.0384
-4.6396 -1.8110 2.0384
-4.4787 -2.1786 2.0384
-4.2888 -2.5321 2.0384
-4.0711 -2.8691 2.0384
-3.8269 -3.1875 2.0384
-3.5579 -3.4852 2.0384
-3.2658 -3.7603 2.0384
-2.9525 -4.0110 2.0384
-2.6200 -4.2357 2.0384
-2.2705 -4.4328 2.0384
-0.6924 -1.6713 0.7404
-0.5556 -1.7214 0.7403
-0.4152 -1.7604 0.7402
-0.2721 -1.7879 0.7402
-0.1273 -1.8040 0.7402
0.0184 -1.8083 0.7401
0.1639 -1.8010 0.7402
0.3083 -1.7821 0.7402
0.4508 -1.7516 0.7403
0.5904 -1.7098 0.7403
0.7263 -1.6570 0.7404
2.3601 -4.3858 2.0384
2.7055 -4.1816 2.0384
3.0333 -3.9502 2.0384
3.3415 -3.6932 2.0384
3.6279 -3.4122 2.0384
3.8528 -3.0787 2.0185
3.8769 -2.6161 1.9142
4.0149 -2.2617 1.8860
4.1840 -1.9311 1.8860
4.3258 -1.5880 1.8860
4.4396 -1.2347 1.8860
4.5246 -0.8733 1.8860
4.5802 -0.5062 1.8860
4.6061 -0.1358 1.8860
4.6021 0.2354 1.8860
4.5682 0.6051 1.8860
4.5047 0.9709 1.8860
4.4119 1.3304 1.8860
4.2905 1.6812 1.8860
4.1412 2.0211 1.8860
3.9651 2.3479 1.8860
3.9229 2.7723 1.9660
3.8227 3.1925 2.0384
3.5533 3.4899 2.0384
3.2609 3.7646 2.0384
2.9472 4.0149 2.0384
2.6145 4.2391 2.0384
2.2647 4.4358 2.0384
0.6960 1.6862 0.7466
0.5581 1.7369 0.7467
0.4165 1.7764 0.7468
0.2722 1.8043 0.7468
0.1260 1.8204 0.7468
-0.0209 1.8247 0.7468
-0.1677 1.8170 0.7468
-0.3134 1.7975 0.7468
-0.4571 1.7663 0.7467
-0.5977 1.7236 0.7466
-0.7344 1.6697 0.7465
-2.3658 4.3827 2.0384
-2.7110 4.1780 2.0384
-3.0385 3.9462 2.0384
-3.3463 3.6888 2.0384
-3.6324 3.4075 2.0384
-3.8949 3.1040 2.0384
-4.1321 2.7804 2.0384
-4.3426 2.4387 2.0384
-4.5248 2.0812 2.0384
-4.6776 1.7103 2.0384
-4.8001 1.3282 2.0384
-4.8915 0.9374 2.0384
-4.9511 0.5406 2.0384
-4.9785 0.1403 2.0384
-4.9736 -0.2609 2.0384
-4.9365 -0.6604 2.0384
-4.8673 -1.0557 2.0384
-4.7665 -1.4441 2.0384
-4.6348 -1.8231 2.0384
-4.4730 -2.1903 2.0384
-4.2822 -2.5433 2.0384
-4.0636 -2.8797 2.0384
-3.8185 -3.1975 2.0384
-3.5488 -3.4945 2.0384
-3.2559 -3.7688 2.0384
-2.9420 -4.0187 2.0384
-2.6089 -4.2425 2.0384
-2.2589 -4.4387 2.0384
-0.6880 -1.6731 0.7404
-0.5511 -1.7228 0.7403
-0.4106 -1.7614 0.7402
-0.2674 -1.7886 0.7402
-0.1225 -1.8043 0.7402
0.0231 -1.8083 0.7401
0.1686 -1.8006 0.7402
0.3130 -1.7813 0.7402
0.4554 -1.7504 0.7403
0.5949 -1.7083 0.7403
0.7306 -1.6551 0.7404
2.3716 -4.3796 2.0384
2.7164 -4.1745 2.0384
3.0437 -3.9422 2.0384
3.3511 -3.6844 2.0384
3.6369 -3.4027 2.0384
3.8537 -3.0630 2.0147
3.8776 -2.6019 1.9112
4.0208 -2.2512 1.8860
4.1890 -1.9202 1.8860
4.3300 -1.5767 1.8860
4.4429 -1.2230 1.8860
4.5269 -0.8614 1.8860
4.5815 -0.4942 1.8860
4.6065 -0.1238 1.8860
4.6015 0.2474 1.8860
4.5666 0.6170 1.8860
4.5021 0.9827 1.8860
4.4084 1.3419 1.8860
4.2861 1.6924 1.8860
4.1359 2.0320 1.8860
3.9589 2.3583 1.8860
3.9224 2.7874 1.9694
3.8144 3.2025 2.0384
3.5442 3.4992 2.0384
0.5244 1.6032 0.7464
0.3936 1.6403 0.7465
0.2603 1.6668 0.7465
0.1253 1.6824 0.7466
-0.0105 1.6870 0.7466
-0.1463 1.6807 0.7466
-0.2811 1.6634 0.7465
-0.4141 1.6352 0.7465
-0.5443 1.5964 0.7464
-0.6710 1.5473 0.7463
-2.1668 4.0647 2.0384
-2.4870 3.8771 2.0384
-2.7910 3.6643 2.0384
-3.0769 3.4278 2.0384
-3.3429 3.1689 2.0384
-3.5871 2.8895 2.0384
-3.8081 2.5914 2.0384
-4.0043 2.2764 2.0384
-4.1746 1.9467 2.0384
-4.3178 1.6043 2.0384
-4.4329 1.2516 2.0384
-4.5193 0.8906 2.0384
-4.5763 0.5240 2.0384
-4.6036 0.1538 2.0384
-4.6011 -0.2172 2.0384
-4.5686 -0.5869 2.0384
-4.5066 -0.9528 2.0384
-4.4152 -1.3125 2.0384
-4.2952 -1.6638 2.0384
-4.1474 -2.0040 2.0384
-3.9726 -2.3314 2.0384
-3.7720 -2.6436 2.0384
-3.5470 -2.9387 2.0384
-3.2989 -3.2147 2.0384
-3.0294 -3.4698 2.0384
-2.7403 -3.7024 2.0384
-2.4333 -3.9110 2.0384
-0.7670 -1.4878 0.7407
-0.6446 -1.5445 0.7406
-0.5182 -1.5912 0.7405
-0.3883 -1.6276 0.7405
-0.2560 -1.6535 0.7404
-0.1221 -1.6686 0.7404
0.0126 -1.6730 0.7404
0.1473 -1.6666 0.7404
0.2810 -1.6494 0.7404
0.4129 -1.6216 0.7405
0.5421 -1.5832 0.7406
0.6679 -1.5346 0.7407
2.1721 -4.0619 2.0384
2.4920 -3.8738 2.0384
2.7958 -3.6607 2.0384
3.0814 -3.4237 2.0384
3.3470 -3.1645 2.0384
3.5909 -2.8848 2.0384
3.8115 -2.5864 2.0384
3.8711 -2.1940 1.9691
3.8904 -1.8080 1.8985
3.9969 -1.4792 1.8860
4.1030 -1.1526 1.8860
4.1824 -0.8186 1.8860
4.2348 -0.4792 1.8860
4.2596 -0.1368 1.8860
4.2568 0.2066 1.8860
4.2263 0.5486 1.8860
4.1685 0.8870 1.8860
4.0835 1.2197 1.8860
3.9721 1.5445 1.8860
3.9209 1.9009 1.9283
3.9103 2.3017 2.0079
3.7686 2.6485 2.0384
3.5431 2.9433 2.0384
3.2947 3.2190 2.0384
3.0249 3.4738 2.0384
2.7354 3.7060 2.0384
2.4282 3.9142 2.0384
0.7707 1.4999 0.7462
0.6476 1.5573 0.7464
0.5202 1.6045 0.7464
0.3894 1.6413 0.7465
0.2560 1.6675 0.7466
0.1209 1.6827 0.7466
-0.0149 1.6870 0.7466
-0.1507 1.6803 0.7466
-0.2854 1.6626 0.7465
-0.4183 1.6341 0.7465
-0.5485 1.5950 0.7464
-0.6750 1.5455 0.7463
-2.1774 4.0590 2.0384
-2.4971 3.8706 2.0384
-2.8006 3.6570 2.0384
-3.0859 3.4197 2.0384
-3.3512 3.1602 2.0384
-3.5947 2.8802 2.0384
-3.8149 2.5814 2.0384
-4.0103 2.2660 2.0384
-4.1797 1.9358 2.0384
-4.3219 1.5930 2.0384
-4.4362 1.2400 2.0384
-4.5216 0.8788 2.0384
-4.5776 0.5120 2.0384
-4.6040 0.1418 2.0384
-4.6005 -0.2293 2.0384
-4.5671 -0.5989 2.0384
-4.5041 -0.9646 2.0384
-4.4118 -1.3240 2.0384
-4.2909 -1.6748 2.0384
-4.1421 -2.0148 2.0384
-3.9665 -2.3418 2.0384
-3.7651 -2.6535 2.0384
-3.5393 -2.9479 2.0384
-3.2905 -3.2233 2.0384
-3.0203 -3.4777 2.0384
-2.7306 -3.7096 2.0384
-2.4231 -3.9173 2.0384
-0.7631 -1.4898 0.7407
-0.6406 -1.5462 0.7406
-0.5140 -1.5925 0.7405
-0.3841 -1.6286 0.7405
-0.2517 -1.6541 0.7404
-0.1177 -1.6690 0.7404
0.0170 -1.6730 0.7404
0.1516 -1.6662 0.7404
0.2853 -1.6487 0.7404
0.4171 -1.6205 0.7405
0.5462 -1.5818 0.7406
0.6719 -1.5329 0.7407
2.1827 -4.0562 2.0384
2.5022 -3.8673 2.0384
2.8054 -3.6533 2.0384
3.0904 -3.4156 2.0384
3.3553 -3.1558 2.0384
3.5984 -2.8754 2.0384
3.8182 -2.5764 2.0384
3.8717 -2.1810 1.9665
3.8920 -1.7965 1.8970
4.0007 -1.4687 1.8860
4.1060 -1.1419 1.8860
4.1846 -0.8076 1.8860
4.2360 -0.4681 1.8860
4.2599 -0.1256 1.8860
4.2562 0.2177 1.8860
4.2249 0.5596 1.8860
4.1661 0.8979 1.8860
4.0846 1.2317 1.8880
3.9680 1.5549 1.8860
3.9206 1.9134 1.9306
3.9099 2.3152 2.0108
3.7616 2.6584 2.0384
3.5354 2.9526 2.0384
3.2863 3.2276 2.0384
3.0158 3.4817 2.0384
2.7257 3.7131 2.0384
2.4180 3.9205 2.0384
0.7668 1.5019 0.7462
0.6435 1.5590 0.7464
0.5160 1.6059 0.7464
0.3851 1.6424 0.7465
0.2516 1.6681 0.7466
0.1165 1.6830 0.7466
-0.0193 1.6870 0.7466
-0.1551 1.6799 0.7466
-0.2898 1.6619 0.7465
-0.4226 1.6330 0.7465
-0.5526 1.5936 0.7464
-0.6790 1.5437 0.7463
-2.1880 4.0533 2.0384
-2.5072 3.8640 2.0384
-2.8101 3.6497 2.0384
-3.0948 3.4116 2.0384
-3.3594 3.1514 2.0384
-3.6022 2.8707 2.0384
-3.8216 2.5714 2.0384
-4.0162 2.2555 2.0384
-4.1847 1.9248 2.0384
-4.3261 1.5817 2.0384
-4.4394 1.2284 2.0384
-4.5239 0.8670 2.0384
-4.5790 0.5000 2.0384
-4.6043 0.1297 2.0384
-4.5998 -0.2414 2.0384
-4.5655 -0.6108 2.0384
-4.5015 -0.9764 2.0384
-4.4083 -1.3356 2.0384
-4.2865 -1.6862 2.0384
-4.1368 -2.0257 2.0384
-3.9604 -2.3521 2.0384
-3.7582 -2.6633 2.0384
-3.5316 -2.9572 2.0384
-3.2821 -3.2319 2.0384
-3.0112 -3.4856 2.0384
-2.7209 -3.7167 2.0384
-2.4128 -3.9237 2.0384
-0.7592 -1.4918 0.7407
-0.6365 -1.5478 0.7406
-0.5098 -1.5939 0.7405
-0.3798 -1.6296 0.7405
-0.2474 -1.6548 0.7404
-0.1134 -1.6693 0.7404
0.0214 -1.6730 0.7404
0.1560 -1.6658 0.7404
0.2896 -1.6480 0.7404
0.4213 -1.6194 0.7405
0.5504 -1.5804 0.7406
0.6759 -1.5311 0.7407
2.1933 -4.0504 2.0384
2.5123 -3.8607 2.0384
2.8149 -3.6460 2.0384
3.0993 -3.4075 2.0384
3.3635 -3.1470 2.0384
3.6059 -2.8660 2.0384
3.8250 -2.5665 2.0384
3.8723 -2.1680 1.9639
3.8936 -1.7851 1.8955
4.0046 -1.4582 1.8860
4.1090 -1.1311 1.8860
4.1867 -0.7967 1.8860
4.2372 -0.4571 1.8860
4.2603 -0.1145 1.8860
4.2557 0.2288 1.8860
4.2234 0.5707 1.8860
4.1638 0.9088 1.8860
4.0837 1.2431 1.8890
3.9640 1.5651 1.8860
3.9203 1.9260 1.9329
3.9095 2.3288 2.0138
3.7547 2.6682 2.0384
3.5277 2.9618 2.0384
3.2778 3.2362 2.0384
0.4867 1.4880 0.7462
0.3654 1.5225 0.7463
0.2416 1.5471 0.7463
0.1163 1.5616 0.7464
-0.0098 1.5659 0.7464
-0.1358 1.5600 0.7463
-0.2609 1.5439 0.7463
-0.3843 1.5178 0.7463
-0.5052 1.4818 0.7462
-0.6228 1.4362 0.7461
-0.7363 1.3812 0.7460
-2.3091 3.5997 2.0384
-2.5913 3.4022 2.0384
-2.8568 3.1825 2.0384
-3.1037 2.9422 2.0384
-3.3305 2.6828 2.0384
-3.5357 2.4060 2.0384
-3.7179 2.1136 2.0384
-3.8760 1.8074 2.0384
-4.0089 1.4896 2.0384
-4.1158 1.1620 2.0384
-4.1960 0.8269 2.0384
-4.2489 0.4865 2.0384
-4.2743 0.1429 2.0384
-4.2719 -0.2017 2.0384
-4.2418 -0.5449 2.0384
-4.1842 -0.8846 2.0384
-4.0994 -1.2186 2.0384
-3.9880 -1.5446 2.0384
-3.8507 -1.8606 2.0384
-3.6884 -2.1646 2.0384
-3.5022 -2.4545 2.0384
-3.2932 -2.7284 2.0384
-3.0629 -2.9847 2.0384
-2.8127 -3.2216 2.0384
-2.5442 -3.4375 2.0384
-2.2593 -3.6312 2.0384
-0.7123 -1.3817 0.7409
-0.5987 -1.4344 0.7408
-0.4812 -1.4778 0.7408
-0.3607 -1.5116 0.7407
-0.2378 -1.5356 0.7406
-0.1134 -1.5497 0.7406
0.0117 -1.5538 0.7406
0.1368 -1.5479 0.7406
0.2609 -1.5319 0.7407
0.3834 -1.5060 0.7407
0.5035 -1.4704 0.7408
0.6203 -1.4252 0.7409
0.7331 -1.3709 0.7410
2.3138 -3.5967 2.0384
2.5958 -3.3988 2.0384
2.8610 -3.1788 2.0384
3.1076 -2.9382 2.0384
3.3340 -2.6785 2.0384
3.5388 -2.4014 2.0384
3.7206 -2.1087 2.0384
3.8638 -1.7956 2.0308
3.8785 -1.4354 1.9712
3.8904 -1.0929 1.9261
3.9037 -0.7641 1.8959
3.9318 -0.4449 1.8860
3.9549 -0.1270 1.8860
3.9523 0.1918 1.8860
3.9259 0.5096 1.8869
3.9138 0.8328 1.9072
3.9102 1.1679 1.9451
3.9043 1.5181 1.9966
3.8483 1.8657 2.0384
3.6856 2.1694 2.0384
3.4990 2.4591 2.0384
3.2897 2.7328 2.0384
3.0590 2.9887 2.0384
2.8085 3.2253 2.0384
2.5397 3.4409 2.0384
2.2545 3.6342 2.0384
0.7154 1.3922 0.7460
0.6011 1.4455 0.7461
0.4828 1.4893 0.7462
0.3614 1.5235 0.7463
0.2376 1.5477 0.7463
0.1122 1.5619 0.7464
-0.0139 1.5659 0.7464
-0.1399 1.5596 0.7463
-0.2649 1.5432 0.7463
-0.3883 1.5168 0.7463
-0.5091 1.4805 0.7462
-0.6265 1.4345 0.7461
-0.7399 1.3793 0.7460
-2.3185 3.5937 2.0384
-2.6002 3.3954 2.0384
-2.8651 3.1751 2.0384
-3.1114 2.9341 2.0384
-3.3375 2.6741 2.0384
-3.5420 2.3968 2.0384
-3.7234 2.1039 2.0384
-3.8807 1.7973 2.0384
-4.0128 1.4791 2.0384
-4.1188 1.1513 2.0384
-4.1981 0.8160 2.0384
-4.2502 0.4753 2.0384
-4.2746 0.1317 2.0384
-4.2714 -0.2129 2.0384
-4.2404 -0.5560 2.0384
-4.1818 -0.8956 2.0384
-4.0962 -1.2293 2.0384
-3.9839 -1.5551 2.0384
-3.8458 -1.8707 2.0384
-3.6827 -2.1742 2.0384
-3.4958 -2.4636 2.0384
-3.2861 -2.7370 2.0384
-3.0551 -2.9927 2.0384
-2.8043 -3.2289 2.0384
-2.5352 -3.4442 2.0384
-2.2498 -3.6371 2.0384
-0.7087 -1.3836 0.7409
-0.5949 -1.4359 0.7408
-0.4773 -1.4790 0.7408
-0.3567 -1.5125 0.7407
-0.2338 -1.5362 0.7406
-0.1094 -1.5500 0.7406
0.0158 -1.5538 0.7406
0.1408 -1.5475 0.7406
0.2649 -1.5312 0.7407
0.3874 -1.5050 0.7407
0.5073 -1.4691 0.7408
0.6240 -1.4236 0.7409
0.7367 -1.3690 0.7410
2.3232 -3.5907 2.0384
2.6047 -3.3920 2.0384
2.8693 -3.1713 2.0384
3.1153 -2.9300 2.0384
3.3410 -2.6697 2.0384
3.5451 -2.3921 2.0384
3.7261 -2.0990 2.0384
3.8643 -1.7836 2.0286
3.8790 -1.4240 1.9695
3.8908 -1.0820 1.9248
3.9044 -0.7537 1.8953
3.9330 -0.4347 1.8860
3.9552 -0.1167 1.8860
3.9518 0.2022 1.8860
3.9255 0.5200 1.8874
3.9137 0.8434 1.9082
3.9101 1.1790 1.9465
3.9040 1.5298 1.9985
3.8434 1.8757 2.0384
3.6799 2.1790 2.0384
3.4925 2.4682 2.0384
3.2825 2.7414 2.0384
3.0512 2.9967 2.0384
2.8000 3.2326 2.0384
2.5307 3.4475 2.0384
2.2450 3.6401 2.0384
0.7118 1.3941 0.7461
0.5973 1.4470 0.7461
0.4789 1.4906 0.7462
0.3574 1.5244 0.7463
0.2335 1.5483 0.7463
0.1082 1.5622 0.7464
-0.0180 1.5658 0.7464
-0.1439 1.5593 0.7463
-0.2690 1.5425 0.7463
-0.3923 1.5158 0.7463
-0.5130 1.4791 0.7462
-0.6303 1.4329 0.7461
-0.7435 1.3773 0.7460
-2.3279 3.5876 2.0384
-2.6091 3.3886 2.0384
-2.8734 3.1675 2.0384
-3.1191 2.9260 2.0384
-3.3445 2.6654 2.0384
-3.5482 2.3875 2.0384
-3.7289 2.0941 2.0384
-3.8854 1.7871 2.0384
-4.0166 1.4686 2.0384
-4.1218 1.1405 2.0384
-4.2002 0.8050 2.0384
-4.2514 0.4642 2.0384
-4.2750 0.1205 2.0384
-4.2708 -0.2240 2.0384
-4.2389 -0.5671 2.0384
-4.1795 -0.9065 2.0384
-4.0930 -1.2400 2.0384
-3.9798 -1.5655 2.0384
-3.8409 -1.8808 2.0384
-3.6770 -2.1839 2.0384
-3.4893 -2.4728 2.0384
-3.2789 -2.7456 2.0384
-3.0473 -3.0007 2.0384
-2.7958 -3.2362 2.0384
-2.5262 -3.4508 2.0384
-2.2402 -3.6430 2.0384
-0.7051 -1.3854 0.7409
-0.5912 -1.4375 0.7408
-0.4735 -1.4803 0.7407
-0.3528 -1.5134 0.7407
-0.2298 -1.5368 0.7406
-0.1053 -1.5503 0.7406
0.0198 -1.5537 0.7406
0.1449 -1.5471 0.7406
0.2689 -1.5305 0.7407
0.3913 -1.5040 0.7407
0.5112 -1.4677 0.7408
0.6277 -1.4220 0.7409
0.7403 -1.3670 0.7410
2.3326 -3.5846 2.0384
2.6135 -3.3851 2.0384
2.8776 -3.1638 2.0384
3.1229 -2.9219 2.0384
3.3480 -2.6610 2.0384
3.5513 -2.3828 2.0384
3.7316 -2.0892 2.0384
3.8648 -1.7716 2.0264
3.8794 -1.4126 1.9678
3.8911 -1.0712 1.9236
3.9051 -0.7431 1.8947
3.9341 -0.4244 1.8860
3.9555 -0.1063 1.8860
3.9512 0.2124 1.8860
3.9251 0.5304 1.8878
3.9136 0.8541 1.9093
3.9099 1.1901 1.9480
3.9038 1.5415 2.0005
3.8384 1.8858 2.0384
3.6742 2.1887 2.0384
3.4861 2.4773 2.0384
3.2753 2.7499 2.0384
3.0433 3.0047 2.0384
0.4533 1.3858 0.7460
0.3403 1.4179 0.7461
0.2250 1.4408 0.7461
0.1083 1.4543 0.7462
-0.0091 1.4583 0.7462
-0.1265 1.4528 0.7462
-0.2430 1.4379 0.7461
-0.3579 1.4136 0.7461
-0.4705 1.3800 0.7460
-0.5800 1.3375 0.7459
-0.6857 1.2864 0.7458
-2.1510 3.3533 2.0384
-2.4140 3.1693 2.0384
-2.6613 2.9647 2.0384
-2.8913 2.7408 2.0384
-3.1025 2.4992 2.0384
-3.2936 2.2413 2.0384
-3.4634 1.9689 2.0384
-3.6106 1.6837 2.0384
-3.7345 1.3876 2.0384
-3.8340 1.0825 2.0384
-3.9087 0.7703 2.0384
-3.9581 0.4532 2.0384
-3.9817 0.1331 2.0384
-3.9795 -0.1879 2.0384
-3.9514 -0.5076 2.0384
-3.8978 -0.8241 2.0384
-3.8188 -1.1352 2.0384
-3.7150 -1.4389 2.0384
-3.5871 -1.7333 2.0384
-3.4359 -2.0164 2.0384
-3.2625 -2.2865 2.0384
-3.0678 -2.5417 2.0384
-2.8533 -2.7804 2.0384
-2.6202 -3.0011 2.0384
-2.3701 -3.2022 2.0384
-0.7653 -1.2300 0.7412
-0.6637 -1.2874 0.7411
-0.5578 -1.3365 0.7410
-0.4484 -1.3770 0.7409
-0.3361 -1.4085 0.7409
-0.2216 -1.4309 0.7408
-0.1057 -1.4440 0.7408
0.0109 -1.4478 0.7408
0.1274 -1.4423 0.7408
0.2431 -1.4274 0.7409
0.3573 -1.4033 0.7409
0.4691 -1.3701 0.7410
0.5779 -1.3280 0.7410
0.6831 -1.2773 0.7411
0.7838 -1.2184 0.7412
2.4181 -3.1661 2.0384
2.6651 -2.9612 2.0384
2.8949 -2.7370 2.0384
3.1058 -2.4951 2.0384
3.2966 -2.2370 2.0384
3.4659 -1.9644 2.0384
3.6128 -1.6790 2.0384
3.7363 -1.3827 2.0384
3.8354 -1.0774 2.0384
3.8763 -0.7586 2.0210
3.8835 -0.4395 1.9997
3.8885 -0.1249 1.9906
3.8912 0.1888 1.9933
3.8917 0.5051 2.0079
3.8901 0.8277 2.0349
3.8173 1.1402 2.0384
3.7131 1.4438 2.0384
3.5848 1.7380 2.0384
3.4333 2.0209 2.0384
3.2595 2.2907 2.0384
3.0645 2.5457 2.0384
2.8496 2.7841 2.0384
2.6162 3.0045 2.0384
2.3659 3.2053 2.0384
0.7684 1.2386 0.7458
0.6663 1.2966 0.7459
0.5598 1.3462 0.7460
0.4497 1.3870 0.7460
0.3366 1.4188 0.7461
0.2213 1.4414 0.7461
0.1045 1.4546 0.7462
-0.0129 1.4583 0.7462
-0.1303 1.4525 0.7462
-0.2467 1.4372 0.7461
-0.3616 1.4126 0.7461
-0.4741 1.3788 0.7460
-0.5835 1.3360 0.7459
-0.6891 1.2845 0.7458
-2.1598 3.3477 2.0384
-2.4222 3.1630 2.0384
-2.6690 2.9577 2.0384
-2.8984 2.7333 2.0384
-3.1091 2.4911 2.0384
-3.2995 2.2327 2.0384
-3.4685 1.9598 2.0384
-3.6150 1.6743 2.0384
-3.7381 1.3778 2.0384
-3.8369 1.0724 2.0384
-3.9107 0.7601 2.0384
-3.9592 0.4428 2.0384
-3.9820 0.1226 2.0384
-3.9790 -0.1983 2.0384
-3.9501 -0.5180 2.0384
-3.8956 -0.8343 2.0384
-3.8158 -1.1451 2.0384
-3.7112 -1.4486 2.0384
-3.5826 -1.7427 2.0384
-3.4306 -2.0254 2.0384
-3.2565 -2.2950 2.0384
-3.0611 -2.5497 2.0384
-2.8460 -2.7878 2.0384
-2.6123 -3.0079 2.0384
-2.3617 -3.2084 2.0384
-0.7621 -1.2320 0.7412
-0.6603 -1.2892 0.7411
-0.5543 -1.3380 0.7410
-0.4448 -1.3781 0.7409
-0.3324 -1.4093 0.7409
-0.2178 -1.4315 0.7408
-0.1019 -1.4443 0.7408
0.0147 -1.4478 0.7408
0.1312 -1.4419 0.7408
0.2469 -1.4268 0.7409
0.3609 -1.4023 0.7409
0.4727 -1.3688 0.7410
0.5814 -1.3265 0.7410
0.6864 -1.2755 0.7411
2.1641 -3.3449 2.0384
2.4264 -3.1598 2.0384
2.6729 -2.9542 2.0384
2.9020 -2.7294 2.0384
3.1123 -2.4870 2.0384
3.3024 -2.2284 2.0384
3.4711 -1.9553 2.0384
3.6172 -1.6695 2.0384
3.7399 -1.3729 2.0384
3.8383 -1.0674 2.0384
3.8766 -0.7482 2.0201
3.8837 -0.4292 1.9992
3.8886 -0.1147 1.9905
3.8912 0.1990 1.9936
3.8917 0.5155 2.0086
3.8900 0.8384 2.0360
3.8143 1.1502 2.0384
3.7093 1.4535 2.0384
3.5803 1.7474 2.0384
3.4280 2.0299 2.0384
3.2535 2.2993 2.0384
3.0578 2.5537 2.0384
2.8423 2.7916 2.0384
2.6084 3.0113 2.0384
2.3575 3.2115 2.0384
0.7651 1.2406 0.7458
0.6629 1.2983 0.7459
0.5563 1.3476 0.7460
0.4460 1.3882 0.7460
0.3329 1.4197 0.7461
0.2175 1.4420 0.7461
0.1007 1.4548 0.7462
-0.0167 1.4582 0.7462
-0.1341 1.4521 0.7462
-0.2505 1.4366 0.7461
-0.3653 1.4117 0.7461
-0.4777 1.3775 0.7460
-0.5870 1.3345 0.7459
-0.6924 1.2827 0.7458
-2.1685 3.3420 2.0384
-2.4305 3.1566 2.0384
-2.6767 2.9507 2.0384
-2.9056 2.7257 2.0384
-3.1156 2.4829 2.0384
-3.3053 2.2241 2.0384
-3.4736 1.9508 2.0384
-3.6194 1.6648 2.0384
-3.7417 1.3680 2.0384
-3.8396 1.0624 2.0384
-3.9127 0.7499 2.0384
-3.9604 0.4324 2.0384
-3.9823 0.1122 2.0384
-3.9784 -0.2087 2.0384
-3.9487 -0.5283 2.0384
-3.8934 -0.8444 2.0384
-3.8128 -1.1551 2.0384
-3.7074 -1.4583 2.0384
-3.5780 -1.7520 2.0384
-3.4253 -2.0344 2.0384
-3.2505 -2.3035 2.0384
-3.0545 -2.5577 2.0384
-2.8387 -2.7953 2.0384
-2.6044 -3.0147 2.0384
-2.3533 -3.2146 2.0384
-0.7588 -1.2340 0.7412
-0.6569 -1.2909 0.7411
-0.5508 -1.3394 0.7410
-0.4412 -1.3793 0.7409
-0.3287 -1.4102 0.7409
-0.2141 -1.4320 0.7408
-0.0981 -1.4446 0.7408
0.0185 -1.4478 0.7408
0.1350 -1.4416 0.7408
0.2506 -1.4261 0.7409
0.3646 -1.4014 0.7409
0.4763 -1.3676 0.7410
0.5849 -1.3250 0.7410
0.6897 -1.2737 0.7411
2.1729 -3.3392 2.0384
2.4346 -3.1534 2.0384
2.6806 -2.9472 2.0384
2.9091 -2.7219 2.0384
3.1188 -2.4788 2.0384
3.3082 -2.2197 2.0384
3.4762 -1.9462 2.0384
3.6216 -1.6601 2.0384
3.7434 -1.3631 2.0384
3.8410 -1.0574 2.0384
3.8768 -0.7377 2.0192
3.8839 -0.4190 1.9987
3.8887 -0.1045 1.9904
3.8913 0.2092 1.9939
3.8917 0.5258 2.0093
3.8899 0.8490 2.0371
3.8113 1.1601 2.0384
3.7055 1.4632 2.0384
3.5757 1.7567 2.0384
3.4227 2.0389 2.0384
3.2474 2.3078 2.0384
3.0511 2.5617 2.0384
2.8350 2.7990 2.0384
0.4234 1.2943 0.7459
0.3178 1.3243 0.7459
0.2102 1.3457 0.7460
0.1012 1.3582 0.7460
-0.0085 1.3620 0.7460
-0.1181 1.3569 0.7460
-0.2269 1.3429 0.7459
-0.3343 1.3202 0.7459
-0.4394 1.2889 0.7458
-0.5417 1.2492 0.7458
-0.6405 1.2014 0.7457
-0.7350 1.1458 0.7456
-2.2551 2.9607 2.0384
-2.4861 2.7695 2.0384
-2.7010 2.5604 2.0384
-2.8983 2.3347 2.0384
-3.0769 2.0938 2.0384
-3.2354 1.8393 2.0384
-3.3730 1.5729 2.0384
-3.4887 1.2963 2.0384
-3.5817 1.0112 2.0384
-3.6515 0.7196 2.0384
-3.6975 0.4233 2.0384
-3.7196 0.1243 2.0384
-3.7176 -0.1755 2.0384
-3.6914 -0.4742 2.0384
-3.6412 -0.7698 2.0384
-3.5674 -1.0604 2.0384
-3.4705 -1.3442 2.0384
-3.3510 -1.6192 2.0384
-3.2098 -1.8837 2.0384
-3.0477 -2.1360 2.0384
-2.8659 -2.3744 2.0384
-2.6655 -2.5974 2.0384
-2.4477 -2.8035 2.0384
-2.2141 -2.9915 2.0384
-0.7151 -1.1493 0.7414
-0.6201 -1.2030 0.7413
-0.5212 -1.2488 0.7412
-0.4190 -1.2866 0.7411
-0.3140 -1.3161 0.7411
-0.2070 -1.3370 0.7410
-0.0987 -1.3493 0.7410
0.0102 -1.3529 0.7410
0.1191 -1.3477 0.7410
0.2272 -1.3338 0.7410
0.3338 -1.3112 0.7411
0.4383 -1.2802 0.7411
0.5400 -1.2409 0.7412
0.6382 -1.1935 0.7413
0.7323 -1.1384 0.7414
2.2589 -2.9577 2.0384
2.4897 -2.7663 2.0384
2.7043 -2.5569 2.0384
2.9014 -2.3309 2.0384
3.0796 -2.0898 2.0384
3.2378 -1.8351 2.0384
3.3750 -1.5685 2.0384
3.4904 -1.2917 2.0384
3.5830 -1.0065 2.0384
3.6524 -0.7148 2.0384
3.6981 -0.4185 2.0384
3.7198 -0.1194 2.0384
3.7173 0.1804 2.0384
3.6907 0.4791 2.0384
3.6402 0.7746 2.0384
3.5660 1.0651 2.0384
3.4687 1.3487 2.0384
3.3489 1.6236 2.0384
3.2073 1.8879 2.0384
3.0449 2.1400 2.0384
2.8628 2.3781 2.0384
2.6621 2.6009 2.0384
2.4440 2.8067 2.0384
2.2102 2.9944 2.0384
0.7177 1.1568 0.7456
0.6223 1.2110 0.7457
0.5228 1.2573 0.7458
0.4200 1.2954 0.7459
0.3143 1.3251 0.7459
0.2067 1.3462 0.7460
0.0976 1.3585 0.7460
-0.0121 1.3620 0.7460
-0.1216 1.3566 0.7460
-0.2304 1.3423 0.7459
-0.3377 1.3193 0.7459
-0.4428 1.2878 0.7458
-0.5450 1.2478 0.7458
-0.6436 1.1997 0.7457
-0.7380 1.1439 0.7456
-2.2628 2.9548 2.0384
-2.4933 2.7630 2.0384
-2.7077 2.5534 2.0384
-2.9044 2.3271 2.0384
-3.0823 2.0857 2.0384
-3.2402 1.8308 2.0384
-3.3771 1.5641 2.0384
