ply
format ascii 1.0
element vertex 2184
property float32 x
property float32 y
property float32 z
end_header
2.3287 5.4310 2.0384
1.8841 5.6008 2.0384
1.4274 5.7342 2.0384
0.9613 5.8305 2.0384
0.4891 5.8889 2.0384
0.0137 5.9092 2.0384
-0.4618 5.8911 2.0384
-0.9344 5.8348 2.0384
-1.4008 5.7407 2.0384
-1.8582 5.6094 2.0384
-2.3035 5.4417 2.0384
-2.7339 5.2387 2.0384
-3.1465 5.0018 2.0384
-3.5388 4.7324 2.0384
-3.9081 4.4323 2.0384
-4.2521 4.1035 2.0384
-4.5684 3.7480 2.0384
-4.8552 3.3683 2.0384
-5.1105 2.9667 2.0384
-5.3326 2.5459 2.0384
-5.5202 2.1086 2.0384
-5.6719 1.6575 2.0384
-5.7869 1.1958 2.0384
-5.8644 0.7263 2.0384
-5.9038 0.2521 2.0384
-5.9049 -0.2238 2.0384
-5.8678 -0.6982 2.0384
-5.7926 -1.1680 2.0384
-5.6798 -1.6303 2.0384
-5.5302 -2.0821 2.0384
-5.3448 -2.5203 2.0384
-5.1246 -2.9422 2.0384
-4.8713 -3.3450 2.0384
-4.5864 -3.7261 2.0384
-4.2717 -4.0830 2.0384
-3.9293 -4.4135 2.0384
-3.5614 -4.7154 2.0384
-3.1705 -4.9866 2.0384
-2.7590 -5.2255 2.0384
-2.3296 -5.4306 2.0384
-0.6841 -2.0324 0.7397
-1.4283 -5.7339 2.0384
-0.9623 -5.8303 2.0384
-0.4901 -5.8888 2.0384
-0.0146 -5.9091 2.0384
0.4609 -5.8912 2.0384
0.9334 -5.8349 2.0384
1.3999 -5.7410 2.0384
0.6740 -2.0358 0.7397
2.3026 -5.4421 2.0384
2.7330 -5.2392 2.0384
3.1457 -5.0023 2.0384
3.5380 -4.7329 2.0384
3.8422 -4.3591 2.0044
3.9335 -3.7973 1.8860
4.2263 -3.4685 1.8860
4.4917 -3.1172 1.8860
4.7279 -2.7457 1.8860
4.9335 -2.3563 1.8860
5.1071 -1.9517 1.8860
5.2476 -1.5345 1.8860
5.3541 -1.1073 1.8860
5.4258 -0.6729 1.8860
5.4624 -0.2341 1.8860
5.4635 0.2062 1.8860
5.4292 0.6451 1.8860
5.3597 1.0798 1.8860
5.2554 1.5076 1.8860
5.1171 1.9256 1.8860
4.9455 2.3310 1.8860
4.7420 2.7214 1.8860
4.5076 3.0942 1.8860
4.2440 3.4468 1.8860
3.9581 3.7820 1.8885
3.9267 4.4091 2.0367
3.5622 4.7148 2.0384
3.1713 4.9861 2.0384
4.9026 -1.0105 1.8860
4.9680 -0.6128 1.8860
5.0012 -0.2110 1.8860
5.0020 0.1921 1.8860
4.9703 0.5939 1.8860
4.9064 0.9919 1.8860
4.8107 1.3835 1.8860
4.6838 1.7661 1.8860
4.5265 2.1372 1.8860
4.3399 2.4945 1.8860
4.1251 2.8356 1.8860
3.9373 3.2020 1.9121
3.9091 3.7402 2.0384
3.5955 4.0426 2.0384
3.2585 4.3188 2.0384
2.9005 4.5670 2.0384
2.5236 4.7855 2.0384
0.7805 1.8220 0.7468
0.6315 1.8792 0.7469
0.4783 1.9241 0.7470
0.3219 1.9565 0.7471
0.4460 5.3917 2.0384
0.0107 5.4102 2.0384
-0.4246 5.3935 2.0384
-0.3142 1.9578 0.7471
-0.4706 1.9260 0.7470
-0.6240 1.8817 0.7469
-2.1106 4.9815 2.0384
-2.5046 4.7955 2.0384
-2.8823 4.5784 2.0384
-3.2414 4.3317 2.0384
-3.5794 4.0568 2.0384
-3.8942 3.7556 2.0384
-4.1838 3.4301 2.0384
-4.4462 3.0824 2.0384
-4.6798 2.7146 2.0384
-4.8831 2.3293 2.0384
-5.0547 1.9288 2.0384
-5.1935 1.5158 2.0384
-5.2986 1.0931 2.0384
-5.3694 0.6632 2.0384
-5.4053 0.2290 2.0384
-5.4062 -0.2067 2.0384
-5.3721 -0.6410 2.0384
-5.3031 -1.0712 2.0384
-5.1997 -1.4944 2.0384
-5.0626 -1.9079 2.0384
-4.8926 -2.3091 2.0384
-4.6910 -2.6953 2.0384
-4.4589 -3.0640 2.0384
-4.1979 -3.4128 2.0384
-3.9097 -3.7395 2.0384
-3.5961 -4.0420 2.0384
-3.2592 -4.3182 2.0384
-2.9012 -4.5665 2.0384
-2.5244 -4.7851 2.0384
-0.7738 -1.8056 0.7401
-0.6260 -1.8617 0.7400
-0.4741 -1.9059 0.7400
-0.3192 -1.9377 0.7399
-0.1622 -1.9570 0.7399
-0.0042 -1.9637 0.7399
0.1538 -1.9577 0.7399
0.3108 -1.9390 0.7399
0.4659 -1.9079 0.7400
0.6180 -1.8644 0.7400
0.7661 -1.8089 0.7402
2.5038 -4.7959 2.0384
2.8816 -4.5789 2.0384
3.2407 -4.3322 2.0384
3.5787 -4.0574 2.0384
3.8471 -3.7115 2.0141
3.8827 -3.1844 1.8920
4.1133 -2.8526 1.8860
4.3295 -2.5124 1.8860
4.5176 -2.1559 1.8860
4.6765 -1.7854 1.8860
4.8049 -1.4033 1.8860
4.9023 -1.0122 1.8860
4.9678 -0.6144 1.8860
5.0012 -0.2127 1.8860
5.0021 0.1904 1.8860
4.9705 0.5923 1.8860
4.9067 0.9903 1.8860
4.8112 1.3819 1.8860
4.6844 1.7645 1.8860
4.5272 2.1357 1.8860
4.3407 2.4931 1.8860
4.1260 2.8342 1.8860
3.9374 3.1999 1.9116
3.9103 3.7389 2.0384
3.5968 4.0414 2.0384
3.2600 4.3177 2.0384
2.9020 4.5660 2.0384
2.5252 4.7847 2.0384
0.7811 1.8218 0.7468
0.6321 1.8790 0.7469
0.4789 1.9240 0.7470
0.3226 1.9564 0.7471
0.4478 5.3916 2.0384
0.0125 5.4101 2.0384
-0.4229 5.3936 2.0384
-0.3135 1.9579 0.7471
-0.4700 1.9262 0.7470
-0.6234 1.8819 0.7469
-0.7727 1.8254 0.7468
-2.5030 4.7963 2.0384
-2.8808 4.5794 2.0384
-3.2399 4.3327 2.0384
-3.5781 4.0580 2.0384
-3.8930 3.7569 2.0384
-4.1827 3.4315 2.0384
-4.4452 3.0838 2.0384
-4.6789 2.7162 2.0384
-4.8823 2.3309 2.0384
-5.0540 1.9305 2.0384
-5.1930 1.5176 2.0384
-5.2982 1.0948 2.0384
-5.3691 0.6650 2.0384
-5.4052 0.2308 2.0384
-5.4063 -0.2049 2.0384
-5.3723 -0.6392 2.0384
-5.3034 -1.0694 2.0384
-5.2002 -1.4927 2.0384
-5.0632 -1.9062 2.0384
-4.8934 -2.3075 2.0384
-4.6919 -2.6937 2.0384
-4.4599 -3.0625 2.0384
-4.1990 -3.4114 2.0384
-3.9109 -3.7382 2.0384
-3.5975 -4.0408 2.0384
-3.2607 -4.3172 2.0384
-2.9027 -4.5655 2.0384
-2.5260 -4.7843 2.0384
-0.7744 -1.8053 0.7401
-0.6266 -1.8615 0.7400
-0.4747 -1.9057 0.7400
-0.3198 -1.9376 0.7399
-0.1629 -1.9569 0.7399
-0.0049 -1.9637 0.7399
0.1532 -1.9577 0.7399
0.3102 -1.9391 0.7399
0.4653 -1.9080 0.7400
0.6173 -1.8646 0.7400
0.7655 -1.8092 0.7402
2.5022 -4.7967 2.0384
2.8801 -4.5799 2.0384
3.2392 -4.3333 2.0384
3.5774 -4.0586 2.0384
3.8470 -3.7138 2.0147
3.8824 -3.1858 1.8923
4.1124 -2.8540 1.8860
4.3287 -2.5138 1.8860
4.5169 -2.1574 1.8860
4.6759 -1.7869 1.8860
4.8045 -1.4049 1.8860
4.9019 -1.0138 1.8860
4.9676 -0.6161 1.8860
5.0011 -0.2143 1.8860
5.0021 0.1888 1.8860
4.9707 0.5906 1.8860
4.9071 0.9887 1.8860
4.8116 1.3803 1.8860
4.6850 1.7629 1.8860
4.5279 2.1342 1.8860
4.3415 2.4916 1.8860
4.1270 2.8329 1.8860
3.9374 3.1978 1.9112
3.9116 3.7376 2.0384
3.5981 4.0402 2.0384
3.2614 4.3166 2.0384
2.9035 4.5650 2.0384
4.5133 -0.9303 1.8860
4.5735 -0.5641 1.8860
4.6041 -0.1943 1.8860
4.6048 0.1768 1.8860
4.5756 0.5468 1.8860
4.5168 0.9132 1.8860
4.4287 1.2736 1.8860
4.3119 1.6258 1.8860
4.1671 1.9675 1.8860
3.9952 2.2964 1.8860
3.9252 2.6982 1.9494
3.8640 3.1425 2.0384
3.5987 3.4432 2.0384
3.3100 3.7216 2.0384
2.9998 3.9759 2.0384
2.6701 4.2043 2.0384
2.3232 4.4055 2.0384
0.7183 1.6768 0.7466
0.5811 1.7293 0.7467
0.4401 1.7707 0.7467
0.2962 1.8005 0.7468
0.1504 1.8185 0.7468
0.0036 1.8248 0.7468
-0.1432 1.8191 0.7468
-0.2891 1.8016 0.7468
-0.4331 1.7724 0.7467
-0.5743 1.7316 0.7467
-0.7116 1.6796 0.7466
-2.3057 4.4147 2.0384
-2.6535 4.2148 2.0384
-2.9840 3.9877 2.0384
-3.2952 3.7347 2.0384
-3.5850 3.4574 2.0384
-3.8516 3.1578 2.0384
-4.0932 2.8376 2.0384
-4.3082 2.4991 2.0384
-4.4953 2.1443 2.0384
-4.6533 1.7756 2.0384
-4.7811 1.3955 2.0384
-4.8778 1.0063 2.0384
-4.9430 0.6105 2.0384
-4.9761 0.2108 2.0384
-4.9769 -0.1903 2.0384
-4.9455 -0.5901 2.0384
-4.8820 -0.9861 2.0384
-4.7868 -1.3757 2.0384
-4.6606 -1.7564 2.0384
-4.5041 -2.1257 2.0384
-4.3185 -2.4813 2.0384
-4.1048 -2.8207 2.0384
-3.8646 -3.1418 2.0384
-3.5992 -3.4426 2.0384
-3.3106 -3.7210 2.0384
-3.0004 -3.9753 2.0384
-2.6708 -4.2039 2.0384
-2.3239 -4.4051 2.0384
-0.7126 -1.6628 0.7404
-0.5765 -1.7145 0.7403
-0.4366 -1.7552 0.7402
-0.2939 -1.7845 0.7402
-0.1494 -1.8023 0.7402
-0.0039 -1.8084 0.7401
0.1416 -1.8029 0.7402
0.2863 -1.7857 0.7402
0.4291 -1.7570 0.7402
0.5691 -1.7170 0.7403
0.7055 -1.6659 0.7404
2.3050 -4.4151 2.0384
2.6528 -4.2153 2.0384
2.9833 -3.9882 2.0384
3.2946 -3.7352 2.0384
3.5844 -3.4580 2.0384
3.8486 -3.1564 2.0371
3.8734 -2.6862 1.9292
3.9857 -2.3129 1.8860
4.1589 -1.9847 1.8860
4.3051 -1.6436 1.8860
4.4234 -1.2919 1.8860
4.5130 -0.9318 1.8860
4.5733 -0.5656 1.8860
4.6040 -0.1958 1.8860
4.6048 0.1753 1.8860
4.5758 0.5452 1.8860
4.5171 0.9117 1.8860
4.4291 1.2721 1.8860
4.3124 1.6244 1.8860
4.1677 1.9661 1.8860
3.9960 2.2951 1.8860
3.9252 2.6963 1.9490
3.8651 3.1412 2.0384
3.5998 3.4420 2.0384
3.3112 3.7205 2.0384
3.0011 3.9748 2.0384
2.6715 4.2034 2.0384
2.3247 4.4048 2.0384
0.7188 1.6765 0.7466
0.5817 1.7291 0.7467
0.4407 1.7705 0.7467
0.2968 1.8004 0.7468
0.1510 1.8185 0.7468
0.0042 1.8248 0.7468
-0.1426 1.8192 0.7468
-0.2885 1.8017 0.7468
-0.4325 1.7725 0.7467
-0.5737 1.7318 0.7467
-0.7111 1.6798 0.7466
-2.3043 4.4155 2.0384
-2.6521 4.2157 2.0384
-2.9827 3.9887 2.0384
-3.2939 3.7358 2.0384
-3.5838 3.4586 2.0384
-3.8505 3.1590 2.0384
-4.0922 2.8390 2.0384
-4.3074 2.5005 2.0384
-4.4946 2.1458 2.0384
-4.6527 1.7772 2.0384
-4.7806 1.3971 2.0384
-4.8775 1.0079 2.0384
-4.9428 0.6122 2.0384
-4.9760 0.2125 2.0384
-4.9770 -0.1886 2.0384
-4.9457 -0.5885 2.0384
-4.8823 -0.9845 2.0384
-4.7872 -1.3741 2.0384
-4.6611 -1.7549 2.0384
-4.5048 -2.1242 2.0384
-4.3193 -2.4798 2.0384
-4.1058 -2.8193 2.0384
-3.8656 -3.1405 2.0384
-3.6004 -3.4414 2.0384
-3.3118 -3.7199 2.0384
-3.0018 -3.9743 2.0384
-2.6722 -4.2030 2.0384
-2.3254 -4.4044 2.0384
-0.7132 -1.6626 0.7404
-0.5770 -1.7143 0.7403
-0.4372 -1.7550 0.7402
-0.2945 -1.7844 0.7402
-0.1500 -1.8022 0.7402
-0.0045 -1.8084 0.7401
0.1410 -1.8030 0.7402
0.2857 -1.7858 0.7402
0.4285 -1.7572 0.7402
0.5685 -1.7172 0.7403
0.7049 -1.6661 0.7404
2.3035 -4.4158 2.0384
2.6514 -4.2162 2.0384
2.9820 -3.9892 2.0384
3.2933 -3.7363 2.0384
3.5833 -3.4592 2.0384
3.8485 -3.1584 2.0376
3.8733 -2.6881 1.9296
3.9850 -2.3142 1.8860
4.1582 -1.9861 1.8860
4.3046 -1.6450 1.8860
4.4230 -1.2933 1.8860
4.5127 -0.9333 1.8860
4.5732 -0.5671 1.8860
4.6040 -0.1973 1.8860
4.6049 0.1737 1.8860
4.5760 0.5437 1.8860
4.5174 0.9101 1.8860
4.4295 1.2707 1.8860
4.3129 1.6230 1.8860
4.1684 1.9647 1.8860
3.9968 2.2938 1.8860
3.9253 2.6944 1.9486
3.8661 3.1399 2.0384
3.6009 3.4408 2.0384
3.3124 3.7194 2.0384
3.0024 3.9738 2.0384
2.6729 4.2025 2.0384
4.1741 -0.8604 1.8860
4.2298 -0.5217 1.8860
4.2581 -0.1797 1.8860
4.2587 0.1635 1.8860
4.2318 0.5057 1.8860
4.1774 0.8445 1.8860
4.0959 1.1779 1.8860
3.9878 1.5036 1.8860
3.9220 1.8518 1.9194
3.9118 2.2484 1.9967
3.7959 2.6093 2.0384
3.5736 2.9063 2.0384
3.3282 3.1844 2.0384
3.0612 3.4419 2.0384
2.7743 3.6770 2.0384
2.4695 3.8883 2.0384
0.7866 1.4916 0.7462
0.6641 1.5503 0.7463
0.5373 1.5989 0.7464
0.4069 1.6371 0.7465
0.2739 1.6646 0.7465
0.1391 1.6813 0.7466
0.0033 1.6871 0.7466
-0.1324 1.6818 0.7466
-0.2673 1.6657 0.7465
-0.4004 1.6386 0.7465
-0.5309 1.6010 0.7464
-0.6579 1.5529 0.7463
-2.1324 4.0829 2.0384
-2.4540 3.8981 2.0384
-2.7597 3.6880 2.0384
-3.0475 3.4540 2.0384
-3.3156 3.1976 2.0384
-3.5621 2.9204 2.0384
-3.7855 2.6243 2.0384
-3.9844 2.3112 2.0384
-4.1575 1.9832 2.0384
-4.3036 1.6422 2.0384
-4.4217 1.2906 2.0384
-4.5113 0.9306 2.0384
-4.5715 0.5646 2.0384
-4.6021 0.1950 2.0384
-4.6029 -0.1760 2.0384
-4.5738 -0.5457 2.0384
-4.5151 -0.9120 2.0384
-4.4270 -1.2723 2.0384
-4.3103 -1.6245 2.0384
-4.1656 -1.9660 2.0384
-3.9939 -2.2948 2.0384
-3.7963 -2.6087 2.0384
-3.5741 -2.9057 2.0384
-3.3287 -3.1839 2.0384
-3.0618 -3.4414 2.0384
-2.7749 -3.6766 2.0384
-2.4701 -3.8879 2.0384
-0.7810 -1.4805 0.7407
-0.6593 -1.5383 0.7406
-0.5333 -1.5862 0.7406
-0.4039 -1.6238 0.7405
-0.2719 -1.6509 0.7404
-0.1382 -1.6674 0.7404
-0.0036 -1.6731 0.7404
0.1310 -1.6680 0.7404
0.2648 -1.6521 0.7404
0.3969 -1.6255 0.7405
0.5265 -1.5885 0.7406
0.6527 -1.5411 0.7406
0.7747 -1.4838 0.7408
2.4534 -3.8985 2.0384
2.7591 -3.6884 2.0384
3.0470 -3.4545 2.0384
3.3150 -3.1981 2.0384
3.5616 -2.9210 2.0384
3.7851 -2.6250 2.0384
3.8687 -2.2450 1.9794
3.8864 -1.8546 1.9056
3.9816 -1.5201 1.8860
4.0910 -1.1948 1.8860
4.1738 -0.8617 1.8860
4.2296 -0.5231 1.8860
4.2580 -0.1811 1.8860
4.2588 0.1621 1.8860
4.2319 0.5042 1.8860
4.1776 0.8431 1.8860
4.0962 1.1765 1.8860
3.9883 1.5023 1.8860
3.9221 1.8502 1.9191
3.9118 2.2467 1.9963
3.7968 2.6081 2.0384
3.5746 2.9051 2.0384
3.3293 3.1833 2.0384
3.0623 3.4409 2.0384
2.7755 3.6761 2.0384
2.4708 3.8875 2.0384
0.7871 1.4913 0.7462
0.6646 1.5500 0.7463
0.5378 1.5987 0.7464
0.4075 1.6369 0.7465
0.2744 1.6645 0.7465
0.1396 1.6813 0.7466
0.0039 1.6871 0.7466
-0.1319 1.6819 0.7466
-0.2667 1.6658 0.7465
-0.3999 1.6388 0.7465
-0.5304 1.6011 0.7464
-0.6574 1.5531 0.7463
-2.1311 4.0836 2.0384
-2.4528 3.8989 2.0384
-2.7585 3.6889 2.0384
-3.0464 3.4550 2.0384
-3.3145 3.1987 2.0384
-3.5611 2.9216 2.0384
-3.7847 2.6256 2.0384
-3.9837 2.3126 2.0384
-4.1568 1.9845 2.0384
-4.3030 1.6436 2.0384
-4.4213 1.2921 2.0384
-4.5109 0.9321 2.0384
-4.5713 0.5662 2.0384
-4.6020 0.1965 2.0384
-4.6029 -0.1744 2.0384
-4.5740 -0.5442 2.0384
-4.5154 -0.9105 2.0384
-4.4275 -1.2709 2.0384
-4.3108 -1.6230 2.0384
-4.1663 -1.9646 2.0384
-3.9947 -2.2934 2.0384
-3.7972 -2.6074 2.0384
-3.5751 -2.9045 2.0384
-3.3298 -3.1828 2.0384
-3.0629 -3.4404 2.0384
-2.7762 -3.6756 2.0384
-2.4714 -3.8871 2.0384
-0.7815 -1.4802 0.7407
-0.6598 -1.5381 0.7406
-0.5338 -1.5860 0.7406
-0.4044 -1.6237 0.7405
-0.2725 -1.6508 0.7404
-0.1388 -1.6673 0.7404
-0.0041 -1.6731 0.7404
0.1305 -1.6680 0.7404
0.2643 -1.6522 0.7404
0.3964 -1.6257 0.7405
0.5260 -1.5886 0.7406
0.6522 -1.5414 0.7406
0.7742 -1.4841 0.7408
2.4521 -3.8993 2.0384
2.7579 -3.6894 2.0384
3.0458 -3.4555 2.0384
3.3140 -3.1992 2.0384
3.5606 -2.9222 2.0384
3.7842 -2.6262 2.0384
3.8686 -2.2466 1.9797
3.8863 -1.8561 1.9059
3.9811 -1.5214 1.8860
4.0906 -1.1962 1.8860
4.1735 -0.8631 1.8860
4.2295 -0.5245 1.8860
4.2580 -0.1825 1.8860
4.2588 0.1607 1.8860
4.2321 0.5028 1.8860
4.1779 0.8417 1.8860
4.0966 1.1752 1.8860
3.9888 1.5010 1.8860
3.9221 1.8487 1.9188
3.9119 2.2450 1.9960
3.7976 2.6068 2.0384
3.5756 2.9039 2.0384
3.3303 3.1822 2.0384
3.0635 3.4399 2.0384
2.7768 3.6752 2.0384
2.4721 3.8867 2.0384
3.9009 -0.8040 1.8984
3.9272 -0.4844 1.8860
3.9535 -0.1669 1.8860
3.9541 0.1518 1.8860
3.9290 0.4695 1.8860
3.9141 0.7913 1.9033
3.9108 1.1247 1.9395
3.9052 1.4725 1.9892
3.8673 1.8260 2.0384
3.7079 2.1312 2.0384
3.5244 2.4227 2.0384
3.3180 2.6984 2.0384
3.0901 2.9566 2.0384
2.8422 3.1957 2.0384
2.5759 3.4140 2.0384
2.2928 3.6102 2.0384
0.7301 1.3845 0.7460
0.6164 1.4390 0.7461
0.4987 1.4841 0.7462
0.3777 1.5195 0.7463
0.2542 1.5451 0.7463
0.1291 1.5606 0.7464
0.0031 1.5659 0.7464
-0.1229 1.5611 0.7464
-0.2481 1.5460 0.7463
-0.3717 1.5210 0.7463
-0.4928 1.4860 0.7462
-0.6107 1.4414 0.7461
-0.7246 1.3874 0.7460
-2.2785 3.6192 2.0384
-2.5623 3.4242 2.0384
-2.8295 3.2069 2.0384
-3.0784 2.9688 2.0384
-3.3073 2.7115 2.0384
-3.5147 2.4366 2.0384
-3.6994 2.1459 2.0384
-3.8601 1.8413 2.0384
-3.9957 1.5247 2.0384
-4.1054 1.1983 2.0384
-4.1885 0.8641 2.0384
-4.2445 0.5242 2.0384
-4.2729 0.1810 2.0384
-4.2736 -0.1634 2.0384
-4.2466 -0.5067 2.0384
-4.1921 -0.8468 2.0384
-4.1103 -1.1813 2.0384
-4.0020 -1.5082 2.0384
-3.8676 -1.8253 2.0384
-3.7082 -2.1306 2.0384
-3.5248 -2.4221 2.0384
-3.3184 -2.6978 2.0384
-3.0906 -2.9561 2.0384
-2.8427 -3.1952 2.0384
-2.5764 -3.4136 2.0384
-2.2934 -3.6098 2.0384
-0.7254 -1.3749 0.7409
-0.6123 -1.4287 0.7408
-0.4953 -1.4731 0.7408
-0.3751 -1.5081 0.7407
-0.2525 -1.5333 0.7407
-0.1284 -1.5486 0.7406
-0.0033 -1.5539 0.7406
0.1217 -1.5491 0.7406
0.2460 -1.5344 0.7407
0.3686 -1.5097 0.7407
0.4890 -1.4752 0.7408
0.6061 -1.4313 0.7408
0.7194 -1.3781 0.7409
2.2779 -3.6196 2.0384
2.5617 -3.4246 2.0384
2.8290 -3.2074 2.0384
3.0779 -2.9693 2.0384
3.3068 -2.7120 2.0384
3.5143 -2.4372 2.0384
3.6990 -2.1465 2.0384
3.8598 -1.8419 2.0384
3.8768 -1.4801 1.9779
3.8891 -1.1358 1.9311
3.9008 -0.8054 1.8984
3.9271 -0.4857 1.8860
3.9534 -0.1682 1.8860
3.9541 0.1505 1.8860
3.9292 0.4681 1.8860
3.9141 0.7900 1.9032
3.9108 1.1233 1.9394
3.9052 1.4710 1.9890
3.8679 1.8247 2.0384
3.7086 2.1300 2.0384
3.5252 2.4215 2.0384
3.3189 2.6973 2.0384
3.0911 2.9556 2.0384
2.8433 3.1947 2.0384
2.5770 3.4131 2.0384
2.2940 3.6094 2.0384
0.7306 1.3843 0.7460
0.6169 1.4388 0.7461
0.4992 1.4839 0.7462
0.3782 1.5194 0.7463
0.2547 1.5450 0.7463
0.1296 1.5605 0.7464
0.0036 1.5659 0.7464
-0.1224 1.5611 0.7464
-0.2476 1.5461 0.7463
-0.3712 1.5211 0.7463
-0.4923 1.4862 0.7462
-0.6102 1.4416 0.7461
-0.7241 1.3876 0.7460
-2.2773 3.6200 2.0384
-2.5612 3.4250 2.0384
-2.8285 3.2078 2.0384
-3.0774 2.9699 2.0384
-3.3064 2.7126 2.0384
-3.5139 2.4378 2.0384
-3.6987 2.1471 2.0384
-3.8594 1.8426 2.0384
-3.9952 1.5260 2.0384
-4.1050 1.1996 2.0384
-4.1882 0.8655 2.0384
-4.2443 0.5257 2.0384
-4.2728 0.1824 2.0384
-4.2737 -0.1620 2.0384
-4.2468 -0.5053 2.0384
-4.1923 -0.8454 2.0384
-4.1107 -1.1800 2.0384
-4.0025 -1.5069 2.0384
-3.8682 -1.8240 2.0384
-3.7089 -2.1294 2.0384
-3.5256 -2.4209 2.0384
-3.3193 -2.6967 2.0384
-3.0916 -2.9551 2.0384
-2.8438 -3.1942 2.0384
-2.5776 -3.4127 2.0384
-2.2946 -3.6090 2.0384
-0.7258 -1.3747 0.7409
-0.6128 -1.4285 0.7408
-0.4958 -1.4730 0.7408
-0.3756 -1.5080 0.7407
-0.2531 -1.5332 0.7407
-0.1289 -1.5485 0.7406
-0.0039 -1.5539 0.7406
0.1212 -1.5492 0.7406
0.2455 -1.5344 0.7407
0.3681 -1.5098 0.7407
0.4885 -1.4754 0.7408
0.6057 -1.4315 0.7408
0.7190 -1.3783 0.7409
2.2767 -3.6204 2.0384
2.5606 -3.4254 2.0384
2.8279 -3.2083 2.0384
3.0769 -2.9704 2.0384
3.3059 -2.7131 2.0384
3.5135 -2.4383 2.0384
3.6983 -2.1477 2.0384
3.8591 -1.8432 2.0384
3.8768 -1.4816 1.9781
3.8890 -1.1372 1.9312
3.9007 -0.8066 1.8985
3.9269 -0.4871 1.8860
3.9533 -0.1695 1.8860
3.9542 0.1492 1.8860
3.9293 0.4667 1.8860
3.9141 0.7886 1.9031
3.9108 1.1219 1.9392
3.9052 1.4695 1.9888
3.8685 1.8234 2.0384
3.7093 2.1288 2.0384
3.5260 2.4203 2.0384
3.3198 2.6962 2.0384
3.0921 2.9546 2.0384
2.8443 3.1938 2.0384
2.5781 3.4123 2.0384
2.2952 3.6087 2.0384
3.8752 -0.7988 2.0245
3.8828 -0.4789 2.0017
3.8880 -0.1641 1.9911
3.8910 0.1494 1.9923
3.8918 0.4650 2.0054
3.8904 0.7865 2.0308
3.8288 1.1011 2.0384
3.7278 1.4056 2.0384
3.6026 1.7010 2.0384
3.4540 1.9853 2.0384
3.2831 2.2568 2.0384
3.0909 2.5137 2.0384
2.8786 2.7542 2.0384
2.6476 2.9769 2.0384
2.3995 3.1803 2.0384
0.7814 1.2304 0.7457
0.6800 1.2894 0.7459
0.5741 1.3401 0.7459
0.4644 1.3821 0.7460
0.3518 1.4151 0.7461
0.2368 1.4389 0.7461
0.1202 1.4534 0.7462
0.0029 1.4583 0.7462
-0.1145 1.4538 0.7462
-0.2311 1.4398 0.7461
-0.3461 1.4165 0.7461
-0.4590 1.3839 0.7460
-0.5688 1.3424 0.7459
-0.6748 1.2921 0.7459
-2.1225 3.3715 2.0384
-2.3869 3.1898 2.0384
-2.6358 2.9874 2.0384
-2.8677 2.7656 2.0384
-3.0809 2.5259 2.0384
-3.2741 2.2698 2.0384
-3.4462 1.9990 2.0384
-3.5958 1.7152 2.0384
-3.7222 1.4204 2.0384
-3.8244 1.1162 2.0384
-3.9018 0.8049 2.0384
-3.9539 0.4884 2.0384
-3.9804 0.1686 2.0384
-3.9811 -0.1522 2.0384
-3.9559 -0.4720 2.0384
-3.9051 -0.7888 2.0384
-3.8290 -1.1004 2.0384
-3.7280 -1.4050 2.0384
-3.6029 -1.7004 2.0384
-3.4544 -1.9848 2.0384
-3.2835 -2.2563 2.0384
-3.0913 -2.5132 2.0384
-2.8790 -2.7537 2.0384
-2.6481 -2.9765 2.0384
-2.4001 -3.1799 2.0384
-0.7769 -1.2228 0.7412
-0.6759 -1.2811 0.7411
-0.5705 -1.3312 0.7410
-0.4615 -1.3726 0.7409
-0.3495 -1.4052 0.7409
-0.2353 -1.4287 0.7408
-0.1196 -1.4429 0.7408
-0.0031 -1.4479 0.7408
0.1134 -1.4434 0.7408
0.2292 -1.4297 0.7408
0.3435 -1.4067 0.7409
0.4556 -1.3746 0.7410
0.5648 -1.3336 0.7410
0.6704 -1.2840 0.7411
0.7716 -1.2261 0.7412
2.3864 -3.1902 2.0384
2.6353 -2.9878 2.0384
2.8672 -2.7661 2.0384
3.0805 -2.5264 2.0384
3.2738 -2.2704 2.0384
3.4458 -1.9996 2.0384
3.5955 -1.7158 2.0384
3.7219 -1.4210 2.0384
3.8242 -1.1169 2.0384
3.8752 -0.8001 2.0246
3.8827 -0.4802 2.0018
3.8880 -0.1654 1.9911
3.8910 0.1481 1.9923
3.8918 0.4637 2.0053
3.8904 0.7852 2.0307
3.8291 1.0998 2.0384
3.7282 1.4044 2.0384
3.6032 1.6998 2.0384
3.4547 1.9842 2.0384
3.2839 2.2557 2.0384
3.0917 2.5127 2.0384
2.8795 2.7533 2.0384
2.6486 2.9760 2.0384
2.4006 3.1795 2.0384
0.7818 1.2301 0.7457
0.6804 1.2892 0.7459
0.5745 1.3399 0.7459
0.4649 1.3820 0.7460
0.3522 1.4150 0.7461
0.2372 1.4388 0.7461
0.1207 1.4533 0.7462
0.0034 1.4583 0.7462
-0.1140 1.4539 0.7462
-0.2306 1.4399 0.7461
-0.3457 1.4166 0.7461
-0.4585 1.3841 0.7460
-0.5683 1.3426 0.7459
-0.6744 1.2923 0.7459
-2.1214 3.3722 2.0384
-2.3859 3.1906 2.0384
-2.6348 2.9883 2.0384
-2.8667 2.7665 2.0384
-3.0800 2.5269 2.0384
-3.2734 2.2709 2.0384
-3.4455 2.0001 2.0384
-3.5953 1.7164 2.0384
-3.7217 1.4216 2.0384
-3.8240 1.1175 2.0384
-3.9015 0.8062 2.0384
-3.9538 0.4897 2.0384
-3.9803 0.1700 2.0384
-3.9811 -0.1509 2.0384
-3.9561 -0.4707 2.0384
-3.9054 -0.7875 2.0384
-3.8293 -1.0992 2.0384
-3.7285 -1.4037 2.0384
-3.6034 -1.6992 2.0384
-3.4550 -1.9836 2.0384
-3.2842 -2.2552 2.0384
-3.0921 -2.5121 2.0384
-2.8800 -2.7528 2.0384
-2.6491 -2.9756 2.0384
-2.4011 -3.1791 2.0384
-0.7773 -1.2225 0.7412
-0.6763 -1.2809 0.7411
-0.5710 -1.3310 0.7410
-0.4620 -1.3725 0.7409
-0.3500 -1.4051 0.7409
-0.2358 -1.4286 0.7408
-0.1201 -1.4429 0.7408
-0.0036 -1.4479 0.7408
0.1129 -1.4435 0.7408
0.2287 -1.4298 0.7408
0.3430 -1.4068 0.7409
0.4552 -1.3748 0.7410
0.5644 -1.3338 0.7410
0.6699 -1.2842 0.7411
0.7712 -1.2264 0.7412
2.3853 -3.1909 2.0384
2.6343 -2.9887 2.0384
2.8663 -2.7670 2.0384
3.0796 -2.5274 2.0384
3.2730 -2.2714 2.0384
3.4452 -2.0007 2.0384
3.5950 -1.7170 2.0384
3.7215 -1.4222 2.0384
3.8238 -1.1182 2.0384
3.8752 -0.8015 2.0247
3.8827 -0.4815 2.0018
3.8879 -0.1666 1.9911
3.8910 0.1468 1.9922
3.8918 0.4624 2.0053
3.8904 0.7838 2.0306
3.8295 1.0986 2.0384
3.7287 1.4031 2.0384
3.6037 1.6986 2.0384
3.4554 1.9830 2.0384
3.2846 2.2547 2.0384
3.0925 2.5116 2.0384
2.8804 2.7523 2.0384
2.6496 2.9752 2.0384
2.4016 3.1787 2.0384
0.7822 1.2298 0.7457
3.6451 -0.7513 2.0384
3.6938 -0.4556 2.0384
3.7184 -0.1569 2.0384
3.7190 0.1428 2.0384
3.6955 0.4416 2.0384
3.6479 0.7375 2.0384
3.5768 1.0286 2.0384
3.4824 1.3131 2.0384
3.3655 1.5890 2.0384
3.2267 1.8547 2.0384
3.0670 2.1083 2.0384
2.8874 2.3482 2.0384
2.6891 2.5729 2.0384
2.4734 2.7810 2.0384
2.2416 2.9710 2.0384
0.7298 1.1492 0.7456
0.6351 1.2043 0.7457
0.5362 1.2517 0.7458
0.4338 1.2909 0.7459
0.3285 1.3217 0.7459
0.2211 1.3439 0.7460
0.1123 1.3574 0.7460
0.0027 1.3620 0.7460
-0.1069 1.3578 0.7460
-0.2158 1.3448 0.7460
-0.3233 1.3230 0.7459
-0.4287 1.2926 0.7459
-0.5312 1.2538 0.7458
-0.6303 1.2068 0.7457
-0.7253 1.1520 0.7456
-2.2298 2.9798 2.0384
-2.4623 2.7908 2.0384
-2.6789 2.5836 2.0384
-2.8781 2.3596 2.0384
-3.0586 2.1204 2.0384
-3.2193 1.8674 2.0384
-3.3592 1.6024 2.0384
-3.4772 1.3269 2.0384
-3.5727 1.0428 2.0384
-3.6450 0.7519 2.0384
-3.6937 0.4562 2.0384
-3.7184 0.1575 2.0384
-3.7190 -0.1422 2.0384
-3.6955 -0.4409 2.0384
-3.6481 -0.7369 2.0384
-3.5770 -1.0280 2.0384
-3.4826 -1.3125 2.0384
-3.3657 -1.5885 2.0384
-3.2270 -1.8541 2.0384
-3.0674 -2.1078 2.0384
-2.8878 -2.3477 2.0384
-2.6896 -2.5725 2.0384
-2.4738 -2.7805 2.0384
-2.2421 -2.9706 2.0384
-0.7259 -1.1425 0.7414
-0.6315 -1.1971 0.7413
-0.5331 -1.2438 0.7412
-0.4312 -1.2826 0.7411
-0.3266 -1.3130 0.7411
-0.2199 -1.3350 0.7410
-0.1118 -1.3483 0.7410
-0.0029 -1.3529 0.7410
0.1060 -1.3488 0.7410
0.2142 -1.3359 0.7410
0.3210 -1.3144 0.7411
0.4257 -1.2844 0.7411
0.5277 -1.2461 0.7412
0.6264 -1.1998 0.7413
0.7210 -1.1456 0.7414
2.2293 -2.9802 2.0384
2.4619 -2.7912 2.0384
2.6785 -2.5840 2.0384
2.8777 -2.3601 2.0384
3.0583 -2.1209 2.0384
3.2190 -1.8680 2.0384
3.3589 -1.6029 2.0384
3.4770 -1.3274 2.0384
3.5725 -1.0434 2.0384
3.6449 -0.7525 2.0384
3.6936 -0.4568 2.0384
3.7184 -0.1581 2.0384
3.7191 0.1416 2.0384
3.6956 0.4404 2.0384
3.6482 0.7363 2.0384
3.5771 1.0275 2.0384
3.4829 1.3119 2.0384
3.3660 1.5879 2.0384
3.2273 1.8536 2.0384
3.0677 2.1073 2.0384
2.8882 2.3473 2.0384
2.6900 2.5720 2.0384
2.4743 2.7801 2.0384
2.2426 2.9702 2.0384
0.7302 1.1489 0.7456
0.6355 1.2041 0.7457
0.5366 1.2515 0.7458
0.4342 1.2907 0.7459
0.3290 1.3216 0.7459
0.2216 1.3438 0.7460
0.1127 1.3573 0.7460
0.0031 1.3620 0.7460
-0.1065 1.3578 0.7460
-0.2154 1.3448 0.7460
-0.3228 1.3231 0.7459
-0.4282 1.2927 0.7459
-0.5308 1.2539 0.7458
-0.6299 1.2070 0.7457
-0.7249 1.1523 0.7456
-2.2288 2.9806 2.0384
-2.4614 2.7916 2.0384
-2.6781 2.5845 2.0384
-2.8773 2.3606 2.0384
-3.0579 2.1214 2.0384
-3.2187 1.8685 2.0384
-3.3586 1.6035 2.0384
-3.4767 1.3280 2.0384
-3.5723 1.0440 2.0384
-3.6447 0.7532 2.0384
-3.6935 0.4574 2.0384
-3.7184 0.1588 2.0384
-3.7191 -0.1409 2.0384
-3.6957 -0.4397 2.0384
-3.6483 -0.7357 2.0384
-3.5773 -1.0268 2.0384
-3.4831 -1.3113 2.0384
-3.3663 -1.5873 2.0384
-3.2276 -1.8530 2.0384
-3.0681 -2.1067 2.0384
-2.8886 -2.3468 2.0384
-2.6904 -2.5716 2.0384
-2.4748 -2.7797 2.0384
-2.2431 -2.9698 2.0384
-0.7263 -1.1423 0.7414
-0.6319 -1.1968 0.7413
-0.5335 -1.2437 0.7412
-0.4317 -1.2824 0.7411
-0.3270 -1.3129 0.7411
-0.2203 -1.3349 0.7410
-0.1122 -1.3482 0.7410
-0.0034 -1.3529 0.7410
0.1055 -1.3488 0.7410
0.2137 -1.3360 0.7410
0.3205 -1.3145 0.7411
0.4253 -1.2846 0.7411
0.5273 -1.2463 0.7412
0.6260 -1.2000 0.7413
0.7206 -1.1459 0.7414
2.2283 -2.9809 2.0384
2.4610 -2.7920 2.0384
2.6776 -2.5849 2.0384
2.8769 -2.3611 2.0384
3.0576 -2.1219 2.0384
3.2184 -1.8690 2.0384
3.3584 -1.6040 2.0384
3.4765 -1.3286 2.0384
3.5722 -1.0446 2.0384
3.6446 -0.7537 2.0384
3.6935 -0.4580 2.0384
3.7183 -0.1594 2.0384
3.7191 0.1403 2.0384
3.6958 0.4391 2.0384
3.6484 0.7351 2.0384
3.5775 1.0262 2.0384
3.4833 1.3108 2.0384
3.3665 1.5868 2.0384
3.2279 1.8525 2.0384
3.0684 2.1062 2.0384
2.8890 2.3463 2.0384
2.6908 2.5712 2.0384
2.4752 2.7793 2.0384
2.2436 2.9695 2.0384
0.7306 1.1487 0.7456
3.4134 -0.7036 2.0384
3.4590 -0.4266 2.0384
3.4821 -0.1469 2.0384
3.4826 0.1337 2.0384
3.4606 0.4135 2.0384
3.4161 0.6906 2.0384
3.3494 0.9632 2.0384
3.2611 1.2296 2.0384
3.1515 1.4880 2.0384
3.0216 1.7368 2.0384
2.8721 1.9743 2.0384
2.7039 2.1990 2.0384
2.5182 2.4094 2.0384
2.3162 2.6042 2.0384
0.7676 1.0173 0.7454
0.6833 1.0759 0.7455
0.5946 1.1275 0.7456
0.5020 1.1719 0.7456
0.4061 1.2086 0.7457
0.3076 1.2374 0.7458
0.2070 1.2582 0.7458
0.1051 1.2708 0.7458
0.0025 1.2752 0.7458
-0.1001 1.2712 0.7458
-0.2020 1.2590 0.7458
-0.3027 1.2386 0.7458
-0.4013 1.2102 0.7457
-0.4973 1.1738 0.7456
-0.5901 1.1299 0.7456
-0.6790 1.0786 0.7455
-0.7635 1.0203 0.7454
-2.3058 2.6134 2.0384
-2.5086 2.4194 2.0384
-2.6952 2.2097 2.0384
-2.8642 1.9856 2.0384
-3.0147 1.7487 2.0384
-3.1456 1.5005 2.0384
-3.2562 1.2425 2.0384
-3.3456 0.9765 2.0384
-3.4133 0.7041 2.0384
-3.4589 0.4272 2.0384
-3.4821 0.1475 2.0384
-3.4826 -0.1331 2.0384
-3.4606 -0.4129 2.0384
-3.4162 -0.6900 2.0384
-3.3496 -0.9627 2.0384
-3.2613 -1.2291 2.0384
-3.1518 -1.4875 2.0384
-3.0219 -1.7363 2.0384
-2.8724 -1.9738 2.0384
-2.7043 -2.1985 2.0384
-2.5186 -2.4090 2.0384
-2.3166 -2.6038 2.0384
-0.7639 -1.0120 0.7416
-0.6799 -1.0701 0.7415
-0.5915 -1.1212 0.7414
-0.4993 -1.1650 0.7413
-0.4039 -1.2013 0.7413
-0.3059 -1.2298 0.7412
-0.2060 -1.2504 0.7412
-0.1047 -1.2629 0.7412
-0.0027 -1.2672 0.7411
0.0992 -1.2633 0.7412
0.2006 -1.2512 0.7412
0.3006 -1.2311 0.7412
0.3987 -1.2030 0.7413
0.4943 -1.1671 0.7413
0.5867 -1.1237 0.7414
0.6753 -1.0730 0.7415
0.7595 -1.0153 0.7416
2.3054 -2.6137 2.0384
2.5082 -2.4198 2.0384
2.6948 -2.2101 2.0384
2.8639 -1.9861 2.0384
3.0144 -1.7492 2.0384
3.1454 -1.5010 2.0384
3.2560 -1.2431 2.0384
3.3454 -0.9770 2.0384
3.4132 -0.7047 2.0384
3.4588 -0.4278 2.0384
3.4820 -0.1481 2.0384
3.4827 0.1326 2.0384
3.4607 0.4124 2.0384
3.4163 0.6895 2.0384
3.3497 0.9621 2.0384
3.2615 1.2285 2.0384
3.1520 1.4870 2.0384
3.0222 1.7358 2.0384
2.8727 1.9733 2.0384
2.7046 2.1981 2.0384
2.5190 2.4086 2.0384
2.3170 2.6034 2.0384
0.7679 1.0170 0.7454
0.6837 1.0757 0.7455
0.5950 1.1274 0.7456
0.5024 1.1717 0.7456
0.4065 1.2084 0.7457
0.3080 1.2373 0.7458
0.2074 1.2581 0.7458
0.1055 1.2708 0.7458
0.0029 1.2752 0.7458
-0.0997 1.2713 0.7458
-0.2016 1.2591 0.7458
-0.3023 1.2387 0.7458
-0.4009 1.2103 0.7457
-0.4970 1.1740 0.7456
-0.5897 1.1301 0.7456
-0.6787 1.0788 0.7455
-0.7632 1.0206 0.7454
-2.3050 2.6141 2.0384
-2.5078 2.4202 2.0384
-2.6944 2.2105 2.0384
-2.8636 1.9866 2.0384
-3.0141 1.7497 2.0384
-3.1451 1.5015 2.0384
-3.2557 1.2436 2.0384
-3.3453 0.9776 2.0384
-3.4131 0.7053 2.0384
-3.4588 0.4284 2.0384
-3.4820 0.1487 2.0384
-3.4827 -0.1320 2.0384
-3.4608 -0.4118 2.0384
-3.4164 -0.6889 2.0384
-3.3499 -0.9616 2.0384
-3.2617 -1.2280 2.0384
-3.1523 -1.4864 2.0384
-3.0225 -1.7353 2.0384
-2.8730 -1.9728 2.0384
-2.7050 -2.1976 2.0384
-2.5194 -2.4081 2.0384
-2.3175 -2.6030 2.0384
-0.7642 -1.0118 0.7416
-0.6802 -1.0699 0.7415
-0.5918 -1.1210 0.7414
-0.4997 -1.1648 0.7413
-0.4043 -1.2012 0.7413
-0.3063 -1.2297 0.7412
-0.2064 -1.2503 0.7412
-0.1051 -1.2628 0.7412
-0.0031 -1.2672 0.7411
0.0988 -1.2633 0.7412
0.2002 -1.2513 0.7412
0.3002 -1.2312 0.7412
0.3983 -1.2032 0.7413
0.4939 -1.1673 0.7413
0.5863 -1.1239 0.7414
0.6749 -1.0732 0.7415
0.7592 -1.0156 0.7416
2.3045 -2.6145 2.0384
2.5074 -2.4206 2.0384
2.6941 -2.2110 2.0384
2.8632 -1.9871 2.0384
3.0138 -1.7502 2.0384
3.1449 -1.5020 2.0384
3.2555 -1.2441 2.0384
3.3451 -0.9782 2.0384
3.4130 -0.7058 2.0384
3.4587 -0.4289 2.0384
3.4820 -0.1492 2.0384
3.4827 0.1314 2.0384
3.4608 0.4112 2.0384
3.4165 0.6883 2.0384
3.3501 0.9610 2.0384
3.2619 1.2274 2.0384
3.1525 1.4859 2.0384
3.0228 1.7348 2.0384
2.8734 1.9724 2.0384
2.7054 2.1972 2.0384
2.5198 2.4077 2.0384
2.3179 2.6027 2.0384
0.7682 1.0168 0.7454
0.6840 1.0755 0.7455
3.2030 -0.6602 2.0384
3.2457 -0.4003 2.0384
3.2674 -0.1379 2.0384
3.2679 0.1255 2.0384
3.2472 0.3880 2.0384
3.2055 0.6480 2.0384
3.1430 0.9039 2.0384
3.0600 1.1538 2.0384
2.9573 1.3963 2.0384
2.8353 1.6297 2.0384
2.6950 1.8526 2.0384
2.5372 2.0634 2.0384
2.3630 2.2609 2.0384
2.1734 2.4437 2.0384
0.7201 0.9544 0.7452
0.6411 1.0094 0.7453
0.5578 1.0579 0.7454
0.4710 1.0994 0.7455
0.3810 1.1339 0.7456
0.2886 1.1609 0.7456
0.1942 1.1804 0.7457
0.0986 1.1923 0.7457
0.0024 1.1963 0.7457
-0.0939 1.1926 0.7457
-0.1895 1.1812 0.7457
-0.2840 1.1620 0.7456
-0.3765 1.1353 0.7456
-0.4666 1.1013 0.7455
-0.5536 1.0601 0.7454
-0.6371 1.0119 0.7453
-0.7163 0.9573 0.7452
-2.1637 2.4523 2.0384
-2.3540 2.2702 2.0384
-2.5290 2.0734 2.0384
-2.6877 1.8632 2.0384
-2.8289 1.6409 2.0384
-2.9517 1.4080 2.0384
-3.0554 1.1659 2.0384
-3.1393 0.9163 2.0384
-3.2029 0.6607 2.0384
-3.2457 0.4009 2.0384
-3.2674 0.1384 2.0384
-3.2680 -0.1249 2.0384
-3.2473 -0.3875 2.0384
-3.2056 -0.6475 2.0384
-3.1431 -0.9033 2.0384
-3.0602 -1.1533 2.0384
-2.9575 -1.3958 2.0384
-2.8356 -1.6292 2.0384
-2.6953 -1.8521 2.0384
-2.5376 -2.0630 2.0384
-2.3633 -2.2605 2.0384
-2.1738 -2.4433 2.0384
-0.7169 -0.9498 0.7417
-0.6381 -1.0043 0.7416
-0.5551 -1.0522 0.7415
-0.4686 -1.0934 0.7415
-0.3791 -1.1274 0.7414
-0.2871 -1.1542 0.7414
-0.1933 -1.1735 0.7413
-0.0982 -1.1852 0.7413
-0.0026 -1.1893 0.7413
0.0931 -1.1856 0.7413
0.1883 -1.1743 0.7413
0.2821 -1.1554 0.7414
0.3742 -1.1291 0.7414
0.4639 -1.0954 0.7415
0.5506 -1.0546 0.7415
0.6337 -1.0070 0.7416
0.7128 -0.9529 0.7417
2.1633 -2.4526 2.0384
2.3536 -2.2706 2.0384
2.5287 -2.0739 2.0384
2.6873 -1.8637 2.0384
2.8286 -1.6414 2.0384
2.9515 -1.4085 2.0384
3.0552 -1.1664 2.0384
3.1392 -0.9168 2.0384
3.2028 -0.6613 2.0384
3.2456 -0.4014 2.0384
3.2674 -0.1390 2.0384
3.2680 0.1244 2.0384
3.2474 0.3869 2.0384
3.2057 0.6470 2.0384
3.1433 0.9028 2.0384
3.0604 1.1528 2.0384
2.9577 1.3953 2.0384
2.8359 1.6288 2.0384
2.6956 1.8517 2.0384
2.5379 2.0626 2.0384
2.3637 2.2601 2.0384
2.1742 2.4429 2.0384
0.7204 0.9542 0.7452
0.6414 1.0092 0.7453
0.5582 1.0577 0.7454
0.4713 1.0993 0.7455
0.3814 1.1337 0.7456
0.2889 1.1608 0.7456
0.1946 1.1804 0.7457
0.0990 1.1922 0.7457
0.0028 1.1963 0.7457
-0.0935 1.1927 0.7457
-0.1892 1.1812 0.7457
-0.2836 1.1621 0.7456
-0.3761 1.1355 0.7456
-0.4662 1.1014 0.7455
-0.5533 1.0602 0.7454
-0.6367 1.0122 0.7453
-0.7160 0.9575 0.7452
-2.1629 2.4530 2.0384
-2.3532 2.2710 2.0384
-2.5283 2.0743 2.0384
-2.6870 1.8641 2.0384
-2.8283 1.6419 2.0384
-2.9513 1.4090 2.0384
-3.0550 1.1670 2.0384
-3.1390 0.9174 2.0384
-3.2027 0.6618 2.0384
-3.2455 0.4020 2.0384
-3.2674 0.1395 2.0384
-3.2680 -0.1238 2.0384
-3.2474 -0.3864 2.0384
-3.2058 -0.6464 2.0384
-3.1434 -0.9023 2.0384
-3.0606 -1.1523 2.0384
-2.9580 -1.3948 2.0384
-2.8361 -1.6283 2.0384
-2.6959 -1.8512 2.0384
-2.5382 -2.0621 2.0384
-2.3641 -2.2597 2.0384
-2.1746 -2.4426 2.0384
-0.7172 -0.9496 0.7417
-0.6384 -1.0041 0.7416
-0.5555 -1.0521 0.7415
-0.4690 -1.0932 0.7415
-0.3794 -1.1273 0.7414
-0.2875 -1.1541 0.7414
-0.1937 -1.1735 0.7413
-0.0986 -1.1852 0.7413
-0.0029 -1.1893 0.7413
0.0928 -1.1857 0.7413
0.1879 -1.1744 0.7413
0.2818 -1.1555 0.7414
0.3738 -1.1292 0.7414
0.4635 -1.0955 0.7415
0.5502 -1.0548 0.7415
0.6334 -1.0072 0.7416
0.7125 -0.9531 0.7417
2.1625 -2.4533 2.0384
2.3529 -2.2714 2.0384
2.5280 -2.0747 2.0384
2.6867 -1.8646 2.0384
2.8280 -1.6423 2.0384
2.9510 -1.4095 2.0384
3.0549 -1.1674 2.0384
3.1389 -0.9178 2.0384
3.2026 -0.6623 2.0384
3.2455 -0.4025 2.0384
3.2673 -0.1400 2.0384
3.2680 0.1233 2.0384
3.2475 0.3859 2.0384
3.2059 0.6459 2.0384
3.1435 0.9018 2.0384
3.0608 1.1518 2.0384
2.9582 1.3943 2.0384
2.8364 1.6278 2.0384
2.6962 1.8508 2.0384
2.5386 2.0617 2.0384
2.3645 2.2593 2.0384
2.1750 2.4422 2.0384
0.7208 0.9540 0.7452
0.6417 1.0090 0.7453
3.0108 -0.6206 2.0384
3.0509 -0.3763 2.0384
3.0713 -0.1296 2.0384
3.0718 0.1179 2.0384
3.0524 0.3647 2.0384
3.0131 0.6091 2.0384
2.9543 0.8496 2.0384
2.8764 1.0846 2.0384
2.7798 1.3125 2.0384
2.6652 1.5319 2.0384
2.5333 1.7414 2.0384
2.3849 1.9396 2.0384
2.2211 2.1252 2.0384
0.7467 0.8395 0.7450
0.6768 0.8970 0.7451
0.6025 0.9487 0.7452
0.5243 0.9942 0.7453
0.4426 1.0333 0.7454
0.3581 1.0656 0.7454
0.2712 1.0910 0.7455
0.1825 1.1094 0.7455
0.0927 1.1205 0.7455
0.0022 1.1243 0.7455
-0.0882 1.1209 0.7455
-0.1781 1.1101 0.7455
-0.2669 1.0921 0.7455
-0.3539 1.0670 0.7454
-0.4385 1.0350 0.7454
-0.5203 0.9963 0.7453
-0.5987 0.9511 0.7452
-0.6732 0.8997 0.7451
-0.7433 0.8425 0.7450
-2.2127 2.1340 2.0384
-2.3772 1.9490 2.0384
-2.5263 1.7514 2.0384
-2.6591 1.5425 2.0384
-2.7746 1.3235 2.0384
-2.8721 1.0960 2.0384
-2.9509 0.8613 2.0384
-3.0107 0.6211 2.0384
-3.0509 0.3768 2.0384
-3.0713 0.1301 2.0384
-3.0718 -0.1174 2.0384
-3.0524 -0.3642 2.0384
-3.0132 -0.6086 2.0384
-2.9545 -0.8491 2.0384
-2.8766 -1.0841 2.0384
-2.7800 -1.3120 2.0384
-2.6654 -1.5315 2.0384
-2.5336 -1.7410 2.0384
-2.3853 -1.9392 2.0384
-2.2215 -2.1248 2.0384
-0.7437 -0.8359 0.7419
-0.6740 -0.8929 0.7418
-0.5998 -0.9442 0.7417
-0.5219 -0.9892 0.7417
-0.4405 -1.0279 0.7416
-0.3564 -1.0600 0.7415
-0.2699 -1.0851 0.7415
-0.1817 -1.1033 0.7414
-0.0924 -1.1143 0.7414
-0.0024 -1.1181 0.7414
0.0876 -1.1147 0.7414
0.1770 -1.1041 0.7414
0.2653 -1.0863 0.7415
0.3518 -1.0615 0.7415
0.4361 -1.0298 0.7416
0.5176 -0.9915 0.7417
0.5958 -0.9467 0.7417
0.6701 -0.8958 0.7418
0.7401 -0.8391 0.7419
2.2124 -2.1343 2.0384
2.3769 -1.9494 2.0384
2.5261 -1.7518 2.0384
2.6588 -1.5429 2.0384
2.7743 -1.3240 2.0384
2.8719 -1.0964 2.0384
2.9508 -0.8618 2.0384
3.0106 -0.6216 2.0384
3.0508 -0.3773 2.0384
3.0713 -0.1306 2.0384
3.0718 0.1169 2.0384
3.0525 0.3637 2.0384
3.0133 0.6082 2.0384
2.9546 0.8486 2.0384
2.8767 1.0836 2.0384
2.7802 1.3116 2.0384
2.6657 1.5310 2.0384
2.5338 1.7405 2.0384
2.3856 1.9388 2.0384
2.2219 2.1244 2.0384
0.7470 0.8393 0.7450
0.6771 0.8968 0.7451
0.6028 0.9485 0.7452
0.5246 0.9940 0.7453
0.4430 1.0331 0.7454
0.3584 1.0655 0.7454
0.2716 1.0910 0.7455
0.1829 1.1093 0.7455
0.0931 1.1205 0.7455
0.0026 1.1243 0.7455
-0.0879 1.1209 0.7455
-0.1778 1.1101 0.7455
-0.2665 1.0922 0.7455
-0.3535 1.0671 0.7454
-0.4382 1.0352 0.7454
-0.5200 0.9965 0.7453
-0.5984 0.9513 0.7452
-0.6729 0.8999 0.7451
-0.7431 0.8427 0.7450
-2.2120 2.1347 2.0384
-2.3766 1.9498 2.0384
-2.5258 1.7522 2.0384
-2.6586 1.5433 2.0384
-2.7741 1.3244 2.0384
-2.8717 1.0969 2.0384
-2.9506 0.8623 2.0384
-3.0105 0.6221 2.0384
-3.0508 0.3778 2.0384
-3.0713 0.1311 2.0384
-3.0719 -0.1164 2.0384
-3.0525 -0.3632 2.0384
-3.0134 -0.6076 2.0384
-2.9547 -0.8481 2.0384
-2.8769 -1.0831 2.0384
-2.7804 -1.3111 2.0384
-2.6659 -1.5306 2.0384
-2.5341 -1.7401 2.0384
-2.3859 -1.9384 2.0384
-2.2222 -2.1241 2.0384
-0.7440 -0.8357 0.7419
-0.6743 -0.8927 0.7418
-0.6002 -0.9440 0.7417
-0.5222 -0.9891 0.7417
-0.4409 -1.0278 0.7416
-0.3567 -1.0598 0.7415
-0.2703 -1.0850 0.7415
-0.1821 -1.1032 0.7414
-0.0927 -1.1143 0.7414
-0.0028 -1.1181 0.7414
0.0872 -1.1147 0.7414
0.1766 -1.1041 0.7414
0.2649 -1.0864 0.7415
0.3515 -1.0616 0.7415
0.4358 -1.0300 0.7416
0.5173 -0.9916 0.7417
0.5955 -0.9469 0.7417
0.6698 -0.8961 0.7418
0.7399 -0.8394 0.7419
2.2116 -2.1350 2.0384
2.3763 -1.9502 2.0384
2.5255 -1.7527 2.0384
2.6583 -1.5438 2.0384
2.7739 -1.3249 2.0384
2.8715 -1.0974 2.0384
2.9505 -0.8628 2.0384
3.0104 -0.6226 2.0384
3.0507 -0.3783 2.0384
3.0712 -0.1316 2.0384
3.0719 0.1159 2.0384
3.0526 0.3627 2.0384
3.0135 0.6071 2.0384
2.9549 0.8477 2.0384
2.8771 1.0827 2.0384
2.7807 1.3106 2.0384
2.6662 1.5301 2.0384
2.5344 1.7397 2.0384
2.3862 1.9380 2.0384
2.2226 2.1237 2.0384
0.7472 0.8390 0.7450
0.6774 0.8966 0.7451
0.6031 0.9483 0.7452
2.8342 -0.5842 2.0384
2.8720 -0.3542 2.0384
2.8912 -0.1220 2.0384
2.8917 0.1110 2.0384
2.8733 0.3433 2.0384
2.8364 0.5734 2.0384
2.7811 0.7998 2.0384
2.7077 1.0210 2.0384
2.6168 1.2355 2.0384
2.5089 1.4421 2.0384
2.3847 1.6393 2.0384
2.2451 1.8258 2.0384
0.7640 0.7310 0.7448
0.7028 0.7902 0.7449
0.6370 0.8443 0.7450
0.5671 0.8929 0.7451
0.4935 0.9358 0.7452
0.4166 0.9725 0.7453
0.3370 1.0030 0.7453
0.2553 1.0269 0.7454
0.1718 1.0442 0.7454
0.0872 1.0546 0.7454
0.0021 1.0582 0.7454
-0.0831 1.0550 0.7454
-0.1677 1.0448 0.7454
-0.2512 1.0279 0.7454
-0.3331 1.0043 0.7453
-0.4128 0.9742 0.7453
-0.4898 0.9377 0.7452
-0.5636 0.8952 0.7451
-0.6337 0.8468 0.7450
-0.6997 0.7930 0.7449
-0.7611 0.7340 0.7448
-2.2378 1.8347 2.0384
-2.3782 1.6487 2.0384
-2.5031 1.4520 2.0384
-2.6119 1.2459 2.0384
-2.7036 1.0317 2.0384
-2.7779 0.8108 2.0384
-2.8341 0.5847 2.0384
-2.8720 0.3547 2.0384
-2.8912 0.1225 2.0384
-2.8917 -0.1105 2.0384
-2.8734 -0.3429 2.0384
-2.8365 -0.5729 2.0384
-2.7812 -0.7993 2.0384
-2.7079 -1.0205 2.0384
-2.6170 -1.2351 2.0384
-2.5091 -1.4416 2.0384
-2.3850 -1.6389 2.0384
-2.2454 -1.8255 2.0384
-0.7614 -0.7282 0.7421
-0.7002 -0.7870 0.7420
-0.6345 -0.8407 0.7419
-0.5647 -0.8889 0.7418
-0.4913 -0.9314 0.7418
-0.4148 -0.9678 0.7417
-0.3355 -0.9979 0.7416
-0.2541 -1.0217 0.7416
-0.1711 -1.0387 0.7416
-0.0870 -1.0491 0.7415
-0.0023 -1.0527 0.7415
0.0825 -1.0495 0.7415
0.1666 -1.0395 0.7416
0.2497 -1.0227 0.7416
0.3312 -0.9994 0.7416
0.4106 -0.9696 0.7417
0.4873 -0.9335 0.7418
0.5609 -0.8913 0.7418
0.6309 -0.8434 0.7419
0.6968 -0.7900 0.7420
0.7582 -0.7315 0.7421
2.2375 -1.8351 2.0384
2.3779 -1.6491 2.0384
2.5029 -1.4524 2.0384
2.6116 -1.2463 2.0384
2.7035 -1.0321 2.0384
2.7777 -0.8112 2.0384
2.8340 -0.5851 2.0384
2.8719 -0.3552 2.0384
2.8912 -0.1229 2.0384
2.8917 0.1101 2.0384
2.8735 0.3424 2.0384
2.8366 0.5725 2.0384
2.7813 0.7989 2.0384
2.7080 1.0201 2.0384
2.6172 1.2347 2.0384
2.5094 1.4412 2.0384
2.3853 1.6385 2.0384
2.2457 1.8251 2.0384
0.7642 0.7307 0.7448
0.7031 0.7900 0.7449
0.6373 0.8441 0.7450
0.5674 0.8928 0.7451
0.4938 0.9356 0.7452
0.4169 0.9724 0.7453
0.3374 1.0029 0.7453
0.2556 1.0268 0.7454
0.1722 1.0441 0.7454
0.0876 1.0546 0.7454
0.0024 1.0582 0.7454
-0.0827 1.0550 0.7454
-0.1673 1.0449 0.7454
-0.2508 1.0280 0.7454
-0.3327 1.0044 0.7453
-0.4124 0.9743 0.7453
-0.4894 0.9379 0.7452
-0.5633 0.8954 0.7451
-0.6334 0.8470 0.7450
-0.6994 0.7932 0.7449
-0.7609 0.7343 0.7448
-2.2372 1.8354 2.0384
-2.3776 1.6495 2.0384
-2.5027 1.4528 2.0384
-2.6114 1.2467 2.0384
-2.7033 1.0326 2.0384
-2.7776 0.8117 2.0384
-2.8339 0.5856 2.0384
-2.8718 0.3557 2.0384
-2.8912 0.1234 2.0384
-2.8917 -0.1096 2.0384
-2.8735 -0.3419 2.0384
-2.8367 -0.5720 2.0384
-2.7815 -0.7984 2.0384
-2.7082 -1.0196 2.0384
-2.6174 -1.2342 2.0384
-2.5096 -1.4408 2.0384
-2.3855 -1.6381 2.0384
-2.2460 -1.8247 2.0384
-0.7616 -0.7280 0.7421
-0.7005 -0.7868 0.7420
-0.6348 -0.8405 0.7419
-0.5650 -0.8887 0.7418
-0.4917 -0.9312 0.7418
-0.4151 -0.9677 0.7417
-0.3359 -0.9978 0.7416
-0.2545 -1.0216 0.7416
-0.1714 -1.0387 0.7416
-0.0873 -1.0491 0.7415
-0.0026 -1.0527 0.7415
0.0821 -1.0495 0.7415
0.1663 -1.0395 0.7416
0.2494 -1.0228 0.7416
0.3309 -0.9995 0.7416
0.4103 -0.9697 0.7417
0.4870 -0.9336 0.7418
0.5606 -0.8915 0.7418
0.6306 -0.8436 0.7419
0.6965 -0.7902 0.7420
0.7580 -0.7317 0.7421
2.2369 -1.8358 2.0384
2.3774 -1.6499 2.0384
2.5024 -1.4532 2.0384
2.6112 -1.2472 2.0384
2.7031 -1.0330 2.0384
2.7775 -0.8122 2.0384
2.8338 -0.5861 2.0384
2.8718 -0.3561 2.0384
2.8911 -0.1239 2.0384
2.8917 0.1091 2.0384
2.8736 0.3414 2.0384
2.8368 0.5715 2.0384
2.7816 0.7980 2.0384
2.7084 1.0192 2.0384
2.6176 1.2338 2.0384
2.5098 1.4404 2.0384
2.3858 1.6377 2.0384
2.2463 1.8243 2.0384
0.7645 0.7305 0.7448
0.7033 0.7897 0.7449
0.6376 0.8439 0.7450
0.5677 0.8926 0.7451
2.6712 -0.5506 2.0384
2.7069 -0.3339 2.0384
2.7249 -0.1150 2.0384
2.7254 0.1046 2.0384
2.7081 0.3236 2.0384
2.6733 0.5405 2.0384
2.6211 0.7538 2.0384
2.5520 0.9623 2.0384
2.4663 1.1645 2.0384
2.3646 1.3591 2.0384
2.2476 1.5450 2.0384
0.7730 0.6286 0.7446
0.7200 0.6889 0.7448
0.6623 0.7447 0.7449
0.6003 0.7957 0.7449
0.5344 0.8415 0.7450
0.4650 0.8818 0.7451
0.3926 0.9165 0.7452
0.3176 0.9452 0.7452
0.2405 0.9677 0.7453
0.1619 0.9840 0.7453
0.0822 0.9938 0.7453
0.0020 0.9972 0.7453
-0.0783 0.9941 0.7453
-0.1580 0.9846 0.7453
-0.2367 0.9686 0.7453
-0.3139 0.9464 0.7452
-0.3890 0.9180 0.7452
-0.4615 0.8837 0.7451
-0.5311 0.8436 0.7450
-0.5972 0.7980 0.7449
-0.6594 0.7473 0.7448
-0.7173 0.6917 0.7447
-0.7705 0.6317 0.7446
-2.2414 1.5539 2.0384
-2.3592 1.3685 2.0384
-2.4616 1.1742 2.0384
-2.5481 0.9723 2.0384
-2.6181 0.7642 2.0384
-2.6711 0.5510 2.0384
-2.7068 0.3343 2.0384
-2.7249 0.1154 2.0384
-2.7254 -0.1042 2.0384
-2.7082 -0.3231 2.0384
-2.6734 -0.5400 2.0384
-2.6213 -0.7533 2.0384
-2.5521 -0.9618 2.0384
-2.4665 -1.1640 2.0384
-2.3648 -1.3587 2.0384
-2.2478 -1.5446 2.0384
-0.7707 -0.6265 0.7423
-0.7176 -0.6864 0.7422
-0.6600 -0.7418 0.7421
-0.5981 -0.7924 0.7420
-0.5323 -0.8379 0.7419
-0.4631 -0.8779 0.7419
-0.3910 -0.9123 0.7418
-0.3163 -0.9407 0.7417
-0.2395 -0.9630 0.7417
-0.1613 -0.9792 0.7417
-0.0820 -0.9889 0.7417
-0.0021 -0.9923 0.7417
0.0777 -0.9893 0.7417
0.1571 -0.9798 0.7417
0.2354 -0.9641 0.7417
0.3122 -0.9420 0.7417
0.3871 -0.9139 0.7418
0.4594 -0.8799 0.7419
0.5287 -0.8402 0.7419
0.5947 -0.7950 0.7420
0.6568 -0.7447 0.7421
0.7147 -0.6895 0.7422
0.7680 -0.6298 0.7423
2.2412 -1.5543 2.0384
2.3590 -1.3689 2.0384
2.4615 -1.1746 2.0384
2.5480 -0.9728 2.0384
2.6180 -0.7646 2.0384
2.6710 -0.5515 2.0384
2.7067 -0.3348 2.0384
2.7249 -0.1159 2.0384
2.7254 0.1037 2.0384
2.7082 0.3227 2.0384
2.6735 0.5396 2.0384
2.6214 0.7529 2.0384
2.5523 0.9614 2.0384
2.4667 1.1636 2.0384
2.3650 1.3584 2.0384
2.2481 1.5442 2.0384
0.7732 0.6284 0.7446
0.7202 0.6886 0.7448
0.6626 0.7445 0.7449
0.6006 0.7955 0.7449
0.5347 0.8413 0.7450
0.4653 0.8817 0.7451
0.3929 0.9163 0.7452
0.3179 0.9451 0.7452
0.2409 0.9676 0.7453
0.1622 0.9839 0.7453
0.0825 0.9938 0.7453
0.0023 0.9972 0.7453
-0.0779 0.9942 0.7453
-0.1577 0.9846 0.7453
-0.2364 0.9687 0.7453
-0.3135 0.9465 0.7452
-0.3887 0.9181 0.7452
-0.4612 0.8838 0.7451
-0.5308 0.8438 0.7450
-0.5969 0.7982 0.7449
-0.6591 0.7475 0.7448
-0.7170 0.6920 0.7447
-0.7703 0.6319 0.7446
-2.2409 1.5546 2.0384
-2.3587 1.3693 2.0384
-2.4613 1.1751 2.0384
-2.5478 0.9732 2.0384
-2.6179 0.7650 2.0384
-2.6709 0.5519 2.0384
-2.7067 0.3352 2.0384
-2.7249 0.1164 2.0384
-2.7254 -0.1033 2.0384
-2.7083 -0.3222 2.0384
-2.6736 -0.5391 2.0384
-2.6215 -0.7525 2.0384
-2.5525 -0.9610 2.0384
-2.4669 -1.1632 2.0384
-2.3653 -1.3580 2.0384
-2.2483 -1.5439 2.0384
-0.7709 -0.6263 0.7423
-0.7179 -0.6862 0.7422
-0.6602 -0.7416 0.7421
-0.5984 -0.7922 0.7420
-0.5326 -0.8377 0.7419
-0.4634 -0.8778 0.7419
-0.3913 -0.9121 0.7418
-0.3166 -0.9406 0.7417
-0.2399 -0.9630 0.7417
-0.1616 -0.9791 0.7417
-0.0823 -0.9889 0.7417
-0.0025 -0.9923 0.7417
0.0774 -0.9893 0.7417
0.1567 -0.9799 0.7417
0.2351 -0.9641 0.7417
0.3119 -0.9421 0.7417
0.3867 -0.9141 0.7418
0.4591 -0.8801 0.7419
0.5285 -0.8403 0.7419
0.5944 -0.7952 0.7420
0.6566 -0.7449 0.7421
0.7145 -0.6897 0.7422
0.7678 -0.6301 0.7423
2.2407 -1.5550 2.0384
2.3585 -1.3697 2.0384
2.4611 -1.1754 2.0384
2.5477 -0.9736 2.0384
2.6177 -0.7655 2.0384
2.6708 -0.5523 2.0384
2.7066 -0.3357 2.0384
2.7249 -0.1168 2.0384
2.7254 0.1028 2.0384
2.7083 0.3218 2.0384
2.6736 0.5387 2.0384
2.6216 0.7521 2.0384
2.5526 0.9605 2.0384
2.4671 1.1628 2.0384
2.3655 1.3576 2.0384
2.2486 1.5435 2.0384
0.7734 0.6281 0.7446
0.7204 0.6884 0.7448
0.6628 0.7442 0.7449
0.6009 0.7953 0.7449
0.5350 0.8411 0.7450
2.5201 -0.5194 2.0384
2.5537 -0.3150 2.0384
2.5707 -0.1085 2.0384
2.5711 0.0987 2.0384
2.5549 0.3053 2.0384
2.5220 0.5099 2.0384
2.4728 0.7111 2.0384
2.4076 0.9078 2.0384
2.3267 1.0986 2.0384
2.2308 1.2822 2.0384
0.7744 0.5323 0.7445
0.7292 0.5930 0.7446
0.6792 0.6498 0.7447
0.6248 0.7025 0.7448
0.5663 0.7505 0.7449
0.5041 0.7938 0.7449
0.4387 0.8318 0.7450
0.3703 0.8645 0.7451
0.2996 0.8916 0.7451
0.2269 0.9128 0.7452
0.1527 0.9281 0.7452
0.0775 0.9375 0.7452
0.0019 0.9407 0.7452
-0.0738 0.9377 0.7452
-0.1490 0.9287 0.7452
-0.2233 0.9137 0.7452
-0.2961 0.8927 0.7451
-0.3669 0.8660 0.7451
-0.4354 0.8336 0.7450
-0.5010 0.7958 0.7449
-0.5633 0.7528 0.7449
-0.6220 0.7049 0.7448
-0.6766 0.6525 0.7447
-0.7268 0.5959 0.7446
-0.7723 0.5354 0.7445
-2.2257 1.2910 2.0384
-2.3223 1.1078 2.0384
-2.4040 0.9173 2.0384
-2.4700 0.7209 2.0384
-2.5200 0.5199 2.0384
-2.5536 0.3154 2.0384
-2.5707 0.1089 2.0384
-2.5712 -0.0983 2.0384
-2.5549 -0.3049 2.0384
-2.5221 -0.5095 2.0384
-2.4729 -0.7107 2.0384
-2.4077 -0.9074 2.0384
-2.3269 -1.0982 2.0384
-2.2310 -1.2819 2.0384
-0.7724 -0.5308 0.7425
-0.7271 -0.5911 0.7424
-0.6771 -0.6476 0.7423
-0.6227 -0.6999 0.7422
-0.5643 -0.7477 0.7421
-0.5023 -0.7906 0.7420
-0.4370 -0.8283 0.7419
-0.3689 -0.8608 0.7419
-0.2984 -0.8876 0.7418
-0.2260 -0.9087 0.7418
-0.1522 -0.9239 0.7418
-0.0773 -0.9331 0.7418
-0.0020 -0.9363 0.7418
0.0733 -0.9334 0.7418
0.1482 -0.9245 0.7418
0.2221 -0.9096 0.7418
0.2946 -0.8889 0.7418
0.3652 -0.8623 0.7419
0.4334 -0.8302 0.7420
0.4989 -0.7927 0.7420
0.5611 -0.7501 0.7421
0.6197 -0.7026 0.7422
0.6743 -0.6505 0.7423
0.7246 -0.5942 0.7424
0.7702 -0.5341 0.7425
2.2255 -1.2914 2.0384
2.3222 -1.1082 2.0384
2.4038 -0.9177 2.0384
2.4699 -0.7213 2.0384
2.5199 -0.5203 2.0384
2.5536 -0.3158 2.0384
2.5707 -0.1093 2.0384
2.5712 0.0979 2.0384
2.5550 0.3044 2.0384
2.5222 0.5090 2.0384
2.4730 0.7103 2.0384
2.4079 0.9070 2.0384
2.3271 1.0978 2.0384
2.2312 1.2815 2.0384
0.7746 0.5321 0.7445
0.7294 0.5928 0.7446
0.6794 0.6496 0.7447
0.6250 0.7023 0.7448
0.5665 0.7504 0.7449
0.5044 0.7936 0.7449
0.4389 0.8317 0.7450
0.3706 0.8644 0.7451
0.2999 0.8915 0.7451
0.2272 0.9127 0.7452
0.1530 0.9281 0.7452
0.0779 0.9374 0.7452
0.0022 0.9407 0.7452
-0.0735 0.9378 0.7452
-0.1487 0.9288 0.7452
-0.2230 0.9138 0.7452
-0.2958 0.8928 0.7451
-0.3666 0.8661 0.7451
-0.4351 0.8337 0.7450
-0.5007 0.7959 0.7449
-0.5631 0.7530 0.7449
-0.6217 0.7051 0.7448
-0.6764 0.6527 0.7447
-0.7266 0.5961 0.7446
-0.7721 0.5356 0.7445
-2.2253 1.2918 2.0384
-2.3220 1.1086 2.0384
-2.4036 0.9181 2.0384
-2.4697 0.7218 2.0384
-2.5198 0.5207 2.0384
-2.5535 0.3163 2.0384
-2.5707 0.1098 2.0384
-2.5712 -0.0974 2.0384
-2.5550 -0.3040 2.0384
-2.5223 -0.5086 2.0384
-2.4732 -0.7099 2.0384
-2.4080 -0.9066 2.0384
-2.3273 -1.0974 2.0384
-2.2314 -1.2811 2.0384
-0.7726 -0.5305 0.7425
-0.7273 -0.5909 0.7424
-0.6773 -0.6474 0.7423
-0.6229 -0.6997 0.7422
-0.5646 -0.7475 0.7421
-0.5025 -0.7904 0.7420
-0.4373 -0.8282 0.7420
-0.3692 -0.8606 0.7419
-0.2987 -0.8875 0.7418
-0.2263 -0.9086 0.7418
-0.1525 -0.9238 0.7418
-0.0776 -0.9331 0.7418
-0.0023 -0.9363 0.7418
0.0730 -0.9334 0.7418
0.1479 -0.9246 0.7418
0.2218 -0.9097 0.7418
0.2943 -0.8890 0.7418
0.3649 -0.8624 0.7419
0.4332 -0.8304 0.7420
0.4986 -0.7929 0.7420
0.5609 -0.7503 0.7421
0.6195 -0.7028 0.7422
0.6741 -0.6508 0.7423
0.7244 -0.5945 0.7424
0.7700 -0.5344 0.7425
2.2250 -1.2921 2.0384
2.3218 -1.1089 2.0384
2.4035 -0.9185 2.0384
2.4696 -0.7222 2.0384
2.5197 -0.5211 2.0384
2.5535 -0.3167 2.0384
2.5707 -0.1102 2.0384
2.5712 0.0970 2.0384
2.5551 0.3036 2.0384
2.5223 0.5082 2.0384
2.4733 0.7095 2.0384
2.4082 0.9062 2.0384
2.3274 1.0970 2.0384
2.2316 1.2808 2.0384
0.7748 0.5318 0.7445
0.7296 0.5925 0.7446
0.6796 0.6494 0.7447
0.6252 0.7020 0.7448
0.5668 0.7502 0.7449
0.5046 0.7934 0.7449
2.3793 -0.4904 2.0384
2.4110 -0.2974 2.0384
2.4271 -0.1024 2.0384
2.4275 0.0932 2.0384
2.4121 0.2882 2.0384
2.3811 0.4814 2.0384
2.3347 0.6714 2.0384
2.2731 0.8571 2.0384
2.1967 1.0372 2.0384
0.7690 0.4420 0.7443
0.7311 0.5026 0.7444
0.6884 0.5598 0.7445
0.6412 0.6135 0.7446
0.5898 0.6632 0.7447
0.5346 0.7085 0.7448
0.4759 0.7493 0.7449
0.4141 0.7853 0.7449
0.3496 0.8161 0.7450
0.2828 0.8416 0.7450
0.2142 0.8617 0.7451
0.1442 0.8762 0.7451
0.0732 0.8850 0.7451
0.0018 0.8880 0.7451
-0.0697 0.8852 0.7451
-0.1407 0.8767 0.7451
-0.2108 0.8626 0.7451
-0.2795 0.8428 0.7450
-0.3464 0.8175 0.7450
-0.4110 0.7869 0.7449
-0.4729 0.7512 0.7449
-0.5318 0.7107 0.7448
-0.5872 0.6655 0.7447
-0.6387 0.6160 0.7446
-0.6861 0.5625 0.7445
-0.7291 0.5054 0.7444
-0.7673 0.4451 0.7443
-2.1926 1.0459 2.0384
-2.2697 0.8661 2.0384
-2.3320 0.6807 2.0384
-2.3792 0.4908 2.0384
-2.4110 0.2978 2.0384
-2.4271 0.1028 2.0384
-2.4275 -0.0928 2.0384
