ply
format ascii 1.0
element vertex 2190
property float32 x
property float32 y
property float32 z
end_header
-3.4905 -11.8585 2.0364
-2.5263 -12.1006 2.0364
-0.9594 -7.6120 1.2639
-0.3425 -7.6176 1.2562
0.2708 -7.6230 1.2566
0.8886 -7.6285 1.2652
2.4122 -12.1238 2.0364
3.3787 -11.8907 2.0364
3.9997 -10.7142 1.8840
4.8477 -10.3581 1.8840
3.9764 -6.9744 1.3226
6.4712 -9.4871 1.8919
7.2590 -8.9938 1.9040
8.0064 -8.4321 1.9155
8.7068 -7.8051 1.9263
9.3538 -7.1168 1.9362
9.9415 -6.3716 1.9453
10.4641 -5.5749 1.9532
10.9167 -4.7327 1.9601
11.2946 -3.8514 1.9659
11.5940 -2.9380 1.9704
11.8120 -2.0001 1.9736
11.9462 -1.0455 1.9755
11.9953 -0.0822 1.9761
11.9587 0.8817 1.9754
11.8369 1.8379 1.9734
11.6312 2.7784 1.9700
11.3437 3.6954 1.9654
10.9319 4.5624 1.9515
10.4766 5.3986 1.9416
9.9742 6.2014 1.9348
9.4065 6.9554 1.9272
8.7788 7.6553 1.9188
8.0966 8.2965 1.9097
7.3661 8.8748 1.9000
6.5932 9.3869 1.8897
5.8000 9.8565 1.8840
4.9892 10.2907 1.8840
4.1461 10.6583 1.8840
3.5413 11.8434 2.0364
2.5781 12.0897 2.0364
1.5983 12.2577 2.0364
0.6081 12.3465 2.0364
-0.3860 12.3555 2.0364
-1.3776 12.2845 2.0364
-2.3603 12.1341 2.0364
-3.3277 11.9052 2.0364
-4.2736 11.5993 2.0364
-5.1918 11.2184 2.0364
-6.0765 10.7649 2.0364
-6.9219 10.2418 2.0364
-7.7225 9.6524 2.0364
-8.4732 9.0006 2.0364
-9.1691 8.2907 2.0364
-9.8056 7.5270 2.0364
-10.3788 6.7148 2.0364
3.9558 -6.8022 1.5249
5.5468 -7.9840 1.8840
6.1803 -7.5244 1.8870
6.7991 -7.0388 1.8966
7.3771 -6.5000 1.9054
7.9094 -5.9114 1.9136
8.3911 -5.2770 1.9210
8.8178 -4.6013 1.9275
9.1856 -3.8891 1.9331
9.4911 -3.1459 1.9377
9.7313 -2.3774 1.9413
9.9038 -1.5899 1.9439
10.0072 -0.7895 1.9454
10.0402 0.0172 1.9458
10.0027 0.8237 1.9450
9.8950 1.6233 1.9432
9.7182 2.4096 1.9404
9.4740 3.1763 1.9365
9.1648 3.9174 1.9315
8.7894 4.6249 1.9248
8.3396 5.2847 1.9134
7.8616 5.9179 1.9070
7.3334 6.5064 1.8999
6.7595 7.0461 1.8922
6.1446 7.5336 1.8840
5.5194 8.0030 1.8840
4.8584 8.4206 1.8840
4.1660 8.7838 1.8840
3.7255 9.8255 2.0364
2.9239 10.0931 2.0364
2.1034 10.2954 2.0364
1.2693 10.4311 2.0364
0.4270 10.4994 2.0364
-0.4181 10.4997 2.0364
-1.2605 10.4322 2.0364
-2.0947 10.2972 2.0364
-2.9154 10.0956 2.0364
-3.7172 9.8286 2.0364
-4.4950 9.4981 2.0364
-5.2437 9.1062 2.0364
-5.9585 8.6554 2.0364
-6.6347 8.1486 2.0364
-7.2681 7.5891 2.0364
-7.8544 6.9805 2.0364
-8.3899 6.3268 2.0364
-8.8712 5.6322 2.0364
-9.2951 4.9011 2.0364
-9.6589 4.1383 2.0364
-9.9602 3.3488 2.0364
-10.1971 2.5376 2.0364
-10.3680 1.7100 2.0364
-10.4719 0.8713 2.0364
-10.5080 0.0270 2.0364
-10.4762 -0.8175 2.0364
-10.3766 -1.6567 2.0364
-10.2100 -2.4852 2.0364
-9.9772 -3.2976 2.0364
-9.6800 -4.0885 2.0364
-9.3201 -4.8533 2.0364
-8.9000 -5.5865 2.0364
-8.4223 -6.2836 2.0364
-7.8901 -6.9401 2.0364
-7.3069 -7.5517 2.0364
-6.6765 -8.1144 2.0364
-6.0028 -8.6248 2.0364
-5.2903 -9.0792 2.0364
-4.5437 -9.4749 2.0364
-3.7676 -9.8094 2.0364
-2.9672 -10.0804 2.0364
-2.1475 -10.2863 2.0364
-0.9594 -7.6119 1.4868
-0.3425 -7.6175 1.4777
0.2708 -7.6229 1.4782
0.8886 -7.6284 1.4884
2.0505 -10.3060 2.0364
2.8721 -10.1080 2.0364
3.6750 -9.8445 2.0364
4.1209 -8.8051 1.8840
3.9488 -6.9261 1.5451
5.4782 -8.0312 1.8840
6.1122 -7.5729 1.8860
6.7350 -7.0931 1.8956
7.3177 -6.5599 1.9045
7.8550 -5.9764 1.9128
8.3423 -5.3467 1.9203
8.7751 -4.6750 1.9269
9.1494 -3.9665 1.9326
9.4616 -3.2263 1.9373
9.7089 -2.4603 1.9410
9.8887 -1.6745 1.9437
9.9995 -0.8751 1.9453
10.0401 -0.0688 1.9458
10.0101 0.7380 1.9452
9.9098 1.5387 1.9435
9.7403 2.3267 1.9407
9.5031 3.0958 1.9369
9.2007 3.8399 1.9321
8.8337 4.5520 1.9259
8.3874 5.2148 1.9140
7.9150 5.8525 1.9077
7.3919 6.4459 1.9007
6.8226 6.9910 1.8931
6.2120 7.4844 1.8850
5.5877 7.9554 1.8840
4.9304 8.3787 1.8840
4.2411 8.7478 1.8840
3.8096 9.7932 2.0364
3.0103 10.0676 2.0364
2.1916 10.2770 2.0364
1.3587 10.4199 2.0364
0.5169 10.4953 2.0364
-0.3281 10.5029 2.0364
-1.1710 10.4426 2.0364
-2.0064 10.3147 2.0364
-2.8287 10.1202 2.0364
-3.6328 9.8601 2.0364
-4.4134 9.5363 2.0364
-5.1654 9.1508 2.0364
-5.8841 8.7061 2.0364
-6.5646 8.2052 2.0364
-7.2028 7.6511 2.0364
-7.7943 7.0476 2.0364
-8.3354 6.3985 2.0364
-8.8226 5.7080 2.0364
3.9287 -6.7555 1.7440
4.8167 -6.9331 1.8840
5.3582 -6.5236 1.8840
5.8651 -6.0719 1.8840
6.3521 -5.5969 1.8894
6.8063 -5.0870 1.8964
7.2170 -4.5386 1.9026
7.5804 -3.9555 1.9082
7.8934 -3.3419 1.9130
8.1531 -2.7024 1.9169
8.3572 -2.0417 1.9200
8.5039 -1.3651 1.9221
8.5917 -0.6778 1.9234
8.6198 0.0148 1.9237
8.5881 0.7072 1.9231
8.4967 1.3939 1.9216
8.3466 2.0695 1.9191
8.1392 2.7288 1.9158
7.8763 3.3667 1.9116
7.5605 3.9783 1.9066
7.1945 4.5591 1.9008
6.7819 5.1052 1.8944
6.3238 5.6106 1.8867
5.8442 6.0920 1.8840
5.3358 6.5420 1.8840
4.7929 6.9496 1.8840
4.2189 7.3122 1.8840
3.9103 8.2446 2.0364
3.2351 8.5322 2.0364
2.5391 8.7645 2.0364
1.8266 8.9402 2.0364
1.1022 9.0581 2.0364
0.3708 9.1174 2.0364
-0.3630 9.1177 2.0364
-1.0945 9.0590 2.0364
-1.8190 8.9418 2.0364
-2.5316 8.7667 2.0364
-3.2279 8.5349 2.0364
-3.9033 8.2479 2.0364
-4.5535 7.9076 2.0364
-5.1742 7.5161 2.0364
-5.7614 7.0760 2.0364
-6.3114 6.5902 2.0364
-6.8205 6.0617 2.0364
-7.2856 5.4940 2.0364
-7.7035 4.8908 2.0364
-8.0716 4.2560 2.0364
-8.3875 3.5936 2.0364
-8.6491 2.9080 2.0364
-8.8548 2.2036 2.0364
-9.0033 1.4849 2.0364
-9.0935 0.7566 2.0364
-9.1249 0.0234 2.0364
-9.0973 -0.7099 2.0364
-9.0108 -1.4386 2.0364
-8.8660 -2.1581 2.0364
-8.6640 -2.8635 2.0364
-8.4058 -3.5505 2.0364
-8.0933 -4.2145 2.0364
-7.7285 -4.8512 2.0364
-7.3137 -5.4565 2.0364
-6.8516 -6.0266 2.0364
-6.3451 -6.5577 2.0364
-5.7977 -7.0464 2.0364
-5.2127 -7.4894 2.0364
-4.5940 -7.8841 2.0364
-3.9456 -8.2278 2.0364
-3.2717 -8.5182 2.0364
-2.5766 -8.7536 2.0364
-1.8649 -8.9323 2.0364
-0.9594 -7.6118 1.7122
-0.3425 -7.6174 1.7017
0.2708 -7.6228 1.7023
0.8885 -7.6283 1.7139
1.7806 -8.9495 2.0364
2.4940 -8.7775 2.0364
3.1913 -8.5487 2.0364
3.8034 -8.1268 2.0025
3.9214 -6.8779 1.7669
4.7571 -6.9741 1.8840
5.3021 -6.5693 1.8840
5.8129 -6.1219 1.8840
6.3013 -5.6488 1.8886
6.7600 -5.1432 1.8956
7.1754 -4.5988 1.9020
7.5440 -4.0192 1.9076
7.8625 -3.4086 1.9125
8.1281 -2.7716 1.9165
8.3382 -2.1130 1.9197
8.4911 -1.4378 1.9219
8.5852 -0.7513 1.9233
8.6197 -0.0590 1.9237
8.5943 0.6336 1.9232
8.5092 1.3212 1.9218
8.3654 1.9983 1.9194
8.1640 2.6595 1.9162
7.9069 3.2999 1.9121
7.5966 3.9145 1.9072
7.2358 4.4988 1.9015
6.8277 5.0486 1.8951
6.3739 5.5582 1.8874
5.8962 6.0417 1.8840
5.3917 6.4960 1.8840
4.8522 6.9083 1.8840
4.2814 7.2758 1.8840
3.9666 8.1815 2.0291
3.3081 8.5041 2.0364
2.6141 8.7425 2.0364
1.9031 8.9243 2.0364
1.1798 9.0483 2.0364
0.4489 9.1139 2.0364
-0.2849 9.1205 2.0364
-1.0169 9.0681 2.0364
-1.7423 8.9570 2.0364
-2.4564 8.7881 2.0364
-3.1546 8.5623 2.0364
-3.8325 8.2811 2.0364
-4.4855 7.9463 2.0364
-5.1096 7.5602 2.0364
-5.7006 7.1252 2.0364
-6.2547 6.6440 2.0364
-6.7684 6.1199 2.0364
-7.2382 5.5563 2.0364
-7.6613 4.9566 2.0364
3.8330 -6.5909 1.9284
4.2502 -6.1176 1.8840
4.7280 -5.7563 1.8840
5.1753 -5.3578 1.8840
5.5891 -4.9246 1.8840
5.9641 -4.4575 1.8832
6.3213 -3.9754 1.8886
6.6372 -3.4634 1.8935
6.9091 -2.9252 1.8976
7.1346 -2.3648 1.9010
7.3118 -1.7863 1.9037
7.4390 -1.1942 1.9056
7.5152 -0.5929 1.9066
7.5397 0.0129 1.9069
7.5122 0.6186 1.9064
7.4330 1.2194 1.9051
7.3029 1.8108 1.9030
7.1229 2.3881 1.9001
6.8948 2.9471 1.8964
6.6205 3.4836 1.8921
6.3024 3.9937 1.8871
5.9514 4.4800 1.8840
5.5721 4.9437 1.8840
5.1569 5.3755 1.8840
4.7082 5.7725 1.8840
4.2291 6.1322 1.8840
3.9578 6.8597 2.0030
3.4504 7.2749 2.0364
2.8546 7.5286 2.0364
2.2404 7.7337 2.0364
1.6117 7.8887 2.0364
0.9726 7.9927 2.0364
0.3272 8.0450 2.0364
-0.3203 8.0453 2.0364
-0.9658 7.9935 2.0364
-1.6050 7.8901 2.0364
-2.2339 7.7356 2.0364
-2.8482 7.5311 2.0364
-3.4442 7.2778 2.0364
-4.0179 6.9775 2.0364
-4.5656 6.6321 2.0364
-5.0838 6.2438 2.0364
-5.5691 5.8151 2.0364
-6.0183 5.3488 2.0364
-6.4287 4.8479 2.0364
-6.7974 4.3156 2.0364
-7.1223 3.7554 2.0364
-7.4010 3.1709 2.0364
-7.6319 2.5660 2.0364
-7.8134 1.9444 2.0364
-7.9444 1.3102 2.0364
-8.0240 0.6676 2.0364
-8.0517 0.0207 2.0364
-8.0273 -0.6264 2.0364
-7.9510 -1.2694 2.0364
-7.8233 -1.9042 2.0364
-7.6449 -2.5267 2.0364
-7.4172 -3.1329 2.0364
-7.1414 -3.7188 2.0364
-6.8195 -4.2806 2.0364
-6.4535 -4.8148 2.0364
-6.0457 -5.3178 2.0364
-5.5988 -5.7864 2.0364
-5.1158 -6.2176 2.0364
-4.5996 -6.6086 2.0364
-4.0537 -6.9568 2.0364
-3.4815 -7.2601 2.0364
-2.8869 -7.5164 2.0364
-2.2735 -7.7240 2.0364
-1.6455 -7.8817 2.0364
-1.0068 -7.9885 2.0364
-0.3617 -8.0435 2.0364
0.2859 -8.0466 2.0364
0.9316 -7.9976 2.0364
1.5712 -7.8969 2.0364
2.2007 -7.7451 2.0364
2.8159 -7.5432 2.0364
3.4130 -7.2925 2.0364
3.8269 -6.7122 1.9542
4.1976 -6.1538 1.8840
4.6785 -5.7966 1.8840
5.1292 -5.4019 1.8840
5.5467 -4.9723 1.8840
5.9237 -4.5070 1.8826
6.2851 -4.0282 1.8881
6.6056 -3.5192 1.8930
6.8823 -2.9837 1.8972
7.1129 -2.4254 1.9007
7.2953 -1.8487 1.9034
7.4279 -1.2578 1.9054
7.5096 -0.6572 1.9066
7.5395 -0.0517 1.9069
7.5176 0.5542 1.9065
7.4439 1.1558 1.9053
7.3191 1.7484 1.9032
7.1444 2.3274 1.9004
6.9213 2.8886 1.8969
6.6518 3.4277 1.8926
6.3382 3.9408 1.8876
5.9896 4.4288 1.8840
5.6143 4.8958 1.8840
5.2027 5.3311 1.8840
4.7575 5.7320 1.8840
4.2815 6.0957 1.8840
3.9615 6.7323 1.9756
3.5126 7.2451 2.0364
2.9191 7.5039 2.0364
2.3066 7.7142 2.0364
1.6793 7.8746 2.0364
1.0411 7.9841 2.0364
0.3961 8.0419 2.0364
-0.2514 8.0478 2.0364
-0.8973 8.0015 2.0364
-1.5374 7.9036 2.0364
-2.1675 7.7545 2.0364
-2.7836 7.5552 2.0364
-3.3817 7.3071 2.0364
-3.9580 7.0117 2.0364
-4.5086 6.6710 2.0364
-5.0301 6.2871 2.0364
-5.5190 5.8626 2.0364
-5.9723 5.4001 2.0364
-6.3869 4.9028 2.0364
-6.7602 4.3737 2.0364
3.6163 -6.2184 2.0364
3.8474 -5.5379 1.9090
4.2241 -5.1428 1.8840
4.6237 -4.7867 1.8840
4.9934 -4.3997 1.8840
5.3308 -3.9842 1.8840
5.6337 -3.5430 1.8840
5.9002 -3.0788 1.8840
6.1333 -2.5968 1.8855
6.3322 -2.0988 1.8885
6.4885 -1.5852 1.8909
6.6007 -1.0596 1.8925
6.6678 -0.5260 1.8935
6.6894 0.0115 1.8937
6.6652 0.5489 1.8933
6.5955 1.0820 1.8921
6.4808 1.6069 1.8902
6.3222 2.1196 1.8877
6.1210 2.6164 1.8845
5.8896 3.0990 1.8840
5.6215 3.5623 1.8840
5.3170 4.0025 1.8840
4.9782 4.4168 1.8840
4.6072 4.8026 1.8840
4.2064 5.1573 1.8840
3.9521 5.7306 1.9707
3.5949 6.2308 2.0364
3.0826 6.4995 2.0364
2.5504 6.7262 2.0364
2.0016 6.9094 2.0364
1.4399 7.0479 2.0364
0.8689 7.1408 2.0364
0.2923 7.1875 2.0364
-0.2862 7.1878 2.0364
-0.8629 7.1416 2.0364
-1.4339 7.0491 2.0364
-1.9958 6.9111 2.0364
-2.5447 6.7284 2.0364
-3.0771 6.5021 2.0364
-3.5896 6.2339 2.0364
-4.0790 5.9252 2.0364
-4.5419 5.5783 2.0364
-4.9755 5.1953 2.0364
-5.3769 4.7787 2.0364
-5.7435 4.3311 2.0364
-6.0729 3.8556 2.0364
-6.3631 3.3551 2.0364
-6.6122 2.8330 2.0364
-6.8184 2.2925 2.0364
-6.9806 1.7372 2.0364
-7.0976 1.1706 2.0364
-7.1687 0.5965 2.0364
-7.1935 0.0185 2.0364
-7.1717 -0.5596 2.0364
-7.1035 -1.1341 2.0364
-6.9894 -1.7013 2.0364
-6.8301 -2.2574 2.0364
-6.6266 -2.7989 2.0364
-6.3803 -3.3224 2.0364
-6.0926 -3.8244 2.0364
-5.7656 -4.3016 2.0364
-5.4013 -4.7510 2.0364
-5.0021 -5.1696 2.0364
-4.5705 -5.5549 2.0364
-4.1093 -5.9042 2.0364
-3.6216 -6.2153 2.0364
-3.1104 -6.4862 2.0364
-2.5792 -6.7152 2.0364
-2.0312 -6.9007 2.0364
-1.4701 -7.0416 2.0364
-0.8995 -7.1370 2.0364
-0.3231 -7.1862 2.0364
0.2554 -7.1889 2.0364
0.8323 -7.1452 2.0364
1.4037 -7.0552 2.0364
1.9661 -6.9196 2.0364
2.5158 -6.7392 2.0364
3.0492 -6.5152 2.0364
3.5629 -6.2491 2.0364
3.8425 -5.6332 1.9304
4.1799 -5.1788 1.8840
4.5825 -4.8262 1.8840
4.9555 -4.4423 1.8840
5.2964 -4.0297 1.8840
5.6031 -3.5911 1.8840
5.8736 -3.1292 1.8840
6.1097 -2.6487 1.8852
6.3131 -2.1527 1.8882
6.4739 -1.6405 1.8906
6.5908 -1.1160 1.8924
6.6628 -0.5831 1.8934
6.6893 -0.0458 1.8937
6.6700 0.4918 1.8933
6.6051 1.0255 1.8923
6.4952 1.5515 1.8905
6.3412 2.0657 1.8880
6.1444 2.5643 1.8849
5.9159 3.0485 1.8840
5.6518 3.5140 1.8840
5.3512 3.9568 1.8840
5.0159 4.3740 1.8840
4.6482 4.7629 1.8840
4.2504 5.1210 1.8840
3.9553 5.6313 1.9481
3.6482 6.1998 2.0364
3.1382 6.4729 2.0364
2.6079 6.7041 2.0364
2.0608 6.8920 2.0364
1.5003 7.0353 2.0364
0.9301 7.1331 2.0364
0.3539 7.1848 2.0364
-0.2246 7.1900 2.0364
-0.8016 7.1487 2.0364
-1.3735 7.0611 2.0364
-1.9365 6.9279 2.0364
-2.4869 6.7499 2.0364
-3.0213 6.5283 2.0364
-3.5361 6.2644 2.0364
-4.0280 5.9599 2.0364
-4.4939 5.6170 2.0364
-4.9308 5.2377 2.0364
-5.3357 4.8245 2.0364
-5.7061 4.3802 2.0364
-6.0397 3.9075 2.0364
3.2629 -5.6107 2.0364
3.7032 -5.3304 2.0364
3.8566 -4.6953 1.9064
4.1719 -4.3190 1.8840
4.5054 -3.9698 1.8840
4.8099 -3.5949 1.8840
5.0832 -3.1967 1.8840
5.3236 -2.7779 1.8840
5.5296 -2.3412 1.8840
5.6999 -1.8892 1.8840
5.8333 -1.4251 1.8840
5.9289 -0.9518 1.8840
5.9824 -0.4720 1.8828
6.0017 0.0103 1.8830
5.9802 0.4924 1.8826
5.9256 0.9721 1.8840
5.8283 1.4451 1.8840
5.6934 1.9088 1.8840
5.5216 2.3601 1.8840
5.3140 2.7962 1.8840
5.0722 3.2142 1.8840
4.7975 3.6114 1.8840
4.4918 3.9852 1.8840
4.1570 4.3333 1.8840
3.9452 4.8370 1.9584
3.6849 5.3431 2.0364
3.2437 5.6219 2.0364
2.7814 5.8644 2.0364
2.3012 6.0689 2.0364
1.8060 6.2342 2.0364
1.2992 6.3592 2.0364
0.7840 6.4430 2.0364
0.2638 6.4852 2.0364
-0.2582 6.4854 2.0364
-0.7785 6.4437 2.0364
-1.2938 6.3603 2.0364
-1.8007 6.2358 2.0364
-2.2960 6.0709 2.0364
-2.7764 5.8668 2.0364
-3.2389 5.6247 2.0364
-3.6804 5.3462 2.0364
-4.0981 5.0332 2.0364
-4.4893 4.6876 2.0364
-4.8514 4.3117 2.0364
-5.1822 3.9079 2.0364
-5.4795 3.4788 2.0364
-5.7413 3.0273 2.0364
-5.9660 2.5561 2.0364
-6.1521 2.0685 2.0364
-6.2985 1.5674 2.0364
-6.4040 1.0562 2.0364
-6.4682 0.5382 2.0364
-6.4905 0.0167 2.0364
-6.4709 -0.5049 2.0364
-6.4094 -1.0233 2.0364
-6.3064 -1.5350 2.0364
-6.1627 -2.0368 2.0364
-5.9791 -2.5254 2.0364
-5.7568 -2.9977 2.0364
-5.4973 -3.4506 2.0364
-5.2022 -3.8812 2.0364
-4.8735 -4.2867 2.0364
-4.5133 -4.6645 2.0364
-4.1239 -5.0121 2.0364
-3.7078 -5.3273 2.0364
-3.2677 -5.6080 2.0364
-2.8065 -5.8524 2.0364
-2.3271 -6.0590 2.0364
-1.8327 -6.2264 2.0364
-1.3265 -6.3536 2.0364
-0.8116 -6.4396 2.0364
-0.2915 -6.4840 2.0364
0.2304 -6.4865 2.0364
0.7509 -6.4470 2.0364
1.2666 -6.3658 2.0364
1.7740 -6.2434 2.0364
2.2700 -6.0807 2.0364
2.7513 -5.8786 2.0364
3.2147 -5.6385 2.0364
3.6574 -5.3619 2.0364
3.8524 -4.7730 1.9245
4.1347 -4.3545 1.8840
4.4712 -4.0082 1.8840
4.7789 -3.6360 1.8840
5.0556 -3.2402 1.8840
5.2996 -2.8234 1.8840
5.5094 -2.3885 1.8840
5.6835 -1.9380 1.8840
5.8208 -1.4750 1.8840
5.9205 -1.0025 1.8840
5.9780 -0.5232 1.8828
6.0016 -0.0411 1.8831
5.9844 0.4412 1.8827
5.9337 0.9213 1.8840
5.8405 1.3951 1.8840
5.7095 1.8600 1.8840
5.5416 2.3127 1.8840
5.3378 2.7506 1.8840
5.0995 3.1706 1.8840
4.8283 3.5701 1.8840
4.5258 3.9466 1.8840
4.1940 4.2975 1.8840
3.9479 4.7565 1.9394
3.7306 5.3113 2.0364
3.2917 5.5939 2.0364
2.8315 5.8403 2.0364
2.3531 6.0490 2.0364
1.8594 6.2185 2.0364
1.3537 6.3478 2.0364
0.8392 6.4361 2.0364
0.3193 6.4827 2.0364
-0.2027 6.4874 2.0364
-0.7233 6.4501 2.0364
-1.2393 6.3711 2.0364
-1.7472 6.2510 2.0364
-2.2439 6.0903 2.0364
-2.7260 5.8903 2.0364
-3.1906 5.6522 2.0364
-3.6344 5.3776 2.0364
-4.0548 5.0681 2.0364
-4.4490 4.7259 2.0364
-4.8143 4.3531 2.0364
-5.1486 3.9522 2.0364
-5.4495 3.5257 2.0364
2.9678 -5.1032 2.0364
3.3682 -4.8482 2.0364
3.7469 -4.5619 2.0364
3.8617 -3.9979 1.9174
4.0979 -3.6106 1.8840
4.3747 -3.2697 1.8840
4.6233 -2.9076 1.8840
4.8420 -2.5266 1.8840
5.0294 -2.1294 1.8840
5.1843 -1.7183 1.8840
5.3056 -1.2962 1.8840
5.3926 -0.8657 1.8840
5.4447 -0.4295 1.8840
5.4616 0.0094 1.8840
5.4432 0.4482 1.8840
5.3896 0.8842 1.8840
5.3011 1.3144 1.8840
5.1783 1.7361 1.8840
5.0221 2.1466 1.8840
4.8333 2.5433 1.8840
4.6133 2.9234 1.8840
4.3635 3.2847 1.8840
4.0854 3.6247 1.8840
3.9370 4.1039 1.9618
3.7313 4.5747 2.0364
3.3516 4.8597 2.0364
2.9502 5.1134 2.0364
2.5298 5.3339 2.0364
2.0930 5.5199 2.0364
1.6427 5.6703 2.0364
1.1817 5.7839 2.0364
0.7131 5.8602 2.0364
0.2399 5.8985 2.0364
-0.2349 5.8987 2.0364
-0.7081 5.8608 2.0364
-1.1768 5.7849 2.0364
-1.6378 5.6717 2.0364
-2.0883 5.5217 2.0364
-2.5252 5.3360 2.0364
-2.9459 5.1159 2.0364
-3.3474 4.8626 2.0364
-3.7274 4.5779 2.0364
-4.0832 4.2636 2.0364
-4.4126 3.9216 2.0364
-4.7134 3.5544 2.0364
-4.9838 3.1642 2.0364
-5.2220 2.7534 2.0364
-5.4263 2.3249 2.0364
-5.5956 1.8813 2.0364
-5.7287 1.4256 2.0364
-5.8247 0.9607 2.0364
-5.8831 0.4896 2.0364
-5.9034 0.0151 2.0364
-5.8855 -0.4593 2.0364
-5.8296 -0.9307 2.0364
-5.7359 -1.3962 2.0364
-5.6052 -1.8526 2.0364
-5.4382 -2.2970 2.0364
-5.2360 -2.7266 2.0364
-5.0000 -3.1385 2.0364
-4.7316 -3.5301 2.0364
-4.4327 -3.8989 2.0364
-4.1050 -4.2425 2.0364
-3.7508 -4.5587 2.0364
-3.3724 -4.8454 2.0364
-2.9721 -5.1007 2.0364
-2.5526 -5.3230 2.0364
-0.7689 -2.0020 0.7398
-1.6669 -5.6632 2.0364
-1.2065 -5.7788 2.0364
-0.7382 -5.8571 2.0364
-0.2652 -5.8974 2.0364
0.2096 -5.8997 2.0364
0.6830 -5.8638 2.0364
1.1520 -5.7899 2.0364
1.6135 -5.6786 2.0364
0.7500 -2.0091 0.7398
2.5024 -5.3468 2.0364
2.9239 -5.1284 2.0364
3.3266 -4.8769 2.0364
3.7077 -4.5938 2.0364
3.8582 -4.0633 1.9329
4.0668 -3.6456 1.8840
4.3466 -3.3070 1.8840
4.5983 -2.9471 1.8840
4.8202 -2.5680 1.8840
5.0110 -2.1724 1.8840
5.1693 -1.7627 1.8840
5.2943 -1.3416 1.8840
5.3850 -0.9118 1.8840
5.4408 -0.4762 1.8840
5.4615 -0.0374 1.8840
5.4468 0.4016 1.8840
5.3969 0.8380 1.8840
5.3122 1.2690 1.8840
5.1930 1.6917 1.8840
5.0403 2.1035 1.8840
4.8549 2.5018 1.8840
4.6382 2.8838 1.8840
4.3915 3.2472 1.8840
4.1163 3.5896 1.8840
3.9393 4.0365 1.9456
3.7703 4.5426 2.0364
3.3931 4.8309 2.0364
2.9939 5.0879 2.0364
2.5754 5.3120 2.0364
2.1402 5.5018 2.0364
1.6912 5.6560 2.0364
1.2312 5.7736 2.0364
0.7633 5.8538 2.0364
0.2904 5.8963 2.0364
-0.1843 5.9005 2.0364
-0.6579 5.8666 2.0364
-1.1272 5.7948 2.0364
-1.5892 5.6855 2.0364
-2.0409 5.5394 2.0364
-2.4794 5.3575 2.0364
-2.9019 5.1409 2.0364
-3.3057 4.8911 2.0364
-3.6880 4.6097 2.0364
-4.0465 4.2984 2.0364
-4.3788 3.9593 2.0364
-4.6828 3.5947 2.0364
-4.9565 3.2067 2.0364
2.7171 -4.6722 2.0364
3.0838 -4.4388 2.0364
3.4305 -4.1766 2.0364
3.7550 -3.8874 2.0364
3.8636 -3.4043 1.9402
4.0053 -2.9936 1.8840
4.2329 -2.6620 1.8840
4.4331 -2.3133 1.8840
4.6047 -1.9495 1.8840
4.7465 -1.5732 1.8840
4.8575 -1.1867 1.8840
4.9372 -0.7926 1.8840
4.9849 -0.3933 1.8840
5.0004 0.0086 1.8840
4.9835 0.4104 1.8840
4.9344 0.8095 1.8840
4.8534 1.2034 1.8840
4.7410 1.5895 1.8840
4.5980 1.9654 1.8840
4.4252 2.3285 1.8840
4.2237 2.6765 1.8840
3.9950 3.0073 1.8840
3.9276 3.4846 1.9783
3.7417 3.9003 2.0364
3.4162 4.1884 2.0364
3.0685 4.4494 2.0364
2.7011 4.6815 2.0364
2.3162 4.8835 2.0364
0.7028 1.8536 0.7469
0.5517 1.9043 0.7470
0.3969 1.9426 0.7471
0.2395 1.9684 0.7471
0.2196 5.4004 2.0364
-0.2151 5.4006 2.0364
-0.2378 1.9686 0.7471
-0.3952 1.9430 0.7471
-0.5500 1.9047 0.7470
-0.7012 1.8541 0.7469
-2.3120 4.8854 2.0364
-2.6971 4.6838 2.0364
-3.0648 4.4520 2.0364
-3.4126 4.1913 2.0364
-3.7384 3.9035 2.0364
-4.0399 3.5905 2.0364
-4.3154 3.2542 2.0364
-4.5629 2.8969 2.0364
-4.7810 2.5209 2.0364
-4.9681 2.1286 2.0364
-5.1231 1.7224 2.0364
-5.2449 1.3052 2.0364
-5.3328 0.8795 2.0364
-5.3863 0.4481 2.0364
-5.4049 0.0139 2.0364
-5.3885 -0.4205 2.0364
-5.3373 -0.8521 2.0364
-5.2515 -1.2783 2.0364
-5.1318 -1.6961 2.0364
-4.9790 -2.1030 2.0364
-4.7939 -2.4963 2.0364
-4.5778 -2.8735 2.0364
-4.3321 -3.2320 2.0364
-4.0583 -3.5697 2.0364
-3.7584 -3.8843 2.0364
-3.4341 -4.1737 2.0364
-3.0876 -4.4362 2.0364
-2.7211 -4.6699 2.0364
-2.3371 -4.8735 2.0364
-0.7043 -1.8337 0.7401
-0.5546 -1.8841 0.7400
-0.4014 -1.9224 0.7399
-0.2456 -1.9483 0.7399
-0.0882 -1.9617 0.7399
0.0697 -1.9624 0.7399
0.2272 -1.9506 0.7399
0.3832 -1.9261 0.7399
0.5368 -1.8893 0.7400
0.6870 -1.8402 0.7401
2.2911 -4.8953 2.0364
2.6770 -4.6953 2.0364
3.0457 -4.4650 2.0364
3.3946 -4.2059 2.0364
3.7216 -3.9195 2.0364
3.8606 -3.4608 1.9535
3.9795 -3.0278 1.8840
4.2099 -2.6982 1.8840
4.4132 -2.3512 1.8840
4.5878 -1.9889 1.8840
4.7328 -1.6138 1.8840
4.8472 -1.2283 1.8840
4.9302 -0.8348 1.8840
4.9814 -0.4360 1.8840
5.0003 -0.0343 1.8840
4.9869 0.3677 1.8840
4.9412 0.7672 1.8840
4.8636 1.1618 1.8840
4.7545 1.5488 1.8840
4.6146 1.9259 1.8840
4.4450 2.2905 1.8840
4.2465 2.6403 1.8840
4.0206 2.9730 1.8840
3.9296 3.4267 1.9644
3.7750 3.8681 2.0364
3.4519 4.1590 2.0364
3.1066 4.4229 2.0364
2.7411 4.6582 2.0364
2.3579 4.8634 2.0364
0.7187 1.8475 0.7469
0.5680 1.8995 0.7470
0.4135 1.9391 0.7471
0.2564 1.9662 0.7471
0.2659 5.3983 2.0364
-0.1688 5.4022 2.0364
-0.2210 1.9705 0.7471
-0.3786 1.9463 0.7471
-0.5337 1.9094 0.7470
-0.6853 1.8601 0.7469
-2.2701 4.9051 2.0364
-2.6569 4.7068 2.0364
-3.0265 4.4781 2.0364
-3.3766 4.2204 2.0364
-3.7048 3.9354 2.0364
-4.0090 3.6250 2.0364
-4.2874 3.2911 2.0364
-4.5380 2.9359 2.0364
2.5014 -4.3012 2.0364
2.8389 -4.0863 2.0364
3.1581 -3.8450 2.0364
3.4569 -3.5787 2.0364
3.7333 -3.2894 2.0364
3.8627 -2.8870 1.9737
3.8968 -2.4506 1.8840
4.0811 -2.1296 1.8840
4.2390 -1.7947 1.8840
4.3695 -1.4483 1.8840
4.4718 -1.0925 1.8840
4.5451 -0.7296 1.8840
4.5891 -0.3620 1.8840
4.6033 0.0079 1.8840
4.5878 0.3778 1.8840
4.5426 0.7452 1.8840
4.4680 1.1078 1.8840
4.3646 1.4633 1.8840
4.2329 1.8093 1.8840
4.0738 2.1436 1.8840
3.9310 2.4909 1.9047
3.9168 2.9484 2.0065
3.7220 3.3022 2.0364
3.4446 3.5906 2.0364
3.1449 3.8558 2.0364
2.8249 4.0960 2.0364
2.4866 4.3098 2.0364
0.7816 1.6480 0.7465
0.6468 1.7058 0.7466
0.5077 1.7524 0.7467
0.3652 1.7877 0.7468
0.2204 1.8114 0.7468
0.0742 1.8233 0.7468
-0.0726 1.8233 0.7468
-0.2189 1.8115 0.7468
-0.3637 1.7880 0.7468
-0.5062 1.7528 0.7467
-0.6453 1.7063 0.7466
-2.1284 4.4975 2.0364
-2.4829 4.3119 2.0364
-2.8214 4.0985 2.0364
-3.1416 3.8585 2.0364
-3.4415 3.5935 2.0364
-3.7191 3.3054 2.0364
-3.9727 2.9958 2.0364
-4.2006 2.6669 2.0364
-4.4013 2.3207 2.0364
-4.5736 1.9595 2.0364
-4.7163 1.5857 2.0364
-4.8284 1.2016 2.0364
-4.9094 0.8097 2.0364
-4.9586 0.4126 2.0364
-4.9757 0.0128 2.0364
-4.9606 -0.3871 2.0364
-4.9135 -0.7845 2.0364
-4.8345 -1.1768 2.0364
-4.7243 -1.5614 2.0364
-4.5836 -1.9360 2.0364
-4.4132 -2.2981 2.0364
-4.2142 -2.6453 2.0364
-3.9880 -2.9754 2.0364
-3.7361 -3.2863 2.0364
-3.4599 -3.5758 2.0364
-3.1614 -3.8423 2.0364
-2.8424 -4.0839 2.0364
-2.5050 -4.2991 2.0364
-0.7823 -1.6313 0.7405
-0.6486 -1.6887 0.7404
-0.5107 -1.7352 0.7403
-0.3696 -1.7704 0.7402
-0.2261 -1.7943 0.7402
-0.0812 -1.8066 0.7402
0.0642 -1.8073 0.7402
0.2092 -1.7964 0.7402
0.3529 -1.7738 0.7402
0.4944 -1.7399 0.7403
0.6327 -1.6947 0.7404
0.7669 -1.6386 0.7405
2.4644 -4.3225 2.0364
2.8038 -4.1105 2.0364
3.1250 -3.8719 2.0364
3.4261 -3.6082 2.0364
3.7049 -3.3213 2.0364
3.8601 -2.9370 1.9851
3.8892 -2.4926 1.8906
4.0627 -2.1645 1.8840
4.2235 -1.8310 1.8840
4.3570 -1.4857 1.8840
4.4623 -1.1308 1.8840
4.5387 -0.7685 1.8840
4.5858 -0.4013 1.8840
4.6032 -0.0315 1.8840
4.5909 0.3385 1.8840
4.5488 0.7063 1.8840
4.4774 1.0695 1.8840
4.3769 1.4259 1.8840
4.2482 1.7730 1.8840
4.0920 2.1086 1.8840
3.9346 2.4463 1.8962
3.9185 2.8974 1.9946
3.7501 3.2702 2.0364
3.4752 3.5610 2.0364
3.1778 3.8287 2.0364
2.8599 4.0717 2.0364
2.5234 4.2883 2.0364
2.1707 4.4772 2.0364
0.6614 1.7001 0.7466
0.5227 1.7480 0.7467
0.3805 1.7845 0.7468
0.2359 1.8094 0.7468
0.0898 1.8226 0.7468
-0.0570 1.8239 0.7468
-0.2033 1.8134 0.7468
-0.3484 1.7911 0.7468
-0.4911 1.7571 0.7467
-0.6307 1.7118 0.7466
-0.7661 1.6553 0.7465
-2.4459 4.3330 2.0364
-2.7862 4.1225 2.0364
-3.1084 3.8853 2.0364
-3.4106 3.6229 2.0364
-3.6907 3.3371 2.0364
-3.9469 3.0298 2.0364
-4.1776 2.7028 2.0364
2.3134 -3.9780 2.0364
2.6256 -3.7792 2.0364
2.9208 -3.5560 2.0364
3.1971 -3.3098 2.0364
3.4527 -3.0422 2.0364
3.6860 -2.7549 2.0364
3.8594 -2.4271 2.0176
3.8786 -2.0239 1.9360
3.9205 -1.6599 1.8840
4.0412 -1.3395 1.8840
4.1357 -1.0104 1.8840
4.2035 -0.6748 1.8840
4.2442 -0.3348 1.8840
4.2574 0.0073 1.8840
4.2430 0.3494 1.8840
4.2012 0.6892 1.8840
4.1322 1.0246 1.8840
4.0365 1.3533 1.8840
3.9310 1.6803 1.8919
3.9166 2.0609 1.9585
3.8870 2.4632 2.0364
3.6765 2.7675 2.0364
3.4422 3.0540 2.0364
3.1857 3.3208 2.0364
2.9085 3.5660 2.0364
2.6126 3.7882 2.0364
2.2997 3.9859 2.0364
0.7227 1.5237 0.7463
0.5980 1.5771 0.7464
0.4694 1.6202 0.7465
0.3377 1.6528 0.7465
0.2038 1.6747 0.7466
0.0686 1.6857 0.7466
-0.0671 1.6857 0.7466
-0.2024 1.6748 0.7466
-0.3363 1.6531 0.7465
-0.4680 1.6206 0.7465
-0.5966 1.5776 0.7464
-0.7214 1.5243 0.7463
-2.2963 3.9879 2.0364
-2.6094 3.7904 2.0364
-2.9055 3.5685 2.0364
-3.1829 3.3235 2.0364
-3.4396 3.0569 2.0364
-3.6742 2.7707 2.0364
-3.8849 2.4665 2.0364
-4.0706 2.1463 2.0364
-4.2299 1.8123 2.0364
-4.3618 1.4665 2.0364
-4.4655 1.1113 2.0364
-4.5404 0.7488 2.0364
-4.5859 0.3816 2.0364
-4.6017 0.0118 2.0364
-4.5878 -0.3580 2.0364
-4.5442 -0.7255 2.0364
-4.4712 -1.0883 2.0364
-4.3693 -1.4441 2.0364
-4.2391 -1.7905 2.0364
-4.0815 -2.1254 2.0364
-3.8975 -2.4465 2.0364
-3.6883 -2.7518 2.0364
-3.4553 -3.0393 2.0364
-3.1999 -3.3071 2.0364
-2.9238 -3.5535 2.0364
-2.6288 -3.7770 2.0364
-2.3168 -3.9760 2.0364
-0.7237 -1.5092 0.7407
-0.6000 -1.5623 0.7406
-0.4725 -1.6053 0.7405
-0.3420 -1.6379 0.7405
-0.2092 -1.6600 0.7404
-0.0751 -1.6714 0.7404
0.0594 -1.6720 0.7404
0.1936 -1.6619 0.7404
0.3265 -1.6411 0.7405
0.4574 -1.6096 0.7405
0.5853 -1.5679 0.7406
0.7095 -1.5159 0.7407
2.2792 -3.9977 2.0364
2.5931 -3.8016 2.0364
2.8902 -3.5809 2.0364
3.1686 -3.3371 2.0364
3.4265 -3.0717 2.0364
3.6623 -2.7864 2.0364
3.8571 -2.4720 2.0274
3.8767 -2.0654 1.9439
3.9061 -1.6934 1.8840
4.0295 -1.3740 1.8840
4.1269 -1.0458 1.8840
4.1976 -0.7108 1.8840
4.2412 -0.3712 1.8840
4.2573 -0.0292 1.8840
4.2458 0.3130 1.8840
4.2070 0.6532 1.8840
4.1409 0.9891 1.8840
4.0480 1.3187 1.8840
3.9354 1.6424 1.8871
3.9176 2.0188 1.9503
3.9061 2.4286 2.0354
3.7001 2.7359 2.0364
3.4683 3.0244 2.0364
3.2140 3.2934 2.0364
2.9390 3.5410 2.0364
2.6449 3.7657 2.0364
2.3338 3.9661 2.0364
0.7357 1.5174 0.7463
0.6115 1.5719 0.7464
0.4832 1.6161 0.7465
0.3518 1.6498 0.7465
0.2181 1.6729 0.7466
0.0830 1.6850 0.7466
-0.0527 1.6862 0.7466
-0.1880 1.6765 0.7466
-0.3221 1.6559 0.7465
-0.4541 1.6245 0.7465
-0.5831 1.5826 0.7464
-0.7083 1.5305 0.7463
-2.2621 4.0074 2.0364
-2.5768 3.8127 2.0364
-2.8748 3.5933 2.0364
-3.1543 3.3506 2.0364
-3.4133 3.0863 2.0364
-3.6503 2.8021 2.0364
-3.8636 2.4997 2.0364
0.7816 -1.3439 0.7410
2.4377 -3.5089 2.0364
2.7118 -3.3016 2.0364
2.9684 -3.0730 2.0364
3.2057 -2.8246 2.0364
3.4223 -2.5578 2.0364
3.6168 -2.2745 2.0364
3.7879 -1.9766 2.0364
3.8702 -1.6386 2.0032
3.8836 -1.2872 1.9501
3.8944 -0.9514 1.9108
3.9111 -0.6278 1.8880
3.9406 -0.3109 1.8840
3.9528 0.0068 1.8840
3.9395 0.3244 1.8840
3.9192 0.6430 1.8930
3.9122 0.9701 1.9212
3.9077 1.3101 1.9644
3.9008 1.6673 2.0219
3.7810 1.9896 2.0364
3.6089 2.2870 2.0364
3.4135 2.5696 2.0364
3.1960 2.8355 2.0364
2.9578 3.0832 2.0364
2.7005 3.3109 2.0364
2.4257 3.5172 2.0364
0.7822 1.3557 0.7460
0.6708 1.4143 0.7461
0.5550 1.4638 0.7462
0.4357 1.5038 0.7463
0.3134 1.5341 0.7463
0.1891 1.5544 0.7463
0.0636 1.5646 0.7464
-0.0623 1.5647 0.7464
-0.1878 1.5546 0.7463
-0.3121 1.5344 0.7463
-0.4344 1.5042 0.7462
-0.5538 1.4643 0.7462
-0.6696 1.4149 0.7461
-2.1321 3.7026 2.0364
-2.4227 3.5193 2.0364
-2.6977 3.3132 2.0364
-2.9552 3.0857 2.0364
-3.1936 2.8383 2.0364
-3.4113 2.5725 2.0364
-3.6070 2.2900 2.0364
-3.7794 1.9928 2.0364
-3.9273 1.6826 2.0364
-4.0498 1.3616 2.0364
-4.1461 1.0318 2.0364
-4.2156 0.6953 2.0364
-4.2578 0.3543 2.0364
-4.2725 0.0110 2.0364
-4.2596 -0.3324 2.0364
-4.2191 -0.6736 2.0364
-4.1513 -1.0105 2.0364
-4.0567 -1.3408 2.0364
-3.9359 -1.6624 2.0364
-3.7895 -1.9733 2.0364
-3.6187 -2.2715 2.0364
-3.4245 -2.5549 2.0364
-3.2081 -2.8218 2.0364
-2.9710 -3.0705 2.0364
-2.7146 -3.2993 2.0364
-2.4407 -3.5068 2.0364
-0.7827 -1.3433 0.7410
-0.6721 -1.4016 0.7409
-0.5573 -1.4509 0.7408
-0.4388 -1.4909 0.7407
-0.3176 -1.5212 0.7407
-0.1943 -1.5417 0.7406
-0.0698 -1.5523 0.7406
0.0552 -1.5529 0.7406
0.1798 -1.5435 0.7406
0.3032 -1.5241 0.7407
0.4248 -1.4949 0.7407
0.5436 -1.4561 0.7408
0.6589 -1.4079 0.7409
0.7700 -1.3506 0.7410
2.4076 -3.5296 2.0364
2.6834 -3.3247 2.0364
2.9419 -3.0983 2.0364
3.1814 -2.8519 2.0364
3.4003 -2.5871 2.0364
3.5972 -2.3054 2.0364
3.7708 -2.0089 2.0364
3.8686 -1.6771 2.0097
3.8823 -1.3238 1.9550
3.8933 -0.9867 1.9143
3.9090 -0.6619 1.8897
3.9377 -0.3446 1.8840
3.9527 -0.0271 1.8840
3.9421 0.2907 1.8840
3.9207 0.6088 1.8911
3.9126 0.9346 1.9173
3.9083 1.2732 1.9592
3.9016 1.6283 2.0151
3.7980 1.9571 2.0364
3.6284 2.2560 2.0364
3.4354 2.5402 2.0364
3.2202 2.8081 2.0364
2.9841 3.0578 2.0364
2.7287 3.2877 2.0364
2.4557 3.4963 2.0364
0.7937 1.3489 0.7460
0.6829 1.4085 0.7461
0.5676 1.4590 0.7462
0.4485 1.5000 0.7462
0.3266 1.5314 0.7463
0.2025 1.5527 0.7463
0.0770 1.5640 0.7464
-0.0489 1.5651 0.7464
-0.1745 1.5561 0.7463
-0.2990 1.5370 0.7463
-0.4215 1.5079 0.7463
-0.5412 1.4690 0.7462
-0.6574 1.4206 0.7461
-0.7694 1.3630 0.7460
-2.3924 3.5399 2.0364
-2.6692 3.3362 2.0364
-2.9286 3.1109 2.0364
-3.1691 2.8655 2.0364
-3.3891 2.6016 2.0364
-3.5872 2.3208 2.0364
0.7282 -1.2522 0.7412
2.2709 -3.2687 2.0364
2.5262 -3.0756 2.0364
2.7652 -2.8627 2.0364
2.9863 -2.6312 2.0364
3.1880 -2.3827 2.0364
3.3692 -2.1188 2.0364
3.5286 -1.8413 2.0364
3.6651 -1.5518 2.0364
3.7780 -1.2522 2.0364
3.8664 -0.9446 2.0364
3.8793 -0.6227 2.0103
3.8855 -0.3065 1.9942
3.8895 0.0067 1.9901
3.8914 0.3204 1.9978
3.8910 0.6383 2.0175
3.8631 0.9579 2.0364
3.7736 1.2652 2.0364
3.6598 1.5643 2.0364
3.5222 1.8534 2.0364
3.3619 2.1304 2.0364
3.1798 2.3937 2.0364
2.9772 2.6415 2.0364
2.7553 2.8721 2.0364
2.5156 3.0843 2.0364
2.2596 3.2764 2.0364
0.7285 1.2626 0.7458
0.6247 1.3172 0.7459
0.5169 1.3633 0.7460
0.4057 1.4005 0.7461
0.2919 1.4287 0.7461
0.1762 1.4476 0.7461
0.0593 1.4571 0.7462
-0.0580 1.4572 0.7462
-0.1749 1.4478 0.7461
-0.2907 1.4290 0.7461
-0.4045 1.4009 0.7461
-0.5158 1.3637 0.7460
-0.6236 1.3177 0.7459
-0.7274 1.2632 0.7458
-2.2568 3.2784 2.0364
-2.5130 3.0864 2.0364
-2.7529 2.8745 2.0364
-2.9750 2.6440 2.0364
-3.1778 2.3964 2.0364
-3.3601 2.1333 2.0364
-3.5206 1.8564 2.0364
-3.6584 1.5675 2.0364
-3.7726 1.2684 2.0364
-3.8623 0.9611 2.0364
-3.9270 0.6477 2.0364
-3.9664 0.3300 2.0364
-3.9801 0.0102 2.0364
-3.9680 -0.3096 2.0364
-3.9303 -0.6275 2.0364
-3.8672 -0.9413 2.0364
-3.7790 -1.2490 2.0364
-3.6664 -1.5486 2.0364
-3.5301 -1.8382 2.0364
-3.3710 -2.1160 2.0364
-3.1901 -2.3800 2.0364
-2.9885 -2.6287 2.0364
-2.7676 -2.8603 2.0364
-2.5288 -3.0735 2.0364
-2.2737 -3.2667 2.0364
-0.7293 -1.2516 0.7412
-0.6263 -1.3060 0.7411
-0.5192 -1.3519 0.7410
-0.4089 -1.3892 0.7409
-0.2959 -1.4174 0.7409
-0.1811 -1.4365 0.7408
-0.0650 -1.4464 0.7408
0.0514 -1.4470 0.7408
0.1675 -1.4382 0.7408
0.2826 -1.4201 0.7409
0.3958 -1.3929 0.7409
0.5065 -1.3568 0.7410
0.6139 -1.3118 0.7411
0.7175 -1.2584 0.7412
2.2428 -3.2880 2.0364
2.4997 -3.0971 2.0364
2.7405 -2.8862 2.0364
2.9636 -2.6567 2.0364
3.1675 -2.4099 2.0364
3.3509 -2.1476 2.0364
3.5127 -1.8714 2.0364
3.6517 -1.5831 2.0364
3.7671 -1.2845 2.0364
3.8581 -0.9777 2.0364
3.8785 -0.6567 2.0127
3.8850 -0.3400 1.9954
3.8892 -0.0266 1.9900
3.8913 0.2869 1.9964
3.8911 0.6041 2.0148
3.8712 0.9247 2.0364
3.7843 1.2328 2.0364
3.6730 1.5329 2.0364
3.5380 1.8231 2.0364
3.3800 2.1015 2.0364
3.2002 2.3663 2.0364
2.9997 2.6158 2.0364
2.7798 2.8484 2.0364
2.5419 3.0626 2.0364
2.2876 3.2570 2.0364
0.7392 1.2563 0.7458
0.6360 1.3118 0.7459
0.5286 1.3588 0.7460
0.4177 1.3970 0.7461
0.3041 1.4262 0.7461
0.1886 1.4460 0.7461
0.0717 1.4566 0.7462
-0.0455 1.4576 0.7462
-0.1625 1.4492 0.7461
-0.2784 1.4314 0.7461
-0.3925 1.4043 0.7461
-0.5041 1.3681 0.7460
-0.6123 1.3230 0.7459
-0.7165 1.2694 0.7458
-2.2287 3.2976 2.0364
-2.4865 3.1078 2.0364
-2.7281 2.8980 2.0364
-2.9522 2.6694 2.0364
-3.1571 2.4235 2.0364
-3.3417 2.1620 2.0364
0.6804 -1.1700 0.7413
0.7724 -1.1118 0.7414
2.3599 -2.8732 2.0364
2.5832 -2.6742 2.0364
2.7897 -2.4580 2.0364
2.9782 -2.2259 2.0364
3.1474 -1.9794 2.0364
3.2963 -1.7201 2.0364
3.4239 -1.4495 2.0364
3.5293 -1.1698 2.0364
3.6119 -0.8824 2.0364
3.6711 -0.5893 2.0364
3.7066 -0.2924 2.0364
3.7181 0.0064 2.0364
3.7056 0.3051 2.0364
3.6691 0.6019 2.0364
3.6088 0.8948 2.0364
3.5253 1.1819 2.0364
3.4189 1.4614 2.0364
3.2904 1.7314 2.0364
3.1406 1.9902 2.0364
2.9705 2.2361 2.0364
2.7813 2.4676 2.0364
2.5740 2.6831 2.0364
2.3500 2.8813 2.0364
0.7728 1.1206 0.7455
0.6804 1.1792 0.7457
0.5835 1.2302 0.7457
0.4828 1.2733 0.7458
0.3789 1.3081 0.7459
0.2726 1.3344 0.7459
0.1645 1.3520 0.7460
0.0553 1.3609 0.7460
-0.0542 1.3609 0.7460
-0.1634 1.3522 0.7460
-0.2715 1.3346 0.7459
-0.3778 1.3084 0.7459
-0.4817 1.2737 0.7458
-0.5824 1.2307 0.7457
-0.6794 1.1798 0.7456
-0.7719 1.1212 0.7455
-2.3476 2.8833 2.0364
-2.5717 2.6853 2.0364
-2.7791 2.4700 2.0364
-2.9686 2.2387 2.0364
-3.1389 1.9929 2.0364
-3.2889 1.7342 2.0364
-3.4176 1.4643 2.0364
-3.5243 1.1849 2.0364
-3.6081 0.8979 2.0364
-3.6686 0.6051 2.0364
-3.7053 0.3083 2.0364
-3.7181 0.0095 2.0364
-3.7068 -0.2893 2.0364
-3.6716 -0.5862 2.0364
-3.6126 -0.8793 2.0364
-3.5303 -1.1668 2.0364
-3.4251 -1.4467 2.0364
-3.2978 -1.7173 2.0364
-3.1491 -1.9767 2.0364
-2.9801 -2.2234 2.0364
-2.7918 -2.4556 2.0364
-2.5854 -2.6720 2.0364
-2.3624 -2.8712 2.0364
-0.7733 -1.1111 0.7414
-0.6814 -1.1695 0.7413
-0.5852 -1.2203 0.7412
-0.4852 -1.2632 0.7411
-0.3821 -1.2980 0.7411
-0.2765 -1.3244 0.7410
-0.1692 -1.3423 0.7410
-0.0608 -1.3515 0.7410
0.0480 -1.3520 0.7410
0.1565 -1.3438 0.7410
0.2640 -1.3270 0.7410
0.3698 -1.3016 0.7411
0.4733 -1.2677 0.7411
0.5737 -1.2257 0.7412
0.6704 -1.1758 0.7413
0.7628 -1.1183 0.7414
2.3352 -2.8933 2.0364
2.5602 -2.6963 2.0364
2.7685 -2.4818 2.0364
2.9590 -2.2513 2.0364
3.1304 -2.0063 2.0364
3.2815 -1.7482 2.0364
3.4113 -1.4789 2.0364
3.5191 -1.2000 2.0364
3.6042 -0.9133 2.0364
3.6659 -0.6208 2.0364
3.7040 -0.3242 2.0364
3.7180 -0.0255 2.0364
3.7080 0.2734 2.0364
3.6741 0.5705 2.0364
3.6164 0.8639 2.0364
3.5353 1.1517 2.0364
3.4313 1.4320 2.0364
3.3051 1.7031 2.0364
3.1576 1.9632 2.0364
2.9896 2.2106 2.0364
2.8023 2.4437 2.0364
2.5969 2.6609 2.0364
2.3746 2.8610 2.0364
0.7824 1.1139 0.7455
0.6904 1.1733 0.7456
0.5940 1.2252 0.7457
0.4937 1.2691 0.7458
0.3901 1.3048 0.7459
0.2840 1.3320 0.7459
0.1761 1.3506 0.7460
0.0670 1.3604 0.7460
-0.0425 1.3614 0.7460
-0.1518 1.3535 0.7460
-0.2600 1.3369 0.7459
-0.3666 1.3116 0.7459
-0.4708 1.2778 0.7458
-0.5719 1.2357 0.7457
-0.6692 1.1856 0.7457
-0.7622 1.1278 0.7455
-2.3228 2.9033 2.0364
-2.5486 2.7072 2.0364
-2.7579 2.4937 2.0364
-2.9494 2.2640 2.0364
-3.1217 2.0197 2.0364
0.6373 -1.0959 0.7415
0.7234 -1.0413 0.7416
2.2099 -2.6905 2.0364
2.4190 -2.5043 2.0364
2.6124 -2.3018 2.0364
2.7889 -2.0844 2.0364
2.9474 -1.8536 2.0364
3.0868 -1.6107 2.0364
3.2062 -1.3575 2.0364
3.3050 -1.0954 2.0364
3.3823 -0.8263 2.0364
3.4378 -0.5518 2.0364
3.4710 -0.2738 2.0364
3.4818 0.0060 2.0364
3.4700 0.2858 2.0364
3.4358 0.5637 2.0364
3.3794 0.8379 2.0364
3.3012 1.1068 2.0364
3.2016 1.3685 2.0364
3.0812 1.6213 2.0364
2.9410 1.8637 2.0364
2.7817 2.0940 2.0364
2.6045 2.3107 2.0364
2.4104 2.5126 2.0364
2.2007 2.6981 2.0364
0.7236 1.0492 0.7454
0.6370 1.1041 0.7455
0.5463 1.1518 0.7456
0.4520 1.1921 0.7457
0.3548 1.2247 0.7457
0.2552 1.2493 0.7458
0.1540 1.2658 0.7458
0.0518 1.2741 0.7458
-0.0507 1.2742 0.7458
-0.1530 1.2659 0.7458
-0.2542 1.2495 0.7458
-0.3537 1.2250 0.7457
-0.4510 1.1925 0.7457
-0.5453 1.1523 0.7456
-0.6361 1.1046 0.7455
-0.7227 1.0498 0.7454
-2.1984 2.7000 2.0364
-2.4082 2.5146 2.0364
-2.6025 2.3129 2.0364
-2.7799 2.0963 2.0364
-2.9394 1.8662 2.0364
-3.0799 1.6239 2.0364
-3.2004 1.3712 2.0364
-3.3002 1.1096 2.0364
-3.3787 0.8408 2.0364
-3.4354 0.5666 2.0364
-3.4698 0.2887 2.0364
-3.4818 0.0090 2.0364
-3.4712 -0.2709 2.0364
-3.4382 -0.5489 2.0364
-3.3830 -0.8234 2.0364
-3.3059 -1.0926 2.0364
-3.2074 -1.3547 2.0364
-3.0882 -1.6081 2.0364
-2.9490 -1.8511 2.0364
-2.7907 -2.0820 2.0364
-2.6143 -2.2995 2.0364
-2.4211 -2.5022 2.0364
-2.2122 -2.6887 2.0364
-0.7243 -1.0406 0.7416
-0.6382 -1.0953 0.7415
-0.5481 -1.1429 0.7414
-0.4544 -1.1832 0.7413
-0.3579 -1.2158 0.7412
-0.2590 -1.2405 0.7412
-0.1585 -1.2572 0.7412
-0.0569 -1.2659 0.7411
0.0450 -1.2664 0.7411
0.1466 -1.2587 0.7412
0.2473 -1.2429 0.7412
0.3464 -1.2191 0.7412
0.4433 -1.1874 0.7413
0.5373 -1.1480 0.7414
0.6279 -1.1013 0.7415
0.7144 -1.0474 0.7416
2.1868 -2.7094 2.0364
2.3974 -2.5249 2.0364
2.5926 -2.3241 2.0364
2.7709 -2.1082 2.0364
2.9314 -1.8787 2.0364
3.0729 -1.6371 2.0364
3.1945 -1.3849 2.0364
3.2954 -1.1237 2.0364
3.3751 -0.8553 2.0364
3.4329 -0.5813 2.0364
3.4685 -0.3035 2.0364
3.4817 -0.0239 2.0364
3.4723 0.2560 2.0364
3.4405 0.5342 2.0364
3.3865 0.8090 2.0364
3.3105 1.0785 2.0364
3.2132 1.3410 2.0364
3.0950 1.5949 2.0364
2.9569 1.8384 2.0364
2.7996 2.0701 2.0364
2.6242 2.2883 2.0364
2.4318 2.4918 2.0364
2.2237 2.6792 2.0364
0.7325 1.0429 0.7454
0.6464 1.0985 0.7455
0.5561 1.1471 0.7456
0.4622 1.1882 0.7457
0.3653 1.2216 0.7457
0.2659 1.2470 0.7458
0.1649 1.2644 0.7458
0.0627 1.2736 0.7458
-0.0398 1.2746 0.7458
-0.1421 1.2672 0.7458
-0.2435 1.2516 0.7458
-0.3432 1.2280 0.7457
-0.4408 1.1963 0.7457
-0.5354 1.1569 0.7456
-0.6266 1.1100 0.7455
-0.7137 1.0559 0.7454
-2.1751 2.7187 2.0364
-2.3866 2.5351 2.0364
-2.5826 2.3352 2.0364
-2.7619 2.1201 2.0364
-2.9233 1.8913 2.0364
0.5981 -1.0285 0.7416
0.6789 -0.9772 0.7417
0.7554 -0.9196 0.7418
2.2699 -2.3499 2.0364
2.4513 -2.1599 2.0364
2.6170 -1.9559 2.0364
2.7657 -1.7393 2.0364
2.8965 -1.5114 2.0364
3.0086 -1.2738 2.0364
3.1012 -1.0279 2.0364
3.1738 -0.7754 2.0364
3.2258 -0.5178 2.0364
3.2570 -0.2569 2.0364
3.2671 0.0056 2.0364
3.2561 0.2681 2.0364
3.2240 0.5289 2.0364
3.1711 0.7863 2.0364
3.0977 1.0386 2.0364
3.0042 1.2841 2.0364
2.8913 1.5214 2.0364
2.7597 1.7488 2.0364
2.6102 1.9649 2.0364
2.4439 2.1683 2.0364
2.2618 2.3577 2.0364
0.7556 0.9265 0.7452
0.6789 0.9843 0.7453
0.5976 1.0358 0.7454
0.5125 1.0806 0.7455
0.4241 1.1184 0.7455
0.3329 1.1490 0.7456
0.2395 1.1720 0.7456
0.1445 1.1875 0.7457
0.0486 1.1953 0.7457
-0.0476 1.1954 0.7457
-0.1435 1.1877 0.7457
-0.2385 1.1723 0.7456
-0.3319 1.1492 0.7456
-0.4231 1.1188 0.7455
-0.5116 1.0810 0.7455
-0.5967 1.0363 0.7454
-0.6780 0.9849 0.7453
-0.7548 0.9271 0.7452
-2.2598 2.3596 2.0364
-2.4421 2.1704 2.0364
-2.6086 1.9671 2.0364
-2.7582 1.7512 2.0364
-2.8900 1.5238 2.0364
-3.0031 1.2867 2.0364
-3.0968 1.0412 2.0364
-3.1704 0.7890 2.0364
-3.2236 0.5317 2.0364
-3.2559 0.2709 2.0364
-3.2671 0.0084 2.0364
-3.2572 -0.2542 2.0364
-3.2263 -0.5151 2.0364
-3.1745 -0.7727 2.0364
-3.1021 -1.0253 2.0364
-3.0097 -1.2712 2.0364
-2.8978 -1.5090 2.0364
-2.7672 -1.7369 2.0364
-2.6186 -1.9537 2.0364
-2.4532 -2.1578 2.0364
-2.2719 -2.3480 2.0364
-0.7561 -0.9190 0.7418
-0.6797 -0.9766 0.7417
-0.5990 -1.0280 0.7416
-0.5144 -1.0727 0.7415
-0.4265 -1.1104 0.7414
-0.3359 -1.1410 0.7414
-0.2431 -1.1643 0.7413
-0.1487 -1.1800 0.7413
-0.0534 -1.1881 0.7413
0.0422 -1.1885 0.7413
0.1376 -1.1813 0.7413
0.2321 -1.1665 0.7413
0.3251 -1.1441 0.7414
0.4160 -1.1144 0.7414
0.5043 -1.0775 0.7415
0.5893 -1.0336 0.7416
0.6705 -0.9830 0.7417
0.7474 -0.9261 0.7418
2.2496 -2.3693 2.0364
2.4327 -2.1808 2.0364
2.6001 -1.9783 2.0364
2.7507 -1.7629 2.0364
2.8835 -1.5362 2.0364
2.9976 -1.2995 2.0364
3.0923 -1.0545 2.0364
3.1670 -0.8025 2.0364
3.2213 -0.5455 2.0364
3.2547 -0.2848 2.0364
3.2671 -0.0224 2.0364
3.2583 0.2402 2.0364
3.2285 0.5013 2.0364
3.1777 0.7591 2.0364
3.1065 1.0120 2.0364
3.0151 1.2583 2.0364
2.9042 1.4966 2.0364
2.7746 1.7251 2.0364
2.6270 1.9425 2.0364
2.4624 2.1473 2.0364
2.2819 2.3382 2.0364
0.7635 0.9199 0.7452
0.6873 0.9785 0.7453
0.6065 1.0307 0.7454
0.5218 1.0762 0.7455
0.4336 1.1147 0.7455
0.3427 1.1461 0.7456
0.2495 1.1699 0.7456
0.1547 1.1863 0.7457
0.0589 1.1949 0.7457
-0.0374 1.1957 0.7457
-0.1333 1.1889 0.7457
-0.2284 1.1743 0.7456
-0.3220 1.1520 0.7456
-0.4135 1.1224 0.7455
-0.5023 1.0854 0.7455
-0.5879 1.0414 0.7454
-0.6696 0.9907 0.7453
-0.7469 0.9335 0.7452
-2.2395 2.3789 2.0364
-2.4234 2.1912 2.0364
-2.5916 1.9894 2.0364
-2.7431 1.7747 2.0364
0.5623 -0.9669 0.7417
0.6383 -0.9187 0.7418
0.7101 -0.8646 0.7419
0.7774 -0.8048 0.7420
2.3042 -2.0303 2.0364
2.4599 -1.8385 2.0364
2.5997 -1.6349 2.0364
2.7227 -1.4207 2.0364
2.8280 -1.1973 2.0364
2.9151 -0.9662 2.0364
2.9833 -0.7288 2.0364
3.0322 -0.4868 2.0364
3.0615 -0.2415 2.0364
3.0711 0.0053 2.0364
3.0607 0.2520 2.0364
3.0306 0.4972 2.0364
2.9808 0.7391 2.0364
2.9118 0.9762 2.0364
2.8239 1.2070 2.0364
2.7178 1.4301 2.0364
2.5941 1.6438 2.0364
2.4536 1.8470 2.0364
2.2972 2.0382 2.0364
0.7778 0.8107 0.7450
0.7102 0.8707 0.7451
0.6380 0.9251 0.7452
0.5617 0.9735 0.7453
0.4817 1.0156 0.7454
0.3986 1.0511 0.7454
0.3128 1.0798 0.7455
0.2250 1.1015 0.7455
0.1358 1.1161 0.7455
0.0457 1.1234 0.7455
-0.0447 1.1234 0.7455
-0.1349 1.1162 0.7455
-0.2241 1.1017 0.7455
-0.3119 1.0801 0.7455
-0.3977 1.0514 0.7454
-0.4808 1.0160 0.7453
-0.5608 0.9740 0.7453
-0.6372 0.9256 0.7452
-0.7094 0.8713 0.7451
-0.7771 0.8114 0.7450
-2.2955 2.0401 2.0364
-2.4520 1.8491 2.0364
-2.5927 1.6460 2.0364
-2.7166 1.4324 2.0364
-2.8229 1.2095 2.0364
-2.9109 0.9787 2.0364
-2.9802 0.7416 2.0364
-3.0301 0.4998 2.0364
-3.0605 0.2546 2.0364
-3.0711 0.0079 2.0364
-3.0618 -0.2389 2.0364
-3.0327 -0.4842 2.0364
-2.9839 -0.7263 2.0364
-2.9159 -0.9637 2.0364
-2.8291 -1.1949 2.0364
-2.7239 -1.4184 2.0364
-2.6011 -1.6327 2.0364
-2.4615 -1.8364 2.0364
-2.3059 -2.0283 2.0364
-0.7781 -0.8042 0.7420
-0.7109 -0.8640 0.7419
-0.6390 -0.9182 0.7418
-0.5631 -0.9664 0.7417
-0.4836 -1.0085 0.7416
-0.4010 -1.0440 0.7416
-0.3158 -1.0727 0.7415
-0.2285 -1.0946 0.7415
-0.1398 -1.1094 0.7414
-0.0502 -1.1170 0.7414
0.0397 -1.1174 0.7414
0.1294 -1.1106 0.7414
0.2182 -1.0967 0.7415
0.3056 -1.0757 0.7415
0.3911 -1.0477 0.7416
0.4741 -1.0130 0.7416
0.5540 -0.9717 0.7417
0.6304 -0.9241 0.7418
0.7027 -0.8706 0.7419
0.7705 -0.8114 0.7420
2.2867 -2.0499 2.0364
2.4441 -1.8595 2.0364
2.5856 -1.6571 2.0364
2.7104 -1.4440 2.0364
2.8177 -1.2215 2.0364
2.9067 -0.9912 2.0364
2.9770 -0.7544 2.0364
3.0280 -0.5127 2.0364
3.0594 -0.2677 2.0364
3.0710 -0.0210 2.0364
3.0628 0.2258 2.0364
3.0347 0.4712 2.0364
2.9870 0.7135 2.0364
2.9200 0.9512 2.0364
2.8341 1.1828 2.0364
2.7299 1.4067 2.0364
2.6081 1.6215 2.0364
2.4693 1.8259 2.0364
2.3146 2.0184 2.0364
0.7847 0.8040 0.7450
0.7176 0.8646 0.7451
0.6459 0.9196 0.7452
0.5700 0.9686 0.7453
0.4904 1.0114 0.7453
0.4075 1.0476 0.7454
0.3221 1.0771 0.7455
0.2345 1.0995 0.7455
0.1454 1.1149 0.7455
0.0553 1.1230 0.7455
-0.0351 1.1238 0.7455
-0.1253 1.1173 0.7455
-0.2147 1.1036 0.7455
-0.3026 1.0827 0.7455
-0.3886 1.0548 0.7454
-0.4721 1.0201 0.7454
-0.5525 0.9788 0.7453
-0.6293 0.9311 0.7452
-0.7020 0.8774 0.7451
-0.7701 0.8180 0.7450
-2.2779 2.0597 2.0364
-2.4361 1.8700 2.0364
-2.5785 1.6682 2.0364
0.5294 -0.9103 0.7418
0.6009 -0.8650 0.7419
0.6686 -0.8140 0.7420
0.7319 -0.7577 0.7421
2.1691 -1.9112 2.0364
2.3157 -1.7307 2.0364
2.4472 -1.5390 2.0364
2.5630 -1.3374 2.0364
2.6622 -1.1271 2.0364
2.7441 -0.9096 2.0364
2.8084 -0.6861 2.0364
2.8544 -0.4582 2.0364
2.8820 -0.2274 2.0364
2.8910 0.0050 2.0364
2.8812 0.2373 2.0364
2.8528 0.4680 2.0364
2.8060 0.6958 2.0364
2.7410 0.9190 2.0364
2.6583 1.1363 2.0364
2.5584 1.3462 2.0364
2.4419 1.5474 2.0364
2.3097 1.7387 2.0364
0.7909 0.7017 0.7448
0.7321 0.7631 0.7449
0.6685 0.8196 0.7450
0.6005 0.8707 0.7451
0.5287 0.9163 0.7452
0.4534 0.9559 0.7452
0.3751 0.9893 0.7453
0.2944 1.0163 0.7454
0.2118 1.0368 0.7454
0.1278 1.0505 0.7454
0.0430 1.0573 0.7454
-0.0421 1.0574 0.7454
-0.1269 1.0506 0.7454
-0.2109 1.0369 0.7454
-0.2936 1.0166 0.7453
-0.3743 0.9896 0.7453
-0.4526 0.9563 0.7452
-0.5279 0.9167 0.7452
-0.5998 0.8712 0.7451
-0.6678 0.8201 0.7450
-0.7314 0.7637 0.7449
-2.1609 1.9205 2.0364
-2.3082 1.7406 2.0364
-2.4406 1.5495 2.0364
-2.5572 1.3484 2.0364
-2.6573 1.1385 2.0364
-2.7402 0.9213 2.0364
-2.8054 0.6981 2.0364
-2.8524 0.4704 2.0364
-2.8810 0.2397 2.0364
-2.8910 0.0074 2.0364
-2.8822 -0.2249 2.0364
-2.8548 -0.4558 2.0364
-2.8089 -0.6837 2.0364
-2.7449 -0.9072 2.0364
-2.6631 -1.1249 2.0364
-2.5641 -1.3352 2.0364
-2.4486 -1.5369 2.0364
-2.3171 -1.7287 2.0364
-2.1707 -1.9094 2.0364
-0.7325 -0.7571 0.7421
-0.6692 -0.8134 0.7420
-0.6016 -0.8644 0.7419
-0.5302 -0.9099 0.7418
-0.4553 -0.9495 0.7417
-0.3775 -0.9829 0.7417
-0.2973 -1.0100 0.7416
-0.2152 -1.0305 0.7416
-0.1316 -1.0445 0.7416
-0.0473 -1.0516 0.7415
0.0374 -1.0520 0.7415
0.1218 -1.0457 0.7416
0.2054 -1.0325 0.7416
0.2878 -1.0127 0.7416
0.3682 -0.9864 0.7417
0.4463 -0.9537 0.7417
0.5216 -0.9148 0.7418
0.5935 -0.8701 0.7419
0.6616 -0.8197 0.7420
0.7254 -0.7640 0.7421
0.7845 -0.7033 0.7422
2.3007 -1.7505 2.0364
2.4340 -1.5599 2.0364
2.5514 -1.3593 2.0364
2.6524 -1.1499 2.0364
2.7363 -0.9330 2.0364
2.8024 -0.7101 2.0364
2.8504 -0.4826 2.0364
2.8800 -0.2520 2.0364
2.8909 -0.0198 2.0364
2.8831 0.2126 2.0364
2.8567 0.4436 2.0364
2.8118 0.6717 2.0364
2.7488 0.8955 2.0364
2.6679 1.1135 2.0364
2.5698 1.3242 2.0364
2.4551 1.5265 2.0364
2.3245 1.7188 2.0364
2.1789 1.9000 2.0364
0.7386 0.7568 0.7449
0.6755 0.8138 0.7450
0.6080 0.8656 0.7451
0.5365 0.9117 0.7452
0.4615 0.9520 0.7452
0.3836 0.9861 0.7453
0.3031 1.0138 0.7453
0.2207 1.0349 0.7454
0.1368 1.0493 0.7454
0.0521 1.0569 0.7454
-0.0330 1.0577 0.7454
-0.1179 1.0516 0.7454
-0.2020 1.0387 0.7454
-0.2848 1.0191 0.7454
-0.3658 0.9928 0.7453
-0.4443 0.9601 0.7452
-0.5200 0.9212 0.7452
-0.5923 0.8764 0.7451
-0.6607 0.8258 0.7450
-0.7248 0.7700 0.7449
-2.1443 1.9389 2.0364
-2.2932 1.7603 2.0364
-2.4273 1.5704 2.0364
0.4990 -0.8581 0.7419
0.5664 -0.8153 0.7420
0.6302 -0.7672 0.7421
0.6899 -0.7142 0.7422
0.7452 -0.6566 0.7423
2.1825 -1.6312 2.0364
2.3065 -1.4505 2.0364
2.4156 -1.2605 2.0364
2.5091 -1.0623 2.0364
2.5863 -0.8572 2.0364
2.6469 -0.6466 2.0364
2.6903 -0.4319 2.0364
2.7163 -0.2143 2.0364
2.7247 0.0047 2.0364
2.7155 0.2236 2.0364
2.6888 0.4411 2.0364
2.6446 0.6557 2.0364
2.5834 0.8661 2.0364
2.5054 1.0709 2.0364
2.4113 1.2688 2.0364
2.3015 1.4584 2.0364
2.1769 1.6387 2.0364
0.7453 0.6613 0.7447
0.6899 0.7191 0.7448
0.6299 0.7723 0.7449
0.5659 0.8206 0.7450
0.4982 0.8635 0.7451
0.4272 0.9008 0.7451
0.3535 0.9323 0.7452
0.2775 0.9577 0.7452
0.1996 0.9770 0.7453
0.1205 0.9899 0.7453
0.0405 0.9964 0.7453
-0.0397 0.9964 0.7453
-0.1196 0.9900 0.7453
-0.1988 0.9772 0.7453
-0.2766 0.9580 0.7452
-0.3527 0.9326 0.7452
-0.4265 0.9012 0.7451
-0.4975 0.8639 0.7451
-0.5652 0.8210 0.7450
-0.6293 0.7729 0.7449
-0.6893 0.7197 0.7448
-0.7448 0.6619 0.7447
-2.1755 1.6405 2.0364
-2.3003 1.4604 2.0364
-2.4102 1.2708 2.0364
-2.5045 1.0731 2.0364
-2.5826 0.8683 2.0364
-2.6441 0.6580 2.0364
-2.6884 0.4434 2.0364
-2.7153 0.2259 2.0364
-2.7247 0.0070 2.0364
-2.7164 -0.2120 2.0364
-2.6906 -0.4296 2.0364
-2.6474 -0.6444 2.0364
-2.5871 -0.8550 2.0364
-2.5100 -1.0602 2.0364
-2.4167 -1.2584 2.0364
-2.3077 -1.4486 2.0364
-2.1839 -1.6293 2.0364
-0.7457 -0.6559 0.7423
-0.6905 -0.7136 0.7422
-0.6308 -0.7667 0.7421
-0.5671 -0.8148 0.7420
-0.4998 -0.8577 0.7419
-0.4292 -0.8950 0.7418
-0.3558 -0.9265 0.7418
-0.2802 -0.9520 0.7417
-0.2028 -0.9714 0.7417
-0.1241 -0.9845 0.7417
-0.0446 -0.9913 0.7417
0.0352 -0.9917 0.7417
0.1148 -0.9857 0.7417
0.1937 -0.9733 0.7417
0.2712 -0.9546 0.7417
0.3471 -0.9298 0.7418
0.4207 -0.8990 0.7418
0.4917 -0.8623 0.7419
0.5594 -0.8201 0.7420
0.6236 -0.7726 0.7421
0.6837 -0.7201 0.7422
0.7395 -0.6629 0.7423
2.1684 -1.6498 2.0364
2.2940 -1.4702 2.0364
2.4047 -1.2811 2.0364
2.4999 -1.0838 2.0364
2.5789 -0.8794 2.0364
2.6412 -0.6693 2.0364
2.6865 -0.4549 2.0364
2.7143 -0.2375 2.0364
2.7246 -0.0187 2.0364
2.7173 0.2003 2.0364
2.6924 0.4181 2.0364
2.6501 0.6331 2.0364
2.5907 0.8440 2.0364
2.5145 1.0494 2.0364
2.4220 1.2481 2.0364
2.3139 1.4387 2.0364
2.1908 1.6200 2.0364
0.7510 0.6549 0.7447
0.6960 0.7132 0.7448
0.6365 0.7669 0.7449
0.5729 0.8157 0.7450
0.5056 0.8592 0.7451
0.4349 0.8971 0.7451
0.3615 0.9292 0.7452
0.2857 0.9553 0.7452
0.2080 0.9752 0.7453
0.1289 0.9888 0.7453
0.0491 0.9960 0.7453
-0.0311 0.9967 0.7453
-0.1111 0.9910 0.7453
-0.1904 0.9788 0.7453
-0.2684 0.9603 0.7452
-0.3447 0.9356 0.7452
-0.4187 0.9048 0.7451
-0.4900 0.8681 0.7451
-0.5582 0.8259 0.7450
-0.6226 0.7782 0.7449
-0.6831 0.7256 0.7448
-0.7391 0.6683 0.7447
-2.1613 1.6591 2.0364
-2.2877 1.4801 2.0364
0.4708 -0.8096 0.7420
0.5344 -0.7693 0.7421
0.5946 -0.7239 0.7421
0.6509 -0.6739 0.7422
0.7031 -0.6195 0.7423
0.7507 -0.5610 0.7425
2.1760 -1.3684 2.0364
2.2789 -1.1892 2.0364
2.3671 -1.0022 2.0364
2.4400 -0.8087 2.0364
2.4971 -0.6101 2.0364
2.5380 -0.4074 2.0364
2.5626 -0.2022 2.0364
2.5705 0.0044 2.0364
2.5618 0.2110 2.0364
2.5366 0.4162 2.0364
2.4950 0.6186 2.0364
2.4372 0.8171 2.0364
2.3636 1.0103 2.0364
2.2748 1.1970 2.0364
2.1713 1.3759 2.0364
0.7508 0.5652 0.7445
0.7031 0.6238 0.7446
0.6508 0.6784 0.7447
0.5942 0.7286 0.7448
0.5338 0.7740 0.7449
