ply
format ascii 1.0
element vertex 2160
property float32 x
property float32 y
property float32 z
end_header
-5.8406 18.0997 2.0384
-7.2874 17.6061 2.0384
-8.6924 16.9965 2.0384
-10.0461 16.2744 2.0384
-11.3394 15.4437 2.0384
-12.5633 14.5096 2.0384
-13.7093 13.4776 2.0384
-14.7695 12.3542 2.0384
-15.7363 11.1465 2.0384
-16.6027 9.8622 2.0384
-17.3624 8.5098 2.0384
-18.0099 7.0982 2.0384
-18.5405 5.6368 2.0384
-18.9499 4.1355 2.0384
-19.2353 2.6044 2.0384
-19.3943 1.0541 2.0384
-19.2278 -0.4998 2.0177
-18.9816 -2.0248 2.0018
-18.7351 -3.5362 1.9990
-18.4853 -5.0530 2.0092
-18.2289 -6.5946 2.0328
-17.6850 -8.0551 2.0384
-16.9743 -9.4431 2.0384
-16.1526 -10.7675 2.0384
-15.2256 -12.0192 2.0384
-14.2001 -13.1899 2.0384
-13.0831 -14.2716 2.0384
-11.8827 -15.2573 2.0384
-10.6073 -16.1407 2.0384
-9.2659 -16.9161 2.0384
-7.8676 -17.5787 2.0384
-6.4223 -18.1245 2.0384
-4.9397 -18.5505 2.0384
-3.4300 -18.8544 2.0384
-1.9032 -19.0348 2.0384
-0.3696 -19.0912 2.0384
1.1608 -19.0238 2.0384
0.7202 -5.0655 0.5482
1.1222 -4.9820 0.5483
1.5156 -4.8676 0.5484
1.8982 -4.7230 0.5485
2.2679 -4.5493 0.5488
9.0039 -14.9269 1.8854
10.2673 -14.2886 1.9064
11.4834 -13.5401 1.9269
9.6820 -9.7148 1.4911
13.7304 -11.7249 1.9659
14.7401 -10.6675 1.9840
15.6602 -9.5184 2.0010
8.0668 -4.0554 0.9871
8.7530 -3.5520 1.0339
17.7891 -5.6039 2.0434
18.2614 -4.1768 2.0542
18.6043 -2.7078 2.0632
18.8133 -1.2097 2.0701
18.8855 0.3044 2.0750
18.8192 1.8206 2.0778
18.6149 3.3252 2.0785
18.2742 4.8045 2.0769
17.8007 6.2451 2.0733
17.1990 7.6341 2.0676
16.4758 8.9595 2.0598
15.6386 10.2100 2.0501
14.6962 11.3756 2.0386
11.7009 8.3087 1.9850
10.9517 9.1832 1.9757
10.1324 9.9861 1.9651
9.2507 10.7116 1.9534
8.3145 11.3553 1.9407
7.3321 11.9135 1.9270
6.3119 12.3835 1.9126
5.2622 12.7633 1.8975
4.2010 13.0813 1.8860
3.1420 13.3937 1.8860
2.1183 14.0056 1.9392
1.0398 14.8741 2.0384
-0.1570 14.9312 2.0384
-1.3563 14.8925 2.0384
-2.5504 14.7578 2.0384
-3.7317 14.5275 2.0384
-4.8923 14.2028 2.0384
-6.0248 13.7852 2.0384
-7.1217 13.2771 2.0384
-8.1755 12.6815 2.0384
-9.1792 12.0018 2.0384
-10.1260 11.2422 2.0384
-11.0095 10.4075 2.0384
-11.8233 9.5027 2.0384
-12.5620 8.5338 2.0384
-13.2202 7.5070 2.0384
-13.7934 6.4290 2.0384
-14.2774 5.3069 2.0384
-14.6687 4.1482 2.0384
-14.9644 2.9605 2.0384
-15.1624 1.7520 2.0384
-15.2611 0.5307 2.0384
-15.2598 -0.6950 2.0384
-15.1583 -1.9169 2.0384
-14.9573 -3.1266 2.0384
-14.6581 -4.3158 2.0384
-14.2629 -5.4762 2.0384
-13.7740 -6.6009 2.0384
-13.1951 -7.6813 2.0384
-12.5303 -8.7103 2.0384
-11.7842 -9.6810 2.0384
-10.9619 -10.5872 2.0384
-10.0691 -11.4226 2.0384
-9.1121 -12.1819 2.0384
-8.0975 -12.8602 2.0384
-7.0322 -13.4532 2.0384
-5.9235 -13.9572 2.0384
-4.7790 -14.3692 2.0384
-3.6064 -14.6867 2.0384
-2.4135 -14.9080 2.0384
-1.2083 -15.0321 2.0384
0.0014 -15.0586 2.0384
0.3264 -4.0520 0.5511
0.6494 -4.0064 0.5511
0.9673 -3.9357 0.5511
1.2781 -3.8402 0.5512
1.5802 -3.7208 0.5513
1.8716 -3.5783 0.5516
2.1507 -3.4135 0.5518
8.2509 -11.0234 1.8860
9.1602 -10.3843 1.8992
10.0301 -9.6798 1.9143
10.8422 -8.8995 1.9287
11.5891 -8.0480 1.9423
12.2637 -7.1307 1.9549
8.1813 -3.9152 1.2511
13.3705 -5.1247 1.9769
13.7912 -4.0508 1.9861
14.1173 -2.9406 1.9938
14.3450 -1.8030 2.0002
14.4716 -0.6474 2.0050
14.4956 0.5167 2.0083
14.4162 1.6792 2.0100
14.2340 2.8304 2.0101
13.9506 3.9605 2.0086
13.5685 5.0601 2.0055
13.0914 6.1198 2.0008
12.5240 7.1311 1.9946
11.8716 8.0859 1.9870
11.1405 8.9770 1.9781
10.3376 9.7978 1.9678
9.4704 10.5426 1.9564
8.5467 11.2066 1.9439
3.6816 5.7283 0.9383
6.5629 12.2775 1.9162
5.5196 12.6794 1.9012
4.4533 12.9902 1.8856
3.4018 13.3255 1.8860
2.3249 13.5739 1.8860
1.3295 14.8458 2.0384
0.1344 14.9261 2.0384
-1.0650 14.9107 2.0384
-2.2611 14.7994 2.0384
-3.4461 14.5923 2.0384
-4.6125 14.2903 2.0384
-5.7526 13.8951 2.0384
-6.8587 13.4088 2.0384
-7.9237 12.8342 2.0384
-8.9402 12.1746 2.0384
-9.9015 11.4340 2.0384
-10.8009 10.6170 2.0384
-11.6322 9.7288 2.0384
-12.3896 8.7749 2.0384
-13.0679 7.7616 2.0384
-13.6621 6.6954 2.0384
-14.1682 5.5834 2.0384
-14.5823 4.4328 2.0384
-14.9014 3.2515 2.0384
-15.1234 2.0473 2.0384
-15.2463 0.8283 2.0384
-15.2694 -0.3971 2.0384
-15.1922 -1.6207 2.0384
-15.0153 -2.8341 2.0384
-14.7397 -4.0294 2.0384
-14.3675 -5.1975 2.0384
-13.9012 -6.3314 2.0384
-13.3439 -7.4231 2.0384
-12.6996 -8.4652 2.0384
-11.9728 -9.4508 2.0384
-11.1684 -10.3732 2.0384
-10.2923 -11.2263 2.0384
-9.3503 -12.0046 2.0384
-8.3491 -12.7030 2.0384
-7.2954 -13.3171 2.0384
-6.1966 -13.8431 2.0384
-5.0601 -14.2776 2.0384
-3.8936 -14.6183 2.0384
-2.7049 -14.8631 2.0384
-1.5019 -15.0109 2.0384
-0.2926 -15.0611 2.0384
0.2474 -4.0593 0.5511
0.5713 -4.0199 0.5511
0.8906 -3.9552 0.5511
1.2033 -3.8657 0.5511
1.5077 -3.7520 0.5513
1.8018 -3.6150 0.5515
2.0841 -3.4555 0.5518
8.0369 -11.1861 1.8860
8.9409 -10.5436 1.8955
9.8237 -9.8582 1.9107
10.6505 -9.0959 1.9253
11.4139 -8.2612 1.9391
12.1068 -7.3594 1.9520
8.1611 -4.1032 1.2597
8.6944 -3.5286 1.2952
13.6975 -4.3155 1.9840
14.0469 -3.2133 1.9921
14.2988 -2.0816 1.9988
14.4502 -0.9294 2.0040
14.4993 0.2335 2.0076
14.4450 1.3973 2.0097
14.2877 2.5522 2.0102
14.0287 3.6883 2.0091
13.6703 4.7961 2.0064
13.2159 5.8663 2.0021
12.6699 6.8902 1.9963
12.0376 7.8594 1.9890
11.3251 8.7667 1.9804
9.5001 6.7463 1.9473
8.8986 7.4622 1.9399
8.2400 8.1216 1.9315
7.5302 8.7201 1.9221
6.7751 9.2538 1.9118
5.9812 9.7196 1.9008
5.1549 10.1150 1.8892
4.3236 10.4886 1.8860
3.4718 10.8130 1.8860
2.6061 11.1125 1.8935
1.8388 12.1635 2.0384
0.8581 12.2863 2.0384
-0.1305 12.3304 2.0384
-1.1207 12.2954 2.0384
-2.1060 12.1810 2.0384
-3.0802 11.9879 2.0384
-4.0370 11.7168 2.0384
-4.9700 11.3694 2.0384
-5.8731 10.9476 2.0384
-6.7404 10.4539 2.0384
-7.5660 9.8911 2.0384
-8.3443 9.2629 2.0384
-9.0702 8.5732 2.0384
-9.7385 7.8262 2.0384
-10.3448 7.0267 2.0384
-10.8848 6.1801 2.0384
-11.3547 5.2917 2.0384
-11.7512 4.3674 2.0384
-12.0716 3.4133 2.0384
-12.3135 2.4357 2.0384
-12.4751 1.4412 2.0384
-12.5554 0.4364 2.0384
-12.5535 -0.5719 2.0384
-12.4695 -1.5770 2.0384
-12.3040 -2.5720 2.0384
-12.0579 -3.5502 2.0384
-11.7330 -4.5051 2.0384
-11.3314 -5.4302 2.0384
-10.8560 -6.3194 2.0384
-10.3100 -7.1665 2.0384
-9.6972 -7.9660 2.0384
-9.0217 -8.7127 2.0384
-8.2883 -9.4016 2.0384
-7.5018 -10.0282 2.0384
-6.6678 -10.5884 2.0384
-5.7918 -11.0788 2.0384
-4.8799 -11.4962 2.0384
-3.9380 -11.8381 2.0384
-2.9726 -12.1024 2.0384
-1.9901 -12.2878 2.0384
-0.9970 -12.3931 2.0384
0.0002 -12.4180 2.0384
0.2699 -3.3536 0.5530
0.5374 -3.3168 0.5529
0.8007 -3.2590 0.5529
1.0584 -3.1807 0.5530
1.3088 -3.0824 0.5531
1.5556 -2.9747 0.5552
1.8439 -2.9271 0.5728
2.1525 -2.8762 0.5955
7.5174 -8.5230 1.8860
8.1878 -7.9028 1.8905
8.8406 -7.2574 1.9021
9.4393 -6.5559 1.9131
9.9788 -5.8028 1.9232
8.3747 -4.0082 1.5481
10.8604 -4.1632 1.9409
11.1941 -3.2884 1.9482
11.4517 -2.3857 1.9544
11.6307 -1.4621 1.9594
11.7291 -0.5249 1.9633
11.7456 0.4185 1.9659
11.6799 1.3604 1.9672
11.5324 2.2932 1.9673
11.3044 3.2093 1.9661
10.9977 4.1015 1.9637
10.6152 4.9624 1.9600
10.1603 5.7855 1.9550
9.6370 6.5643 1.9490
9.0502 7.2932 1.9418
8.4050 7.9668 1.9336
7.7071 8.5804 1.9244
6.9625 9.1302 1.9144
3.6809 5.7279 1.1343
5.3584 10.0255 1.8921
4.5265 10.3997 1.8860
3.6812 10.7404 1.8860
2.8107 11.0130 1.8860
2.0754 12.1219 2.0384
1.0974 12.2637 2.0384
0.1102 12.3270 2.0384
-0.8802 12.3112 2.0384
-1.8673 12.2161 2.0384
-2.8448 12.0420 2.0384
-3.8063 11.7898 2.0384
-4.7457 11.4608 2.0384
-5.6567 11.0569 2.0384
-6.5332 10.5803 2.0384
-7.3694 10.0341 2.0384
-8.1598 9.4215 2.0384
-8.8988 8.7463 2.0384
-9.5816 8.0128 2.0384
-10.2034 7.2257 2.0384
-10.7598 6.3900 2.0384
-11.2471 5.5112 2.0384
-11.6618 4.5951 2.0384
-12.0009 3.6476 2.0384
-12.2620 2.6752 2.0384
-12.4433 1.6841 2.0384
-12.5434 0.6812 2.0384
-12.5615 -0.3269 2.0384
-12.4975 -1.3334 2.0384
-12.3517 -2.3314 2.0384
-12.1250 -3.3143 2.0384
-11.8191 -4.2756 2.0384
-11.4360 -5.2084 2.0384
-10.9782 -6.1068 2.0384
-10.4490 -6.9648 2.0384
-9.8521 -7.7763 2.0384
-9.1914 -8.5363 2.0384
-8.4716 -9.2397 2.0384
-7.6976 -9.8818 2.0384
-6.8746 -10.4585 2.0384
-6.0083 -10.9662 2.0384
-5.1045 -11.4016 2.0384
-4.1694 -11.7620 2.0384
-3.2091 -12.0454 2.0384
-2.2302 -12.2500 2.0384
-1.2390 -12.3749 2.0384
-0.2422 -12.4194 2.0384
0.2045 -3.3594 0.5530
0.4727 -3.3277 0.5529
0.7372 -3.2750 0.5529
0.9964 -3.2016 0.5530
1.2487 -3.1081 0.5531
1.4926 -2.9952 0.5533
1.7722 -2.9389 0.5681
2.0753 -2.8889 0.5895
7.3515 -8.6705 1.8860
8.0216 -8.0508 1.8876
8.6866 -7.4196 1.8994
9.2990 -6.7313 1.9105
9.8534 -5.9903 1.9208
8.3695 -4.2085 1.5618
10.7681 -4.3708 1.9389
11.1198 -3.5039 1.9465
11.3963 -2.6074 1.9530
11.5946 -1.6882 1.9583
11.7126 -0.7536 1.9625
11.7491 0.1890 1.9654
11.7034 1.1320 1.9670
11.5757 2.0677 1.9674
11.3671 2.9886 1.9665
11.0793 3.8872 1.9644
10.7150 4.7564 1.9610
10.2773 5.5892 1.9563
9.7703 6.3794 1.9506
9.1985 7.1209 1.9436
7.9841 5.6701 1.9214
7.4825 6.2751 1.9152
6.9329 6.8337 1.9082
6.3398 7.3422 1.9004
5.7081 7.7973 1.8918
3.6035 5.8565 1.3452
4.3804 8.5964 1.8860
3.6796 8.9277 1.8860
2.9540 9.2024 1.8860
2.3866 10.1796 2.0384
1.5637 10.3484 2.0384
0.7292 10.4511 2.0384
-0.1118 10.4868 2.0384
-0.9537 10.4550 2.0384
-1.7913 10.3559 2.0384
-2.6190 10.1898 2.0384
-3.4317 9.9576 2.0384
-4.2238 9.6606 2.0384
-4.9903 9.3005 2.0384
-5.7261 8.8795 2.0384
-6.4263 8.4000 2.0384
-7.0862 7.8652 2.0384
-7.7012 7.2784 2.0384
-8.2674 6.6432 2.0384
-8.7808 5.9638 2.0384
-9.2379 5.2445 2.0384
-9.6355 4.4900 2.0384
-9.9709 3.7053 2.0384
-10.2417 2.8955 2.0384
-10.4460 2.0660 2.0384
-10.5824 1.2223 2.0384
-10.6498 0.3699 2.0384
-10.6478 -0.4853 2.0384
-10.5763 -1.3376 2.0384
-10.4357 -2.1815 2.0384
-10.2271 -3.0111 2.0384
-9.9517 -3.8210 2.0384
-9.6115 -4.6058 2.0384
-9.2087 -5.3601 2.0384
-8.7461 -6.0790 2.0384
-8.2269 -6.7578 2.0384
-7.6546 -7.3918 2.0384
-7.0331 -7.9771 2.0384
-6.3665 -8.5097 2.0384
-5.6595 -8.9862 2.0384
-4.9168 -9.4037 2.0384
-4.1433 -9.7594 2.0384
-3.3443 -10.0512 2.0384
-2.5250 -10.2773 2.0384
-1.6910 -10.4364 2.0384
-0.8477 -10.5277 2.0384
-0.0005 -10.5508 2.0384
0.2565 -3.1894 0.6188
0.5097 -3.1476 0.6173
0.7628 -3.1058 0.6199
1.0191 -3.0635 0.6264
1.2821 -3.0201 0.6373
1.5555 -2.9750 0.6528
1.8438 -2.9274 0.6734
2.1524 -2.8765 0.7000
6.3964 -7.2530 1.8860
6.9513 -6.7102 1.8860
7.4608 -6.1255 1.8860
7.9505 -5.5225 1.8929
8.3991 -4.8847 1.9013
8.3603 -4.0018 1.8150
9.1301 -3.5003 1.9160
9.4060 -2.7635 1.9221
9.6184 -2.0041 1.9272
9.7655 -1.2279 1.9314
9.8455 -0.4408 1.9346
9.8577 0.3511 1.9368
9.8018 1.1416 1.9379
9.6781 1.9244 1.9380
9.4877 2.6936 1.9370
9.2320 3.4430 1.9349
8.9133 4.1670 1.9319
8.5343 4.8598 1.9278
8.0983 5.5165 1.9228
7.6090 6.1322 1.9168
7.0706 6.7024 1.9100
6.4877 7.2234 1.9024
5.8650 7.6917 1.8940
3.6350 5.6571 1.3157
4.5465 8.5075 1.8860
3.8524 8.8523 1.8860
3.1324 9.1409 1.8860
2.5843 10.1287 2.0384
1.7650 10.3134 2.0384
0.9328 10.4322 2.0384
0.0930 10.4843 2.0384
-0.7492 10.4690 2.0384
-1.5884 10.3862 2.0384
-2.4190 10.2363 2.0384
-3.2358 10.0201 2.0384
-4.0334 9.7387 2.0384
-4.8066 9.3937 2.0384
-5.5504 8.9873 2.0384
-6.2596 8.5218 2.0384
-6.9298 8.0007 2.0384
-7.5561 7.4256 2.0384
-8.1345 6.8018 2.0384
-8.6611 6.1328 2.0384
-9.1321 5.4227 2.0384
-9.5445 4.6764 2.0384
-9.8952 3.8986 2.0384
-10.1819 3.0944 2.0384
-10.4025 2.2691 2.0384
-10.5555 1.4284 2.0384
-10.6398 0.5776 2.0384
-10.6547 -0.2774 2.0384
-10.6001 -1.1310 2.0384
-10.4762 -1.9774 2.0384
-10.2840 -2.8111 2.0384
-10.0247 -3.6263 2.0384
-9.7000 -4.4176 2.0384
-9.3122 -5.1798 2.0384
-8.8639 -5.9078 2.0384
-8.3581 -6.5967 2.0384
-7.7984 -7.2420 2.0384
-7.1884 -7.8395 2.0384
-6.5324 -8.3852 2.0384
-5.8348 -8.8757 2.0384
-5.1003 -9.3078 2.0384
-4.3339 -9.6787 2.0384
-3.5406 -9.9862 2.0384
-2.7258 -10.2284 2.0384
-1.8948 -10.4039 2.0384
-1.0532 -10.5118 2.0384
-0.2065 -10.5515 2.0384
0.1945 -3.1996 0.6198
0.4483 -3.1577 0.6173
0.7011 -3.1160 0.6189
0.9563 -3.0738 0.6245
1.2173 -3.0308 0.6342
1.4878 -2.9861 0.6485
1.7721 -2.9392 0.6679
2.0752 -2.8892 0.6929
6.2550 -7.3782 1.8860
6.8205 -6.8462 1.8860
7.3413 -6.2713 1.8860
7.8337 -5.6713 1.8907
8.2949 -5.0434 1.8993
8.7027 -4.3766 1.9073
9.0537 -3.6754 1.9144
9.3447 -2.9449 1.9207
9.5728 -2.1905 1.9261
9.7358 -1.4178 1.9305
9.8323 -0.6328 1.9339
9.8610 0.1585 1.9364
9.8217 0.9499 1.9377
9.7144 1.7352 1.9381
9.5400 2.5082 1.9373
9.3000 3.2630 1.9355
8.9964 3.9936 1.9327
8.6318 4.6946 1.9289
8.2093 5.3605 1.9241
7.7326 5.9865 1.9183
6.8748 4.8826 1.9024
6.4454 5.4057 1.8972
5.9745 5.8895 1.8912
5.4660 6.3309 1.8845
4.0574 5.5429 1.5468
3.5825 5.8230 1.5385
3.8073 7.4729 1.8860
3.1978 7.7601 1.8860
2.7742 8.6442 2.0384
2.0734 8.8462 2.0384
1.3581 8.9918 2.0384
0.6329 9.0798 2.0384
-0.0977 9.1096 2.0384
-0.8290 9.0809 2.0384
-1.5563 8.9936 2.0384
-2.2749 8.8481 2.0384
-2.9801 8.6453 2.0384
-3.6674 8.3863 2.0384
-4.3322 8.0726 2.0384
-4.9702 7.7061 2.0384
-5.5772 7.2891 2.0384
-6.1490 6.8242 2.0384
-6.6819 6.3143 2.0384
-7.1723 5.7625 2.0384
-7.6168 5.1726 2.0384
-8.0125 4.5483 2.0384
-8.3566 3.8936 2.0384
-8.6467 3.2128 2.0384
-8.8809 2.5104 2.0384
-9.0575 1.7911 2.0384
-9.1752 1.0595 2.0384
-9.2333 0.3205 2.0384
-9.2313 -0.4209 2.0384
-9.1691 -1.1597 2.0384
-9.0472 -1.8912 2.0384
-8.8663 -2.6104 2.0384
-8.6277 -3.3126 2.0384
-8.3329 -3.9930 2.0384
-7.9841 -4.6471 2.0384
-7.5834 -5.2706 2.0384
-7.1336 -5.8593 2.0384
-6.6379 -6.4095 2.0384
-6.0994 -6.9175 2.0384
-5.5219 -7.3800 2.0384
-4.9092 -7.7940 2.0384
-4.2655 -8.1569 2.0384
-3.5949 -8.4663 2.0384
-2.9021 -8.7204 2.0384
-2.1916 -8.9177 2.0384
-1.4681 -9.0569 2.0384
-0.7364 -9.1373 2.0384
-0.0011 -9.1586 2.0384
0.2563 -3.1897 0.7129
0.5095 -3.1479 0.7111
0.7626 -3.1061 0.7139
1.0190 -3.0638 0.7213
1.2819 -3.0204 0.7337
1.5554 -2.9753 0.7514
1.8437 -2.9277 0.7751
2.1524 -2.8768 0.8056
5.5583 -6.3035 1.8860
6.0413 -5.8324 1.8860
6.4848 -5.3247 1.8860
6.8862 -4.7837 1.8860
7.2401 -4.2112 1.8852
7.5765 -3.6270 1.8919
7.8634 -3.0150 1.8978
8.0980 -2.3795 1.9030
8.2784 -1.7252 1.9074
8.4029 -1.0568 1.9110
8.4702 -0.3794 1.9137
8.4797 0.3019 1.9156
8.4311 0.9818 1.9165
8.3247 1.6553 1.9166
8.1615 2.3171 1.9157
7.9426 2.9622 1.9140
7.6699 3.5858 1.9114
7.3456 4.1832 1.9079
6.9726 4.7499 1.9036
6.5537 5.2820 1.8985
6.0926 5.7757 1.8927
5.5924 6.2272 1.8860
5.0775 6.6596 1.8860
3.6143 5.6255 1.5049
3.9518 7.3958 1.8860
3.3481 7.6947 1.8860
2.9419 8.5867 2.0384
2.2452 8.8023 2.0384
1.5330 8.9617 2.0384
0.8098 9.0638 2.0384
0.0801 9.1078 2.0384
-0.6514 9.0933 2.0384
-1.3801 9.0202 2.0384
-2.1012 8.8888 2.0384
-2.8101 8.6998 2.0384
-3.5022 8.4544 2.0384
-4.1729 8.1538 2.0384
-4.8178 7.7999 2.0384
-5.4327 7.3950 2.0384
-6.0134 6.9415 2.0384
-6.5562 6.4422 2.0384
-7.0572 5.9003 2.0384
-7.5132 5.3193 2.0384
-7.9210 4.7030 2.0384
-8.2778 4.0553 2.0384
-8.5813 3.3804 2.0384
-8.8292 2.6829 2.0384
-9.0199 1.9672 2.0384
-9.1521 1.2382 2.0384
-9.2247 0.5006 2.0384
-9.2373 -0.2407 2.0384
-9.1897 -0.9806 2.0384
-9.0823 -1.7144 2.0384
-8.9157 -2.4368 2.0384
-8.6909 -3.1437 2.0384
-8.4097 -3.8298 2.0384
-8.0737 -4.4907 2.0384
-7.6854 -5.1220 2.0384
-7.2473 -5.7196 2.0384
-6.7624 -6.2795 2.0384
-6.2340 -6.7981 2.0384
-5.6657 -7.2719 2.0384
-5.0611 -7.6980 2.0384
-4.4246 -8.0735 2.0384
-3.7602 -8.3961 2.0384
-3.0723 -8.6639 2.0384
-2.3657 -8.8750 2.0384
-1.6449 -9.0285 2.0384
-0.9147 -9.1232 2.0384
-0.1799 -9.1588 2.0384
0.1943 -3.1999 0.7140
0.4481 -3.1580 0.7111
0.7010 -3.1163 0.7128
0.9562 -3.0741 0.7191
1.2172 -3.0310 0.7302
1.4877 -2.9864 0.7466
1.7720 -2.9395 0.7688
2.0752 -2.8895 0.7975
5.4718 -6.4552 1.8987
5.9274 -5.9504 1.8860
6.3808 -5.4514 1.8860
6.7926 -4.9181 1.8860
7.1605 -4.3542 1.8860
7.4992 -3.7718 1.8903
7.7984 -3.1661 1.8964
8.0459 -2.5359 1.9018
8.2397 -1.8857 1.9064
8.3779 -1.2203 1.9102
8.4592 -0.5446 1.9131
8.4827 0.1362 1.9152
8.4482 0.8170 1.9164
8.3559 1.4925 1.9166
8.2063 2.1576 1.9160
8.0008 2.8072 1.9145
7.7410 3.4365 1.9121
7.4291 4.0406 1.9088
7.0676 4.6152 1.9047
6.6596 5.1561 1.8998
6.0268 4.2806 1.8879
5.6599 4.7473 1.8860
5.2628 5.1884 1.8860
4.8316 5.5966 1.8860
4.0317 5.5084 1.7403
3.5615 5.7896 1.7320
3.3619 6.5994 1.8860
3.0514 7.4062 2.0384
2.4490 7.6325 2.0384
1.8300 7.8102 2.0384
1.1984 7.9380 2.0384
0.5581 8.0149 2.0384
-0.0869 8.0404 2.0384
-0.7322 8.0142 2.0384
-1.3739 7.9363 2.0384
-2.0078 7.8071 2.0384
-2.6298 7.6273 2.0384
-3.2359 7.3981 2.0384
-3.8220 7.1206 2.0384
-4.3843 6.7966 2.0384
-4.9191 6.4282 2.0384
-5.4229 6.0176 2.0384
-5.8923 5.5674 2.0384
-6.3241 5.0805 2.0384
-6.7155 4.5600 2.0384
-7.0638 4.0093 2.0384
-7.3666 3.4319 2.0384
-7.6218 2.8316 2.0384
-7.8278 2.2124 2.0384
-7.9831 1.5784 2.0384
-8.0865 0.9336 2.0384
-8.1374 0.2824 2.0384
-8.1354 -0.3710 2.0384
-8.0805 -1.0221 2.0384
-7.9730 -1.6667 2.0384
-7.8136 -2.3005 2.0384
-7.6035 -2.9192 2.0384
-7.3439 -3.5189 2.0384
-7.0366 -4.0954 2.0384
-6.6837 -4.6450 2.0384
-6.2877 -5.1641 2.0384
-5.8510 -5.6493 2.0384
-5.3768 -6.0974 2.0384
-4.8680 -6.5055 2.0384
-4.3283 -6.8709 2.0384
-3.7611 -7.1914 2.0384
-3.1702 -7.4648 2.0384
-2.5596 -7.6896 2.0384
-1.9333 -7.8642 2.0384
-1.2954 -7.9878 2.0384
-0.6501 -8.0595 2.0384
-0.0016 -8.0791 2.0384
0.2561 -3.1900 0.8081
0.5093 -3.1482 0.8060
0.7625 -3.1064 0.8091
1.0188 -3.0640 0.8174
1.2818 -3.0207 0.8314
1.5553 -2.9755 0.8514
1.8436 -2.9280 0.8781
2.1523 -2.8771 0.9126
5.3036 -6.0154 2.0384
5.3340 -5.1503 1.8860
5.7261 -4.7023 1.8860
6.0811 -4.2249 1.8860
6.3966 -3.7210 1.8860
6.6709 -3.1939 1.8860
6.9023 -2.6469 1.8860
7.0983 -2.0861 1.8884
7.2548 -1.5121 1.8922
7.3625 -0.9261 1.8954
7.4204 -0.3325 1.8977
7.4280 0.2643 1.8993
7.3851 0.8600 1.9002
7.2920 1.4499 1.9002
7.1493 2.0298 1.8995
6.9583 2.5952 1.8980
6.7204 3.1420 1.8957
6.4375 3.6662 1.8927
6.1120 4.1640 1.8889
5.7465 4.6318 1.8845
5.3626 5.0841 1.8860
4.9394 5.5005 1.8860
4.4843 5.8822 1.8860
3.5935 5.5938 1.6943
3.4895 6.5315 1.8860
3.1905 7.3338 2.0356
2.5971 7.5819 2.0384
1.9818 7.7716 2.0384
1.3529 7.9116 2.0384
0.7143 8.0009 2.0384
0.0701 8.0390 2.0384
-0.5755 8.0253 2.0384
-1.2185 7.9600 2.0384
-1.8547 7.8432 2.0384
-2.4800 7.6756 2.0384
-3.0902 7.4583 2.0384
-3.6815 7.1924 2.0384
-4.2500 6.8795 2.0384
-4.7918 6.5217 2.0384
-5.3035 6.1211 2.0384
-5.7815 5.6803 2.0384
-6.2228 5.2020 2.0384
-6.6242 4.6893 2.0384
-6.9832 4.1457 2.0384
-7.2973 3.5745 2.0384
-7.5643 2.9795 2.0384
-7.7824 2.3645 2.0384
-7.9501 1.7336 2.0384
-8.0662 1.0911 2.0384
-8.1299 0.4410 2.0384
-8.1408 -0.2122 2.0384
-8.0987 -0.8643 2.0384
-8.0039 -1.5108 2.0384
-7.8571 -2.1476 2.0384
-7.6591 -2.7704 2.0384
-7.4114 -3.3751 2.0384
-7.1156 -3.9576 2.0384
-6.7736 -4.5141 2.0384
-6.3878 -5.0410 2.0384
-5.9607 -5.5347 2.0384
-5.4953 -5.9921 2.0384
-4.9947 -6.4101 2.0384
-4.4621 -6.7861 2.0384
-3.9013 -7.1177 2.0384
-3.3158 -7.4028 2.0384
-2.7096 -7.6395 2.0384
-2.0867 -7.8264 2.0384
-1.4513 -7.9625 2.0384
-0.8074 -8.0468 2.0384
-0.1593 -8.0791 2.0384
0.1941 -3.2002 0.8094
0.4479 -3.1583 0.8060
0.7008 -3.1165 0.8078
0.9560 -3.0744 0.8149
1.2171 -3.0313 0.8275
1.4876 -2.9867 0.8459
1.7719 -2.9398 0.8710
2.0751 -2.8898 0.9034
5.1861 -6.1189 2.0384
5.2803 -5.3014 1.9030
5.6341 -4.8140 1.8860
5.9983 -4.3435 1.8860
6.3237 -3.8458 1.8860
6.6082 -3.3240 1.8860
6.8501 -2.7814 1.8860
7.0531 -2.2233 1.8874
7.2212 -1.6529 1.8914
7.3408 -1.0694 1.8947
7.4109 -0.4773 1.8972
7.4308 0.1192 1.8990
7.4002 0.7155 1.9000
7.3192 1.3073 1.9003
7.1885 1.8900 1.8997
7.0091 2.4593 1.8984
6.7824 3.0110 1.8963
6.5103 3.5411 1.8935
6.1949 4.0456 1.8899
5.8389 4.5210 1.8856
5.3836 3.8240 1.8860
5.0609 4.2451 1.8860
4.7056 4.6394 1.8860
4.3198 5.0042 1.8860
3.9061 5.3373 1.8860
3.4899 5.6734 1.8985
3.2479 6.3766 2.0384
2.7273 6.6207 2.0384
2.1886 6.8226 2.0384
1.6352 6.9809 2.0384
1.0705 7.0946 2.0384
0.4982 7.1627 2.0384
-0.0781 7.1849 2.0384
-0.6548 7.1609 2.0384
-1.2281 7.0907 2.0384
-1.7943 6.9747 2.0384
-2.3498 6.8135 2.0384
-2.8909 6.6081 2.0384
-3.4142 6.3597 2.0384
-3.9161 6.0699 2.0384
-4.3934 5.7404 2.0384
-4.8430 5.3733 2.0384
-5.2617 4.9710 2.0384
-5.6469 4.5359 2.0384
-5.9959 4.0709 2.0384
-6.3065 3.5790 2.0384
-6.5764 3.0634 2.0384
-6.8040 2.5275 2.0384
-6.9875 1.9747 2.0384
-7.1258 1.4086 2.0384
-7.2179 0.8331 2.0384
-7.2631 0.2519 2.0384
-7.2612 -0.3312 2.0384
-7.2121 -0.9123 2.0384
-7.1161 -1.4876 2.0384
-6.9739 -2.0532 2.0384
-6.7864 -2.6055 2.0384
-6.5548 -3.1407 2.0384
-6.2807 -3.6553 2.0384
-5.9660 -4.1459 2.0384
-5.6126 -4.6094 2.0384
-5.2231 -5.0427 2.0384
-4.8000 -5.4428 2.0384
-4.3462 -5.8075 2.0384
-3.8645 -6.1340 2.0384
-3.3584 -6.4205 2.0384
-2.8311 -6.6651 2.0384
-2.2860 -6.8663 2.0384
-1.7269 -7.0227 2.0384
-1.1574 -7.1336 2.0384
-0.5811 -7.1982 2.0384
-0.0019 -7.2163 2.0384
0.2558 -3.1903 0.9047
0.5091 -3.1484 0.9023
0.7623 -3.1067 0.9056
1.0186 -3.0643 0.9149
1.2816 -3.0209 0.9305
1.5551 -2.9758 0.9528
1.8435 -2.9283 0.9826
2.1522 -2.8774 1.0211
4.7401 -5.3771 2.0384
5.1529 -4.9761 2.0384
5.1186 -4.2039 1.8860
5.4362 -3.7774 1.8860
5.7187 -3.3271 1.8860
5.9643 -2.8559 1.8860
6.1715 -2.3669 1.8860
6.3390 -1.8632 1.8860
6.4658 -1.3478 1.8860
6.5512 -0.8243 1.8860
6.5916 -0.2955 1.8851
6.5978 0.2347 1.8865
6.5595 0.7638 1.8873
6.4768 1.2878 1.8873
6.3504 1.8030 1.8867
6.1833 2.3062 1.8860
5.9790 2.7955 1.8860
5.7363 3.2671 1.8860
5.4569 3.7179 1.8860
5.1424 4.1451 1.8860
4.7948 4.5462 1.8860
4.4163 4.9184 1.8860
4.0091 5.2594 1.8860
3.5727 5.5621 1.8843
3.3613 6.2924 2.0324
2.8557 6.5652 2.0384
2.3211 6.7775 2.0384
1.7709 6.9465 2.0384
1.2086 7.0711 2.0384
0.6378 7.1504 2.0384
0.0621 7.1838 2.0384
-0.5148 7.1710 2.0384
-1.0893 7.1120 2.0384
-1.6575 7.0071 2.0384
-2.2160 6.8568 2.0384
-2.7609 6.6621 2.0384
-3.2888 6.4240 2.0384
-3.7963 6.1441 2.0384
-4.2799 5.8241 2.0384
-4.7364 5.4659 2.0384
-5.1629 5.0719 2.0384
-5.5565 4.6445 2.0384
-5.9146 4.1865 2.0384
-6.2347 3.7009 2.0384
-6.5147 3.1908 2.0384
-6.7526 2.6594 2.0384
-6.9470 2.1104 2.0384
-7.0964 1.5473 2.0384
-7.1998 0.9737 2.0384
-7.2565 0.3935 2.0384
-7.2660 -0.1895 2.0384
-7.2284 -0.7715 2.0384
-7.1437 -1.3485 2.0384
-7.0127 -1.9168 2.0384
-6.8361 -2.4727 2.0384
-6.6151 -3.0123 2.0384
-6.3512 -3.5323 2.0384
-6.0461 -4.0291 2.0384
-5.7020 -4.4994 2.0384
-5.3210 -4.9403 2.0384
-4.9058 -5.3488 2.0384
-4.4592 -5.7222 2.0384
-3.9840 -6.0583 2.0384
-3.4835 -6.3547 2.0384
-2.9610 -6.6096 2.0384
-2.4200 -6.8214 2.0384
-1.8639 -6.9889 2.0384
-1.2966 -7.1109 2.0384
-0.7216 -7.1868 2.0384
-0.1428 -7.2162 2.0384
0.1939 -3.2005 0.9062
0.4477 -3.1586 0.9023
0.7006 -3.1168 0.9043
0.9559 -3.0747 0.9121
1.2169 -3.0316 0.9261
1.4875 -2.9870 0.9467
1.7718 -2.9401 0.9746
2.0750 -2.8901 1.0109
4.6350 -5.4695 2.0384
5.0556 -5.0765 2.0384
5.1268 -4.3811 1.9199
5.3622 -3.8834 1.8860
5.6534 -3.4386 1.8860
5.9081 -2.9722 1.8860
6.1247 -2.4873 1.8860
6.3020 -1.9868 1.8860
6.4388 -1.4740 1.8860
6.5343 -0.9522 1.8860
6.5833 -0.4241 1.8847
6.6004 0.1058 1.8863
6.5729 0.6355 1.8872
6.5010 1.1611 1.8874
6.3851 1.6788 1.8869
6.2262 2.1847 1.8857
6.0322 2.6781 1.8860
5.7988 3.1542 1.8860
5.5281 3.6103 1.8860
5.2220 4.0436 1.8860
4.8610 3.4530 1.8860
4.5694 3.8331 1.8860
4.2484 4.1890 1.8860
3.9000 4.5183 1.8860
3.6044 4.9255 1.9278
3.3825 5.4999 2.0384
2.9317 5.7566 2.0384
2.4616 5.9767 2.0384
1.9752 6.1585 2.0384
1.4755 6.3011 2.0384
0.9657 6.4032 2.0384
0.4491 6.4644 2.0384
-0.0710 6.4840 2.0384
-0.5914 6.4618 2.0384
-1.1086 6.3981 2.0384
-1.6194 6.2929 2.0384
-2.1205 6.1471 2.0384
-2.6085 5.9614 2.0384
-3.0804 5.7369 2.0384
-3.5329 5.4751 2.0384
-3.9632 5.1775 2.0384
-4.3684 4.8461 2.0384
-4.7458 4.4829 2.0384
-5.0929 4.0903 2.0384
-5.4073 3.6708 2.0384
-5.6871 3.2271 2.0384
-5.9302 2.7621 2.0384
-6.1351 2.2787 2.0384
-6.3004 1.7802 2.0384
-6.4249 1.2699 2.0384
-6.5077 0.7509 2.0384
-6.5484 0.2270 2.0384
-6.5465 -0.2987 2.0384
-6.5022 -0.8226 2.0384
-6.4157 -1.3412 2.0384
-6.2874 -1.8511 2.0384
-6.1184 -2.3489 2.0384
-5.9097 -2.8314 2.0384
-5.6627 -3.2954 2.0384
-5.3791 -3.7379 2.0384
-5.0607 -4.1559 2.0384
-4.7097 -4.5466 2.0384
-4.3284 -4.9076 2.0384
-3.9193 -5.2366 2.0384
-3.4852 -5.5313 2.0384
-3.0290 -5.7899 2.0384
-2.5536 -6.0108 2.0384
-2.0622 -6.1926 2.0384
-1.5580 -6.3341 2.0384
-1.0444 -6.4345 2.0384
-0.5247 -6.4932 2.0384
-0.0022 -6.5100 2.0384
0.2556 -3.1906 1.0029
0.5089 -3.1487 1.0001
0.7621 -3.1069 1.0038
1.0185 -3.0646 1.0140
1.2815 -3.0212 1.0312
1.5550 -2.9761 1.0558
1.8434 -2.9286 1.0888
2.1521 -2.8777 1.1314
4.2782 -4.8537 2.0384
4.6511 -4.4920 2.0384
4.9937 -4.1019 2.0384
4.9774 -3.4590 1.9129
5.1627 -3.0039 1.8860
5.3846 -2.5787 1.8860
5.5719 -2.1373 1.8860
5.7234 -1.6825 1.8860
5.8381 -1.2172 1.8860
5.9154 -0.7444 1.8860
5.9547 -0.2671 1.8860
5.9560 0.2118 1.8860
5.9191 0.6892 1.8860
5.8444 1.1621 1.8860
5.7322 1.6275 1.8860
5.5834 2.0826 1.8860
5.3988 2.5244 1.8860
5.1796 2.9501 1.8860
4.9272 3.3572 1.8860
4.6431 3.7429 1.8860
4.3291 4.1049 1.8860
3.9871 4.4408 1.8860
3.6390 4.7745 1.8963
3.4888 5.4322 2.0384
3.0432 5.6975 2.0384
2.5775 5.9266 2.0384
2.0947 6.1179 2.0384
1.5980 6.2701 2.0384
1.0904 6.3822 2.0384
0.5752 6.4533 2.0384
0.0556 6.4830 2.0384
-0.4650 6.4711 2.0384
-0.9834 6.4174 2.0384
-1.4961 6.3223 2.0384
-1.9998 6.1862 2.0384
-2.4913 6.0101 2.0384
-2.9673 5.7950 2.0384
-3.4249 5.5421 2.0384
-3.8608 5.2530 2.0384
-4.2724 4.9297 2.0384
-4.6567 4.5740 2.0384
-5.0114 4.1884 2.0384
-5.3340 3.7751 2.0384
-5.6224 3.3370 2.0384
-5.8746 2.8769 2.0384
-6.0889 2.3977 2.0384
-6.2639 1.9026 2.0384
-6.3984 1.3948 2.0384
-6.4914 0.8777 2.0384
-6.5424 0.3546 2.0384
-6.5509 -0.1710 2.0384
-6.5169 -0.6956 2.0384
-6.4406 -1.2158 2.0384
-6.3224 -1.7281 2.0384
-6.1632 -2.2292 2.0384
-5.9640 -2.7157 2.0384
-5.7262 -3.1845 2.0384
-5.4513 -3.6325 2.0384
-5.1412 -4.0567 2.0384
-4.7979 -4.4543 2.0384
-4.4237 -4.8228 2.0384
-4.0212 -5.1597 2.0384
-3.5929 -5.4629 2.0384
-3.1418 -5.7305 2.0384
-2.6707 -5.9607 2.0384
-2.1829 -6.1521 2.0384
-1.6816 -6.3035 2.0384
-1.1700 -6.4139 2.0384
-0.6514 -6.4828 2.0384
-0.1293 -6.5098 2.0384
0.1937 -3.2008 1.0046
0.4475 -3.1589 1.0002
0.7004 -3.1171 1.0023
0.9557 -3.0750 1.0109
1.2168 -3.0319 1.0264
1.4873 -2.9873 1.0491
1.7717 -2.9404 1.0800
2.0749 -2.8905 1.1201
4.1832 -4.9371 2.0384
4.5631 -4.5827 2.0384
4.9133 -4.1992 2.0384
4.9972 -3.6195 1.9471
5.1036 -3.1046 1.8860
5.3338 -2.6836 1.8860
5.5297 -2.2459 1.8860
5.6899 -1.7941 1.8860
5.8136 -1.3311 1.8860
5.9001 -0.8599 1.8860
5.9487 -0.3834 1.8860
5.9592 0.0954 1.8860
5.9316 0.5734 1.8860
5.8660 1.0477 1.8860
5.7629 1.5152 1.8860
5.6229 1.9731 1.8860
5.4469 2.4183 1.8860
5.2360 2.8483 1.8860
4.9915 3.2601 1.8860
4.7150 3.6512 1.8860
4.4238 3.1426 1.8860
4.1583 3.4885 1.8860
3.8661 3.8124 1.8860
3.7011 4.2883 1.9669
3.4679 4.7395 2.0384
3.0776 5.0048 2.0384
2.6673 5.2382 2.0384
2.2394 5.4382 2.0384
1.7967 5.6034 2.0384
1.3420 5.7328 2.0384
0.8782 5.8255 2.0384
0.4082 5.8808 2.0384
-0.0650 5.8982 2.0384
-0.5384 5.8778 2.0384
-1.0088 5.8194 2.0384
-1.4734 5.7235 2.0384
-1.9290 5.5905 2.0384
-2.3727 5.4213 2.0384
-2.8016 5.2168 2.0384
-3.2130 4.9785 2.0384
-3.6041 4.7076 2.0384
-3.9723 4.4061 2.0384
-4.3152 4.0757 2.0384
-4.6305 3.7186 2.0384
-4.9162 3.3370 2.0384
-5.1703 2.9335 2.0384
-5.3912 2.5107 2.0384
-5.5772 2.0712 2.0384
-5.7272 1.6180 2.0384
-5.8402 1.1541 2.0384
-5.9154 0.6825 2.0384
-5.9523 0.2062 2.0384
-5.9505 -0.2716 2.0384
-5.9102 -0.7477 2.0384
-5.8315 -1.2191 2.0384
-5.7150 -1.6825 2.0384
-5.5614 -2.1350 2.0384
-5.3718 -2.5736 2.0384
-5.1473 -2.9955 2.0384
-4.8896 -3.3976 2.0384
-4.6004 -3.7776 2.0384
-4.2814 -4.1329 2.0384
-3.9350 -4.4611 2.0384
-3.5632 -4.7603 2.0384
-3.1688 -5.0284 2.0384
-2.7541 -5.2638 2.0384
-2.3220 -5.4648 2.0384
-1.8754 -5.6304 2.0384
-1.4171 -5.7593 2.0384
-0.9501 -5.8509 2.0384
-0.4776 -5.9046 2.0384
-0.0025 -5.9202 2.0384
0.2554 -3.1909 1.1029
0.5087 -3.1491 1.0997
0.7619 -3.1072 1.1037
0.6761 -2.0349 0.7402
1.2814 -3.0215 1.1337
1.5549 -2.9764 1.1607
1.8433 -2.9289 1.1969
2.1520 -2.8781 1.2437
3.8920 -4.4162 2.0384
4.2315 -4.0874 2.0384
4.5435 -3.7326 2.0384
4.8260 -3.3542 2.0384
4.8672 -2.8324 1.9541
4.8999 -2.3468 1.8860
5.0705 -1.9452 1.8860
5.2085 -1.5313 1.8860
5.3130 -1.1079 1.8860
5.3835 -0.6776 1.8860
5.4194 -0.2432 1.8860
5.4206 0.1926 1.8860
5.3871 0.6272 1.8860
5.3191 1.0576 1.8860
5.2170 1.4812 1.8860
5.0815 1.8954 1.8860
4.9135 2.2975 1.8860
4.7139 2.6850 1.8860
4.4841 3.0554 1.8860
4.2254 3.4064 1.8860
3.9395 3.7359 1.8860
3.7286 4.1532 1.9382
3.5594 4.6705 2.0384
3.1744 4.9432 2.0384
2.7687 5.1845 2.0384
2.3449 5.3927 2.0384
1.9055 5.5665 2.0384
1.4535 5.7047 2.0384
0.9916 5.8063 2.0384
0.5228 5.8708 2.0384
0.0501 5.8975 2.0384
-0.4235 5.8863 2.0384
-0.8949 5.8371 2.0384
-1.3612 5.7502 2.0384
-1.8192 5.6262 2.0384
-2.2661 5.4657 2.0384
-2.6989 5.2697 2.0384
-3.1148 5.0395 2.0384
-3.5110 4.7764 2.0384
-3.8850 4.4821 2.0384
-4.2343 4.1585 2.0384
-4.5565 3.8077 2.0384
-4.8496 3.4319 2.0384
-5.1116 3.0335 2.0384
-5.3406 2.6151 2.0384
-5.5353 2.1794 2.0384
-5.6942 1.7293 2.0384
-5.8162 1.2677 2.0384
-5.9007 0.7977 2.0384
-5.9469 0.3222 2.0384
-5.9545 -0.1555 2.0384
-5.9235 -0.6323 2.0384
-5.8541 -1.1051 2.0384
-5.7467 -1.5708 2.0384
-5.6021 -2.0262 2.0384
-5.4211 -2.4684 2.0384
-5.2050 -2.8946 2.0384
-4.9553 -3.3017 2.0384
-4.6735 -3.6874 2.0384
-4.3616 -4.0489 2.0384
-4.0216 -4.3839 2.0384
-3.6558 -4.6904 2.0384
-3.2666 -4.9662 2.0384
-2.8566 -5.2097 2.0384
-2.4285 -5.4192 2.0384
-0.7176 -2.0219 0.7368
-1.5294 -5.7314 2.0384
-1.0643 -5.8321 2.0384
-0.5928 -5.8951 2.0384
-0.1180 -5.9199 2.0384
0.1934 -3.2011 1.1047
0.4473 -3.1592 1.0998
0.7002 -3.1174 1.1021
0.9555 -3.0753 1.1115
1.2166 -3.0322 1.1284
1.4872 -2.9876 1.1534
1.7716 -2.9407 1.1872
2.0748 -2.8908 1.2313
3.8056 -4.4920 2.0384
4.1515 -4.1698 2.0384
4.4703 -3.8211 2.0384
4.7601 -3.4482 2.0384
4.8844 -2.9716 1.9837
4.8535 -2.4420 1.8860
5.0320 -2.0440 1.8860
5.1780 -1.6329 1.8860
5.2907 -1.2116 1.8860
5.3695 -0.7827 1.8860
5.4138 -0.3490 1.8860
5.4235 0.0867 1.8860
5.3984 0.5218 1.8860
5.3388 0.9535 1.8860
5.2449 1.3790 1.8860
5.1175 1.7957 1.8860
4.9573 2.2010 1.8860
4.7653 2.5923 1.8860
4.5426 2.9671 1.8860
4.2908 3.3230 1.8860
4.0521 2.8788 1.8860
3.8788 3.2544 1.9206
3.7832 3.7309 2.0150
3.5130 4.0707 2.0384
3.1761 4.3412 2.0384
2.8185 4.5841 2.0384
2.4426 4.7977 2.0384
0.7542 1.8320 0.7498
0.6049 1.8870 0.7495
0.4516 1.9297 0.7493
0.2953 1.9600 0.7489
0.3733 5.3850 2.0384
-0.0600 5.4008 2.0384
-0.1810 1.9744 0.7478
-0.3388 1.9535 0.7474
-0.4944 1.9200 0.7469
-0.6468 1.8741 0.7464
-2.1725 4.9628 2.0384
-2.5651 4.7754 2.0384
-2.9415 4.5570 2.0384
-3.2993 4.3089 2.0384
-3.6362 4.0327 2.0384
-3.9499 3.7301 2.0384
-4.2383 3.4031 2.0384
-4.4996 3.0538 2.0384
-4.7320 2.6845 2.0384
-4.9339 2.2974 2.0384
-5.1040 1.8952 2.0384
-5.2412 1.4805 2.0384
-5.3445 1.0560 2.0384
-5.4132 0.6244 2.0384
-5.4468 0.1886 2.0384
-5.4451 -0.2486 2.0384
-5.4082 -0.6842 2.0384
-5.3362 -1.1154 2.0384
-5.2295 -1.5396 2.0384
-5.0890 -1.9536 2.0384
-4.9156 -2.3549 2.0384
-4.7103 -2.7409 2.0384
-4.4746 -3.1090 2.0384
-4.2100 -3.4567 2.0384
-3.9182 -3.7819 2.0384
-3.6013 -4.0825 2.0384
-3.2612 -4.3564 2.0384
-2.9003 -4.6019 2.0384
-2.5209 -4.8174 2.0384
-0.7688 -1.8089 0.7372
-0.6211 -1.8644 0.7375
-0.4696 -1.9078 0.7377
-0.3150 -1.9391 0.7380
-0.1585 -1.9579 0.7384
-0.0010 -1.9641 0.7387
0.1565 -1.9577 0.7391
0.3131 -1.9388 0.7396
0.4676 -1.9075 0.7400
0.6191 -1.8639 0.7405
0.7667 -1.8083 0.7410
1.5547 -2.9768 1.2677
1.8432 -2.9292 1.3072
2.1520 -2.8784 1.3582
3.5640 -4.0446 2.0384
3.8751 -3.7435 2.0384
4.1609 -3.4187 2.0384
4.4198 -3.0723 2.0384
4.6502 -2.7064 2.0384
4.7683 -2.2841 2.0039
4.7075 -1.8061 1.9117
4.7708 -1.4028 1.8860
4.8666 -1.0150 1.8860
4.9313 -0.6209 1.8860
4.9643 -0.2229 1.8860
4.9654 0.1764 1.8860
4.9348 0.5745 1.8860
4.8725 0.9688 1.8860
4.7790 1.3569 1.8860
4.6548 1.7363 1.8860
4.5008 2.1047 1.8860
4.3180 2.4596 1.8860
4.1073 2.7989 1.8860
3.9007 3.1449 1.9008
3.8075 3.6109 1.9901
3.5916 4.0010 2.0384
3.2600 4.2780 2.0384
2.9072 4.5277 2.0384
2.5355 4.7485 2.0384
0.7898 1.8168 0.7498
0.6416 1.8747 0.7496
0.4892 1.9205 0.7493
0.3335 1.9538 0.7490
0.4783 5.3759 2.0384
0.0455 5.4002 2.0384
-0.3882 5.3896 2.0384
-0.3006 1.9598 0.7475
-0.4569 1.9293 0.7470
-0.6101 1.8864 0.7465
-0.7594 1.8313 0.7460
-2.4710 4.8239 2.0384
-2.8516 4.6129 2.0384
-3.2142 4.3719 2.0384
-3.5563 4.1023 2.0384
-3.8759 3.8060 2.0384
-4.1706 3.4848 2.0384
-4.4387 3.1407 2.0384
-4.6783 2.7760 2.0384
-4.8877 2.3930 2.0384
-5.0657 1.9943 2.0384
-5.2109 1.5823 2.0384
-5.3225 1.1599 2.0384
-5.3997 0.7298 2.0384
-5.4419 0.2947 2.0384
-5.4488 -0.1424 2.0384
-5.4204 -0.5787 2.0384
-5.3569 -1.0113 2.0384
-5.2586 -1.4373 2.0384
-5.1263 -1.8540 2.0384
-4.9607 -2.2587 2.0384
-4.7631 -2.6486 2.0384
-4.5346 -3.0213 2.0384
-4.2768 -3.3742 2.0384
-3.9915 -3.7051 2.0384
-3.6805 -4.0118 2.0384
-3.3459 -4.2923 2.0384
-2.9898 -4.5449 2.0384
-2.6147 -4.7678 2.0384
-2.2230 -4.9598 2.0384
-0.6574 -1.8520 0.7374
-0.5067 -1.8984 0.7377
-0.3528 -1.9326 0.7379
-0.1967 -1.9544 0.7383
-0.0393 -1.9637 0.7386
0.1183 -1.9604 0.7390
0.2752 -1.9446 0.7395
0.4303 -1.9162 0.7399
0.5826 -1.8756 0.7404
0.7312 -1.8229 0.7409
1.4871 -2.9879 1.2597
1.7715 -2.9410 1.2966
2.0747 -2.8911 1.3446
3.4848 -4.1139 2.0384
3.8017 -3.8190 2.0384
4.0939 -3.4998 2.0384
4.3595 -3.1584 2.0384
4.5969 -2.7970 2.0384
4.7836 -2.4074 2.0295
4.7219 -1.9182 1.9322
4.7428 -1.4959 1.8860
4.8462 -1.1100 1.8860
4.9185 -0.7171 1.8860
4.9592 -0.3198 1.8860
4.9681 0.0794 1.8860
4.9451 0.4779 1.8860
4.8905 0.8734 1.8860
4.8045 1.2633 1.8860
4.6878 1.6450 1.8860
4.5410 2.0163 1.8860
4.3650 2.3747 1.8860
4.1610 2.7180 1.8860
3.9315 3.0449 1.8866
3.9399 2.7992 1.9912
3.7911 3.1810 2.0384
3.5245 3.4760 2.0384
3.2350 3.7490 2.0384
2.9247 3.9980 2.0384
2.5953 4.2215 2.0384
2.2490 4.4181 2.0384
0.6940 1.6858 0.7493
0.5565 1.7364 0.7490
0.4154 1.7758 0.7488
0.2716 1.8037 0.7485
0.1260 1.8198 0.7482
-0.0204 1.8243 0.7478
-0.1667 1.8169 0.7475
-0.3119 1.7977 0.7471
-0.4551 1.7669 0.7466
-0.5954 1.7246 0.7462
-0.7318 1.6712 0.7457
-2.3615 4.3955 2.0384
-2.7078 4.1943 2.0384
-3.0370 3.9658 2.0384
-3.3470 3.7114 2.0384
-3.6356 3.4328 2.0384
-3.9009 3.1318 2.0384
-4.1412 2.8102 2.0384
-4.3549 2.4702 2.0384
-4.5406 2.1140 2.0384
-4.6970 1.7439 2.0384
-4.8232 1.3622 2.0384
-4.9181 0.9715 2.0384
-4.9812 0.5744 2.0384
-5.0121 0.1734 2.0384
-5.0105 -0.2288 2.0384
-4.9765 -0.6297 2.0384
-4.9102 -1.0265 2.0384
-4.8121 -1.4167 2.0384
-4.6829 -1.7976 2.0384
-4.5233 -2.1669 2.0384
-4.3345 -2.5221 2.0384
-4.1176 -2.8608 2.0384
-3.8742 -3.1808 2.0384
-3.6058 -3.4801 2.0384
-3.3143 -3.7567 2.0384
-3.0014 -4.0089 2.0384
-2.6694 -4.2349 2.0384
-2.3204 -4.4334 2.0384
-0.7081 -1.6659 0.7377
-0.5722 -1.7170 0.7379
-0.4326 -1.7570 0.7382
-0.2903 -1.7858 0.7385
-0.1461 -1.8031 0.7388
-0.0010 -1.8089 0.7391
0.1440 -1.8030 0.7395
0.2882 -1.7856 0.7399
0.4305 -1.7567 0.7403
0.5700 -1.7165 0.7407
0.7059 -1.6653 0.7412
1.5546 -2.9771 1.3770
1.8431 -2.9295 1.4198
2.1519 -2.8787 1.4752
3.2814 -3.7244 2.0384
3.5680 -3.4473 2.0384
3.8314 -3.1484 2.0384
4.0699 -2.8294 2.0384
4.2822 -2.4926 2.0384
4.4667 -2.1399 2.0384
4.6226 -1.7738 2.0384
4.6209 -1.3590 1.9836
4.5661 -0.9523 1.9214
4.5415 -0.5718 1.8860
4.5720 -0.2054 1.8860
4.5731 0.1624 1.8860
4.5449 0.5290 1.8860
4.4876 0.8922 1.8860
4.4014 1.2497 1.8860
4.2871 1.5992 1.8860
4.1452 1.9383 1.8860
4.0361 2.2992 1.9142
3.9596 2.6984 1.9742
3.8523 3.1061 2.0384
3.5915 3.4063 2.0384
3.3074 3.6847 2.0384
3.0019 3.9397 2.0384
2.6770 4.1696 2.0384
2.3346 4.3729 2.0384
0.7267 1.6719 0.7493
0.5903 1.7252 0.7491
0.4500 1.7673 0.7489
0.3068 1.7980 0.7486
0.1615 1.8170 0.7483
0.0152 1.8243 0.7479
-0.1312 1.8197 0.7476
-0.2768 1.8034 0.7472
-0.4206 1.7754 0.7467
-0.5616 1.7359 0.7463
-0.6990 1.6852 0.7458
-2.2749 4.4402 2.0384
-2.6251 4.2458 2.0384
-2.9587 4.0238 2.0384
-3.2735 3.7756 2.0384
-3.5675 3.5027 2.0384
-3.8386 3.2069 2.0384
-4.0852 2.8902 2.0384
-4.3055 2.5545 2.0384
-4.4981 2.2020 2.0384
-4.6618 1.8350 2.0384
-4.7953 1.4559 2.0384
-4.8979 1.0672 2.0384
-4.9688 0.6714 2.0384
-5.0076 0.2711 2.0384
-5.0139 -0.1311 2.0384
-4.9877 -0.5325 2.0384
-4.9293 -0.9305 2.0384
-4.8389 -1.3226 2.0384
-4.7171 -1.7060 2.0384
-4.5648 -2.0783 2.0384
-4.3830 -2.4371 2.0384
-4.1728 -2.7801 2.0384
-3.9357 -3.1048 2.0384
-3.6733 -3.4094 2.0384
-3.3872 -3.6917 2.0384
-3.0793 -3.9499 2.0384
-2.7518 -4.1825 2.0384
-2.4066 -4.3878 2.0384
-0.7405 -1.6519 0.7377
-0.6056 -1.7056 0.7379
-0.4668 -1.7483 0.7381
-0.3251 -1.7799 0.7384
-0.1813 -1.8000 0.7387
-0.0363 -1.8085 0.7390
0.1088 -1.8055 0.7394
0.2533 -1.7909 0.7398
0.3961 -1.7648 0.7402
0.5364 -1.7273 0.7406
0.6733 -1.6788 0.7411
1.4869 -2.9882 1.3683
1.7713 -2.9414 1.4083
2.0746 -2.8914 1.4605
3.2084 -3.7883 2.0384
3.5004 -3.5168 2.0384
3.7696 -3.2229 2.0384
4.0143 -2.9086 2.0384
4.2331 -2.5760 2.0384
4.4245 -2.2270 2.0384
4.5874 -1.8639 2.0384
4.6344 -1.4619 2.0011
4.5793 -1.0489 1.9351
4.5354 -0.6614 1.8884
4.5673 -0.2947 1.8860
4.5755 0.0730 1.8860
4.5545 0.4401 1.8860
4.5042 0.8044 1.8860
4.4250 1.1635 1.8860
4.3174 1.5151 1.8860
4.1822 1.8570 1.8860
4.0537 2.2055 1.9018
3.9788 2.5991 1.9582
3.8968 3.0182 2.0304
3.7314 2.6513 2.0384
3.5072 2.9432 2.0384
3.2605 3.2160 2.0384
2.9927 3.4684 2.0384
2.7054 3.6987 2.0384
2.4006 3.9054 2.0384
0.7643 1.5018 0.7490
0.6415 1.5586 0.7488
0.5144 1.6054 0.7486
0.3839 1.6418 0.7484
0.2510 1.6675 0.7481
0.1164 1.6825 0.7478
-0.0190 1.6866 0.7475
-0.1543 1.6797 0.7472
-0.2885 1.6620 0.7468
-0.4209 1.6335 0.7464
-0.5506 1.5945 0.7460
-0.6767 1.5451 0.7456
-2.1841 4.0646 2.0384
-2.5043 3.8784 2.0384
-2.8087 3.6670 2.0384
-3.0951 3.4317 2.0384
-3.3619 3.1740 2.0384
-3.6071 2.8955 2.0384
-3.8292 2.5981 2.0384
-4.0267 2.2837 2.0384
-4.1982 1.9543 2.0384
-4.3427 1.6121 2.0384
-4.4592 1.2592 2.0384
-4.5469 0.8981 2.0384
-4.6052 0.5309 2.0384
-4.6337 0.1602 2.0384
-4.6322 -0.2116 2.0384
-4.6007 -0.5822 2.0384
-4.5395 -0.9490 2.0384
-4.4488 -1.3097 2.0384
-4.3293 -1.6619 2.0384
-4.1818 -2.0032 2.0384
-4.0073 -2.3316 2.0384
-3.8069 -2.6447 2.0384
-3.5819 -2.9406 2.0384
-3.3339 -3.2174 2.0384
-3.0644 -3.4732 2.0384
-2.7752 -3.7064 2.0384
-2.4683 -3.9155 2.0384
-0.7768 -1.4841 0.7380
-0.6552 -1.5412 0.7382
-0.5295 -1.5885 0.7383
-0.4003 -1.6256 0.7386
-0.2687 -1.6522 0.7388
-0.1353 -1.6682 0.7391
-0.0011 -1.6735 0.7394
0.1331 -1.6681 0.7398
0.2665 -1.6520 0.7401
0.3981 -1.6252 0.7405
0.5272 -1.5881 0.7409
0.6529 -1.5407 0.7414
0.7745 -1.4834 0.7418
1.8430 -2.9299 1.5351
2.1518 -2.8790 1.5949
3.0351 -3.4453 2.0384
3.3003 -3.1891 2.0384
3.5440 -2.9126 2.0384
3.7648 -2.6177 2.0384
3.9613 -2.3061 2.0384
4.1322 -1.9799 2.0384
4.2764 -1.6412 2.0384
4.3931 -1.2922 2.0384
4.4816 -0.9350 2.0384
4.4856 -0.5650 2.0134
4.4327 -0.1992 1.9764
4.3793 0.1554 1.9521
4.3248 0.5034 1.9398
4.2685 0.8487 1.9390
4.2098 1.1953 1.9498
4.1480 1.5474 1.9724
4.0823 1.9091 2.0076
3.9764 2.2653 2.0384
3.7823 2.5778 2.0384
3.5639 2.8738 2.0384
3.3225 3.1515 2.0384
3.0596 3.4090 2.0384
2.7769 3.6449 2.0384
2.4762 3.8574 2.0384
2.1594 4.0454 2.0384
0.6717 1.5457 0.7489
0.5456 1.5950 0.7487
0.4159 1.6339 0.7484
0.2835 1.6622 0.7482
0.1492 1.6798 0.7479
0.0139 1.6866 0.7476
-0.1214 1.6824 0.7473
-0.2560 1.6673 0.7469
-0.3890 1.6414 0.7465
-0.5194 1.6049 0.7461
-0.6464 1.5581 0.7457
-0.7692 1.5011 0.7452
-2.4279 3.9260 2.0384
-2.7362 3.7206 2.0384
-3.0273 3.4910 2.0384
-3.2989 3.2386 2.0384
-3.5495 2.9650 2.0384
-3.7774 2.6721 2.0384
-3.9810 2.3616 2.0384
-4.1590 2.0357 2.0384
-4.3102 1.6964 2.0384
-4.4336 1.3459 2.0384
-4.5283 0.9865 2.0384
-4.5938 0.6206 2.0384
-4.6296 0.2505 2.0384
-4.6354 -0.1213 2.0384
-4.6111 -0.4924 2.0384
-4.5571 -0.8603 2.0384
-4.4735 -1.2227 2.0384
-4.3610 -1.5772 2.0384
-4.2202 -1.9214 2.0384
-4.0522 -2.2531 2.0384
-3.8579 -2.5701 2.0384
-3.6388 -2.8704 2.0384
-3.3962 -3.1520 2.0384
-3.1318 -3.4130 2.0384
-2.8472 -3.6519 2.0384
-2.5445 -3.8669 2.0384
-2.2255 -4.0568 2.0384
-0.6852 -1.5282 0.7381
-0.5604 -1.5779 0.7383
-0.4320 -1.6175 0.7385
-0.3009 -1.6467 0.7388
-0.1678 -1.6653 0.7390
-0.0338 -1.6732 0.7394
0.1005 -1.6704 0.7397
0.2342 -1.6569 0.7400
0.3663 -1.6327 0.7404
0.4961 -1.5981 0.7408
0.6227 -1.5531 0.7413
0.7454 -1.4982 0.7417
1.7712 -2.9417 1.5227
2.0745 -2.8918 1.5790
2.9676 -3.5044 2.0384
3.2377 -3.2533 2.0384
3.4868 -2.9816 2.0384
3.7133 -2.6910 2.0384
3.9158 -2.3832 2.0384
4.0930 -2.0604 2.0384
4.2438 -1.7246 2.0384
4.3673 -1.3779 2.0384
4.4627 -1.0225 2.0384
4.4984 -0.6562 2.0244
4.4456 -0.2869 1.9842
4.3924 0.0700 1.9569
4.3382 0.4192 1.9417
4.2824 0.7648 1.9381
4.2243 1.1107 1.9461
4.1634 1.4611 1.9658
4.0987 1.8201 1.9978
4.0198 2.1871 2.0384
3.8318 2.5032 2.0384
3.6192 2.8034 2.0384
3.4654 2.4624 2.0384
3.2572 2.7334 2.0384
3.0279 2.9868 2.0384
2.7791 3.2213 2.0384
2.5123 3.4351 2.0384
2.2292 3.6270 2.0384
0.7093 1.3939 0.7486
0.5953 1.4467 0.7484
0.4773 1.4901 0.7483
0.3562 1.5238 0.7480
0.2328 1.5477 0.7478
0.1079 1.5616 0.7475
-0.0178 1.5654 0.7472
-0.1433 1.5591 0.7469
-0.2679 1.5426 0.7466
-0.3908 1.5162 0.7462
-0.5112 1.4800 0.7458
-0.6282 1.4342 0.7454
-0.7412 1.3791 0.7450
-2.3252 3.6004 2.0384
-2.6077 3.4040 2.0384
-2.8735 3.1855 2.0384
-3.1210 2.9462 2.0384
-3.3486 2.6876 2.0384
-3.5546 2.4115 2.0384
-3.7378 2.1196 2.0384
-3.8970 1.8139 2.0384
-4.0311 1.4962 2.0384
-4.1391 1.1687 2.0384
-4.2204 0.8334 2.0384
-4.2745 0.4927 2.0384
-4.3009 0.1486 2.0384
-4.2995 -0.1965 2.0384
-4.2702 -0.5404 2.0384
-4.2134 -0.8808 2.0384
-4.1292 -1.2156 2.0384
-4.0183 -1.5424 2.0384
-3.8815 -1.8593 2.0384
-3.7195 -2.1640 2.0384
-3.5336 -2.4547 2.0384
-3.3248 -2.7293 2.0384
-3.0947 -2.9863 2.0384
-2.8446 -3.2237 2.0384
-2.5763 -3.4402 2.0384
-2.2915 -3.6344 2.0384
-0.7216 -1.3783 0.7384
-0.6087 -1.4314 0.7385
-0.4919 -1.4753 0.7387
-0.3719 -1.5097 0.7389
-0.2497 -1.5345 0.7392
-0.1258 -1.5494 0.7394
-0.0012 -1.5543 0.7397
0.1235 -1.5492 0.7400
0.2473 -1.5343 0.7404
0.3696 -1.5094 0.7407
0.4895 -1.4749 0.7411
0.6063 -1.4309 0.7415
0.7191 -1.3777 0.7419
1.8429 -2.9302 1.6533
2.1517 -2.8794 1.7177
2.8181 -3.1996 2.0384
3.0645 -2.9617 2.0384
3.2909 -2.7050 2.0384
3.4961 -2.4311 2.0384
3.6786 -2.1418 2.0384
3.8374 -1.8389 2.0384
3.9714 -1.5244 2.0384
4.0799 -1.2003 2.0384
4.1622 -0.8687 2.0384
4.2176 -0.5314 2.0384
4.2460 -0.1909 2.0384
4.2471 0.1507 2.0384
4.2209 0.4912 2.0384
4.1677 0.8286 2.0384
4.0877 1.1607 2.0384
3.9814 1.4853 2.0384
3.8496 1.8004 2.0384
3.6930 2.1040 2.0384
3.5127 2.3942 2.0384
3.3098 2.6691 2.0384
3.0855 2.9269 2.0384
2.8413 3.1661 2.0384
2.5787 3.3851 2.0384
2.2994 3.5824 2.0384
0.7364 1.3797 0.7486
0.6234 1.4347 0.7485
0.5063 1.4804 0.7483
0.3859 1.5165 0.7481
0.2630 1.5428 0.7479
0.1384 1.5592 0.7476
0.0128 1.5654 0.7473
-0.1129 1.5615 0.7470
-0.2378 1.5475 0.7466
-0.3612 1.5235 0.7463
-0.4822 1.4897 0.7459
-0.6001 1.4462 0.7455
-0.7142 1.3933 0.7451
-2.2542 3.6446 2.0384
-2.5405 3.4538 2.0384
-2.8105 3.2405 2.0384
-3.0626 3.0062 2.0384
-3.2952 2.7521 2.0384
-3.5066 2.4802 2.0384
-3.6955 2.1919 2.0384
-3.8606 1.8894 2.0384
-4.0008 1.5744 2.0384
-4.1153 1.2491 2.0384
-4.2032 0.9155 2.0384
-4.2639 0.5759 2.0384
-4.2970 0.2324 2.0384
-4.3024 -0.1126 2.0384
-4.2799 -0.4570 2.0384
-4.2297 -0.7985 2.0384
-4.1521 -1.1349 2.0384
-4.0477 -1.4638 2.0384
-3.9171 -1.7833 2.0384
-3.7612 -2.0912 2.0384
-3.5809 -2.3854 2.0384
-3.3776 -2.6641 2.0384
-3.1525 -2.9255 2.0384
-2.9071 -3.1679 2.0384
-2.6431 -3.3896 2.0384
-2.3621 -3.5893 2.0384
-0.7484 -1.3640 0.7384
-0.6365 -1.4193 0.7385
-0.5206 -1.4655 0.7387
-0.4013 -1.5023 0.7389
-0.2796 -1.5294 0.7391
-0.1560 -1.5466 0.7394
-0.0315 -1.5540 0.7396
0.0932 -1.5514 0.7400
0.2174 -1.5388 0.7403
0.3401 -1.5164 0.7406
0.4606 -1.4842 0.7410
0.5782 -1.4425 0.7414
0.6921 -1.3915 0.7418
1.7711 -2.9420 1.6400
2.0744 -2.8921 1.7006
2.7554 -3.2544 2.0384
3.0064 -3.0213 2.0384
3.2378 -2.7691 2.0384
3.4483 -2.4992 2.0384
3.6364 -2.2134 2.0384
3.8011 -1.9137 2.0384
3.9412 -1.6018 2.0384
4.0559 -1.2798 2.0384
4.1446 -0.9497 2.0384
4.2066 -0.6137 2.0384
4.2416 -0.2739 2.0384
4.2493 0.0677 2.0384
4.2298 0.4087 2.0384
4.1831 0.7470 2.0384
4.1095 1.0806 2.0384
4.0096 1.4072 2.0384
3.8839 1.7248 2.0384
3.7333 2.0313 2.0384
3.5587 2.3250 2.0384
3.3611 2.6037 2.0384
3.2289 2.2946 2.0384
3.0349 2.5470 2.0384
2.8212 2.7832 2.0384
2.5893 3.0016 2.0384
2.3406 3.2008 2.0384
0.7624 1.2407 0.7483
0.6605 1.2982 0.7482
0.5543 1.3473 0.7481
0.4444 1.3877 0.7479
0.3316 1.4191 0.7477
0.2167 1.4414 0.7475
0.1004 1.4543 0.7472
-0.0167 1.4578 0.7470
-0.1336 1.4519 0.7467
-0.2497 1.4366 0.7463
-0.3641 1.4120 0.7460
-0.4762 1.3783 0.7456
-0.5852 1.3356 0.7453
-0.6904 1.2844 0.7449
-2.1661 3.3534 2.0384
-2.4291 3.1704 2.0384
-2.6767 2.9668 2.0384
-2.9071 2.7439 2.0384
-3.1190 2.5030 2.0384
-3.3108 2.2458 2.0384
-3.4814 1.9740 2.0384
-3.6296 1.6892 2.0384
-3.7543 1.3933 2.0384
-3.8549 1.0882 2.0384
-3.9306 0.7760 2.0384
-3.9809 0.4587 2.0384
-4.0054 0.1383 2.0384
-4.0041 -0.1831 2.0384
-3.9768 -0.5033 2.0384
-3.9239 -0.8203 2.0384
-3.8455 -1.1320 2.0384
-3.7423 -1.4364 2.0384
-3.6148 -1.7315 2.0384
-3.4641 -2.0153 2.0384
-3.2909 -2.2859 2.0384
-3.0966 -2.5418 2.0384
-2.8823 -2.7810 2.0384
-2.6494 -3.0023 2.0384
-2.3996 -3.2039 2.0384
-0.7734 -1.2265 0.7386
-0.6725 -1.2843 0.7387
-0.5673 -1.3338 0.7389
-0.4584 -1.3747 0.7390
-0.3467 -1.4068 0.7392
-0.2328 -1.4298 0.7395
-0.1173 -1.4437 0.7397
-0.0012 -1.4483 0.7400
0.1149 -1.4436 0.7403
0.2303 -1.4296 0.7406
0.3443 -1.4065 0.7409
0.4560 -1.3743 0.7413
0.5648 -1.3333 0.7416
0.6699 -1.2837 0.7420
0.7708 -1.2259 0.7424
2.1516 -2.8797 1.8438
2.6253 -2.9811 2.0384
2.8549 -2.7596 2.0384
3.0660 -2.5205 2.0384
3.2572 -2.2653 2.0384
3.4274 -1.9958 2.0384
3.5754 -1.7136 2.0384
3.7003 -1.4205 2.0384
3.8015 -1.1185 2.0384
3.8781 -0.8094 2.0384
3.9299 -0.4953 2.0384
3.9563 -0.1780 2.0384
3.9574 0.1403 2.0384
3.9330 0.4578 2.0384
3.8834 0.7720 2.0384
3.8089 1.0815 2.0384
3.7099 1.3840 2.0384
3.5870 1.6777 2.0384
3.4411 1.9605 2.0384
3.2730 2.2309 2.0384
3.0839 2.4871 2.0384
2.8749 2.7273 2.0384
2.6473 2.9502 2.0384
2.4025 3.1542 2.0384
0.7865 1.2255 0.7484
0.6857 1.2850 0.7483
0.5805 1.3361 0.7481
0.4714 1.3787 0.7480
0.3593 1.4123 0.7478
0.2448 1.4368 0.7476
0.1287 1.4520 0.7473
0.0118 1.4578 0.7470
-0.1052 1.4542 0.7467
-0.2216 1.4412 0.7464
-0.3365 1.4188 0.7461
-0.4492 1.3873 0.7457
-0.5590 1.3468 0.7454
-0.6652 1.2976 0.7450
-0.7671 1.2400 0.7446
-2.3666 3.2169 2.0384
-2.6180 3.0181 2.0384
-2.8528 2.7997 2.0384
-3.0693 2.5631 2.0384
-3.2661 2.3098 2.0384
-3.4419 2.0413 2.0384
-3.5957 1.7595 2.0384
-3.7262 1.4661 2.0384
-3.8327 1.1631 2.0384
-3.9145 0.8525 2.0384
-3.9710 0.5362 2.0384
-4.0018 0.2164 2.0384
-4.0068 -0.1050 2.0384
-3.9858 -0.4257 2.0384
-3.9391 -0.7437 2.0384
-3.8669 -1.0569 2.0384
-3.7696 -1.3632 2.0384
-3.6480 -1.6607 2.0384
-3.5028 -1.9474 2.0384
-3.3350 -2.2214 2.0384
-3.1457 -2.4810 2.0384
-2.9361 -2.7245 2.0384
-2.7076 -2.9502 2.0384
-2.4618 -3.1568 2.0384
-2.2002 -3.3428 2.0384
-0.6974 -1.2710 0.7387
-0.5932 -1.3225 0.7388
-0.4852 -1.3655 0.7390
-0.3741 -1.3998 0.7392
-0.2606 -1.4251 0.7394
-0.1455 -1.4412 0.7396
-0.0295 -1.4480 0.7399
0.0868 -1.4456 0.7402
0.2024 -1.4339 0.7405
0.3167 -1.4130 0.7408
0.4291 -1.3830 0.7412
0.5386 -1.3441 0.7416
0.6447 -1.2965 0.7419
0.7467 -1.2407 0.7423
2.0743 -2.8925 1.8255
2.5669 -3.0322 2.0384
2.8008 -2.8151 2.0384
3.0165 -2.5801 2.0384
3.2126 -2.3287 2.0384
3.3880 -2.0625 2.0384
3.5415 -1.7833 2.0384
3.6721 -1.4927 2.0384
3.7791 -1.1927 2.0384
3.8618 -0.8851 2.0384
3.9196 -0.5720 2.0384
3.9522 -0.2553 2.0384
3.9595 0.0630 2.0384
3.9413 0.3807 2.0384
3.8978 0.6960 2.0384
3.8292 1.0069 2.0384
3.7361 1.3112 2.0384
3.6190 1.6072 2.0384
3.4786 1.8929 2.0384
3.3159 2.1664 2.0384
3.1317 2.4262 2.0384
3.0170 2.1441 2.0384
2.8356 2.3800 2.0384
2.6359 2.6006 2.0384
2.4192 2.8047 2.0384
2.1868 2.9908 2.0384
0.7120 1.1588 0.7480
0.6168 1.2125 0.7479
0.5176 1.2583 0.7478
0.4149 1.2960 0.7476
0.3096 1.3254 0.7474
0.2023 1.3462 0.7472
0.0936 1.3582 0.7470
-0.0157 1.3615 0.7467
-0.1249 1.3560 0.7465
-0.2333 1.3417 0.7462
-0.3402 1.3187 0.7458
-0.4449 1.2872 0.7455
-0.5467 1.2474 0.7452
-0.6450 1.1996 0.7448
-0.7391 1.1439 0.7444
-2.2693 2.9613 2.0384
-2.5004 2.7710 2.0384
-2.7156 2.5627 2.0384
-2.9134 2.3377 2.0384
-3.0926 2.0975 2.0384
-3.2518 1.8435 2.0384
-3.3901 1.5775 2.0384
-3.5066 1.3011 2.0384
-3.6005 1.0163 2.0384
-3.6711 0.7247 2.0384
-3.7181 0.4283 2.0384
-3.7410 0.1291 2.0384
-3.7397 -0.1710 2.0384
-3.7142 -0.4701 2.0384
-3.6647 -0.7662 2.0384
-3.5916 -1.0573 2.0384
-3.4952 -1.3415 2.0384
-3.3762 -1.6171 2.0384
-3.2354 -1.8821 2.0384
-3.0737 -2.1349 2.0384
-2.8922 -2.3739 2.0384
-2.6921 -2.5974 2.0384
