ply
format ascii 1.0
element vertex 2169
property float32 x
property float32 y
property float32 z
end_header
1.0227 -3.9161 0.5494
1.3327 -3.8148 0.5495
1.6331 -3.6896 0.5496
1.9224 -3.5412 0.5498
2.1987 -3.3708 0.5501
2.4605 -3.1794 0.5504
2.7061 -2.9682 0.5508
10.1248 -9.4494 1.9020
10.9210 -8.6569 1.9167
11.6508 -7.7944 1.9306
12.3073 -6.8676 1.9437
12.8842 -5.8828 1.9557
13.3755 -4.8472 1.9666
8.3626 -2.2876 1.1997
8.8622 -1.6710 1.2490
14.2882 -1.5161 1.9915
14.3938 -0.3607 1.9969
14.3967 0.8013 2.0008
14.2964 1.9602 2.0032
14.0935 3.1060 2.0039
13.7898 4.2291 2.0030
13.3879 5.3200 2.0005
12.8917 6.3695 1.9965
12.3058 7.3690 1.9909
11.6357 8.3105 1.9839
10.8879 9.1869 1.9754
10.0693 9.9916 1.9657
9.1876 10.7190 1.9547
8.2505 11.3643 1.9427
7.2665 11.9238 1.9296
3.6356 7.2167 1.1154
5.1916 12.7744 1.9009
4.1177 13.0625 1.8856
3.0567 13.3721 1.8858
1.9725 13.5952 1.8858
0.9428 14.8410 2.0382
-0.2561 14.8927 2.0382
-1.4572 14.8483 2.0382
-2.6530 14.7076 2.0382
-3.8355 14.4709 2.0382
-4.9972 14.1394 2.0382
-6.1303 13.7147 2.0382
-7.2273 13.1991 2.0382
-8.2808 12.5956 2.0382
-9.2837 11.9076 2.0382
-10.2290 11.1394 2.0382
-11.1102 10.2957 2.0382
-11.9210 9.3817 2.0382
-12.6558 8.4033 2.0382
-13.3092 7.3668 2.0382
-5.8355 10.9504 2.0382
-6.7079 10.4597 2.0382
-7.5389 9.8993 2.0382
-8.3228 9.2726 2.0382
-9.0543 8.5835 2.0382
-9.7282 7.8365 2.0382
-10.3399 7.0361 2.0382
-10.8851 6.1877 2.0382
-11.3599 5.2967 2.0382
-11.7608 4.3692 2.0382
-12.0849 3.4111 2.0382
-12.3299 2.4290 2.0382
-12.4938 1.4294 2.0382
-12.5755 0.4192 2.0382
-12.5742 -0.5948 2.0382
-12.4898 -1.6056 2.0382
-12.3229 -2.6065 2.0382
-12.0744 -3.5905 2.0382
-11.7461 -4.5508 2.0382
-11.3402 -5.4810 2.0382
-10.8596 -6.3745 2.0382
-10.3075 -7.2255 2.0382
-9.6878 -8.0281 2.0382
-9.0049 -8.7769 2.0382
-8.2634 -9.4669 2.0382
-7.4686 -10.0935 2.0382
-6.6259 -10.6526 2.0382
-5.7411 -11.1407 2.0382
-4.8204 -11.5545 2.0382
-3.8701 -11.8917 2.0382
-2.8965 -12.1501 2.0382
-1.9064 -12.3283 2.0382
-0.9063 -12.4255 2.0382
0.0971 -12.4412 2.0382
1.0971 -12.3758 2.0382
2.0873 -12.2299 2.0382
0.8279 -3.2469 0.5513
1.0852 -3.1654 0.5513
1.3350 -3.0638 0.5514
1.5756 -2.9430 0.5516
1.8057 -2.8036 0.5518
2.0238 -2.6467 0.5520
2.2287 -2.4732 0.5523
2.4192 -2.2841 0.5527
8.8671 -7.1127 1.8907
9.4564 -6.4058 1.9020
9.9859 -5.6481 1.9125
10.4507 -4.8448 1.9222
10.8464 -4.0016 1.9310
8.5103 -2.3808 1.4773
11.4155 -2.2205 1.9456
11.5830 -1.2964 1.9512
11.6699 -0.3595 1.9556
11.6749 0.5826 1.9588
11.5976 1.5225 1.9608
11.4387 2.4524 1.9614
11.1993 3.3647 1.9608
10.8814 4.2521 1.9590
10.4879 5.1076 1.9558
10.0223 5.9242 1.9515
9.4887 6.6958 1.9459
8.8918 7.4165 1.9393
8.2370 8.0811 1.9315
7.5300 8.6850 1.9228
6.7769 9.2241 1.9132
5.9839 9.6952 1.9027
3.6430 7.1306 1.3360
4.3190 10.4573 1.8858
3.4663 10.7833 1.8858
2.5893 11.0405 1.8858
1.8305 12.1345 2.0382
0.8482 12.2584 2.0382
-0.1422 12.3034 2.0382
-1.1344 12.2688 2.0382
-2.1219 12.1547 2.0382
-3.0984 11.9614 2.0382
-4.0575 11.6898 2.0382
-4.9930 11.3413 2.0382
-5.8986 10.9180 2.0382
-6.7682 10.4223 2.0382
-7.5960 9.8570 2.0382
-8.3764 9.2258 2.0382
-9.1040 8.5325 2.0382
-9.7737 7.7814 2.0382
-10.3808 6.9775 2.0382
-10.9211 6.1259 2.0382
-11.3907 5.2322 2.0382
-11.7863 4.3022 2.0382
-12.1049 3.3422 2.0382
-12.3442 2.3587 2.0382
-12.5023 1.3581 2.0382
-12.5781 0.3474 2.0382
-12.5709 -0.6666 2.0382
-12.4807 -1.6770 2.0382
-12.3079 -2.6769 2.0382
-12.0537 -3.6594 2.0382
-11.7199 -4.6178 2.0382
-11.3086 -5.5455 2.0382
-10.8228 -6.4363 2.0382
-10.2658 -7.2840 2.0382
-9.6415 -8.0830 2.0382
-8.9542 -8.8278 2.0382
-8.2088 -9.5134 2.0382
-7.4104 -10.1353 2.0382
-6.5645 -10.6896 2.0382
-5.6770 -11.1725 2.0382
-4.7540 -11.5810 2.0382
-3.8018 -11.9126 2.0382
-2.8268 -12.1654 2.0382
-1.8358 -12.3379 2.0382
-0.8352 -12.4293 2.0382
0.1682 -12.4392 2.0382
1.1677 -12.3681 2.0382
0.5834 -3.3042 0.5513
0.8464 -3.2418 0.5513
1.1032 -3.1588 0.5513
1.3524 -3.0559 0.5514
1.5923 -2.9337 0.5516
1.8216 -2.7931 0.5518
2.0388 -2.6349 0.5521
2.2427 -2.4603 0.5524
2.4321 -2.2702 0.5527
8.9107 -7.0644 1.8915
9.4959 -6.3537 1.9027
10.0210 -5.5926 1.9132
10.4811 -4.7863 1.9229
10.8717 -3.9404 1.9316
8.5128 -2.3291 1.4755
11.4300 -2.1556 1.9460
11.5919 -1.2304 1.9515
11.6729 -0.2929 1.9559
11.6721 0.6494 1.9590
11.5891 1.5888 1.9609
11.4244 2.5177 1.9614
11.1793 3.4285 1.9607
10.8560 4.3139 1.9588
10.4572 5.1668 1.9556
9.9867 5.9805 1.9511
9.4484 6.7486 1.9455
8.8473 7.4655 1.9388
8.1886 8.1260 1.9310
7.4781 8.7253 1.9222
6.7219 9.2597 1.9125
5.9264 9.7259 1.9020
3.5866 7.1205 1.3301
4.2594 10.4827 1.8858
3.4049 10.8038 1.8858
2.5285 11.0650 1.8873
1.7613 12.1458 2.0382
0.7782 12.2642 2.0382
-0.2125 12.3035 2.0382
-1.2046 12.2634 2.0382
-2.1915 12.1436 2.0382
-3.1670 11.9447 2.0382
-4.1247 11.6676 2.0382
-5.0582 11.3138 2.0382
-5.9615 10.8853 2.0382
-6.8283 10.3844 2.0382
-7.6530 9.8144 2.0382
-8.4298 9.1787 2.0382
-9.1534 8.4811 2.0382
-9.8188 7.7261 2.0382
-10.4213 6.9187 2.0382
-10.9568 6.0639 2.0382
-4.9593 9.3043 2.0382
-5.6994 8.8855 2.0382
-6.4040 8.4077 2.0382
-7.0684 7.8739 2.0382
-7.6881 7.2873 2.0382
-8.2588 6.6518 2.0382
-8.7765 5.9714 2.0382
-9.2377 5.2504 2.0382
-9.6390 4.4937 2.0382
-9.9777 3.7060 2.0382
-10.2514 2.8931 2.0382
-10.4580 2.0598 2.0382
-10.5960 1.2119 2.0382
-10.6644 0.3552 2.0382
-10.6625 -0.5046 2.0382
-10.5904 -1.3617 2.0382
-10.4485 -2.2102 2.0382
-10.2377 -3.0443 2.0382
-9.9594 -3.8585 2.0382
-9.6155 -4.6472 2.0382
-9.2083 -5.4050 2.0382
-8.7407 -6.1269 2.0382
-8.2158 -6.8078 2.0382
-7.6373 -7.4434 2.0382
-7.0092 -8.0294 2.0382
-6.3358 -8.5618 2.0382
-5.6218 -9.0372 2.0382
-4.8719 -9.4526 2.0382
-4.0914 -9.8053 2.0382
-3.2855 -10.0931 2.0382
-2.4596 -10.3142 2.0382
-1.6194 -10.4675 2.0382
-0.7704 -10.5520 2.0382
0.0816 -10.5675 2.0382
0.9312 -10.5140 2.0382
0.4806 -2.8175 0.5526
0.7051 -2.7662 0.5526
0.9245 -2.6973 0.5526
1.1375 -2.6112 0.5527
1.3428 -2.5086 0.5528
1.5496 -2.4064 0.5568
1.7980 -2.3517 0.5765
2.0658 -2.2927 0.6017
2.3594 -2.2280 0.6334
7.5278 -6.0393 1.8858
7.9819 -5.4078 1.8858
8.4093 -4.7571 1.8915
8.7951 -4.0779 1.8997
9.1228 -3.3662 1.9070
9.0227 -2.5246 1.8387
9.5925 -1.8663 1.9191
9.7298 -1.0893 1.9238
9.8000 -0.3022 1.9274
9.8023 0.4890 1.9301
9.7364 1.2780 1.9317
9.6028 2.0587 1.9323
9.4024 2.8248 1.9318
9.1369 3.5705 1.9302
8.8085 4.2898 1.9276
8.4201 4.9774 1.9240
7.9749 5.6279 1.9194
7.4768 6.2367 1.9139
6.9300 6.7993 1.9075
6.3390 7.3119 1.9002
5.7087 7.7710 1.8922
5.0507 8.1841 1.8858
3.6253 7.0971 1.5614
3.6769 8.9043 1.8858
2.9503 9.1803 1.8858
2.3814 10.1572 2.0382
1.5571 10.3270 2.0382
0.7209 10.4305 2.0382
-0.1218 10.4668 2.0382
-0.9657 10.4353 2.0382
-1.8053 10.3361 2.0382
-2.6351 10.1696 2.0382
-3.4499 9.9366 2.0382
-4.2442 9.6384 2.0382
-5.0128 9.2766 2.0382
-5.7505 8.8536 2.0382
-6.4525 8.3717 2.0382
-7.1139 7.8340 2.0382
-7.7302 7.2439 2.0382
-8.2973 6.6050 2.0382
-8.8111 5.9216 2.0382
-9.2681 5.1979 2.0382
-9.6652 4.4389 2.0382
-9.9993 3.6493 2.0382
-10.2683 2.8346 2.0382
-10.4700 2.0001 2.0382
-10.6031 1.1515 2.0382
-10.6665 0.2943 2.0382
-10.6597 -0.5655 2.0382
-10.5827 -1.4221 2.0382
-10.4359 -2.2698 2.0382
-10.2202 -3.1028 2.0382
-9.9371 -3.9153 2.0382
-9.5887 -4.7020 2.0382
-9.1771 -5.4574 2.0382
-8.7053 -6.1765 2.0382
-8.1765 -6.8544 2.0382
-7.5944 -7.4866 2.0382
-6.9630 -8.0689 2.0382
-6.2865 -8.5974 2.0382
-5.5697 -9.0687 2.0382
-4.8175 -9.4797 2.0382
-4.0351 -9.8278 2.0382
-3.2275 -10.1110 2.0382
-2.4005 -10.3274 2.0382
-1.5595 -10.4757 2.0382
-0.7101 -10.5554 2.0382
0.1420 -10.5660 2.0382
0.9912 -10.5076 2.0382
0.4967 -2.8145 0.5526
0.7208 -2.7619 0.5526
0.9398 -2.6917 0.5526
1.1523 -2.6045 0.5527
1.3570 -2.5007 0.5528
1.5667 -2.4027 0.5580
1.8162 -2.3477 0.5781
2.0857 -2.2883 0.6037
2.3814 -2.2232 0.6360
7.5617 -5.9957 1.8858
8.0121 -5.3617 1.8858
8.4385 -4.7101 1.8921
8.8203 -4.0285 1.9002
9.1438 -3.3147 1.9075
9.4060 -2.5739 1.9139
9.6044 -1.8117 1.9195
9.7370 -1.0338 1.9240
9.8024 -0.2462 1.9277
9.7999 0.5450 1.9302
9.7292 1.3337 1.9318
9.5907 2.1135 1.9323
9.3857 2.8784 1.9317
9.1156 3.6224 1.9301
8.7829 4.3397 1.9274
8.3904 5.0247 1.9237
7.9414 5.6725 1.9191
7.4396 6.2781 1.9135
6.8895 6.8373 1.9070
6.2955 7.3462 1.8997
5.6627 7.8014 1.8916
5.0041 8.2133 1.8858
3.5693 7.0872 1.5546
3.6261 8.9257 1.8858
2.8980 9.1977 1.8858
2.3235 10.1714 2.0382
1.4982 10.3366 2.0382
0.6613 10.4353 2.0382
-0.1816 10.4668 2.0382
-1.0254 10.4305 2.0382
-1.8645 10.3265 2.0382
-2.6934 10.1553 2.0382
-3.5069 9.9176 2.0382
-4.2996 9.6148 2.0382
-5.0661 9.2487 2.0382
-5.8015 8.8213 2.0382
-6.5007 8.3354 2.0382
-7.1591 7.7939 2.0382
-7.7721 7.2001 2.0382
-8.3355 6.5580 2.0382
-8.8454 5.8716 2.0382
-9.2983 5.1453 2.0382
-4.3059 8.0768 2.0382
-4.9476 7.7121 2.0382
-5.5583 7.2962 2.0382
-6.1340 6.8319 2.0382
-6.6708 6.3221 2.0382
-7.1649 5.7699 2.0382
-7.6130 5.1790 2.0382
-8.0120 4.5531 2.0382
-8.3591 3.8964 2.0382
-8.6519 3.2132 2.0382
-8.8883 2.5079 2.0382
-9.0667 1.7854 2.0382
-9.1856 1.0503 2.0382
-9.2443 0.3077 2.0382
-9.2422 -0.4376 2.0382
-9.1794 -1.1804 2.0382
-9.0562 -1.9157 2.0382
-8.8734 -2.6387 2.0382
-8.6322 -3.3443 2.0382
-8.3342 -4.0279 2.0382
-7.9815 -4.6848 2.0382
-7.5765 -5.3106 2.0382
-7.1220 -5.9011 2.0382
-6.6210 -6.4524 2.0382
-6.0770 -6.9609 2.0382
-5.4937 -7.4231 2.0382
-4.8751 -7.8360 2.0382
-4.2254 -8.1971 2.0382
-3.5489 -8.5040 2.0382
-2.8504 -8.7545 2.0382
-2.1344 -8.9475 2.0382
-1.4057 -9.0817 2.0382
-0.6693 -9.1564 2.0382
0.0701 -9.1711 2.0382
0.8076 -9.1261 2.0382
0.4516 -2.6488 0.5984
0.6630 -2.6021 0.5987
0.8756 -2.5552 0.6028
1.0921 -2.5075 0.6111
1.3156 -2.4583 0.6236
1.5495 -2.4067 0.6409
1.7979 -2.3520 0.6635
2.0657 -2.2930 0.6924
2.3593 -2.2283 0.7288
6.5431 -5.2500 1.8858
6.9387 -4.7016 1.8858
7.2889 -4.1238 1.8858
7.5916 -3.5205 1.8858
7.8599 -2.9007 1.8894
8.0867 -2.2631 1.8949
8.2589 -1.6072 1.8997
8.3749 -0.9380 1.9037
8.4336 -0.2603 1.9068
8.4344 0.4205 1.9091
8.3771 1.0994 1.9105
8.2619 1.7711 1.9110
8.0899 2.4305 1.9106
7.8623 3.0724 1.9092
7.5810 3.6921 1.9070
7.2484 4.2849 1.9039
6.8672 4.8464 1.9000
6.4404 5.3725 1.8953
5.9717 5.8596 1.8898
5.4712 6.3115 1.8858
4.9477 6.7357 1.8858
4.3917 7.1172 1.8858
3.6076 7.0635 1.7872
3.1963 7.7418 1.8858
2.7715 8.6258 2.0382
2.0694 8.8290 2.0382
1.3526 8.9754 2.0382
0.6257 9.0641 2.0382
-0.1066 9.0943 2.0382
-0.8397 9.0656 2.0382
-1.5688 8.9780 2.0382
-2.2893 8.8320 2.0382
-2.9965 8.6283 2.0382
-3.6857 8.3680 2.0382
-4.3523 8.0527 2.0382
-4.9919 7.6843 2.0382
-5.6003 7.2649 2.0382
-6.1734 6.7973 2.0382
-6.7072 6.2843 2.0382
-7.1982 5.7293 2.0382
-7.6429 5.1358 2.0382
-8.0383 4.5076 2.0382
-8.3817 3.8488 2.0382
-8.6706 3.1639 2.0382
-8.9029 2.4572 2.0382
-9.0771 1.7336 2.0382
-9.1918 0.9979 2.0382
-9.2462 0.2549 2.0382
-9.2398 -0.4904 2.0382
-9.1727 -1.2328 2.0382
-9.0452 -1.9674 2.0382
-8.8582 -2.6893 2.0382
-8.6129 -3.3935 2.0382
-8.3110 -4.0753 2.0382
-7.9545 -4.7302 2.0382
-7.5459 -5.3536 2.0382
-7.0880 -5.9415 2.0382
-6.5838 -6.4899 2.0382
-6.0369 -6.9952 2.0382
-5.4510 -7.4540 2.0382
-4.8301 -7.8633 2.0382
-4.1783 -8.2206 2.0382
-3.5001 -8.5235 2.0382
-2.8002 -8.7701 2.0382
-2.0831 -8.9590 2.0382
-1.3537 -9.0890 2.0382
-0.6169 -9.1594 2.0382
0.1225 -9.1699 2.0382
0.8596 -9.1207 2.0382
0.4666 -2.6454 0.5983
0.6780 -2.5988 0.5988
0.8908 -2.5519 0.6033
1.1076 -2.5041 0.6118
1.3318 -2.4547 0.6247
1.5666 -2.4029 0.6423
1.8161 -2.3479 0.6654
2.0856 -2.2886 0.6948
2.3813 -2.2235 0.7317
6.5726 -5.2122 1.8858
6.9650 -4.6616 1.8858
7.3119 -4.0819 1.8858
7.6112 -3.4768 1.8858
7.8778 -2.8562 1.8898
8.1007 -2.2172 1.8953
8.2689 -1.5602 1.9000
8.3810 -0.8902 1.9040
8.4356 -0.2121 1.9070
8.4323 0.4688 1.9092
8.3708 1.1473 1.9106
8.2516 1.8183 1.9110
8.0756 2.4766 1.9105
7.8441 3.1171 1.9091
7.5591 3.7351 1.9068
7.2230 4.3258 1.9037
6.8384 4.8849 1.8997
6.4086 5.4084 1.8949
5.9370 5.8925 1.8894
5.4353 6.3429 1.8858
4.9093 6.7642 1.8858
4.3512 7.1425 1.8858
3.5519 7.0537 1.7794
3.1521 7.7605 1.8858
2.7223 8.6421 2.0382
2.0190 8.8413 2.0382
1.3014 8.9836 2.0382
0.5740 9.0682 2.0382
-0.1585 9.0942 2.0382
-0.8915 9.0613 2.0382
-1.6202 8.9696 2.0382
-2.3399 8.8195 2.0382
-3.0460 8.6117 2.0382
-3.7337 8.3475 2.0382
-4.3985 8.0283 2.0382
-5.0361 7.6562 2.0382
-5.6421 7.2333 2.0382
-6.2125 6.7624 2.0382
-6.7435 6.2463 2.0382
-7.2313 5.6885 2.0382
-7.6726 5.0923 2.0382
-8.0644 4.4618 2.0382
-3.7992 7.1249 2.0382
-4.3647 6.8023 2.0382
-4.9029 6.4348 2.0382
-5.4100 6.0246 2.0382
-5.8827 5.5743 2.0382
-6.3177 5.0869 2.0382
-6.7121 4.5655 2.0382
-7.0632 4.0133 2.0382
-7.3685 3.4341 2.0382
-7.6260 2.8317 2.0382
-7.8337 2.2100 2.0382
-7.9904 1.5731 2.0382
-8.0947 0.9253 2.0382
-8.1460 0.2709 2.0382
-8.1439 -0.3858 2.0382
-8.0883 -1.0402 2.0382
-7.9796 -1.6881 2.0382
-7.8184 -2.3250 2.0382
-7.6059 -2.9467 2.0382
-7.3435 -3.5490 2.0382
-7.0329 -4.1278 2.0382
-6.6763 -4.6793 2.0382
-6.2760 -5.1998 2.0382
-5.8349 -5.6859 2.0382
-5.3559 -6.1343 2.0382
-4.8422 -6.5420 2.0382
-4.2973 -6.9065 2.0382
-3.7250 -7.2253 2.0382
-3.1291 -7.4964 2.0382
-2.5135 -7.7181 2.0382
-1.8825 -7.8890 2.0382
-1.2402 -8.0082 2.0382
-0.5909 -8.0749 2.0382
0.0612 -8.0889 2.0382
0.7117 -8.0501 2.0382
0.4514 -2.6490 0.6784
0.6629 -2.6024 0.6786
0.8754 -2.5555 0.6832
1.0919 -2.5078 0.6925
1.3154 -2.4585 0.7066
1.5494 -2.4070 0.7261
1.7978 -2.3522 0.7517
2.0656 -2.2932 0.7843
2.3593 -2.2286 0.8255
5.8053 -4.6595 1.8948
6.1275 -4.1526 1.8858
6.4374 -3.6426 1.8858
6.7054 -3.1099 1.8858
6.9298 -2.5578 1.8858
7.1093 -1.9899 1.8858
7.2395 -1.4092 1.8849
7.3398 -0.8223 1.8884
7.3901 -0.2283 1.8911
7.3900 0.3683 1.8931
7.3393 0.9631 1.8943
7.2383 1.5516 1.8947
7.0878 2.1294 1.8944
6.8890 2.6921 1.8932
6.6434 3.2356 1.8913
6.3530 3.7558 1.8886
6.0221 4.2503 1.8858
5.6617 4.7232 1.8858
5.2646 5.1661 1.8858
4.8333 5.5761 1.8858
4.3705 5.9506 1.8858
3.8791 6.2871 1.8858
3.3619 6.5837 1.8858
3.0506 7.3904 2.0382
2.4470 7.6179 2.0382
1.8268 7.7965 2.0382
1.1937 7.9250 2.0382
0.5518 8.0024 2.0382
-0.0947 8.0282 2.0382
-0.7418 8.0019 2.0382
-1.3853 7.9237 2.0382
-2.0209 7.7939 2.0382
-2.6447 7.6132 2.0382
-3.2524 7.3826 2.0382
-3.8400 7.1035 2.0382
-4.4038 6.7777 2.0382
-4.9399 6.4071 2.0382
-5.4447 5.9940 2.0382
-5.9148 5.5410 2.0382
-6.3470 5.0509 2.0382
-6.7384 4.5273 2.0382
-7.0863 3.9731 2.0382
-7.3883 3.3922 2.0382
-7.6423 2.7882 2.0382
-7.8465 2.1653 2.0382
-7.9995 1.5275 2.0382
-8.1001 0.8791 2.0382
-8.1476 0.2243 2.0382
-8.1417 -0.4323 2.0382
-8.0823 -1.0864 2.0382
-7.9699 -1.7336 2.0382
-7.8050 -2.3696 2.0382
-7.5889 -2.9900 2.0382
-7.3230 -3.5908 2.0382
-7.0091 -4.1678 2.0382
-6.6493 -4.7173 2.0382
-6.2461 -5.2355 2.0382
-5.8022 -5.7190 2.0382
-5.3206 -6.1645 2.0382
-4.8045 -6.5693 2.0382
-4.2576 -6.9306 2.0382
-3.6835 -7.2461 2.0382
-3.0860 -7.5137 2.0382
-2.4693 -7.7319 2.0382
-1.8373 -7.8992 2.0382
-1.1943 -8.0146 2.0382
-0.5447 -8.0776 2.0382
0.1074 -8.0878 2.0382
0.7576 -8.0454 2.0382
0.4664 -2.6457 0.6782
0.6779 -2.5991 0.6788
0.8906 -2.5522 0.6837
1.1075 -2.5043 0.6933
1.3316 -2.4549 0.7078
1.5664 -2.4032 0.7277
1.8160 -2.3482 0.7538
2.0855 -2.2889 0.7870
2.3813 -2.2237 0.8288
5.8037 -4.6031 1.8858
6.1508 -4.1173 1.8858
6.4578 -3.6056 1.8858
6.7227 -3.0714 1.8858
6.9440 -2.5181 1.8858
7.1203 -1.9492 1.8858
7.2482 -1.3679 1.8852
7.3450 -0.7804 1.8886
7.3917 -0.1861 1.8913
7.3880 0.4106 1.8932
7.3337 1.0051 1.8944
7.2293 1.5930 1.8947
7.0753 2.1698 1.8943
6.8731 2.7313 1.8931
6.6243 3.2733 1.8911
6.3308 3.7916 1.8884
5.9978 4.2846 1.8858
5.6347 4.7556 1.8858
5.2352 5.1963 1.8858
4.8016 5.6039 1.8858
4.3366 5.9757 1.8858
3.8432 6.3095 1.8858
3.3373 6.6285 1.8931
3.0085 7.4081 2.0382
2.4036 7.6322 2.0382
1.7823 7.8073 2.0382
1.1484 7.9322 2.0382
0.5061 8.0059 2.0382
-0.1406 8.0280 2.0382
-0.7876 7.9981 2.0382
-1.4306 7.9162 2.0382
-2.0656 7.7827 2.0382
-2.6883 7.5984 2.0382
-3.2947 7.3644 2.0382
-3.8808 7.0820 2.0382
-4.4427 6.7529 2.0382
-4.9767 6.3792 2.0382
-5.4792 5.9631 2.0382
-5.9467 5.5074 2.0382
-6.3761 5.0149 2.0382
-6.7645 4.4890 2.0382
-7.1093 3.9328 2.0382
-3.3941 6.3640 2.0382
-3.8989 6.0753 2.0382
-4.3792 5.7465 2.0382
-4.8316 5.3797 2.0382
-5.2533 4.9772 2.0382
-5.6412 4.5416 2.0382
-5.9929 4.0757 2.0382
-6.3058 3.5825 2.0382
-6.5779 3.0652 2.0382
-6.8073 2.5273 2.0382
-6.9923 1.9722 2.0382
-7.1317 1.4037 2.0382
-7.2245 0.8255 2.0382
-7.2701 0.2415 2.0382
-7.2679 -0.3445 2.0382
-7.2182 -0.9284 2.0382
-7.1210 -1.5065 2.0382
-6.9772 -2.0748 2.0382
-6.7875 -2.6296 2.0382
-6.5534 -3.1671 2.0382
-6.2764 -3.6836 2.0382
-5.9583 -4.1759 2.0382
-5.6013 -4.6405 2.0382
-5.2078 -5.0745 2.0382
-4.7805 -5.4749 2.0382
-4.3223 -5.8391 2.0382
-3.8363 -6.1647 2.0382
-3.3257 -6.4497 2.0382
-2.7939 -6.6922 2.0382
-2.2446 -6.8906 2.0382
-1.6813 -7.0438 2.0382
-1.1080 -7.1508 2.0382
-0.5282 -7.2110 2.0382
0.0541 -7.2242 2.0382
0.6350 -7.1902 2.0382
0.4512 -2.6493 0.7595
0.6627 -2.6026 0.7597
0.8753 -2.5558 0.7648
1.0918 -2.5080 0.7751
1.3153 -2.4588 0.7908
1.5492 -2.4072 0.8126
1.7977 -2.3525 0.8411
2.0655 -2.2935 0.8776
2.3592 -2.2289 0.9235
5.5820 -4.4802 2.0382
5.6054 -3.7995 1.9297
5.7553 -3.2572 1.8858
5.9953 -2.7810 1.8858
6.1964 -2.2875 1.8858
6.3573 -1.7798 1.8858
6.4770 -1.2610 1.8858
6.5550 -0.7346 1.8858
6.5906 -0.2038 1.8858
6.5838 0.3280 1.8858
6.5346 0.8574 1.8858
6.4434 1.3812 1.8858
6.3107 1.8959 1.8858
6.1373 2.3984 1.8858
5.9245 2.8855 1.8858
5.6735 3.3542 1.8858
5.3858 3.8014 1.8858
5.0633 4.2243 1.8858
4.7080 4.6203 1.8858
4.3221 4.9867 1.8858
3.9080 5.3214 1.8858
3.5259 5.7154 1.9171
3.2486 6.3624 2.0382
2.7270 6.6077 2.0382
2.1872 6.8106 2.0382
1.6325 6.9697 2.0382
1.0665 7.0840 2.0382
0.4926 7.1526 2.0382
-0.0853 7.1749 2.0382
-0.6635 7.1508 2.0382
-1.2384 7.0802 2.0382
-1.8063 6.9635 2.0382
-2.3634 6.8014 2.0382
-2.9060 6.5948 2.0382
-3.4306 6.3449 2.0382
-3.9338 6.0533 2.0382
-4.4122 5.7217 2.0382
-4.8626 5.3523 2.0382
-5.2819 4.9474 2.0382
-5.6674 4.5095 2.0382
-6.0163 4.0416 2.0382
-6.3265 3.5466 2.0382
-6.5956 3.0277 2.0382
-6.8219 2.4885 2.0382
-7.0037 1.9324 2.0382
-7.1399 1.3630 2.0382
-7.2293 0.7843 2.0382
-7.2715 0.2000 2.0382
-7.2660 -0.3860 2.0382
-7.2128 -0.9696 2.0382
-7.1124 -1.5471 2.0382
-6.9652 -2.1146 2.0382
-6.7724 -2.6683 2.0382
-6.5352 -3.2044 2.0382
-6.2552 -3.7193 2.0382
-5.9343 -4.2098 2.0382
-5.5746 -4.6723 2.0382
-5.1786 -5.1040 2.0382
-4.7491 -5.5019 2.0382
-4.2888 -5.8635 2.0382
-3.8009 -6.1863 2.0382
-3.2886 -6.4683 2.0382
-2.7555 -6.7077 2.0382
-2.2051 -6.9030 2.0382
-1.6410 -7.0529 2.0382
-1.0670 -7.1566 2.0382
-0.4870 -7.2135 2.0382
0.0953 -7.2233 2.0382
0.6761 -7.1861 2.0382
0.4662 -2.6460 0.7593
0.6777 -2.5993 0.7599
0.8904 -2.5524 0.7654
1.1074 -2.5046 0.7760
1.3315 -2.4552 0.7922
1.5663 -2.4035 0.8143
1.8159 -2.3485 0.8434
2.0854 -2.2891 0.8805
2.3812 -2.2240 0.9272
5.6072 -4.4479 2.0382
5.5957 -3.7464 1.9190
5.7736 -3.2241 1.8858
6.0109 -2.7466 1.8858
6.2091 -2.2520 1.8858
6.3671 -1.7433 1.8858
6.4839 -1.2239 1.8858
6.5589 -0.6971 1.8858
6.5915 -0.1662 1.8858
6.5817 0.3656 1.8858
6.5295 0.8947 1.8858
6.4353 1.4179 1.8858
6.2997 1.9319 1.8858
6.1236 2.4334 1.8858
5.9080 2.9193 1.8858
5.6543 3.3866 1.8858
5.3641 3.8322 1.8858
5.0392 4.2533 1.8858
4.6816 4.6472 1.8858
4.2937 5.0115 1.8858
3.8776 5.3438 1.8858
3.5125 5.7673 1.9277
3.2123 6.3811 2.0382
2.6893 6.6235 2.0382
2.1483 6.8233 2.0382
1.5927 6.9793 2.0382
1.0260 7.0904 2.0382
0.4518 7.1557 2.0382
-0.1263 7.1748 2.0382
-0.7044 7.1473 2.0382
-1.2790 7.0735 2.0382
-1.8462 6.9535 2.0382
-2.4023 6.7882 2.0382
-2.9438 6.5785 2.0382
-3.4670 6.3256 2.0382
-3.9686 6.0311 2.0382
-4.4451 5.6967 2.0382
-4.8933 5.3247 2.0382
-5.3104 4.9174 2.0382
-5.6933 4.4773 2.0382
-6.0396 4.0073 2.0382
-6.3469 3.5105 2.0382
-3.0625 5.7410 2.0382
-3.5176 5.4801 2.0382
-3.9505 5.1831 2.0382
-4.3583 4.8519 2.0382
-4.7383 4.4886 2.0382
-5.0878 4.0954 2.0382
-5.4046 3.6750 2.0382
-5.6864 3.2301 2.0382
-5.9314 2.7635 2.0382
-6.1379 2.2784 2.0382
-6.3044 1.7779 2.0382
-6.4298 1.2653 2.0382
-6.5132 0.7440 2.0382
-6.5541 0.2175 2.0382
-6.5520 -0.3107 2.0382
-6.5070 -0.8371 2.0382
-6.4194 -1.3581 2.0382
-6.2896 -1.8704 2.0382
-6.1187 -2.3704 2.0382
-5.9077 -2.8549 2.0382
-5.6581 -3.3206 2.0382
-5.3715 -3.7644 2.0382
-5.0498 -4.1834 2.0382
-4.6953 -4.5747 2.0382
-4.3102 -4.9358 2.0382
-3.8973 -5.2644 2.0382
-3.4593 -5.5582 2.0382
-2.9991 -5.8155 2.0382
-2.5198 -6.0345 2.0382
-2.0246 -6.2138 2.0382
-1.5168 -6.3523 2.0382
-0.9998 -6.4493 2.0382
-0.4770 -6.5041 2.0382
0.0482 -6.5164 2.0382
0.5723 -6.4863 2.0382
0.4510 -2.6495 0.8419
0.6625 -2.6029 0.8421
0.8751 -2.5560 0.8477
1.0916 -2.5083 0.8590
1.3152 -2.4590 0.8764
1.5491 -2.4075 0.9004
1.7976 -2.3528 0.9320
2.0655 -2.2938 0.9723
2.3591 -2.2291 1.0231
5.0386 -4.0447 2.0382
5.3447 -3.6231 2.0382
5.4392 -3.0788 1.9741
5.4128 -2.5112 1.8858
5.5947 -2.0657 1.8858
5.7402 -1.6073 1.8858
5.8486 -1.1389 1.8858
5.9192 -0.6636 1.8858
5.9516 -0.1842 1.8858
5.9456 0.2960 1.8858
5.9012 0.7742 1.8858
5.8189 1.2472 1.8858
5.6991 1.7122 1.8858
5.5426 2.1660 1.8858
5.3503 2.6059 1.8858
5.1235 3.0291 1.8858
4.8636 3.4330 1.8858
4.5722 3.8148 1.8858
4.2512 4.1723 1.8858
3.9026 4.5031 1.8858
3.6732 5.0022 1.9631
3.3843 5.4865 2.0382
2.9327 5.7445 2.0382
2.4616 5.9657 2.0382
1.9741 6.1485 2.0382
1.4732 6.2918 2.0382
0.9621 6.3945 2.0382
0.4441 6.4559 2.0382
-0.0775 6.4756 2.0382
-0.5994 6.4533 2.0382
-1.1181 6.3891 2.0382
-1.6304 6.2834 2.0382
-2.1329 6.1366 2.0382
-2.6223 5.9497 2.0382
-3.0954 5.7238 2.0382
-3.5491 5.4603 2.0382
-3.9803 5.1608 2.0382
-4.3862 4.8272 2.0382
-4.7641 4.4616 2.0382
-5.1114 4.0665 2.0382
-5.4257 3.6442 2.0382
-5.7050 3.1977 2.0382
-5.9473 2.7297 2.0382
-6.1510 2.2434 2.0382
-6.3147 1.7419 2.0382
-6.4371 1.2286 2.0382
-6.5175 0.7068 2.0382
-6.5553 0.1801 2.0382
-6.5502 -0.3481 2.0382
-6.5022 -0.8742 2.0382
-6.4115 -1.3948 2.0382
-6.2789 -1.9063 2.0382
-6.1051 -2.4053 2.0382
-5.8913 -2.8886 2.0382
-5.6390 -3.3528 2.0382
-5.3498 -3.7949 2.0382
-5.0257 -4.2120 2.0382
-4.6689 -4.6013 2.0382
-4.2819 -4.9601 2.0382
-3.8671 -5.2864 2.0382
-3.4274 -5.5777 2.0382
-2.9657 -5.8323 2.0382
-2.4852 -6.0485 2.0382
-1.9890 -6.2250 2.0382
-1.4804 -6.3606 2.0382
-0.9629 -6.4546 2.0382
-0.4398 -6.5063 2.0382
0.0854 -6.5157 2.0382
0.6093 -6.4826 2.0382
0.4661 -2.6462 0.8418
0.6775 -2.5996 0.8423
0.8903 -2.5527 0.8483
1.1072 -2.5049 0.8600
1.3314 -2.4555 0.8779
1.5662 -2.4037 0.9024
1.8158 -2.3487 0.9345
2.0853 -2.2894 0.9755
2.3811 -2.2243 1.0272
5.0614 -4.0156 2.0382
5.3650 -3.5923 2.0382
5.4310 -3.0332 1.9649
5.4269 -2.4802 1.8858
5.6062 -2.0336 1.8858
5.7491 -1.5744 1.8858
5.8548 -1.1055 1.8858
5.9227 -0.6297 1.8858
5.9524 -0.1502 1.8858
5.9437 0.3300 1.8858
5.8967 0.8079 1.8858
5.8116 1.2805 1.8858
5.6892 1.7447 1.8858
5.5301 2.1977 1.8858
5.3353 2.6365 1.8858
5.1061 3.0584 1.8858
4.8440 3.4608 1.8858
4.5504 3.8410 1.8858
4.2274 4.1967 1.8858
3.8769 4.5255 1.8858
3.6617 5.0469 1.9723
3.3530 5.5060 2.0382
2.8999 5.7614 2.0382
2.4276 5.9799 2.0382
1.9390 6.1600 2.0382
1.4373 6.3004 2.0382
0.9256 6.4002 2.0382
0.4072 6.4587 2.0382
-0.1145 6.4754 2.0382
-0.6363 6.4502 2.0382
-1.1547 6.3830 2.0382
-1.6664 6.2743 2.0382
-2.1681 6.1246 2.0382
-2.6564 5.9349 2.0382
-3.1283 5.7063 2.0382
-3.5804 5.4402 2.0382
-4.0099 5.1382 2.0382
-4.4139 4.8023 2.0382
-4.7897 4.4346 2.0382
-5.1347 4.0374 2.0382
-5.4467 3.6134 2.0382
-5.7234 3.1652 2.0382
-2.7856 5.2208 2.0382
-3.1993 4.9832 2.0382
-3.5927 4.7128 2.0382
-3.9633 4.4114 2.0382
-4.3085 4.0808 2.0382
-4.6260 3.7231 2.0382
-4.9137 3.3407 2.0382
-5.1697 2.9361 2.0382
-5.3921 2.5118 2.0382
-5.5795 2.0708 2.0382
-5.7307 1.6158 2.0382
-5.8445 1.1498 2.0382
-5.9201 0.6760 2.0382
-5.9570 0.1975 2.0382
-5.9550 -0.2825 2.0382
-5.9140 -0.7609 2.0382
-5.8343 -1.2344 2.0382
-5.7164 -1.7000 2.0382
-5.5611 -2.1544 2.0382
-5.3694 -2.5947 2.0382
-5.1426 -3.0179 2.0382
-4.8822 -3.4213 2.0382
-4.5899 -3.8021 2.0382
-4.2678 -4.1579 2.0382
-3.9180 -4.4863 2.0382
-3.5428 -4.7851 2.0382
-3.1448 -5.0524 2.0382
-2.7267 -5.2864 2.0382
-2.2911 -5.4857 2.0382
-1.8410 -5.6490 2.0382
-1.3795 -5.7753 2.0382
-0.9095 -5.8638 2.0382
-0.4342 -5.9140 2.0382
0.0433 -5.9255 2.0382
0.5199 -5.8986 2.0382
0.4508 -2.6498 0.9259
0.6623 -2.6032 0.9259
0.6944 -2.0289 0.7398
1.0915 -2.5085 0.9445
1.3150 -2.4593 0.9635
1.5490 -2.4077 0.9898
1.7975 -2.3530 1.0245
2.0654 -2.2941 1.0687
2.3591 -2.2294 1.1246
4.5844 -3.6806 2.0382
4.8631 -3.2972 2.0382
5.1101 -2.8930 2.0382
5.2931 -2.4561 2.0264
5.1948 -1.9182 1.9241
5.2240 -1.4631 1.8858
5.3228 -1.0368 1.8858
5.3873 -0.6042 1.8858
5.4169 -0.1679 1.8858
5.4115 0.2693 1.8858
5.3713 0.7046 1.8858
5.2964 1.1352 1.8858
5.1873 1.5584 1.8858
5.0448 1.9715 1.8858
4.8698 2.3720 1.8858
4.6633 2.7572 1.8858
4.4266 3.1247 1.8858
4.1613 3.4722 1.8858
3.9321 3.8595 1.9165
3.7984 4.3833 2.0169
3.4704 4.7266 2.0382
3.0796 4.9932 2.0382
2.6684 5.2278 2.0382
2.2396 5.4288 2.0382
1.7959 5.5949 2.0382
1.3400 5.7249 2.0382
0.8749 5.8180 2.0382
0.4036 5.8736 2.0382
-0.0710 5.8912 2.0382
-0.5458 5.8705 2.0382
-1.0176 5.8117 2.0382
-1.4835 5.7151 2.0382
-1.9405 5.5813 2.0382
-2.3855 5.4109 2.0382
-2.8155 5.2051 2.0382
-3.2279 4.9651 2.0382
-3.6198 4.6925 2.0382
-3.9886 4.3889 2.0382
-4.3319 4.0563 2.0382
-4.6474 3.6968 2.0382
-4.9329 3.3127 2.0382
-5.1865 2.9066 2.0382
-5.4066 2.4811 2.0382
-5.5915 2.0389 2.0382
-5.7400 1.5831 2.0382
-5.8511 1.1165 2.0382
-5.9240 0.6422 2.0382
-5.9582 0.1635 2.0382
-5.9534 -0.3165 2.0382
-5.9097 -0.7946 2.0382
-5.8272 -1.2677 2.0382
-5.7066 -1.7326 2.0382
-5.5487 -2.1861 2.0382
-5.3544 -2.6253 2.0382
-5.1252 -3.0472 2.0382
-4.8625 -3.4491 2.0382
-4.5680 -3.8282 2.0382
-4.2439 -4.1821 2.0382
-3.8922 -4.5084 2.0382
-3.5154 -4.8051 2.0382
-3.1158 -5.0701 2.0382
-2.6963 -5.3017 2.0382
-2.2596 -5.4985 2.0382
-1.8087 -5.6592 2.0382
-1.3464 -5.7828 2.0382
-0.8760 -5.8686 2.0382
-0.4004 -5.9161 2.0382
0.0772 -5.9249 2.0382
0.5536 -5.8952 2.0382
0.4659 -2.6465 0.9257
0.6773 -2.5999 0.9262
0.7060 -2.0249 0.7398
1.1071 -2.5051 0.9456
1.3312 -2.4557 0.9651
1.5661 -2.4040 0.9920
1.8157 -2.3490 1.0273
2.0852 -2.2897 1.0723
2.3811 -2.2246 1.1290
4.6051 -3.6542 2.0382
4.8816 -3.2692 2.0382
5.1263 -2.8634 2.0382
5.2858 -2.4161 2.0184
5.1882 -1.8826 1.9177
5.2321 -1.4331 1.8858
5.3286 -1.0063 1.8858
5.3905 -0.5733 1.8858
5.4176 -0.1369 1.8858
5.4098 0.3003 1.8858
5.3671 0.7353 1.8858
5.2898 1.1654 1.8858
5.1783 1.5880 1.8858
5.0335 2.0004 1.8858
4.8562 2.3998 1.8858
4.6475 2.7838 1.8858
4.4088 3.1500 1.8858
4.1415 3.4960 1.8858
3.9231 3.8948 1.9229
3.7883 4.4225 2.0248
3.4435 4.7465 2.0382
3.0511 5.0109 2.0382
2.6386 5.2431 2.0382
2.2087 5.4417 2.0382
1.7640 5.6053 2.0382
1.3073 5.7327 2.0382
0.8417 5.8232 2.0382
0.3700 5.8761 2.0382
-0.1047 5.8909 2.0382
-0.5793 5.8676 2.0382
-1.0509 5.8061 2.0382
-1.5162 5.7069 2.0382
-1.9724 5.5704 2.0382
-2.4164 5.3975 2.0382
-2.8454 5.1892 2.0382
-3.2563 4.9468 2.0382
-3.6467 4.6720 2.0382
-4.0138 4.3662 2.0382
-4.3552 4.0317 2.0382
-4.6686 3.6704 2.0382
-4.9520 3.2847 2.0382
-5.2033 2.8771 2.0382
-2.5505 4.7792 2.0382
-2.9291 4.5615 2.0382
-3.2891 4.3137 2.0382
-3.6281 4.0376 2.0382
-3.9438 3.7348 2.0382
-4.2342 3.4073 2.0382
-4.4973 3.0571 2.0382
-4.7313 2.6867 2.0382
-4.9347 2.2984 2.0382
-5.1060 1.8947 2.0382
-5.2442 1.4783 2.0382
-5.3481 1.0519 2.0382
-5.4172 0.6184 2.0382
-5.4508 0.1805 2.0382
-5.4489 -0.2586 2.0382
-5.4113 -0.6963 2.0382
-5.3384 -1.1295 2.0382
-5.2305 -1.5555 2.0382
-5.0883 -1.9712 2.0382
-4.9130 -2.3741 2.0382
-4.7055 -2.7613 2.0382
-4.4673 -3.1304 2.0382
-4.2000 -3.4789 2.0382
-3.9054 -3.8045 2.0382
-3.5854 -4.1051 2.0382
-3.2423 -4.3786 2.0382
-2.8782 -4.6233 2.0382
-2.4956 -4.8377 2.0382
-0.7577 -1.8139 0.7364
-0.6091 -1.8686 0.7367
-0.4567 -1.9112 0.7370
-0.3013 -1.9415 0.7373
-0.1440 -1.9592 0.7377
0.0142 -1.9643 0.7381
0.1723 -1.9566 0.7386
0.3293 -1.9363 0.7390
0.4841 -1.9035 0.7395
0.6359 -1.8584 0.7401
1.0913 -2.5088 1.0316
1.3149 -2.4596 1.0523
1.5489 -2.4080 1.0810
1.7973 -2.3533 1.1188
2.0653 -2.2943 1.1671
2.3590 -2.2297 1.2280
4.1983 -3.3712 2.0382
4.4538 -3.0202 2.0382
4.6802 -2.6499 2.0382
4.8761 -2.2630 2.0382
5.0404 -1.8617 2.0382
5.0718 -1.4207 1.9987
4.9868 -0.9716 1.9287
4.9350 -0.5536 1.8858
4.9622 -0.1539 1.8858
4.9574 0.2466 1.8858
4.9206 0.6454 1.8858
4.8520 1.0399 1.8858
4.7521 1.4276 1.8858
4.6216 1.8061 1.8858
4.4706 2.1776 1.8897
4.2720 2.5257 1.8858
4.1363 2.9200 1.9235
4.0270 3.3603 1.9921
3.8305 3.7600 2.0382
3.5161 4.0578 2.0382
3.1787 4.3298 2.0382
2.8205 4.5739 2.0382
2.4438 4.7885 2.0382
0.7553 1.8312 0.7506
0.6054 1.8865 0.7503
0.4515 1.9295 0.7500
0.2946 1.9599 0.7497
0.3691 5.3789 2.0382
-0.0655 5.3947 2.0382
-0.1837 1.9739 0.7484
-0.3421 1.9527 0.7479
-0.4983 1.9188 0.7474
-0.6512 1.8724 0.7469
-2.1843 4.9535 2.0382
-2.5779 4.7648 2.0382
-2.9552 4.5449 2.0382
-3.3138 4.2951 2.0382
-3.6512 4.0170 2.0382
-3.9652 3.7123 2.0382
-4.2538 3.3832 2.0382
-4.5149 3.0315 2.0382
-4.7468 2.6598 2.0382
-4.9479 2.2703 2.0382
-5.1169 1.8656 2.0382
-5.2527 1.4484 2.0382
-5.3542 1.0214 2.0382
-5.4207 0.5875 2.0382
-5.4519 0.1494 2.0382
-5.4474 -0.2897 2.0382
-5.4073 -0.7272 2.0382
-5.3319 -1.1600 2.0382
-5.2215 -1.5853 2.0382
-5.0770 -2.0002 2.0382
-4.8993 -2.4020 2.0382
-4.6896 -2.7881 2.0382
-4.4493 -3.1558 2.0382
-4.1800 -3.5028 2.0382
-3.8835 -3.8267 2.0382
-3.5618 -4.1254 2.0382
-3.2171 -4.3969 2.0382
-2.8516 -4.6395 2.0382
-2.4679 -4.8517 2.0382
-0.7473 -1.8182 0.7364
-0.5984 -1.8720 0.7367
-0.4457 -1.9138 0.7370
-0.2902 -1.9432 0.7373
-0.1328 -1.9600 0.7377
0.0254 -1.9642 0.7381
0.1835 -1.9556 0.7386
0.3403 -1.9344 0.7391
0.4950 -1.9007 0.7396
0.6465 -1.8548 0.7401
1.1069 -2.5054 1.0328
1.3311 -2.4560 1.0541
1.5660 -2.4043 1.0834
1.8156 -2.3493 1.1219
2.0852 -2.2900 1.1710
2.3810 -2.2249 1.2329
4.2174 -3.3470 2.0382
4.4708 -2.9945 2.0382
4.6951 -2.6231 2.0382
4.8889 -2.2351 2.0382
5.0508 -1.8328 2.0382
5.0656 -1.3878 1.9932
4.9809 -0.9408 1.9243
4.9379 -0.5248 1.8858
4.9630 -0.1256 1.8858
4.9559 0.2749 1.8858
4.9168 0.6735 1.8858
4.8460 1.0676 1.8858
4.7439 1.4548 1.8858
4.6112 1.8325 1.8858
4.4487 2.1985 1.8858
4.2574 2.5507 1.8858
4.1289 2.9503 1.9279
4.0188 3.3927 1.9976
3.8090 3.7819 2.0382
3.4930 4.0778 2.0382
3.1540 4.3480 2.0382
2.7944 4.5901 2.0382
2.4165 4.8026 2.0382
0.7448 1.8355 0.7506
0.5946 1.8899 0.7503
0.4404 1.9320 0.7500
0.2834 1.9615 0.7497
0.3384 5.3812 2.0382
-0.0963 5.3945 2.0382
-0.1950 1.9728 0.7484
-0.3533 1.9508 0.7479
-0.5092 1.9160 0.7474
-0.6619 1.8687 0.7468
-2.2127 4.9412 2.0382
-2.6052 4.7502 2.0382
-2.9813 4.5282 2.0382
-3.3384 4.2763 2.0382
-3.6743 3.9962 2.0382
-3.9866 3.6898 2.0382
-4.2732 3.3590 2.0382
-4.5323 3.0058 2.0382
-4.7621 2.6327 2.0382
-2.3482 4.3991 2.0382
-2.6965 4.1985 2.0382
-3.0277 3.9703 2.0382
-3.3396 3.7159 2.0382
-3.6300 3.4371 2.0382
-3.8971 3.1355 2.0382
-4.1391 2.8132 2.0382
-4.3543 2.4722 2.0382
-4.5413 2.1148 2.0382
-4.6988 1.7433 2.0382
-4.8257 1.3601 2.0382
-4.9213 0.9677 2.0382
-4.9847 0.5688 2.0382
-5.0156 0.1660 2.0382
-5.0137 -0.2381 2.0382
-4.9791 -0.6408 2.0382
-4.9119 -1.0394 2.0382
-4.8126 -1.4312 2.0382
-4.6819 -1.8137 2.0382
-4.5205 -2.1844 2.0382
-4.3297 -2.5407 2.0382
-4.1106 -2.8803 2.0382
-3.8647 -3.2010 2.0382
-3.5937 -3.5006 2.0382
-3.2994 -3.7772 2.0382
-2.9837 -4.0290 2.0382
-2.6488 -4.2544 2.0382
-2.2969 -4.4518 2.0382
-0.6979 -1.6705 0.7370
-0.5611 -1.7209 0.7372
-0.4207 -1.7602 0.7375
-0.2776 -1.7881 0.7378
-0.1328 -1.8044 0.7381
0.0129 -1.8091 0.7385
0.1585 -1.8020 0.7389
0.3031 -1.7833 0.7394
0.4457 -1.7531 0.7399
0.5854 -1.7115 0.7404
0.7214 -1.6589 0.7409
1.3148 -2.4598 1.1431
1.5488 -2.4083 1.1742
1.7972 -2.3536 1.2152
2.0652 -2.2946 1.2676
2.3589 -2.2300 1.3337
3.8658 -3.1047 2.0382
4.1012 -2.7815 2.0382
4.3099 -2.4406 2.0382
4.4905 -2.0843 2.0382
4.6419 -1.7148 2.0382
4.7631 -1.3345 2.0382
4.8535 -0.9458 2.0382
4.8761 -0.5472 2.0231
4.7972 -0.1490 1.9794
4.7190 0.2346 1.9490
4.6407 0.6085 1.9309
4.5611 0.9774 1.9247
4.4795 1.3458 1.9300
4.3949 1.7176 1.9470
4.3062 2.0976 1.9763
4.2122 2.4907 2.0188
4.0367 2.8498 2.0382
3.7946 3.1666 2.0382
3.5278 3.4632 2.0382
3.2381 3.7375 2.0382
2.9273 3.9878 2.0382
2.5973 4.2124 2.0382
2.2503 4.4100 2.0382
0.6949 1.6851 0.7500
0.5569 1.7360 0.7498
0.4153 1.7755 0.7495
0.2709 1.8035 0.7492
0.1247 1.8197 0.7488
-0.0223 1.8240 0.7485
-0.1692 1.8164 0.7480
-0.3150 1.7969 0.7476
-0.4587 1.7657 0.7471
-0.5994 1.7230 0.7466
-0.7362 1.6691 0.7461
-2.3734 4.3858 2.0382
-2.7206 4.1832 2.0382
-3.0505 3.9531 2.0382
-3.3609 3.6969 2.0382
-3.6498 3.4164 2.0382
-3.9151 3.1133 2.0382
-4.1553 2.7896 2.0382
-4.3685 2.4474 2.0382
-4.5534 2.0889 2.0382
-4.7088 1.7165 2.0382
-4.8336 1.3325 2.0382
-4.9268 0.9396 2.0382
-4.9880 0.5404 2.0382
-5.0165 0.1374 2.0382
-5.0123 -0.2667 2.0382
-4.9754 -0.6692 2.0382
-4.9059 -1.0674 2.0382
-4.8044 -1.4587 2.0382
-4.6714 -1.8404 2.0382
-4.5080 -2.2101 2.0382
-4.3151 -2.5653 2.0382
-4.0941 -2.9037 2.0382
-3.8463 -3.2229 2.0382
-3.5736 -3.5210 2.0382
-3.2777 -3.7959 2.0382
-2.9606 -4.0459 2.0382
-2.6244 -4.2693 2.0382
-2.2713 -4.4647 2.0382
-0.6884 -1.6744 0.7370
-0.5513 -1.7241 0.7372
-0.4107 -1.7625 0.7375
-0.2674 -1.7896 0.7378
-0.1225 -1.8051 0.7382
0.0232 -1.8089 0.7386
0.1688 -1.8011 0.7390
0.3133 -1.7816 0.7394
0.4557 -1.7505 0.7399
0.5952 -1.7081 0.7404
0.7309 -1.6547 0.7409
1.3310 -2.4563 1.1450
1.5658 -2.4045 1.1768
1.8155 -2.3496 1.2185
2.0851 -2.2903 1.2718
2.3809 -2.2252 1.3389
3.8833 -3.0824 2.0382
4.1169 -2.7579 2.0382
4.3236 -2.4159 2.0382
4.5022 -2.0585 2.0382
4.6515 -1.6882 2.0382
4.7706 -1.3073 2.0382
4.8587 -0.9181 2.0382
4.8704 -0.5184 2.0195
4.7916 -0.1214 1.9768
4.7135 0.2614 1.9473
4.6350 0.6348 1.9301
4.5554 1.0036 1.9246
4.4736 1.3719 1.9308
4.3888 1.7442 1.9487
4.2998 2.1250 1.9789
4.2053 2.5192 2.0223
4.0204 2.8728 2.0382
3.7764 3.1883 2.0382
3.5080 3.4834 2.0382
3.2168 3.7560 2.0382
2.9045 4.0046 2.0382
2.5733 4.2273 2.0382
2.2251 4.4230 2.0382
0.6853 1.6891 0.7500
0.5470 1.7391 0.7498
0.4051 1.7779 0.7495
0.2606 1.8050 0.7492
0.1143 1.8204 0.7488
-0.0327 1.8238 0.7484
-0.1796 1.8154 0.7480
-0.3252 1.7951 0.7475
-0.4688 1.7631 0.7471
-0.6093 1.7196 0.7466
-0.7457 1.6649 0.7460
-2.3985 4.3724 2.0382
-2.7446 4.1678 2.0382
-3.0732 3.9358 2.0382
-3.3821 3.6778 2.0382
-3.6694 3.3957 2.0382
-3.9330 3.0911 2.0382
-4.1713 2.7660 2.0382
-4.3826 2.4225 2.0382
-2.1720 4.0680 2.0382
-2.4940 3.8823 2.0382
-2.8001 3.6711 2.0382
-3.0884 3.4358 2.0382
-3.3568 3.1778 2.0382
-3.6037 2.8989 2.0382
-3.8272 2.6008 2.0382
-4.0261 2.2855 2.0382
-4.1988 1.9550 2.0382
-4.3443 1.6115 2.0382
-4.4615 1.2572 2.0382
-4.5497 0.8944 2.0382
-4.6083 0.5257 2.0382
-4.6368 0.1533 2.0382
-4.6350 -0.2202 2.0382
-4.6029 -0.5925 2.0382
-4.5408 -0.9609 2.0382
-4.4490 -1.3231 2.0382
-4.3282 -1.6767 2.0382
-4.1790 -2.0193 2.0382
-4.0027 -2.3487 2.0382
-3.8002 -2.6626 2.0382
-3.5729 -2.9591 2.0382
-3.3225 -3.2361 2.0382
-3.0505 -3.4919 2.0382
-2.7587 -3.7248 2.0382
-2.4492 -3.9332 2.0382
-0.7683 -1.4888 0.7373
-0.6458 -1.5455 0.7375
-0.5193 -1.5921 0.7377
-0.3894 -1.6285 0.7379
-0.2570 -1.6543 0.7382
-0.1230 -1.6694 0.7385
0.0118 -1.6737 0.7389
0.1465 -1.6672 0.7393
0.2803 -1.6499 0.7397
0.4122 -1.6219 0.7401
0.5415 -1.5834 0.7406
0.6673 -1.5347 0.7411
1.3146 -2.4601 1.2359
1.5486 -2.4086 1.2696
1.7971 -2.3539 1.3138
2.0651 -2.2949 1.3704
2.3589 -2.2303 1.4418
3.5758 -2.8723 2.0382
3.7938 -2.5734 2.0382
3.9869 -2.2582 2.0382
4.1542 -1.9286 2.0382
4.2943 -1.5867 2.0382
4.4067 -1.2349 2.0382
4.4904 -0.8753 2.0382
4.5450 -0.5101 2.0382
4.5703 -0.1421 2.0382
4.5660 0.2269 2.0382
4.5322 0.5943 2.0382
4.4691 0.9577 2.0382
4.3771 1.3149 2.0382
4.2568 1.6636 2.0382
4.1090 2.0016 2.0382
3.9346 2.3268 2.0382
3.7348 2.6368 2.0382
3.5107 2.9299 2.0382
3.2638 3.2043 2.0382
2.9957 3.4580 2.0382
2.7081 3.6895 2.0382
2.4027 3.8973 2.0382
0.7657 1.5007 0.7497
0.6423 1.5579 0.7495
0.5148 1.6049 0.7493
0.3838 1.6415 0.7491
0.2503 1.6673 0.7488
0.1152 1.6823 0.7484
-0.0208 1.6863 0.7481
-0.1566 1.6793 0.7477
-0.2914 1.6613 0.7473
-0.4242 1.6325 0.7468
-0.5543 1.5930 0.7464
-0.6808 1.5431 0.7459
-2.1953 4.0557 2.0382
-2.5162 3.8682 2.0382
-2.8212 3.6552 2.0382
-3.1081 3.4182 2.0382
-3.3751 3.1587 2.0382
-3.6203 2.8784 2.0382
-3.8422 2.5790 2.0382
-4.0392 2.2625 2.0382
-4.2100 1.9310 2.0382
-4.3536 1.5867 2.0382
-4.4688 1.2317 2.0382
-4.5549 0.8685 2.0382
-4.6113 0.4994 2.0382
-4.6376 0.1268 2.0382
-4.6337 -0.2467 2.0382
-4.5995 -0.6187 2.0382
-4.5353 -0.9868 2.0382
-4.4414 -1.3485 2.0382
-4.3185 -1.7014 2.0382
-4.1674 -2.0431 2.0382
-3.9891 -2.3715 2.0382
-3.7849 -2.6842 2.0382
-3.5559 -2.9794 2.0382
-3.3039 -3.2550 2.0382
-3.0304 -3.5092 2.0382
-2.7374 -3.7404 2.0382
-2.4266 -3.9470 2.0382
-0.7598 -1.4932 0.7373
-0.6370 -1.5491 0.7375
-0.5102 -1.5951 0.7377
-0.3801 -1.6307 0.7379
-0.2476 -1.6557 0.7382
-0.1135 -1.6701 0.7386
0.0214 -1.6736 0.7389
0.1560 -1.6663 0.7393
0.2897 -1.6483 0.7397
0.4214 -1.6195 0.7402
0.5505 -1.5803 0.7406
0.6760 -1.5309 0.7411
1.3308 -2.4566 1.2380
1.5657 -2.4048 1.2723
1.8154 -2.3499 1.3174
2.0850 -2.2906 1.3750
2.3809 -2.2255 1.4475
3.5921 -2.8517 2.0382
3.8083 -2.5516 2.0382
3.9997 -2.2353 2.0382
4.1650 -1.9047 2.0382
4.3032 -1.5621 2.0382
4.4135 -1.2096 2.0382
4.4952 -0.8496 2.0382
4.5478 -0.4841 2.0382
4.5710 -0.1159 2.0382
4.5646 0.2530 2.0382
4.5287 0.6202 2.0382
4.4635 0.9833 2.0382
4.3695 1.3399 2.0382
4.2472 1.6880 2.0382
4.0975 2.0251 2.0382
3.9213 2.3493 2.0382
3.7197 2.6581 2.0382
3.4939 2.9500 2.0382
3.2455 3.2230 2.0382
2.9759 3.4752 2.0382
2.6870 3.7050 2.0382
2.3804 3.9111 2.0382
0.7571 1.5051 0.7497
0.6334 1.5616 0.7495
0.5056 1.6079 0.7493
0.3744 1.6437 0.7490
0.2408 1.6688 0.7487
0.1055 1.6829 0.7484
-0.0304 1.6861 0.7481
-0.1662 1.6783 0.7477
-0.3008 1.6596 0.7472
-0.4336 1.6300 0.7468
-0.5634 1.5898 0.7463
-0.6896 1.5392 0.7459
-2.2185 4.0433 2.0382
-2.5384 3.8539 2.0382
-2.8421 3.6392 2.0382
-3.1277 3.4006 2.0382
-3.3932 3.1395 2.0382
-3.6368 2.8578 2.0382
-3.8570 2.5571 2.0382
-4.0522 2.2395 2.0382
-0.7375 1.3810 0.7453
-2.3157 3.6041 2.0382
-2.5998 3.4079 2.0382
-2.8673 3.1893 2.0382
-3.1164 2.9497 2.0382
-3.3454 2.6907 2.0382
-3.5529 2.4140 2.0382
-3.7373 2.1212 2.0382
-3.8975 1.8144 2.0382
-4.0325 1.4955 2.0382
-4.1412 1.1667 2.0382
-4.2230 0.8300 2.0382
-4.2772 0.4877 2.0382
-4.3036 0.1421 2.0382
-4.3019 -0.2045 2.0382
-4.2721 -0.5500 2.0382
-4.2144 -0.8919 2.0382
-4.1292 -1.2280 2.0382
-4.0171 -1.5561 2.0382
-3.8787 -1.8741 2.0382
-3.7150 -2.1798 2.0382
-3.5271 -2.4712 2.0382
-3.3163 -2.7464 2.0382
-3.0839 -3.0035 2.0382
-2.8315 -3.2409 2.0382
-2.5608 -3.4571 2.0382
-2.2735 -3.6506 2.0382
-0.7136 -1.3827 0.7377
-0.5999 -1.4354 0.7379
-0.4824 -1.4787 0.7381
-0.3618 -1.5125 0.7383
-0.2388 -1.5365 0.7386
-0.1144 -1.5505 0.7389
0.0108 -1.5545 0.7392
0.1359 -1.5484 0.7396
0.2601 -1.5324 0.7400
0.3827 -1.5064 0.7404
0.5027 -1.4706 0.7408
0.6196 -1.4254 0.7412
0.7324 -1.3709 0.7417
1.5485 -2.4089 1.3674
1.7970 -2.3542 1.4150
2.0650 -2.2952 1.4759
2.3588 -2.2306 1.5527
3.3205 -2.6676 2.0382
3.5230 -2.3901 2.0382
3.7025 -2.0974 2.0382
3.8579 -1.7913 2.0382
3.9882 -1.4739 2.0382
4.0926 -1.1471 2.0382
4.1704 -0.8131 2.0382
4.2213 -0.4741 2.0382
4.2448 -0.1320 2.0382
4.2408 0.2106 2.0382
4.2095 0.5519 2.0382
4.1509 0.8895 2.0382
4.0654 1.2213 2.0382
3.9537 1.5452 2.0382
3.8164 1.8591 2.0382
3.6544 2.1611 2.0382
3.4687 2.4491 2.0382
3.2605 2.7214 2.0382
3.0312 2.9762 2.0382
2.7821 3.2118 2.0382
2.5149 3.4267 2.0382
2.2312 3.6196 2.0382
0.7106 1.3930 0.7493
0.5961 1.4460 0.7491
0.4777 1.4896 0.7489
0.3561 1.5236 0.7487
0.2322 1.5475 0.7484
0.1067 1.5614 0.7481
-0.0194 1.5651 0.7477
-0.1455 1.5586 0.7474
-0.2706 1.5419 0.7470
-0.3939 1.5152 0.7466
-0.5147 1.4786 0.7462
-0.6321 1.4323 0.7457
-0.7454 1.3767 0.7453
-2.3364 3.5909 2.0382
-2.6194 3.3931 2.0382
-2.8856 3.1730 2.0382
-3.1333 2.9320 2.0382
-3.3609 2.6717 2.0382
-3.5667 2.3937 2.0382
-3.7495 2.0999 2.0382
-3.9079 1.7922 2.0382
-4.0410 1.4725 2.0382
-4.1479 1.1430 2.0382
-4.2277 0.8059 2.0382
-4.2800 0.4633 2.0382
-4.3044 0.1176 2.0382
-4.3007 -0.2291 2.0382
-4.2689 -0.5743 2.0382
-4.2093 -0.9159 2.0382
-4.1221 -1.2515 2.0382
-4.0081 -1.5790 2.0382
-3.8679 -1.8962 2.0382
-3.7025 -2.2009 2.0382
-3.5129 -2.4912 2.0382
-3.3005 -2.7652 2.0382
-3.0667 -3.0210 2.0382
-2.8129 -3.2570 2.0382
-2.5410 -3.4716 2.0382
-2.2526 -3.6634 2.0382
-0.7057 -1.3868 0.7377
-0.5917 -1.4388 0.7379
-0.4740 -1.4814 0.7381
-0.3531 -1.5145 0.7383
-0.2301 -1.5378 0.7386
-0.1055 -1.5511 0.7389
0.0197 -1.5544 0.7392
0.1448 -1.5476 0.7396
0.2689 -1.5308 0.7400
0.3913 -1.5042 0.7404
0.5111 -1.4677 0.7408
0.6277 -1.4218 0.7413
0.7402 -1.3667 0.7417
1.5656 -2.4051 1.3703
1.8153 -2.3502 1.4188
2.0849 -2.2909 1.4808
2.3808 -2.2258 1.5589
3.3355 -2.6485 2.0382
3.5365 -2.3699 2.0382
3.7143 -2.0761 2.0382
3.8679 -1.7692 2.0382
3.9964 -1.4510 2.0382
4.0990 -1.1236 2.0382
4.1749 -0.7892 2.0382
4.2238 -0.4499 2.0382
4.2454 -0.1078 2.0382
4.2395 0.2349 2.0382
4.2062 0.5759 2.0382
4.1457 0.9132 2.0382
4.0584 1.2445 2.0382
3.9448 1.5678 2.0382
3.8057 1.8810 2.0382
3.6420 2.1820 2.0382
3.4547 2.4689 2.0382
3.2450 2.7400 2.0382
3.0142 2.9935 2.0382
2.7637 3.2277 2.0382
2.4953 3.4411 2.0382
2.2105 3.6324 2.0382
0.7026 1.3970 0.7492
0.5878 1.4494 0.7491
0.4691 1.4924 0.7489
0.3474 1.5256 0.7486
0.2233 1.5489 0.7484
0.0978 1.5620 0.7481
-0.0284 1.5650 0.7477
-0.1544 1.5578 0.7474
-0.2794 1.5404 0.7470
-0.4026 1.5129 0.7466
-0.5231 1.4756 0.7461
-0.6403 1.4287 0.7457
-0.7532 1.3724 0.7452
-2.3569 3.5777 2.0382
-2.6388 3.3782 2.0382
-2.9038 3.1566 2.0382
-3.1501 2.9142 2.0382
-3.3762 2.6525 2.0382
-3.5804 2.3734 2.0382
-3.7615 2.0785 2.0382
-0.6870 1.2861 0.7452
-2.1574 3.3569 2.0382
-2.4219 3.1740 2.0382
-2.6710 2.9704 2.0382
-2.9029 2.7472 2.0382
-3.1161 2.5058 2.0382
-3.3092 2.2480 2.0382
-3.4809 1.9753 2.0382
-3.6300 1.6895 2.0382
-3.7556 1.3926 2.0382
-3.8568 1.0863 2.0382
-3.9328 0.7728 2.0382
-3.9833 0.4540 2.0382
-4.0078 0.1322 2.0382
-4.0062 -0.1906 2.0382
-3.9784 -0.5122 2.0382
-3.9247 -0.8306 2.0382
-3.8453 -1.1436 2.0382
-3.7409 -1.4491 2.0382
-3.6121 -1.7452 2.0382
-3.4597 -2.0299 2.0382
-3.2848 -2.3012 2.0382
-3.0885 -2.5575 2.0382
-2.8721 -2.7970 2.0382
-2.6371 -3.0181 2.0382
-2.3851 -3.2195 2.0382
-0.7668 -1.2310 0.7380
-0.6651 -1.2884 0.7381
-0.5592 -1.3375 0.7383
-0.4496 -1.3779 0.7385
-0.3372 -1.4093 0.7387
-0.2227 -1.4317 0.7389
-0.1067 -1.4448 0.7392
0.0099 -1.4485 0.7395
0.1265 -1.4429 0.7398
0.2423 -1.4279 0.7402
0.3564 -1.4037 0.7406
0.4683 -1.3703 0.7410
0.5771 -1.3282 0.7414
0.6823 -1.2774 0.7418
1.5484 -2.4092 1.4678
1.7969 -2.3545 1.5189
2.0649 -2.2956 1.5842
2.3587 -2.2310 1.6667
3.0935 -2.4857 2.0382
3.2822 -2.2272 2.0382
3.4496 -1.9545 2.0382
3.5945 -1.6693 2.0382
3.7160 -1.3736 2.0382
3.8133 -1.0691 2.0382
3.8860 -0.7579 2.0382
3.9334 -0.4419 2.0382
3.9553 -0.1232 2.0382
3.9517 0.1962 2.0382
3.9225 0.5142 2.0382
3.8679 0.8288 2.0382
3.7883 1.1380 2.0382
3.6842 1.4399 2.0382
3.5562 1.7325 2.0382
3.4052 2.0138 2.0382
3.2322 2.2822 2.0382
3.0381 2.5359 2.0382
2.8244 2.7733 2.0382
2.5922 2.9928 2.0382
2.3431 3.1931 2.0382
0.7639 1.2394 0.7490
0.6616 1.2973 0.7489
0.5550 1.3467 0.7487
0.4447 1.3873 0.7485
0.3315 1.4189 0.7483
0.2161 1.4412 0.7480
0.0993 1.4541 0.7478
-0.0182 1.4576 0.7475
-0.1356 1.4515 0.7471
-0.2521 1.4360 0.7468
-0.3670 1.4111 0.7464
-0.4795 1.3770 0.7460
-0.5888 1.3339 0.7456
-0.6943 1.2821 0.7451
-2.1766 3.3446 2.0382
-2.4401 3.1603 2.0382
-2.6880 2.9552 2.0382
-2.9186 2.7306 2.0382
-3.1305 2.4881 2.0382
-3.3221 2.2292 2.0382
-3.4922 1.9555 2.0382
-3.6397 1.6689 2.0382
-3.7636 1.3711 2.0382
-3.8630 1.0643 2.0382
-3.9373 0.7503 2.0382
-3.9859 0.4313 2.0382
-4.0086 0.1094 2.0382
-4.0051 -0.2134 2.0382
-3.9755 -0.5349 2.0382
-3.9199 -0.8530 2.0382
-3.8388 -1.1655 2.0382
-3.7326 -1.4705 2.0382
-3.6020 -1.7658 2.0382
-3.4480 -2.0496 2.0382
-3.2715 -2.3199 2.0382
-3.0738 -2.5750 2.0382
-2.8561 -2.8133 2.0382
-2.6198 -3.0331 2.0382
-2.3666 -3.2330 2.0382
-0.7597 -1.2353 0.7380
-0.6577 -1.2922 0.7381
-0.5515 -1.3406 0.7383
-0.4418 -1.3804 0.7385
-0.3292 -1.4112 0.7387
-0.2145 -1.4329 0.7389
-0.0985 -1.4453 0.7392
0.0182 -1.4484 0.7395
0.1347 -1.4421 0.7399
0.2504 -1.4265 0.7402
0.3644 -1.4016 0.7406
0.4761 -1.3676 0.7410
0.5847 -1.3248 0.7414
0.6896 -1.2734 0.7418
1.5654 -2.4054 1.4710
1.8152 -2.3505 1.5230
2.0848 -2.2912 1.5895
2.3807 -2.2261 1.6733
3.1075 -2.4679 2.0382
3.2948 -2.2083 2.0382
3.4606 -1.9347 2.0382
3.6039 -1.6487 2.0382
3.7237 -1.3522 2.0382
3.8193 -1.0472 2.0382
3.8902 -0.7356 2.0382
3.9358 -0.4194 2.0382
3.9559 -0.1006 2.0382
3.9505 0.2188 2.0382
3.9195 0.5366 2.0382
3.8631 0.8509 2.0382
3.7817 1.1597 2.0382
3.6759 1.4609 2.0382
3.5463 1.7528 2.0382
3.3937 2.0333 2.0382
3.2191 2.3007 2.0382
3.0236 2.5533 2.0382
2.8085 2.7895 2.0382
2.5751 3.0077 2.0382
2.3249 3.2065 2.0382
0.7568 1.2438 0.7490
0.6542 1.3010 0.7489
0.5473 1.3498 0.7487
0.4368 1.3898 0.7485
0.3234 1.4207 0.7483
0.2079 1.4424 0.7480
0.0910 1.4547 0.7477
-0.0266 1.4574 0.7474
-0.1439 1.4507 0.7471
-0.2603 1.4345 0.7467
-0.3751 1.4089 0.7463
-0.4873 1.3742 0.7459
-0.5964 1.3305 0.7455
-0.7016 1.2781 0.7451
-2.1957 3.3323 2.0382
-2.4582 3.1464 2.0382
-2.7049 2.9399 2.0382
-2.9343 2.7140 2.0382
-3.1447 2.4703 2.0382
-3.3349 2.2102 2.0382
-3.5034 1.9356 2.0382
-0.6418 1.2011 0.7450
-0.7364 1.1455 0.7446
-2.2626 2.9647 2.0382
-2.4952 2.7743 2.0382
-2.7117 2.5658 2.0382
-2.9108 2.3403 2.0382
-3.0911 2.0995 2.0382
-3.2514 1.8447 2.0382
-3.3906 1.5778 2.0382
-3.5078 1.3004 2.0382
-3.6022 1.0144 2.0382
-3.6732 0.7216 2.0382
-3.7203 0.4239 2.0382
-3.7431 0.1234 2.0382
-3.7415 -0.1781 2.0382
-3.7156 -0.4785 2.0382
-3.6654 -0.7758 2.0382
-3.5913 -1.0681 2.0382
-3.4938 -1.3534 2.0382
-3.3735 -1.6299 2.0382
-3.2312 -1.8957 2.0382
-3.0678 -2.1491 2.0382
-2.8846 -2.3885 2.0382
-2.6825 -2.6121 2.0382
-2.4631 -2.8187 2.0382
-2.2278 -3.0068 2.0382
-0.7166 -1.1503 0.7384
-0.6216 -1.2039 0.7385
-0.5226 -1.2498 0.7386
-0.4203 -1.2875 0.7388
-0.3152 -1.3169 0.7390
-0.2082 -1.3378 0.7392
-0.0998 -1.3500 0.7395
0.0092 -1.3535 0.7398
0.1181 -1.3483 0.7401
0.2262 -1.3343 0.7404
0.3329 -1.3116 0.7408
0.4374 -1.2805 0.7411
0.5391 -1.2411 0.7415
0.6374 -1.1936 0.7419
0.7315 -1.1384 0.7423
1.7968 -2.3548 1.6258
2.0648 -2.2959 1.6958
2.3586 -2.2313 1.7840
2.8901 -2.3226 2.0382
3.0665 -2.0812 2.0382
3.2230 -1.8264 2.0382
3.3584 -1.5600 2.0382
3.4720 -1.2837 2.0382
3.5631 -0.9992 2.0382
3.6310 -0.7083 2.0382
3.6754 -0.4131 2.0382
3.6959 -0.1153 2.0382
3.6926 0.1832 2.0382
3.6653 0.4804 2.0382
3.6143 0.7744 2.0382
3.5399 1.0634 2.0382
3.4426 1.3455 2.0382
3.3230 1.6189 2.0382
3.1819 1.8818 2.0382
3.0201 2.1326 2.0382
2.8388 2.3697 2.0382
2.6390 2.5915 2.0382
2.4220 2.7966 2.0382
2.1892 2.9837 2.0382
0.7133 1.1576 0.7486
0.6178 1.2116 0.7485
0.5182 1.2577 0.7484
0.4152 1.2956 0.7482
0.3095 1.3251 0.7480
0.2017 1.3460 0.7477
0.0926 1.3580 0.7475
-0.0172 1.3613 0.7472
-0.1268 1.3556 0.7469
-0.2356 1.3411 0.7465
-0.3429 1.3178 0.7462
-0.4480 1.2860 0.7458
-0.5501 1.2458 0.7454
-0.6486 1.1974 0.7450
-0.7429 1.1413 0.7446
-2.2796 2.9518 2.0382
-2.5111 2.7601 2.0382
-2.7264 2.5503 2.0382
-2.9242 2.3238 2.0382
-3.1031 2.0819 2.0382
-3.2619 1.8262 2.0382
-3.3996 1.5585 2.0382
-3.5152 1.2804 2.0382
-3.6080 0.9938 2.0382
-3.6773 0.7006 2.0382
-3.7227 0.4027 2.0382
-3.7438 0.1020 2.0382
-3.7405 -0.1994 2.0382
-3.7128 -0.4997 2.0382
-3.6609 -0.7967 2.0382
-3.5851 -1.0885 2.0382
-3.4860 -1.3733 2.0382
-3.3641 -1.6491 2.0382
-3.2203 -1.9141 2.0382
-3.0555 -2.1666 2.0382
-2.8709 -2.4048 2.0382
-2.6676 -2.6274 2.0382
-2.4470 -2.8327 2.0382
-2.2105 -3.0194 2.0382
-0.7100 -1.1543 0.7384
-0.6147 -1.2074 0.7385
-0.5154 -1.2527 0.7386
-0.4129 -1.2899 0.7388
-0.3077 -1.3187 0.7390
-0.2006 -1.3390 0.7392
-0.0921 -1.3506 0.7395
0.0169 -1.3534 0.7398
0.1258 -1.3476 0.7401
0.2338 -1.3329 0.7404
0.3404 -1.3097 0.7408
0.4447 -1.2780 0.7412
0.5462 -1.2380 0.7416
0.6442 -1.1899 0.7420
0.7380 -1.1342 0.7424
1.8150 -2.3508 1.6303
2.0847 -2.2915 1.7014
2.3806 -2.2265 1.7910
2.9032 -2.3060 2.0382
3.0783 -2.0635 2.0382
3.2333 -1.8079 2.0382
3.3672 -1.5407 2.0382
3.4792 -1.2637 2.0382
3.5686 -0.9787 2.0382
3.6349 -0.6875 2.0382
3.6776 -0.3920 2.0382
3.6965 -0.0941 2.0382
3.6914 0.2043 2.0382
3.6624 0.5013 2.0382
3.6098 0.7951 2.0382
3.5337 1.0836 2.0382
3.4348 1.3652 2.0382
3.3137 1.6379 2.0382
3.1711 1.9000 2.0382
3.0079 2.1499 2.0382
2.8252 2.3859 2.0382
2.6241 2.6066 2.0382
2.4060 2.8105 2.0382
2.1722 2.9963 2.0382
0.7067 1.1616 0.7486
0.6109 1.2151 0.7485
0.5110 1.2607 0.7484
0.4078 1.2980 0.7482
0.3019 1.3269 0.7480
0.1940 1.3471 0.7477
0.0848 1.3586 0.7475
-0.0249 1.3611 0.7472
