ply
format ascii 1.0
element vertex 2180
property float32 x
property float32 y
property float32 z
end_header
-10.0749 -3.2204 2.0382
-9.7859 -4.0214 2.0382
-9.4328 -4.7967 2.0382
-9.0181 -5.5409 2.0382
-8.5445 -6.2493 2.0382
-8.0150 -6.9170 2.0382
-7.4331 -7.5397 2.0382
-6.8027 -8.1133 2.0382
-6.1279 -8.6340 2.0382
-5.4131 -9.0983 2.0382
-4.6633 -9.5032 2.0382
-3.8831 -9.8459 2.0382
-3.0780 -10.1244 2.0382
-2.2531 -10.3367 2.0382
-1.4139 -10.4816 2.0382
-0.5661 -10.5581 2.0382
0.2850 -10.5658 2.0382
1.1335 -10.5046 2.0382
1.9741 -10.3752 2.0382
2.8011 -10.1783 2.0382
3.6091 -9.9154 2.0382
2.1073 -4.5996 0.9777
1.5858 -2.8340 0.6279
1.5827 -2.3603 0.5497
1.7671 -2.2249 0.5499
1.9401 -2.0752 0.5501
2.1007 -1.9123 0.5504
2.2478 -1.7372 0.5507
2.3805 -1.5508 0.5511
2.4980 -1.3545 0.5515
2.5995 -1.1494 0.5519
2.6844 -0.9368 0.5523
2.9181 -0.7613 0.5861
9.6369 -1.7006 1.9029
9.7653 -0.9218 1.9082
9.8259 -0.1332 1.9125
9.8181 0.6587 1.9159
9.7413 1.4479 1.9182
9.5963 2.2278 1.9194
9.3839 2.9921 1.9196
9.1060 3.7348 1.9187
8.7650 4.4500 1.9168
8.3638 5.1319 1.9138
7.9060 5.7754 1.9098
7.3955 6.3755 1.9048
6.8367 6.9280 1.8989
6.2346 7.4290 1.8921
5.5979 7.8803 1.8858
4.9459 8.3058 1.8858
4.2619 8.6778 1.8858
3.5503 8.9940 1.8858
2.9171 9.5862 1.9538
2.2290 10.2149 2.0382
1.4001 10.3640 2.0382
0.5618 10.4463 2.0382
-0.2808 10.4612 2.0382
-1.1221 10.4085 2.0382
-1.9568 10.2887 2.0382
-2.7795 10.1022 2.0382
-3.5850 9.8503 2.0382
-4.3681 9.5345 2.0382
-5.1236 9.1566 2.0382
-5.8467 8.7191 2.0382
-6.5327 8.2247 2.0382
-7.1771 7.6765 2.0382
-7.7756 7.0780 2.0382
-8.3244 6.4329 2.0382
-8.8197 5.7454 2.0382
-9.2582 5.0199 2.0382
-9.6371 4.2611 2.0382
-9.9538 3.4737 2.0382
-10.2060 2.6630 2.0382
-10.3921 1.8343 2.0382
-10.5108 0.9928 2.0382
-10.5611 0.1441 2.0382
-10.5427 -0.7062 2.0382
-10.4556 -1.5525 2.0382
-10.3004 -2.3894 2.0382
-10.0778 -3.2112 2.0382
-9.7895 -4.0125 2.0382
-9.4372 -4.7880 2.0382
-9.0232 -5.5326 2.0382
-8.5502 -6.2414 2.0382
-8.0213 -6.9096 2.0382
-7.4400 -7.5329 2.0382
-6.8101 -8.1071 2.0382
-6.1357 -8.6284 2.0382
-5.4215 -9.0933 2.0382
-4.6719 -9.4989 2.0382
-3.8921 -9.8424 2.0382
-3.0872 -10.1216 2.0382
-2.2626 -10.3347 2.0382
-1.4235 -10.4803 2.0382
-0.5757 -10.5576 2.0382
0.2753 -10.5661 2.0382
1.1239 -10.5057 2.0382
1.9646 -10.3770 2.0382
2.7918 -10.1809 2.0382
3.6001 -9.9188 2.0382
2.1167 -4.6311 0.9840
1.5896 -2.8469 0.6304
1.5805 -2.3617 0.5497
1.7651 -2.2265 0.5499
1.9382 -2.0770 0.5501
2.0989 -1.9142 0.5504
2.2462 -1.7392 0.5507
2.3791 -1.5530 0.5511
2.4968 -1.3568 0.5514
2.5985 -1.1518 0.5519
2.6835 -0.9393 0.5523
2.9130 -0.7629 0.5853
9.6350 -1.7093 1.9028
9.7642 -0.9307 1.9081
9.8256 -0.1422 1.9125
9.8185 0.6498 1.9158
9.7426 1.4390 1.9182
9.5983 2.2190 1.9194
9.3867 2.9836 1.9196
9.1096 3.7266 1.9187
8.7692 4.4420 1.9168
8.3687 5.1244 1.9138
7.9115 5.7683 1.9098
7.4016 6.3690 1.9048
6.8433 6.9220 1.8989
6.2416 7.4236 1.8922
5.6051 7.8752 1.8858
4.9535 8.3013 1.8858
4.2698 8.6739 1.8858
3.5585 8.9908 1.8858
2.9221 9.5710 1.9513
2.2383 10.2129 2.0382
1.4096 10.3627 2.0382
0.5713 10.4457 2.0382
-0.2712 10.4614 2.0382
-1.1126 10.4095 2.0382
-1.9473 10.2904 2.0382
-4.0388 -8.2494 2.0382
-3.3617 -8.5464 2.0382
-2.6629 -8.7875 2.0382
-1.9471 -8.9714 2.0382
-1.2188 -9.0968 2.0382
-0.4830 -9.1628 2.0382
0.2555 -9.1692 2.0382
0.9919 -9.1159 2.0382
1.7213 -9.0033 2.0382
2.4391 -8.8323 2.0382
3.1404 -8.6040 2.0382
2.0985 -4.5697 1.1195
1.5821 -2.8216 0.7205
1.3781 -2.0513 0.5506
1.5384 -1.9335 0.5508
1.6888 -1.8033 0.5510
1.8283 -1.6615 0.5512
1.9561 -1.5090 0.5515
2.0714 -1.3468 0.5518
2.1733 -1.1760 0.5522
2.2614 -0.9975 0.5525
2.5231 -0.8780 0.5975
2.9235 -0.7600 0.6758
8.2978 -1.4567 1.8858
8.3965 -0.7851 1.8884
8.4457 -0.1070 1.8921
8.4367 0.5736 1.8949
8.3691 1.2515 1.8969
8.2434 1.9215 1.8979
8.0605 2.5781 1.8981
7.8219 3.2164 1.8973
7.5296 3.8313 1.8957
7.1860 4.4181 1.8931
6.7940 4.9725 1.8897
6.3569 5.4902 1.8854
5.8951 5.9847 1.8858
5.3943 6.4396 1.8858
4.8586 6.8530 1.8858
4.2916 7.2222 1.8858
3.6989 7.5490 1.8868
3.2770 8.3244 2.0077
2.6364 8.6927 2.0382
1.9287 8.8785 2.0382
1.2082 9.0071 2.0382
0.4796 9.0776 2.0382
-0.2525 9.0895 2.0382
-0.9834 9.0426 2.0382
-1.7085 8.9374 2.0382
-2.4231 8.7742 2.0382
-3.1225 8.5542 2.0382
-3.8023 8.2787 2.0382
-4.4580 7.9494 2.0382
-5.0855 7.5683 2.0382
-5.6805 7.1379 2.0382
-6.2393 6.6608 2.0382
-6.7582 6.1401 2.0382
-7.2337 5.5791 2.0382
-7.6627 4.9814 2.0382
-8.0424 4.3508 2.0382
-8.3702 3.6914 2.0382
-8.6439 3.0074 2.0382
-8.8617 2.3033 2.0382
-9.0220 1.5836 2.0382
-9.1238 0.8531 2.0382
-9.1663 0.1164 2.0382
-9.1492 -0.6215 2.0382
-9.0726 -1.3559 2.0382
-8.9368 -2.0819 2.0382
-8.7427 -2.7947 2.0382
-8.4915 -3.4897 2.0382
-8.1850 -4.1623 2.0382
-7.8250 -4.8079 2.0382
-7.4139 -5.4224 2.0382
-6.9543 -6.0017 2.0382
-6.4494 -6.5420 2.0382
-5.9024 -7.0396 2.0382
-5.3170 -7.4914 2.0382
-4.6969 -7.8943 2.0382
-4.0463 -8.2457 2.0382
-3.3695 -8.5433 2.0382
-2.6710 -8.7851 2.0382
-1.9553 -8.9696 2.0382
-1.2272 -9.0956 2.0382
-0.4914 -9.1624 2.0382
0.2471 -9.1695 2.0382
0.9835 -9.1168 2.0382
1.7131 -9.0050 2.0382
2.4310 -8.8346 2.0382
3.1325 -8.6069 2.0382
2.1077 -4.6008 1.1266
1.5859 -2.8345 0.7234
1.3763 -2.0526 0.5506
1.5367 -1.9349 0.5508
1.6872 -1.8048 0.5510
1.8268 -1.6631 0.5512
1.9547 -1.5108 0.5515
2.0701 -1.3487 0.5518
2.1722 -1.1780 0.5521
2.2605 -0.9996 0.5525
2.5191 -0.8792 0.5967
2.9183 -0.7615 0.6748
8.2965 -1.4643 1.8858
8.3956 -0.7927 1.8883
8.4455 -0.1148 1.8920
8.4371 0.5659 1.8949
8.3702 1.2439 1.8969
8.2452 1.9139 1.8979
8.0629 2.5708 1.8981
7.8250 3.2093 1.8973
7.5332 3.8245 1.8957
7.1902 4.4117 1.8931
6.7987 4.9664 1.8897
6.3621 5.4846 1.8855
5.9006 5.9793 1.8858
5.4001 6.4347 1.8858
4.8649 6.8486 1.8858
4.2982 7.2183 1.8858
3.7037 7.5415 1.8858
3.2810 8.3123 2.0054
2.6444 8.6903 2.0382
1.9368 8.8767 2.0382
1.2165 9.0060 2.0382
0.4879 9.0771 2.0382
-0.2442 9.0896 2.0382
-0.9752 9.0435 2.0382
-1.7003 8.9389 2.0382
-2.4150 8.7764 2.0382
-3.1146 8.5570 2.0382
-3.7947 8.2821 2.0382
-4.4507 7.9534 2.0382
-5.0785 7.5729 2.0382
-5.6740 7.1430 2.0382
-6.2332 6.6665 2.0382
-6.7526 6.1463 2.0382
-7.2286 5.5857 2.0382
-7.6581 4.9884 2.0382
-8.0384 4.3581 2.0382
-8.3668 3.6990 2.0382
-8.6411 3.0153 2.0382
-8.8595 2.3114 2.0382
-9.0205 1.5919 2.0382
-9.1230 0.8614 2.0382
-9.1662 0.1248 2.0382
-9.1498 -0.6131 2.0382
-9.0738 -1.3476 2.0382
-8.9386 -2.0737 2.0382
-8.7452 -2.7867 2.0382
-8.4947 -3.4819 2.0382
-8.1888 -4.1547 2.0382
-7.8293 -4.8007 2.0382
-7.4188 -5.4156 2.0382
-6.9598 -5.9953 2.0382
-6.4554 -6.5361 2.0382
-5.9088 -7.0342 2.0382
-5.3238 -7.4865 2.0382
-4.7041 -7.8900 2.0382
-4.0539 -8.2420 2.0382
-3.3773 -8.5402 2.0382
-2.6790 -8.7827 2.0382
-1.9635 -8.9679 2.0382
-1.2355 -9.0946 2.0382
-0.4998 -9.1620 2.0382
0.2387 -9.1697 2.0382
0.9752 -9.1178 2.0382
1.7049 -9.0065 2.0382
2.4229 -8.8368 2.0382
3.1247 -8.6098 2.0382
2.1170 -4.6323 1.1338
1.5897 -2.8474 0.7263
1.3744 -2.0539 0.5506
1.5349 -1.9363 0.5508
1.6855 -1.8063 0.5510
1.8253 -1.6648 0.5512
1.9534 -1.5126 0.5515
2.0689 -1.3506 0.5518
2.1712 -1.1800 0.5521
2.2595 -1.0016 0.5525
2.5151 -0.8804 0.5960
2.9132 -0.7630 0.6738
8.2952 -1.4719 1.8858
8.3947 -0.8004 1.8883
8.4453 -0.1225 1.8920
8.4375 0.5581 1.8949
8.3713 1.2362 1.8968
8.2469 1.9064 1.8979
8.0653 2.5634 1.8981
7.8280 3.2021 1.8974
7.5368 3.8176 1.8957
7.1944 4.4051 1.8932
6.8034 4.9603 1.8898
6.3673 5.4789 1.8855
5.9060 5.9740 1.8858
5.4060 6.4298 1.8858
4.8712 6.8441 1.8858
4.3048 7.2144 1.8858
3.7106 7.5381 1.8858
3.2850 8.3002 2.0032
2.6523 8.6879 2.0382
1.9449 8.8749 2.0382
1.2247 9.0048 2.0382
0.4962 9.0766 2.0382
-0.2359 9.0898 2.0382
-0.9669 9.0443 2.0382
-1.6921 8.9404 2.0382
-3.5616 -7.2747 2.0382
-2.9646 -7.5367 2.0382
-2.3485 -7.7495 2.0382
-1.7172 -7.9118 2.0382
-1.0751 -8.0226 2.0382
-0.4262 -8.0811 2.0382
0.2251 -8.0870 2.0382
0.8746 -8.0403 2.0382
1.5181 -7.9413 2.0382
2.1512 -7.7908 2.0382
2.7699 -7.5898 2.0382
2.0989 -4.5709 1.2693
1.5823 -2.8221 0.8168
1.3362 -1.9890 0.6052
1.3590 -1.7081 0.5515
1.4919 -1.5931 0.5517
1.6151 -1.4678 0.5519
1.7280 -1.3331 0.5521
1.8298 -1.1898 0.5524
1.9404 -1.0501 0.5586
2.2041 -0.9723 0.6102
2.5233 -0.8782 0.6770
2.9237 -0.7602 0.7658
7.3241 -1.2860 1.8858
7.4012 -0.6922 1.8858
7.4304 -0.0944 1.8858
7.4116 0.5037 1.8858
7.3449 1.0982 1.8858
7.2308 1.6852 1.8858
7.0700 2.2612 1.8858
6.8637 2.8223 1.8858
6.6131 3.3649 1.8858
6.3200 3.8856 1.8858
5.9861 4.3811 1.8858
5.6136 4.8483 1.8858
5.2050 5.2841 1.8858
4.7628 5.6857 1.8858
4.2898 6.0507 1.8858
3.8414 6.4648 1.9118
3.5277 7.1999 2.0382
2.9372 7.4613 2.0382
2.3275 7.6747 2.0382
1.7026 7.8386 2.0382
1.0665 7.9519 2.0382
0.4232 8.0138 2.0382
-0.2231 8.0241 2.0382
-0.8683 7.9825 2.0382
-1.5084 7.8892 2.0382
-2.1390 7.7449 2.0382
-2.7563 7.5503 2.0382
-3.3562 7.3068 2.0382
-3.9348 7.0158 2.0382
-4.4883 6.6791 2.0382
-5.0132 6.2989 2.0382
-5.5061 5.8776 2.0382
-5.9637 5.4178 2.0382
-6.3829 4.9225 2.0382
-6.7611 4.3949 2.0382
-7.0957 3.8383 2.0382
-7.3846 3.2564 2.0382
-7.6256 2.6528 2.0382
-7.8174 2.0316 2.0382
-7.9584 1.3967 2.0382
-8.0479 0.7522 2.0382
-8.0850 0.1025 2.0382
-8.0696 -0.5484 2.0382
-8.0017 -1.1960 2.0382
-7.8817 -1.8363 2.0382
-7.7103 -2.4649 2.0382
-7.4886 -3.0777 2.0382
-7.2181 -3.6707 2.0382
-6.9005 -4.2400 2.0382
-6.5378 -4.7818 2.0382
-6.1326 -5.2926 2.0382
-5.6873 -5.7690 2.0382
-5.2049 -6.2078 2.0382
-4.6887 -6.6062 2.0382
-4.1419 -6.9615 2.0382
-3.5683 -7.2714 2.0382
-2.9715 -7.5340 2.0382
-2.3556 -7.7474 2.0382
-1.7245 -7.9103 2.0382
-1.0824 -8.0216 2.0382
-0.4336 -8.0807 2.0382
0.2177 -8.0872 2.0382
0.8673 -8.0411 2.0382
1.5108 -7.9428 2.0382
2.1441 -7.7928 2.0382
2.7630 -7.5924 2.0382
2.1081 -4.6020 1.2774
1.5861 -2.8350 0.8201
1.3382 -1.9960 0.6069
1.3574 -1.7093 0.5515
1.4904 -1.5944 0.5517
1.6138 -1.4693 0.5519
1.7268 -1.3347 0.5521
1.8287 -1.1915 0.5524
1.9377 -1.0509 0.5581
2.2008 -0.9733 0.6095
2.5193 -0.8794 0.6762
2.9186 -0.7617 0.7646
7.3230 -1.2927 1.8858
7.4006 -0.6990 1.8858
7.4304 -0.1012 1.8858
7.4121 0.4970 1.8858
7.3459 1.0914 1.8858
7.2323 1.6787 1.8858
7.0721 2.2547 1.8858
6.8663 2.8160 1.8858
6.6162 3.3588 1.8858
6.3235 3.8798 1.8858
5.9901 4.3756 1.8858
5.6180 4.8431 1.8858
5.2098 5.2793 1.8858
4.7679 5.6814 1.8858
4.2953 6.0468 1.8858
3.8442 6.4562 1.9102
3.5343 7.1967 2.0382
2.9440 7.4586 2.0382
2.3345 7.6726 2.0382
1.7098 7.8370 2.0382
1.0738 7.9509 2.0382
0.4306 8.0134 2.0382
-0.2158 8.0243 2.0382
-0.8610 7.9832 2.0382
-1.5012 7.8905 2.0382
-2.1320 7.7468 2.0382
-2.7494 7.5528 2.0382
-3.3495 7.3098 2.0382
-3.9283 7.0194 2.0382
-4.4822 6.6832 2.0382
-5.0075 6.3035 2.0382
-5.5007 5.8826 2.0382
-5.9587 5.4233 2.0382
-6.3784 4.9284 2.0382
-6.7571 4.4011 2.0382
-7.0922 3.8448 2.0382
-7.3815 3.2631 2.0382
-7.6232 2.6598 2.0382
-7.8155 2.0387 2.0382
-7.9571 1.4040 2.0382
-8.0471 0.7596 2.0382
-8.0849 0.1099 2.0382
-8.0701 -0.5410 2.0382
-8.0028 -1.1887 2.0382
-7.8833 -1.8291 2.0382
-7.7125 -2.4578 2.0382
-7.4914 -3.0708 2.0382
-7.2214 -3.6641 2.0382
-6.9043 -4.2337 2.0382
-6.5422 -4.7758 2.0382
-6.1374 -5.2870 2.0382
-5.6926 -5.7638 2.0382
-5.2106 -6.2030 2.0382
-4.6947 -6.6019 2.0382
-4.1483 -6.9577 2.0382
-3.5750 -7.2682 2.0382
-2.9784 -7.5313 2.0382
-2.3627 -7.7452 2.0382
-1.7317 -7.9087 2.0382
-1.0898 -8.0206 2.0382
-0.4410 -8.0803 2.0382
0.2103 -8.0874 2.0382
0.8599 -8.0419 2.0382
1.5035 -7.9442 2.0382
2.1370 -7.7948 2.0382
2.7561 -7.5949 2.0382
2.1174 -4.6336 1.2856
1.5899 -2.8479 0.8234
1.3403 -2.0031 0.6087
1.3559 -1.7106 0.5515
1.4889 -1.5958 0.5517
1.6124 -1.4708 0.5519
1.7255 -1.3363 0.5521
1.8276 -1.1932 0.5524
1.9350 -1.0517 0.5576
2.1975 -0.9742 0.6089
2.5153 -0.8806 0.6753
2.9134 -0.7632 0.7635
7.3218 -1.2994 1.8858
7.4000 -0.7058 1.8858
7.4303 -0.1080 1.8858
7.4126 0.4900 1.8858
7.3469 1.0847 1.8858
7.2339 1.6721 1.8858
7.0742 2.2483 1.8858
6.8689 2.8097 1.8858
6.6193 3.3527 1.8858
6.3271 3.8740 1.8858
5.9941 4.3701 1.8858
5.6225 4.8380 1.8858
5.2146 5.2745 1.8858
4.7731 5.6770 1.8858
4.3009 6.0429 1.8858
3.8470 6.4474 1.9087
3.5409 7.1934 2.0382
2.9508 7.4559 2.0382
2.3416 7.6704 2.0382
1.7170 7.8354 2.0382
1.0811 7.9498 2.0382
0.4379 8.0130 2.0382
-0.2084 8.0244 2.0382
-0.8537 7.9840 2.0382
-1.4939 7.8919 2.0382
-3.1806 -6.4962 2.0382
-2.6475 -6.7302 2.0382
-2.0973 -6.9204 2.0382
-1.5337 -7.0654 2.0382
-0.9602 -7.1645 2.0382
-0.3808 -7.2169 2.0382
0.2009 -7.2224 2.0382
0.7809 -7.1809 2.0382
1.3556 -7.0928 2.0382
1.9212 -6.9586 2.0382
2.4739 -6.7793 2.0382
2.0993 -4.5722 1.4214
1.5824 -2.8227 0.9146
1.3363 -1.9893 0.6775
1.2152 -1.5275 0.5521
1.3340 -1.4246 0.5522
1.4442 -1.3126 0.5524
1.5452 -1.1922 0.5526
1.7165 -1.1163 0.5800
1.9405 -1.0502 0.6253
2.2042 -0.9725 0.6830
2.5235 -0.8784 0.7577
2.9240 -0.7603 0.8571
6.5450 -1.1494 1.8858
6.6142 -0.6188 1.8858
6.6405 -0.0845 1.8858
6.6239 0.4500 1.8858
6.5645 0.9813 1.8858
6.4626 1.5061 1.8858
6.3191 2.0209 1.8858
6.1348 2.5224 1.8858
5.9110 3.0075 1.8858
5.6490 3.4730 1.8858
5.3506 3.9159 1.8858
5.0177 4.3336 1.8858
4.6525 4.7231 1.8858
4.2616 5.0874 1.8877
4.0478 5.7094 1.9907
3.6606 6.1604 2.0382
3.1531 6.4355 2.0382
2.6252 6.6692 2.0382
2.0803 6.8598 2.0382
1.5217 7.0061 2.0382
0.9531 7.1072 2.0382
0.3781 7.1624 2.0382
-0.1996 7.1714 2.0382
-0.7763 7.1340 2.0382
-1.3482 7.0504 2.0382
-1.9118 6.9212 2.0382
-2.4633 6.7471 2.0382
-2.9993 6.5292 2.0382
-3.5162 6.2689 2.0382
-4.0107 5.9679 2.0382
-4.4795 5.6279 2.0382
-4.9197 5.2512 2.0382
-5.3283 4.8402 2.0382
-5.7026 4.3975 2.0382
-6.0402 3.9260 2.0382
-6.3389 3.4286 2.0382
-6.5966 2.9087 2.0382
-6.8117 2.3694 2.0382
-6.9827 1.8144 2.0382
-7.1084 1.2473 2.0382
-7.1881 0.6716 2.0382
-7.2210 0.0913 2.0382
-7.2070 -0.4900 2.0382
-7.1461 -1.0683 2.0382
-7.0388 -1.6401 2.0382
-6.8855 -2.2014 2.0382
-6.6874 -2.7486 2.0382
-6.4458 -3.2781 2.0382
-6.1621 -3.7864 2.0382
-5.8382 -4.2701 2.0382
-5.4762 -4.7262 2.0382
-5.0785 -5.1516 2.0382
-4.6479 -5.5434 2.0382
-4.1869 -5.8991 2.0382
-3.6987 -6.2165 2.0382
-3.1865 -6.4933 2.0382
-2.6537 -6.7278 2.0382
-2.1037 -6.9185 2.0382
-1.5401 -7.0641 2.0382
-0.9668 -7.1636 2.0382
-0.3874 -7.2166 2.0382
0.1943 -7.2226 2.0382
0.7744 -7.1816 2.0382
1.3491 -7.0940 2.0382
1.9148 -6.9604 2.0382
2.4677 -6.7816 2.0382
2.1085 -4.6033 1.4305
1.5862 -2.8355 0.9183
1.3383 -1.9963 0.6795
1.2138 -1.5286 0.5521
1.3327 -1.4258 0.5522
1.4430 -1.3139 0.5524
1.5441 -1.1936 0.5526
1.7141 -1.1170 0.5795
1.9378 -1.0510 0.6247
2.2009 -0.9734 0.6822
2.5195 -0.8795 0.7568
2.9188 -0.7618 0.8558
6.5440 -1.1554 1.8858
6.6136 -0.6249 1.8858
6.6404 -0.0906 1.8858
6.6243 0.4439 1.8858
6.5654 0.9753 1.8858
6.4640 1.5002 1.8858
6.3210 2.0151 1.8858
6.1371 2.5168 1.8858
5.9137 3.0021 1.8858
5.6522 3.4678 1.8858
5.3542 3.9110 1.8858
5.0217 4.3290 1.8858
4.6568 4.7189 1.8858
4.2643 5.0812 1.8868
4.0503 5.7019 1.9894
3.6662 6.1571 2.0382
3.1590 6.4327 2.0382
2.6313 6.6668 2.0382
2.0865 6.8578 2.0382
1.5281 7.0047 2.0382
0.9596 7.1063 2.0382
0.3847 7.1621 2.0382
-0.1930 7.1716 2.0382
-0.7697 7.1347 2.0382
-1.3418 7.0516 2.0382
-1.9055 6.9229 2.0382
-2.4572 6.7493 2.0382
-2.9933 6.5319 2.0382
-3.5104 6.2721 2.0382
-4.0052 5.9715 2.0382
-4.4744 5.6320 2.0382
-4.9149 5.2557 2.0382
-5.3238 4.8451 2.0382
-5.6986 4.4027 2.0382
-6.0366 3.9315 2.0382
-6.3357 3.4344 2.0382
-6.5939 2.9147 2.0382
-6.8095 2.3756 2.0382
-6.9810 1.8208 2.0382
-7.1073 1.2538 2.0382
-7.1874 0.6782 2.0382
-7.2209 0.0979 2.0382
-7.2074 -0.4834 2.0382
-7.1471 -1.0618 2.0382
-7.0402 -1.6336 2.0382
-6.8875 -2.1951 2.0382
-6.6899 -2.7424 2.0382
-6.4487 -3.2721 2.0382
-6.1655 -3.7807 2.0382
-5.8421 -4.2648 2.0382
-5.4806 -4.7212 2.0382
-5.0833 -5.1469 2.0382
-4.6529 -5.5391 2.0382
-4.1923 -5.8953 2.0382
-3.7044 -6.2131 2.0382
-3.1925 -6.4904 2.0382
-2.6598 -6.7254 2.0382
-2.1100 -6.9165 2.0382
-1.5466 -7.0627 2.0382
-0.9733 -7.1628 2.0382
-0.3940 -7.2163 2.0382
0.1877 -7.2228 2.0382
0.7678 -7.1824 2.0382
1.3427 -7.0953 2.0382
1.9085 -6.9621 2.0382
2.4615 -6.7838 2.0382
2.1178 -4.6348 1.4397
1.5901 -2.8485 0.9220
1.3404 -2.0034 0.6815
1.2124 -1.5297 0.5521
1.3314 -1.4271 0.5522
1.4418 -1.3153 0.5524
1.5430 -1.1950 0.5526
1.7118 -1.1177 0.5791
1.9351 -1.0518 0.6241
2.1977 -0.9744 0.6815
2.5155 -0.8807 0.7558
2.9137 -0.7634 0.8545
6.5430 -1.1614 1.8858
6.6131 -0.6309 1.8858
6.6404 -0.0967 1.8858
6.6247 0.4379 1.8858
6.5663 0.9693 1.8858
6.4654 1.4943 1.8858
6.3228 2.0093 1.8858
6.1394 2.5112 1.8858
5.9165 2.9967 1.8858
5.6554 3.4626 1.8858
5.3578 3.9062 1.8858
5.0256 4.3244 1.8858
4.6611 4.7146 1.8858
4.2670 5.0750 1.8860
4.0528 5.6943 1.9880
3.6718 6.1537 2.0382
3.1649 6.4297 2.0382
2.6374 6.6643 2.0382
2.0928 6.8559 2.0382
1.5345 7.0033 2.0382
0.9661 7.1054 2.0382
0.3912 7.1617 2.0382
-0.1865 7.1717 2.0382
-0.7632 7.1354 2.0382
-1.3353 7.0528 2.0382
-2.8687 -5.8591 2.0382
-2.3880 -6.0703 2.0382
-1.8918 -6.2418 2.0382
-1.3834 -6.3728 2.0382
-0.8663 -6.4623 2.0382
-0.3436 -6.5097 2.0382
0.1810 -6.5147 2.0382
0.7043 -6.4775 2.0382
1.2227 -6.3981 2.0382
1.7329 -6.2773 2.0382
2.2315 -6.1157 2.0382
2.0997 -4.5734 1.5760
1.5826 -2.8232 1.0139
1.3364 -1.9896 0.7511
1.1908 -1.4969 0.5996
1.2045 -1.2864 0.5527
1.3479 -1.2251 0.5714
1.5214 -1.1739 0.6031
1.7166 -1.1164 0.6428
1.9406 -1.0504 0.6930
2.2043 -0.9726 0.7569
2.5237 -0.8785 0.8397
2.9242 -0.7605 0.9498
6.0469 -1.0622 1.9305
5.9694 -0.5594 1.8858
5.9931 -0.0765 1.8858
5.9783 0.4060 1.8858
5.9248 0.8856 1.8858
5.8330 1.3592 1.8858
5.7036 1.8239 1.8858
5.5373 2.2766 1.8858
5.3353 2.7145 1.8858
5.0989 3.1347 1.8858
4.8296 3.5346 1.8858
4.5790 3.9549 1.9065
4.4111 4.4781 1.9808
4.1532 4.9581 2.0382
3.7408 5.2764 2.0382
3.3041 5.5606 2.0382
2.8460 5.8089 2.0382
2.3695 6.0197 2.0382
1.8776 6.1917 2.0382
1.3734 6.3237 2.0382
0.8601 6.4149 2.0382
0.3411 6.4646 2.0382
-0.1803 6.4725 2.0382
-0.7008 6.4386 2.0382
-1.2170 6.3630 2.0382
-1.7256 6.2462 2.0382
-2.2233 6.0889 2.0382
-2.7069 5.8921 2.0382
-3.1732 5.6570 2.0382
-3.6194 5.3851 2.0382
-4.0423 5.0782 2.0382
-4.4393 4.7381 2.0382
-4.8078 4.3671 2.0382
-5.1454 3.9676 2.0382
-5.4499 3.5420 2.0382
-5.7191 3.0931 2.0382
-5.9515 2.6239 2.0382
-6.1453 2.1374 2.0382
-6.2994 1.6366 2.0382
-6.4126 1.1249 2.0382
-6.4842 0.6057 2.0382
-6.5138 0.0822 2.0382
-6.5010 -0.4421 2.0382
-6.4459 -0.9638 2.0382
-6.3489 -1.4795 2.0382
-6.2106 -1.9857 2.0382
-6.0318 -2.4792 2.0382
-5.8137 -2.9567 2.0382
-5.5578 -3.4152 2.0382
-5.2656 -3.8514 2.0382
-4.9392 -4.2627 2.0382
-4.5805 -4.6463 2.0382
-4.1921 -4.9997 2.0382
-3.7763 -5.3206 2.0382
-3.3360 -5.6068 2.0382
-2.8741 -5.8566 2.0382
-2.3935 -6.0681 2.0382
-1.8975 -6.2401 2.0382
-1.3893 -6.3715 2.0382
-0.8722 -6.4615 2.0382
-0.3496 -6.5094 2.0382
0.1751 -6.5149 2.0382
0.6983 -6.4781 2.0382
1.2168 -6.3993 2.0382
1.7271 -6.2789 2.0382
2.2259 -6.1178 2.0382
2.1089 -4.6046 1.5861
1.5864 -2.8361 1.0180
1.3384 -1.9966 0.7533
1.1921 -1.5014 0.6010
1.2033 -1.2875 0.5527
1.3460 -1.2257 0.5711
1.5194 -1.1746 0.6027
1.7142 -1.1171 0.6423
1.9379 -1.0512 0.6923
2.2011 -0.9736 0.7561
2.5197 -0.8797 0.8387
2.9191 -0.7620 0.9484
6.0485 -1.0682 1.9314
5.9687 -0.5643 1.8858
5.9931 -0.0820 1.8858
5.9786 0.4005 1.8858
5.9256 0.8801 1.8858
5.8343 1.3539 1.8858
5.7052 1.8187 1.8858
5.5394 2.2715 1.8858
5.3378 2.7096 1.8858
5.1018 3.1300 1.8858
4.8329 3.5302 1.8858
4.5808 3.9493 1.9058
4.4131 4.4719 1.9799
4.1578 4.9543 2.0382
3.7455 5.2731 2.0382
3.3092 5.5575 2.0382
2.8513 5.8063 2.0382
2.3750 6.0176 2.0382
1.8832 6.1900 2.0382
1.3791 6.3224 2.0382
0.8660 6.4141 2.0382
0.3470 6.4643 2.0382
-0.1744 6.4727 2.0382
-0.6949 6.4392 2.0382
-1.2111 6.3641 2.0382
-1.7198 6.2478 2.0382
-2.2177 6.0909 2.0382
-2.7015 5.8945 2.0382
-3.1681 5.6599 2.0382
-3.6144 5.3884 2.0382
-4.0376 5.0819 2.0382
-4.4350 4.7422 2.0382
-4.8038 4.3715 2.0382
-5.1418 3.9723 2.0382
-5.4466 3.5469 2.0382
-5.7163 3.0983 2.0382
-5.9490 2.6294 2.0382
-6.1433 2.1430 2.0382
-6.2978 1.6424 2.0382
-6.4115 1.1308 2.0382
-6.4836 0.6116 2.0382
-6.5137 0.0881 2.0382
-6.5013 -0.4362 2.0382
-6.4468 -0.9579 2.0382
-6.3502 -1.4737 2.0382
-6.2124 -1.9800 2.0382
-6.0341 -2.4737 2.0382
-5.8164 -2.9514 2.0382
-5.5609 -3.4101 2.0382
-5.2691 -3.8466 2.0382
-4.9431 -4.2582 2.0382
-4.5848 -4.6421 2.0382
-4.1966 -4.9959 2.0382
-3.7812 -5.3171 2.0382
-3.3412 -5.6038 2.0382
-2.8794 -5.8539 2.0382
-2.3991 -6.0659 2.0382
-1.9032 -6.2384 2.0382
-1.3951 -6.3703 2.0382
-0.8781 -6.4607 2.0382
-0.3555 -6.5091 2.0382
0.1691 -6.5151 2.0382
0.6924 -6.4788 2.0382
1.2110 -6.4004 2.0382
1.7214 -6.2805 2.0382
2.2203 -6.1198 2.0382
2.1182 -4.6361 1.5963
1.5902 -2.8490 1.0221
1.3405 -2.0037 0.7555
1.1935 -1.5059 0.6024
1.2022 -1.2886 0.5527
1.3441 -1.2262 0.5708
1.5173 -1.1752 0.6023
1.7118 -1.1178 0.6418
1.9352 -1.0520 0.6917
2.1978 -0.9746 0.7553
2.5157 -0.8809 0.8376
2.9139 -0.7635 0.9469
6.0501 -1.0741 1.9322
5.9679 -0.5688 1.8858
5.9930 -0.0874 1.8858
5.9790 0.3950 1.8858
5.9264 0.8747 1.8858
5.8355 1.3485 1.8858
5.7069 1.8135 1.8858
5.5415 2.2665 1.8858
5.3403 2.7047 1.8858
5.1047 3.1254 1.8858
4.8361 3.5258 1.8858
4.5827 3.9434 1.9050
4.4151 4.4658 1.9789
4.1623 4.9505 2.0382
3.7504 5.2695 2.0382
3.3143 5.5545 2.0382
2.8567 5.8037 2.0382
2.3805 6.0154 2.0382
1.8889 6.1882 2.0382
1.3849 6.3212 2.0382
0.8719 6.4132 2.0382
0.3530 6.4639 2.0382
-0.1684 6.4728 2.0382
-0.6890 6.4398 2.0382
-1.2053 6.3652 2.0382
-2.6085 -5.3274 2.0382
-0.7854 -1.9965 0.7373
-1.7202 -5.6755 2.0382
-1.2580 -5.7946 2.0382
-0.7878 -5.8760 2.0382
-0.3126 -5.9193 2.0382
0.1645 -5.9240 2.0382
0.6402 -5.8902 2.0382
1.1117 -5.8182 2.0382
1.5756 -5.7084 2.0382
0.7352 -2.0151 0.7385
2.1001 -4.5747 1.7334
1.5828 -2.8237 1.1151
1.3365 -1.9899 0.8260
1.1909 -1.4971 0.6594
1.1906 -1.2717 0.6007
1.3479 -1.2253 0.6283
1.5215 -1.1741 0.6631
1.7166 -1.1166 0.7068
1.9408 -1.0505 0.7619
2.2045 -0.9728 0.8322
2.5239 -0.8787 0.9232
2.9245 -0.7607 1.0442
5.8074 -1.0203 2.0382
5.8690 -0.5495 2.0382
5.7457 -0.0735 1.9873
5.6197 0.3815 1.9485
5.4956 0.8214 1.9227
5.3718 1.2520 1.9089
5.2472 1.6782 1.9069
5.1200 2.1052 1.9165
4.9888 2.5381 1.9381
4.8517 2.9826 1.9722
4.7069 3.4447 2.0200
4.4538 3.8464 2.0382
4.1295 4.1925 2.0382
3.7787 4.5111 2.0382
3.4034 4.8006 2.0382
3.0061 5.0592 2.0382
2.5893 5.2851 2.0382
2.1557 5.4769 2.0382
1.7081 5.6333 2.0382
1.2494 5.7533 2.0382
0.7824 5.8362 2.0382
0.3102 5.8813 2.0382
-0.1642 5.8884 2.0382
-0.6377 5.8574 2.0382
-1.1073 5.7885 2.0382
-1.5699 5.6821 2.0382
-2.0227 5.5389 2.0382
-2.4625 5.3597 2.0382
-2.8867 5.1457 2.0382
-3.2924 4.8983 2.0382
-3.6770 4.6190 2.0382
-4.0380 4.3095 2.0382
-4.3731 3.9719 2.0382
-4.6800 3.6084 2.0382
-4.9568 3.2212 2.0382
-5.2015 2.8129 2.0382
-5.4127 2.3861 2.0382
-5.5888 1.9436 2.0382
-5.7288 1.4882 2.0382
-5.8316 1.0228 2.0382
-5.8966 0.5506 2.0382
-5.9233 0.0745 2.0382
-5.9115 -0.4022 2.0382
-5.8613 -0.8766 2.0382
-5.7730 -1.3454 2.0382
-5.6472 -1.8057 2.0382
-5.4845 -2.2544 2.0382
-5.2862 -2.6885 2.0382
-5.0534 -3.1053 2.0382
-4.7878 -3.5020 2.0382
-4.4909 -3.8759 2.0382
-4.1648 -4.2247 2.0382
-3.8116 -4.5460 2.0382
-3.4336 -4.8377 2.0382
-3.0333 -5.0980 2.0382
-2.6133 -5.3250 2.0382
-0.7873 -1.9958 0.7373
-1.7254 -5.6739 2.0382
-1.2633 -5.7935 2.0382
-0.7932 -5.8753 2.0382
-0.3180 -5.9190 2.0382
0.1590 -5.9242 2.0382
0.6349 -5.8908 2.0382
1.1063 -5.8192 2.0382
1.5704 -5.7099 2.0382
0.7333 -2.0157 0.7384
2.1093 -4.6058 1.7445
1.5866 -2.8366 1.1196
1.3385 -1.9970 0.8284
1.1922 -1.5016 0.6609
1.1889 -1.2722 0.6004
1.3461 -1.2258 0.6279
1.5194 -1.1747 0.6626
1.7143 -1.1173 0.7062
1.9380 -1.0513 0.7612
2.2012 -0.9738 0.8313
2.5199 -0.8799 0.9221
2.9193 -0.7622 1.0426
5.8064 -1.0256 2.0382
5.8685 -0.5549 2.0382
5.7472 -0.0788 1.9879
5.6211 0.3764 1.9489
5.4969 0.8167 1.9229
5.3733 1.2470 1.9090
5.2486 1.6733 1.9069
5.1214 2.1003 1.9163
4.9903 2.5331 1.9377
4.8533 2.9775 1.9717
4.7086 3.4393 2.0193
4.4573 3.8424 2.0382
4.1334 4.1886 2.0382
3.7828 4.5076 2.0382
3.4078 4.7975 2.0382
3.0107 5.0564 2.0382
2.5942 5.2827 2.0382
2.1608 5.4749 2.0382
1.7133 5.6317 2.0382
1.2546 5.7521 2.0382
0.7877 5.8354 2.0382
0.3156 5.8810 2.0382
-0.1588 5.8885 2.0382
-0.6323 5.8580 2.0382
-1.1020 5.7895 2.0382
-1.5647 5.6835 2.0382
-2.0176 5.5407 2.0382
-2.4576 5.3619 2.0382
-2.8820 5.1484 2.0382
-3.2879 4.9013 2.0382
-3.6728 4.6223 2.0382
-4.0341 4.3132 2.0382
-4.3695 3.9759 2.0382
-4.6767 3.6127 2.0382
-4.9538 3.2258 2.0382
-5.1989 2.8177 2.0382
-5.4104 2.3910 2.0382
-5.5870 1.9487 2.0382
-5.7274 1.4934 2.0382
-5.8306 1.0282 2.0382
-5.8961 0.5560 2.0382
-5.9232 0.0800 2.0382
-5.9119 -0.3968 2.0382
-5.8621 -0.8712 2.0382
-5.7743 -1.3401 2.0382
-5.6488 -1.8005 2.0382
-5.4866 -2.2494 2.0382
-5.2886 -2.6837 2.0382
-5.0563 -3.1007 2.0382
-4.7909 -3.4976 2.0382
-4.4944 -3.8718 2.0382
-4.1687 -4.2209 2.0382
-3.8158 -4.5425 2.0382
-3.4380 -4.8346 2.0382
-3.0380 -5.0952 2.0382
-2.6182 -5.3226 2.0382
-2.1815 -5.5154 2.0382
-1.7306 -5.6723 2.0382
-1.2686 -5.7923 2.0382
-0.7985 -5.8746 2.0382
-0.3234 -5.9187 2.0382
0.1536 -5.9243 2.0382
0.6295 -5.8914 2.0382
1.1010 -5.8203 2.0382
1.5652 -5.7113 2.0382
0.7315 -2.0164 0.7384
2.1186 -4.6374 1.7557
1.5904 -2.8495 1.1241
1.3406 -2.0040 0.8308
1.1935 -1.5061 0.6624
1.1872 -1.2727 0.6001
1.3442 -1.2264 0.6276
1.5173 -1.1753 0.6622
1.7119 -1.1180 0.7057
1.9353 -1.0521 0.7605
2.1980 -0.9747 0.8304
2.5158 -0.8811 0.9209
2.9142 -0.7637 1.0411
5.8055 -1.0309 2.0382
5.8681 -0.5602 2.0382
5.7486 -0.0841 1.9884
5.6225 0.3713 1.9493
5.4984 0.8116 1.9231
5.3747 1.2420 1.9091
5.2500 1.6685 1.9068
5.1230 2.0953 1.9162
4.9918 2.5281 1.9374
4.8549 2.9724 1.9713
4.7103 3.4339 2.0187
4.4608 3.8383 2.0382
4.1373 4.1847 2.0382
3.7870 4.5041 2.0382
3.4122 4.7944 2.0382
3.0154 5.0537 2.0382
2.5990 5.2803 2.0382
2.1658 5.4729 2.0382
1.7184 5.6301 2.0382
1.2599 5.7510 2.0382
0.7931 5.8347 2.0382
0.3210 5.8807 2.0382
-0.1534 5.8887 2.0382
-0.6270 5.8585 2.0382
-1.0967 5.7905 2.0382
-2.3876 -4.8762 2.0382
-0.7195 -1.8288 0.7378
-0.5700 -1.8804 0.7378
-0.4169 -1.9200 0.7378
-0.2611 -1.9471 0.7378
-0.1036 -1.9617 0.7379
0.0545 -1.9636 0.7380
0.2122 -1.9529 0.7382
0.3686 -1.9295 0.7384
0.5226 -1.8938 0.7386
0.6733 -1.8457 0.7389
2.2603 -4.9241 2.0382
1.5830 -2.8243 1.2183
1.3365 -1.9902 0.9023
1.1909 -1.4973 0.7203
1.1906 -1.2718 0.6561
1.3480 -1.2254 0.6863
1.5216 -1.1742 0.7243
1.7167 -1.1167 0.7720
1.9409 -1.0507 0.8322
2.2046 -0.9730 0.9089
2.5241 -0.8789 1.0084
2.9247 -0.7609 1.1405
5.3176 -0.9344 2.0382
5.3742 -0.5033 2.0382
5.3959 -0.0690 2.0382
5.3828 0.3652 2.0382
5.3349 0.7971 2.0382
5.2524 1.2237 2.0382
5.1360 1.6422 2.0382
4.9864 2.0499 2.0382
4.8046 2.4443 2.0382
4.5918 2.8228 2.0382
4.3493 3.1830 2.0382
4.0788 3.5225 2.0382
3.7819 3.8393 2.0382
3.4605 4.1312 2.0382
3.1168 4.3964 2.0382
2.7529 4.6332 2.0382
2.3712 4.8400 2.0382
0.7257 1.8437 0.7492
0.5750 1.8964 0.7492
0.4205 1.9368 0.7492
0.2633 1.9645 0.7492
0.2839 5.3858 2.0382
-0.1505 5.3922 2.0382
-0.2146 1.9706 0.7488
-0.3725 1.9469 0.7486
-0.5279 1.9105 0.7484
-0.6799 1.8616 0.7481
-2.2550 4.9076 2.0382
-2.6433 4.7115 2.0382
-3.0148 4.4849 2.0382
-3.3669 4.2290 2.0382
-3.6973 3.9456 2.0382
-4.0040 3.6364 2.0382
-4.2849 3.3035 2.0382
-4.5381 2.9489 2.0382
-4.7621 2.5751 2.0382
-4.9553 2.1843 2.0382
-5.1164 1.7791 2.0382
-5.2444 1.3621 2.0382
-5.3384 0.9361 2.0382
-5.3978 0.5038 2.0382
-5.4222 0.0681 2.0382
-5.4113 -0.3683 2.0382
-5.3653 -0.8025 2.0382
-5.2844 -1.2317 2.0382
-5.1691 -1.6529 2.0382
-5.0202 -2.0636 2.0382
-4.8386 -2.4610 2.0382
-4.6255 -2.8424 2.0382
-4.3823 -3.2055 2.0382
-4.1105 -3.5477 2.0382
-3.8121 -3.8669 2.0382
-3.4888 -4.1610 2.0382
-3.1428 -4.4280 2.0382
-2.7765 -4.6662 2.0382
-2.3921 -4.8741 2.0382
-0.7211 -1.8281 0.7378
-0.5717 -1.8799 0.7378
-0.4186 -1.9196 0.7378
-0.2629 -1.9469 0.7378
-0.1054 -1.9616 0.7379
0.0527 -1.9637 0.7380
0.2104 -1.9531 0.7382
0.3668 -1.9299 0.7384
0.5209 -1.8942 0.7386
0.6716 -1.8464 0.7389
2.2558 -4.9262 2.0382
1.5868 -2.8372 1.2232
1.3386 -1.9973 0.9050
1.1923 -1.5018 0.7220
1.1889 -1.2723 0.6558
1.3461 -1.2260 0.6859
1.5195 -1.1748 0.7238
1.7144 -1.1174 0.7714
1.9381 -1.0515 0.8314
2.2014 -0.9739 0.9079
2.5201 -0.8801 1.0071
2.9196 -0.7624 1.1388
5.3168 -0.9393 2.0382
5.3738 -0.5082 2.0382
5.3959 -0.0741 2.0382
5.3832 0.3603 2.0382
5.3356 0.7922 2.0382
5.2535 1.2188 2.0382
5.1375 1.6375 2.0382
4.9883 2.0453 2.0382
4.8069 2.4399 2.0382
4.5944 2.8185 2.0382
4.3523 3.1790 2.0382
4.0820 3.5188 2.0382
3.7854 3.8358 2.0382
3.4643 4.1280 2.0382
3.1209 4.3935 2.0382
2.7572 4.6307 2.0382
2.3757 4.8379 2.0382
0.7274 1.8431 0.7492
0.5767 1.8959 0.7492
0.4223 1.9364 0.7492
0.2651 1.9643 0.7492
0.2889 5.3855 2.0382
-0.1455 5.3923 2.0382
-0.2128 1.9708 0.7488
-0.3707 1.9472 0.7486
-0.5262 1.9110 0.7484
-0.6782 1.8623 0.7481
-2.2505 4.9096 2.0382
-2.6390 4.7139 2.0382
-3.0106 4.4876 2.0382
-3.3630 4.2320 2.0382
-3.6937 3.9489 2.0382
-4.0007 3.6400 2.0382
-4.2818 3.3074 2.0382
-4.5354 2.9531 2.0382
-4.7597 2.5794 2.0382
-4.9533 2.1888 2.0382
-5.1148 1.7837 2.0382
-5.2431 1.3669 2.0382
-5.3376 0.9410 2.0382
-5.3973 0.5088 2.0382
-5.4221 0.0730 2.0382
-5.4116 -0.3634 2.0382
-5.3660 -0.7976 2.0382
-5.2855 -1.2268 2.0382
-5.1706 -1.6482 2.0382
-5.0220 -2.0590 2.0382
-4.8408 -2.4565 2.0382
-4.6281 -2.8382 2.0382
-4.3852 -3.2014 2.0382
-4.1138 -3.5439 2.0382
-3.8156 -3.8634 2.0382
-3.4926 -4.1578 2.0382
-3.1469 -4.4251 2.0382
-2.7807 -4.6637 2.0382
-2.3965 -4.8719 2.0382
-0.7228 -1.8274 0.7378
-0.5734 -1.8794 0.7378
-0.4204 -1.9192 0.7378
-0.2646 -1.9466 0.7378
-0.1072 -1.9615 0.7379
0.0509 -1.9637 0.7380
0.2086 -1.9533 0.7382
0.3651 -1.9302 0.7384
0.5192 -1.8947 0.7386
0.6699 -1.8470 0.7389
2.2513 -4.9283 2.0382
1.5906 -2.8501 1.2281
1.3407 -2.0043 0.9076
1.1936 -1.5063 0.7236
1.1872 -1.2728 0.6555
1.3442 -1.2265 0.6855
1.5174 -1.1755 0.7233
1.7120 -1.1181 0.7708
1.9354 -1.0523 0.8307
2.1981 -0.9749 0.9070
2.5160 -0.8812 1.0058
2.9145 -0.7639 1.1371
5.3160 -0.9442 2.0382
5.3733 -0.5132 2.0382
5.3959 -0.0792 2.0382
5.3835 0.3554 2.0382
5.3363 0.7873 2.0382
5.2546 1.2140 2.0382
5.1390 1.6328 2.0382
4.9902 2.0408 2.0382
4.8091 2.4355 2.0382
4.5970 2.8143 2.0382
4.3552 3.1750 2.0382
4.0852 3.5150 2.0382
3.7889 3.8324 2.0382
3.4681 4.1249 2.0382
3.1249 4.3907 2.0382
2.7614 4.6281 2.0382
2.3801 4.8357 2.0382
0.7291 1.8424 0.7492
0.5785 1.8954 0.7492
0.4241 1.9360 0.7492
0.2669 1.9640 0.7492
0.2938 5.3852 2.0382
-0.1406 5.3924 2.0382
-0.2110 1.9710 0.7488
-0.3689 1.9476 0.7486
-2.1976 -4.4880 2.0382
-0.6626 -1.6842 0.7382
-0.5250 -1.7318 0.7382
-0.3840 -1.7682 0.7382
-0.2405 -1.7932 0.7383
-0.0955 -1.8067 0.7384
0.0501 -1.8084 0.7385
0.1954 -1.7985 0.7386
0.3394 -1.7770 0.7388
0.4813 -1.7441 0.7390
0.6200 -1.6998 0.7392
0.7548 -1.6446 0.7395
1.5831 -2.8249 1.3237
1.3366 -1.9905 0.9804
1.1910 -1.4975 0.7826
1.1907 -1.2719 0.7128
1.3480 -1.2256 0.7456
1.5216 -1.1744 0.7868
1.7168 -1.1169 0.8386
1.9410 -1.0508 0.9040
2.2048 -0.9731 0.9874
2.5243 -0.8790 1.0954
2.9250 -0.7611 1.2389
4.8959 -0.8605 2.0382
4.9481 -0.4636 2.0382
4.9682 -0.0638 2.0382
4.9562 0.3361 2.0382
4.9121 0.7338 2.0382
4.8362 1.1265 2.0382
4.7291 1.5119 2.0382
4.5914 1.8874 2.0382
4.4240 2.2506 2.0382
4.2281 2.5991 2.0382
4.0048 2.9308 2.0382
3.7557 3.2435 2.0382
3.4823 3.5352 2.0382
3.1864 3.8040 2.0382
2.8699 4.0482 2.0382
2.5349 4.2662 2.0382
2.1834 4.4567 2.0382
0.6678 1.6967 0.7488
0.5291 1.7451 0.7488
0.3870 1.7823 0.7488
0.2423 1.8078 0.7487
0.0960 1.8215 0.7486
-0.0509 1.8234 0.7485
-0.1975 1.8134 0.7484
-0.3428 1.7915 0.7482
-0.4859 1.7581 0.7480
-0.6257 1.7131 0.7478
-0.7615 1.6570 0.7475
-2.4338 4.3376 2.0382
-2.7757 4.1289 2.0382
-3.0998 3.8932 2.0382
-3.4040 3.6322 2.0382
-3.6862 3.3475 2.0382
-3.9447 3.0410 2.0382
-4.1778 2.7145 2.0382
-4.3838 2.3703 2.0382
-4.5616 2.0105 2.0382
-4.7098 1.6375 2.0382
-4.8276 1.2539 2.0382
-4.9140 0.8615 2.0382
-4.9686 0.4636 2.0382
-4.9909 0.0625 2.0382
-4.9808 -0.3392 2.0382
-4.9384 -0.7388 2.0382
-4.8638 -1.1338 2.0382
-4.7577 -1.5215 2.0382
-4.6206 -1.8995 2.0382
-4.4534 -2.2652 2.0382
-4.2572 -2.6162 2.0382
-4.0334 -2.9503 2.0382
-3.7833 -3.2653 2.0382
-3.5086 -3.5590 2.0382
-3.2110 -3.8297 2.0382
-2.8926 -4.0755 2.0382
-2.5554 -4.2947 2.0382
-2.2017 -4.4860 2.0382
-0.6642 -1.6836 0.7382
-0.5266 -1.7313 0.7382
-0.3856 -1.7679 0.7382
-0.2421 -1.7930 0.7383
-0.0972 -1.8066 0.7384
0.0485 -1.8085 0.7385
0.1937 -1.7987 0.7386
0.3378 -1.7774 0.7388
0.4797 -1.7445 0.7390
0.6185 -1.7004 0.7392
0.7533 -1.6453 0.7395
1.5869 -2.8377 1.3290
1.3387 -1.9976 0.9832
1.1923 -1.5020 0.7843
1.1890 -1.2725 0.7125
1.3462 -1.2261 0.7451
1.5195 -1.1750 0.7863
1.7145 -1.1176 0.8380
1.9382 -1.0516 0.9032
2.2015 -0.9741 0.9863
2.5202 -0.8802 1.0940
2.9199 -0.7626 1.2370
4.8951 -0.8650 2.0382
4.9477 -0.4681 2.0382
4.9682 -0.0684 2.0382
4.9565 0.3316 2.0382
4.9128 0.7293 2.0382
4.8372 1.1221 2.0382
4.7305 1.5076 2.0382
4.5931 1.8832 2.0382
4.4261 2.2465 2.0382
4.2305 2.5953 2.0382
4.0075 2.9271 2.0382
3.7587 3.2400 2.0382
3.4856 3.5320 2.0382
3.1899 3.8011 2.0382
2.8737 4.0456 2.0382
2.5388 4.2639 2.0382
2.1874 4.4547 2.0382
0.6693 1.6960 0.7488
0.5307 1.7446 0.7488
0.3886 1.7819 0.7488
0.2439 1.8075 0.7487
0.0977 1.8214 0.7486
-0.0493 1.8234 0.7485
-0.1959 1.8135 0.7484
-0.3412 1.7919 0.7482
-0.4843 1.7585 0.7480
-0.6242 1.7137 0.7478
-0.7600 1.6577 0.7475
-2.4298 4.3398 2.0382
-2.7719 4.1314 2.0382
-3.0962 3.8960 2.0382
-3.4006 3.6353 2.0382
-3.6831 3.3509 2.0382
-3.9419 3.0446 2.0382
-4.1753 2.7183 2.0382
-4.3817 2.3743 2.0382
-4.5597 2.0147 2.0382
-4.7083 1.6418 2.0382
-4.8264 1.2581 2.0382
-4.9132 0.8660 2.0382
-4.9681 0.4682 2.0382
-4.9908 0.0671 2.0382
-4.9811 -0.3346 2.0382
-4.9390 -0.7343 2.0382
-4.8649 -1.1293 2.0382
-4.7591 -1.5172 2.0382
-4.6223 -1.8952 2.0382
-4.4555 -2.2611 2.0382
-4.2596 -2.6123 2.0382
-4.0361 -2.9466 2.0382
-3.7863 -3.2618 2.0382
-3.5118 -3.5558 2.0382
-3.2145 -3.8268 2.0382
-2.8964 -4.0728 2.0382
-2.5594 -4.2924 2.0382
-2.2058 -4.4840 2.0382
-0.6657 -1.6830 0.7382
-0.5281 -1.7308 0.7382
-0.3872 -1.7675 0.7382
-0.2438 -1.7928 0.7383
-0.0988 -1.8065 0.7384
0.0468 -1.8085 0.7385
0.1921 -1.7989 0.7386
0.3362 -1.7777 0.7388
0.4781 -1.7450 0.7390
0.6169 -1.7010 0.7392
0.7518 -1.6460 0.7395
1.5908 -2.8507 1.3344
1.3408 -2.0047 0.9861
1.1937 -1.5065 0.7861
1.1873 -1.2730 0.7121
1.3443 -1.2267 0.7447
1.5175 -1.1756 0.7858
1.7121 -1.1183 0.8373
1.9355 -1.0524 0.9023
2.1982 -0.9751 0.9852
2.5162 -0.8814 1.0926
2.9147 -0.7641 1.2351
4.8943 -0.8695 2.0382
4.9472 -0.4726 2.0382
4.9681 -0.0729 2.0382
4.9568 0.3271 2.0382
4.9134 0.7248 2.0382
4.8383 1.1177 2.0382
4.7319 1.5033 2.0382
4.5948 1.8790 2.0382
4.4281 2.2425 2.0382
4.2329 2.5914 2.0382
4.0102 2.9235 2.0382
3.7617 3.2366 2.0382
3.4888 3.5288 2.0382
3.1934 3.7981 2.0382
2.8773 4.0429 2.0382
2.5427 4.2616 2.0382
2.1915 4.4527 2.0382
0.6709 1.6954 0.7488
0.5323 1.7442 0.7488
0.3902 1.7815 0.7488
0.2456 1.8073 0.7487
0.0993 1.8213 0.7486
-0.0476 1.8235 0.7485
-0.1942 1.8137 0.7484
-0.3395 1.7922 0.7482
-0.7365 -1.5040 0.7387
-0.6131 -1.5582 0.7386
-0.4857 -1.6022 0.7386
-0.3553 -1.6359 0.7386
-0.2225 -1.6591 0.7387
-0.0884 -1.6715 0.7387
0.0463 -1.6731 0.7388
0.1807 -1.6640 0.7390
0.3140 -1.6441 0.7391
0.4452 -1.6136 0.7393
0.5736 -1.5726 0.7396
0.6983 -1.5215 0.7398
1.5833 -2.8254 1.4316
1.3368 -1.9909 1.0602
1.1911 -1.4977 0.8463
1.1907 -1.2721 0.7708
1.3481 -1.2257 0.8062
1.5217 -1.1745 0.8508
1.7169 -1.1170 0.9068
1.9411 -1.0510 0.9775
2.2049 -0.9733 1.0676
2.5245 -0.8792 1.1844
2.9253 -0.7612 1.3396
4.5284 -0.7961 2.0382
4.5767 -0.4289 2.0382
4.5954 -0.0592 2.0382
4.5843 0.3107 2.0382
4.5436 0.6786 2.0382
4.4734 1.0419 2.0382
4.3744 1.3984 2.0382
4.2471 1.7458 2.0382
4.0923 2.0817 2.0382
3.9111 2.4042 2.0382
3.7046 2.7110 2.0382
3.4741 3.0003 2.0382
3.2212 3.2701 2.0382
2.9475 3.5188 2.0382
2.6547 3.7447 2.0382
2.3448 3.9463 2.0382
0.7415 1.5136 0.7483
0.6173 1.5686 0.7484
0.4891 1.6134 0.7484
0.3577 1.6477 0.7484
0.2239 1.6713 0.7483
0.0887 1.6840 0.7483
-0.0471 1.6857 0.7481
-0.1827 1.6765 0.7480
-0.3170 1.6563 0.7478
-0.4492 1.6253 0.7477
-0.5786 1.5838 0.7474
-0.7041 1.5320 0.7472
-2.2512 4.0118 2.0382
-2.5674 3.8186 2.0382
-2.8671 3.6006 2.0382
-3.1483 3.3592 2.0382
-3.4093 3.0958 2.0382
-3.6483 2.8122 2.0382
-3.8638 2.5103 2.0382
-4.0543 2.1919 2.0382
-4.2186 1.8592 2.0382
-4.3556 1.5142 2.0382
-4.4644 1.1592 2.0382
-4.5443 0.7965 2.0382
-4.5947 0.4286 2.0382
-4.6153 0.0577 2.0382
-4.6059 -0.3138 2.0382
-4.5666 -0.6833 2.0382
-4.4976 -1.0485 2.0382
-4.3994 -1.4070 2.0382
-4.2726 -1.7565 2.0382
-4.1179 -2.0946 2.0382
-3.9365 -2.4194 2.0382
-3.7295 -2.7281 2.0382
-3.4983 -3.0193 2.0382
-3.2443 -3.2910 2.0382
-2.9692 -3.5412 2.0382
-2.6748 -3.7684 2.0382
-2.3630 -3.9712 2.0382
-0.7379 -1.5034 0.7387
-0.6145 -1.5576 0.7386
-0.4872 -1.6018 0.7386
-0.3568 -1.6356 0.7386
-0.2241 -1.6589 0.7387
-0.0899 -1.6714 0.7387
0.0448 -1.6732 0.7388
0.1792 -1.6641 0.7390
0.3125 -1.6444 0.7391
0.4437 -1.6140 0.7393
0.5721 -1.5732 0.7396
0.6969 -1.5222 0.7398
1.5871 -2.8383 1.4374
1.3388 -1.9979 1.0633
1.1924 -1.5022 0.8482
1.1890 -1.2726 0.7704
1.3462 -1.2263 0.8058
1.5196 -1.1752 0.8502
1.7145 -1.1177 0.9061
1.9383 -1.0518 0.9766
2.2017 -0.9743 1.0665
2.5204 -0.8804 1.1829
2.9201 -0.7628 1.3376
4.5276 -0.8002 2.0382
4.5763 -0.4331 2.0382
4.5953 -0.0634 2.0382
4.5846 0.3066 2.0382
4.5442 0.6745 2.0382
4.4744 1.0378 2.0382
4.3757 1.3944 2.0382
4.2487 1.7419 2.0382
4.0942 2.0780 2.0382
3.9133 2.4006 2.0382
3.7071 2.7076 2.0382
3.4769 2.9971 2.0382
3.2242 3.2671 2.0382
2.9507 3.5161 2.0382
2.6582 3.7422 2.0382
2.3484 3.9442 2.0382
0.7429 1.5129 0.7483
0.6188 1.5680 0.7484
0.4906 1.6130 0.7484
0.3592 1.6474 0.7484
0.2255 1.6711 0.7483
0.0902 1.6839 0.7483
-0.0456 1.6858 0.7482
-0.1811 1.6766 0.7480
-0.3155 1.6566 0.7478
-0.4478 1.6258 0.7477
-0.5771 1.5843 0.7474
-0.7027 1.5326 0.7472
-2.2475 4.0139 2.0382
-2.5639 3.8210 2.0382
-2.8638 3.6032 2.0382
-3.1453 3.3620 2.0382
-3.4065 3.0989 2.0382
-3.6458 2.8156 2.0382
-3.8615 2.5138 2.0382
-4.0523 2.1956 2.0382
-4.2169 1.8630 2.0382
-4.3542 1.5182 2.0382
-4.4633 1.1633 2.0382
-4.5435 0.8007 2.0382
-4.5943 0.4329 2.0382
-4.6152 0.0618 2.0382
-4.6062 -0.3096 2.0382
-4.5672 -0.6791 2.0382
-4.4985 -1.0444 2.0382
-4.4007 -1.4030 2.0382
-4.2742 -1.7526 2.0382
-4.1199 -2.0908 2.0382
-3.9388 -2.4156 2.0382
-3.7320 -2.7247 2.0382
-3.5010 -3.0161 2.0382
-3.2473 -3.2880 2.0382
-2.9724 -3.5385 2.0382
-2.6782 -3.7660 2.0382
-2.3666 -3.9690 2.0382
-0.7392 -1.5027 0.7387
-0.6159 -1.5570 0.7386
-0.4886 -1.6013 0.7386
-0.3583 -1.6353 0.7386
-0.2256 -1.6587 0.7387
-0.0915 -1.6713 0.7387
0.0432 -1.6732 0.7388
0.1777 -1.6643 0.7390
0.3110 -1.6447 0.7391
0.4422 -1.6144 0.7393
0.5707 -1.5737 0.7396
0.6955 -1.5228 0.7398
1.5909 -2.8513 1.4432
1.3409 -2.0050 1.0664
1.1937 -1.5067 0.8501
1.1873 -1.2731 0.7701
1.3443 -1.2268 0.8053
1.5175 -1.1758 0.8497
1.7122 -1.1184 0.9054
1.9356 -1.0526 0.9757
2.1984 -0.9752 1.0653
2.5164 -0.8816 1.1814
2.9150 -0.7643 1.3355
4.5269 -0.8044 2.0382
4.5759 -0.4373 2.0382
4.5953 -0.0676 2.0382
4.5849 0.3024 2.0382
4.5448 0.6703 2.0382
4.4754 1.0338 2.0382
4.3770 1.3904 2.0382
4.2503 1.7380 2.0382
4.0961 2.0743 2.0382
3.9155 2.3970 2.0382
3.7095 2.7042 2.0382
3.4796 2.9939 2.0382
3.2272 3.2642 2.0382
2.9540 3.5134 2.0382
2.6616 3.7398 2.0382
2.3520 3.9420 2.0382
0.7443 1.5122 0.7483
0.6202 1.5675 0.7484
0.4921 1.6125 0.7484
0.3607 1.6470 0.7484
0.2270 1.6709 0.7483
0.0918 1.6838 0.7483
-0.0441 1.6858 0.7482
-0.1796 1.6768 0.7480
-0.3140 1.6569 0.7479
-0.6840 -1.3969 0.7390
-0.5694 -1.4472 0.7390
-0.4511 -1.4881 0.7390
-0.3300 -1.5194 0.7390
-0.2067 -1.5409 0.7390
-0.0821 -1.5524 0.7391
0.0430 -1.5540 0.7392
0.1678 -1.5455 0.7393
0.2915 -1.5270 0.7395
0.4134 -1.4986 0.7396
0.5326 -1.4606 0.7398
0.6485 -1.4131 0.7401
0.7601 -1.3565 0.7403
1.3369 -1.9912 1.1421
1.1911 -1.4980 0.9116
1.1908 -1.2722 0.8303
1.3481 -1.2259 0.8684
1.5218 -1.1747 0.9164
1.7170 -1.1172 0.9768
1.9412 -1.0512 1.0529
2.2051 -0.9735 1.1499
2.5247 -0.8794 1.2757
2.9256 -0.7614 1.4429
4.2047 -0.7393 2.0382
4.2497 -0.3984 2.0382
4.2671 -0.0551 2.0382
4.2568 0.2884 2.0382
4.2191 0.6300 2.0382
4.1540 0.9674 2.0382
4.0620 1.2985 2.0382
3.9438 1.6210 2.0382
3.8001 1.9330 2.0382
3.6319 2.2325 2.0382
3.4401 2.5174 2.0382
3.2261 2.7860 2.0382
2.9913 3.0366 2.0382
2.7371 3.2675 2.0382
2.4652 3.4773 2.0382
2.1773 3.6646 2.0382
0.6882 1.4049 0.7480
0.5730 1.4559 0.7480
0.4540 1.4975 0.7480
0.3320 1.5293 0.7480
0.2078 1.5512 0.7480
0.0823 1.5630 0.7479
-0.0438 1.5646 0.7478
-0.1696 1.5560 0.7477
-0.2943 1.5373 0.7475
-0.4170 1.5086 0.7474
-0.5371 1.4700 0.7471
-0.6536 1.4219 0.7469
-0.7658 1.3646 0.7467
-2.3840 3.5455 2.0382
-2.6622 3.3430 2.0382
-2.9233 3.1188 2.0382
-3.1656 2.8742 2.0382
-3.3874 2.6109 2.0382
-3.5874 2.3305 2.0382
-3.7642 2.0349 2.0382
-3.9167 1.7259 2.0382
-4.0438 1.4056 2.0382
-4.1448 1.0760 2.0382
-4.2189 0.7393 2.0382
-4.2656 0.3977 2.0382
-4.2847 0.0534 2.0382
-4.2759 -0.2914 2.0382
-4.2394 -0.6345 2.0382
-4.1753 -0.9735 2.0382
-4.0841 -1.3061 2.0382
-3.9663 -1.6307 2.0382
-3.8228 -1.9445 2.0382
-3.6544 -2.2458 2.0382
-3.4622 -2.5326 2.0382
-3.2475 -2.8029 2.0382
-3.0117 -3.0551 2.0382
-2.7563 -3.2873 2.0382
-2.4830 -3.4983 2.0382
-2.1936 -3.6865 2.0382
-0.6853 -1.3962 0.7390
-0.5707 -1.4466 0.7390
-0.4525 -1.4877 0.7390
-0.3314 -1.5191 0.7390
-0.2081 -1.5407 0.7390
-0.0836 -1.5524 0.7391
0.0415 -1.5540 0.7392
0.1664 -1.5456 0.7393
0.2902 -1.5272 0.7395
0.4121 -1.4990 0.7396
0.5313 -1.4611 0.7398
0.6472 -1.4137 0.7401
0.7589 -1.3572 0.7403
1.3389 -1.9982 1.1455
1.1925 -1.5024 0.9137
1.1890 -1.2727 0.8299
1.3463 -1.2264 0.8679
1.5197 -1.1753 0.9158
1.7146 -1.1179 0.9760
1.9385 -1.0520 1.0519
2.2018 -0.9744 1.1487
2.5207 -0.8806 1.2741
2.9204 -0.7630 1.4407
4.2040 -0.7432 2.0382
4.2493 -0.4023 2.0382
4.2670 -0.0590 2.0382
4.2571 0.2845 2.0382
4.2196 0.6262 2.0382
4.1549 0.9636 2.0382
4.0632 1.2948 2.0382
3.9453 1.6174 2.0382
3.8019 1.9296 2.0382
3.6339 2.2292 2.0382
3.4424 2.5143 2.0382
3.2287 2.7831 2.0382
2.9941 3.0339 2.0382
2.7401 3.2650 2.0382
2.4684 3.4751 2.0382
2.1807 3.6626 2.0382
0.6895 1.4042 0.7480
0.5743 1.4554 0.7480
0.4553 1.4971 0.7480
0.3334 1.5290 0.7480
0.2092 1.5510 0.7480
0.0837 1.5629 0.7479
-0.0424 1.5646 0.7478
-0.1682 1.5562 0.7477
-0.2929 1.5376 0.7475
-0.4157 1.5090 0.7474
-0.5357 1.4705 0.7471
-0.6523 1.4225 0.7469
-0.7646 1.3653 0.7467
-2.3807 3.5477 2.0382
-2.6591 3.3455 2.0382
-2.9204 3.1215 2.0382
-3.1629 2.8771 2.0382
-3.3850 2.6140 2.0382
-3.5853 2.3338 2.0382
-3.7624 2.0383 2.0382
-3.9151 1.7295 2.0382
-4.0425 1.4093 2.0382
-4.1438 1.0798 2.0382
-4.2182 0.7432 2.0382
-4.2652 0.4016 2.0382
-4.2846 0.0573 2.0382
-4.2761 -0.2875 2.0382
-4.2399 -0.6306 2.0382
-4.1761 -0.9698 2.0382
-4.0853 -1.3024 2.0382
-3.9678 -1.6271 2.0382
-3.8245 -1.9410 2.0382
-3.6564 -2.2425 2.0382
-3.4645 -2.5294 2.0382
-3.2501 -2.7999 2.0382
-3.0145 -3.0523 2.0382
-2.7593 -3.2848 2.0382
-2.4862 -3.4960 2.0382
-2.1970 -3.6845 2.0382
-0.6866 -1.3956 0.7390
-0.5721 -1.4461 0.7390
-0.4539 -1.4873 0.7390
-0.3328 -1.5188 0.7390
-0.2095 -1.5405 0.7390
-0.0850 -1.5523 0.7391
0.0401 -1.5540 0.7392
0.1650 -1.5458 0.7393
0.2888 -1.5275 0.7395
0.4107 -1.4994 0.7396
0.5300 -1.4616 0.7398
0.6459 -1.4143 0.7401
0.7576 -1.3579 0.7403
1.3410 -2.0053 1.1488
1.1938 -1.5070 0.9158
1.1873 -1.2732 0.8295
1.3444 -1.2270 0.8674
1.5176 -1.1759 0.9152
1.7123 -1.1186 0.9752
1.9357 -1.0528 1.0509
2.1985 -0.9754 1.1474
2.5166 -0.8818 1.2725
2.9153 -0.7645 1.4385
4.2034 -0.7470 2.0382
4.2489 -0.4062 2.0382
4.2670 -0.0629 2.0382
4.2574 0.2807 2.0382
4.2202 0.6223 2.0382
4.1558 0.9598 2.0382
4.0644 1.2910 2.0382
3.9468 1.6138 2.0382
3.8037 1.9261 2.0382
3.6359 2.2258 2.0382
3.4447 2.5111 2.0382
3.2312 2.7801 2.0382
2.9968 3.0312 2.0382
2.7431 3.2625 2.0382
2.4716 3.4728 2.0382
2.1840 3.6606 2.0382
0.6908 1.4036 0.7480
0.5756 1.4549 0.7480
0.4567 1.4967 0.7480
0.3348 1.5287 0.7480
0.2107 1.5508 0.7480
0.0851 1.5628 0.7479
-0.0409 1.5647 0.7478
-0.1667 1.5563 0.7477
-0.2915 1.5378 0.7475
-0.6374 -1.3016 0.7393
-0.5306 -1.3485 0.7393
-0.4204 -1.3866 0.7393
-0.3075 -1.4158 0.7393
-0.1927 -1.4358 0.7393
-0.0766 -1.4466 0.7394
0.0400 -1.4480 0.7395
0.1563 -1.4401 0.7396
0.2716 -1.4229 0.7397
0.3852 -1.3964 0.7399
0.4963 -1.3610 0.7401
0.6042 -1.3168 0.7403
0.7082 -1.2640 0.7405
1.3370 -1.9915 1.2263
1.1912 -1.4982 0.9787
1.1908 -1.2724 0.8913
1.3482 -1.2260 0.9323
1.5218 -1.1749 0.9838
1.7171 -1.1174 1.0486
1.9413 -1.0513 1.1303
2.2052 -0.9737 1.2345
2.5249 -0.8796 1.3695
2.9259 -0.7616 1.5490
3.9171 -0.6889 2.0382
3.9590 -0.3713 2.0382
3.9753 -0.0515 2.0382
3.9658 0.2686 2.0382
3.9307 0.5868 2.0382
3.8701 0.9012 2.0382
3.7844 1.2096 2.0382
3.6743 1.5102 2.0382
3.5405 1.8009 2.0382
3.3837 2.0799 2.0382
3.2051 2.3454 2.0382
3.0057 2.5957 2.0382
2.7869 2.8291 2.0382
2.5501 3.0443 2.0382
2.2967 3.2397 2.0382
0.7441 1.2523 0.7476
0.6409 1.3084 0.7477
0.5336 1.3559 0.7477
0.4227 1.3946 0.7477
0.3091 1.4242 0.7477
0.1935 1.4446 0.7477
0.0766 1.4556 0.7476
-0.0408 1.4571 0.7475
-0.1580 1.4491 0.7474
-0.2741 1.4316 0.7473
-0.3884 1.4049 0.7471
-0.5002 1.3690 0.7469
-0.6087 1.3242 0.7467
-0.7133 1.2709 0.7464
-2.2210 3.3028 2.0382
-2.4802 3.1142 2.0382
-2.7234 2.9052 2.0382
-2.9490 2.6774 2.0382
-3.1556 2.4320 2.0382
-3.3419 2.1708 2.0382
-3.5065 1.8954 2.0382
-3.6485 1.6076 2.0382
-3.7669 1.3092 2.0382
-3.8609 1.0022 2.0382
-3.9298 0.6885 2.0382
-3.9733 0.3703 2.0382
-3.9910 0.0496 2.0382
-3.9828 -0.2716 2.0382
-3.9487 -0.5911 2.0382
-3.8890 -0.9069 2.0382
-3.8040 -1.2168 2.0382
-3.6943 -1.5189 2.0382
-3.5606 -1.8113 2.0382
-3.4037 -2.0919 2.0382
-3.2247 -2.3589 2.0382
-3.0248 -2.6107 2.0382
-2.8051 -2.8455 2.0382
-2.5673 -3.0619 2.0382
-2.3128 -3.2584 2.0382
-0.7412 -1.2457 0.7394
-0.6386 -1.3010 0.7393
-0.5318 -1.3480 0.7393
-0.4217 -1.3862 0.7393
-0.3088 -1.4155 0.7393
-0.1940 -1.4357 0.7393
-0.0779 -1.4465 0.7394
0.0387 -1.4481 0.7395
0.1550 -1.4402 0.7396
0.2703 -1.4231 0.7397
0.3839 -1.3968 0.7399
0.4950 -1.3615 0.7401
0.6030 -1.3173 0.7403
0.7070 -1.2646 0.7405
1.3390 -1.9986 1.2299
1.1925 -1.5027 0.9810
1.1891 -1.2729 0.8909
1.3463 -1.2266 0.9318
1.5198 -1.1755 0.9832
1.7147 -1.1180 1.0478
1.9386 -1.0521 1.1293
2.2020 -0.9746 1.2332
2.5209 -0.8808 1.3678
2.9207 -0.7631 1.5466
3.9165 -0.6925 2.0382
3.9587 -0.3750 2.0382
3.9753 -0.0551 2.0382
3.9661 0.2650 2.0382
3.9312 0.5833 2.0382
3.8709 0.8977 2.0382
3.7855 1.2062 2.0382
3.6757 1.5068 2.0382
3.5421 1.7976 2.0382
3.3856 2.0768 2.0382
3.2072 2.3424 2.0382
3.0081 2.5929 2.0382
2.7895 2.8266 2.0382
2.5529 3.0419 2.0382
2.2997 3.2376 2.0382
0.7452 1.2516 0.7476
0.6421 1.3078 0.7477
0.5348 1.3554 0.7477
0.4240 1.3942 0.7477
0.3104 1.4239 0.7477
0.1948 1.4444 0.7477
0.0779 1.4555 0.7476
-0.0395 1.4571 0.7475
-0.1567 1.4492 0.7474
-0.2728 1.4319 0.7473
-0.3871 1.4053 0.7471
-0.4990 1.3695 0.7469
-0.6075 1.3248 0.7467
-0.7121 1.2715 0.7464
-2.2180 3.3049 2.0382
-2.4773 3.1164 2.0382
-2.7207 2.9077 2.0382
-2.9465 2.6800 2.0382
-3.1534 2.4349 2.0382
-3.3399 2.1738 2.0382
-3.5048 1.8986 2.0382
-3.6470 1.6109 2.0382
-3.7657 1.3126 2.0382
-3.8599 1.0057 2.0382
-3.9292 0.6921 2.0382
-3.9730 0.3740 2.0382
-3.9909 0.0532 2.0382
-3.9830 -0.2679 2.0382
-3.9493 -0.5875 2.0382
-3.8898 -0.9033 2.0382
-3.8051 -1.2133 2.0382
-3.6957 -1.5156 2.0382
-3.5623 -1.8080 2.0382
-3.4056 -2.0888 2.0382
-3.2269 -2.3560 2.0382
-3.0271 -2.6079 2.0382
-2.8077 -2.8430 2.0382
-2.5701 -3.0596 2.0382
-2.3157 -3.2563 2.0382
-0.7424 -1.2450 0.7394
-0.6398 -1.3004 0.7393
-0.5331 -1.3475 0.7393
-0.4229 -1.3858 0.7393
-0.3101 -1.4152 0.7393
-0.1953 -1.4355 0.7393
-0.0792 -1.4464 0.7394
0.0373 -1.4481 0.7395
0.1537 -1.4404 0.7396
0.2690 -1.4234 0.7397
0.3826 -1.3971 0.7399
0.4938 -1.3619 0.7401
0.6018 -1.3179 0.7403
0.7059 -1.2653 0.7405
1.3411 -2.0057 1.2335
1.1939 -1.5072 0.9832
1.1874 -1.2734 0.8905
1.3444 -1.2271 0.9312
1.5177 -1.1761 0.9825
1.7124 -1.1187 1.0470
1.9358 -1.0529 1.1282
2.1987 -0.9756 1.2318
2.5168 -0.8820 1.3661
2.9156 -0.7647 1.5443
3.9159 -0.6961 2.0382
3.9584 -0.3786 2.0382
3.9752 -0.0588 2.0382
3.9663 0.2613 2.0382
3.9317 0.5797 2.0382
3.8717 0.8941 2.0382
3.7867 1.2027 2.0382
3.6771 1.5035 2.0382
3.5438 1.7944 2.0382
3.3875 2.0737 2.0382
3.2094 2.3395 2.0382
3.0105 2.5902 2.0382
2.7921 2.8240 2.0382
2.5557 3.0396 2.0382
2.3027 3.2355 2.0382
0.7463 1.2510 0.7476
0.6433 1.3072 0.7477
0.5361 1.3549 0.7477
0.4253 1.3938 0.7477
0.3117 1.4237 0.7477
0.1961 1.4442 0.7477
0.0793 1.4554 0.7476
-0.0382 1.4571 0.7475
-0.1553 1.4494 0.7474
-0.2715 1.4321 0.7473
-0.5956 -1.2162 0.7396
-0.4958 -1.2600 0.7396
-0.3929 -1.2957 0.7395
-0.2874 -1.3230 0.7396
