ply
format ascii 1.0
element vertex 2170
property float32 x
property float32 y
property float32 z
end_header
-4.5849 3.7246 2.0386
-4.8694 3.3445 2.0386
-5.1225 2.9427 2.0386
-5.3425 2.5220 2.0386
-5.5280 2.0848 2.0386
-5.6778 1.6342 2.0386
-5.7909 1.1730 2.0386
-5.4281 0.6516 1.8862
-5.4632 0.2135 1.8862
-5.4630 -0.2259 1.8862
-5.4274 -0.6639 1.8862
-5.3569 -1.0977 1.8862
-5.2517 -1.5244 1.8862
-5.1125 -1.9413 1.8862
-4.9403 -2.3457 1.8862
-4.7362 -2.7350 1.8862
-4.5015 -3.1067 1.8862
-4.2383 -3.4589 1.8865
-4.2168 -4.0471 2.0155
-3.9229 -4.4231 2.0386
-3.5552 -4.7240 2.0386
-3.1645 -4.9944 2.0386
-2.7533 -5.2325 2.0386
-2.3242 -5.4369 2.0386
-0.6819 -2.0332 0.7394
-1.4240 -5.7391 2.0386
-0.9585 -5.8350 2.0386
-0.4869 -5.8932 2.0386
-0.0120 -5.9134 2.0386
0.4629 -5.8953 2.0386
0.9348 -5.8391 2.0386
1.4006 -5.7451 2.0386
0.6736 -2.0360 0.7393
2.3023 -5.4467 2.0386
2.7322 -5.2442 2.0386
3.1444 -5.0078 2.0386
3.5363 -4.7390 2.0386
3.9054 -4.4396 2.0386
4.2491 -4.1116 2.0386
4.5655 -3.7569 2.0386
4.8522 -3.3781 2.0386
5.1077 -2.9774 2.0386
5.3301 -2.5575 2.0386
5.5180 -2.1211 2.0386
5.6703 -1.6711 2.0386
5.7859 -1.2103 2.0386
5.8641 -0.7417 2.0386
5.9045 -0.2684 2.0386
5.9067 0.2066 2.0386
5.8707 0.6803 2.0386
5.7968 1.1495 2.0386
5.6855 1.6112 2.0386
5.5375 2.0625 2.0386
5.3537 2.5005 2.0386
5.1354 2.9222 2.0386
4.8839 3.3250 2.0386
4.6009 3.7063 2.0386
4.2882 4.0637 2.0386
3.9478 4.3948 2.0386
3.5820 4.6975 2.0386
3.1931 4.9698 2.0386
2.7835 5.2100 2.0386
2.3560 5.4166 2.0386
1.9134 5.5882 2.0386
1.4584 5.7237 2.0386
0.9940 5.8222 2.0386
0.5231 5.8831 2.0386
0.0490 5.9061 2.0386
-0.4255 5.8909 2.0386
-0.8973 5.8377 2.0386
-1.3632 5.7468 2.0386
-1.8204 5.6188 2.0386
-2.2658 5.4545 2.0386
-2.6965 5.2550 2.0386
-3.1099 5.0215 2.0386
-3.5032 4.7556 2.0386
-3.8739 4.4590 2.0386
-4.2196 4.1336 2.0386
-4.5381 3.7815 2.0386
-4.8273 3.4049 2.0386
-5.0854 3.0063 2.0386
-5.3106 2.5883 2.0386
-5.5015 2.1536 2.0386
-5.6569 1.7048 2.0386
-5.7758 1.2451 2.0386
-5.4196 0.7191 1.8862
-5.4601 0.2816 1.8862
-5.4653 -0.1578 1.8862
-5.4353 -0.5962 1.8862
-5.3701 -1.0309 1.8862
-5.2702 -1.4588 1.8862
-5.1363 -1.8775 1.8862
-4.9692 -2.2840 1.8862
-4.7699 -2.6758 1.8862
-4.5398 -3.0503 1.8862
-4.2804 -3.4052 1.8862
-4.2186 -3.9490 1.9927
-3.9777 -4.3738 2.0386
-3.6138 -4.6793 2.0386
-3.2264 -4.9546 2.0386
-2.8182 -5.1978 2.0386
-2.3918 -5.4075 2.0386
-0.7072 -2.0246 0.7394
-1.4954 -5.7209 2.0386
-1.0311 -5.8226 2.0386
-0.5602 -5.8867 2.0386
-0.0857 -5.9127 2.0386
0.3894 -5.9006 2.0386
0.8619 -5.8503 2.0386
1.3289 -5.7621 2.0386
1.7873 -5.6368 2.0386
2.2342 -5.4750 2.0386
2.6666 -5.2779 2.0386
3.0818 -5.0466 2.0386
3.4770 -4.7827 2.0386
3.8498 -4.4880 2.0386
4.1976 -4.1642 2.0386
4.5183 -3.8136 2.0386
4.8098 -3.4383 2.0386
5.0702 -3.0408 2.0386
5.2978 -2.6238 2.0386
5.4912 -2.1898 2.0386
5.6490 -1.7416 2.0386
5.7704 -1.2823 2.0386
5.8545 -0.8147 2.0386
5.9007 -0.3419 2.0386
5.9088 0.1330 2.0386
5.8788 0.6071 2.0386
5.8108 1.0772 2.0386
5.7052 1.5403 2.0386
5.5628 1.9934 2.0386
5.3845 2.4336 2.0386
5.1714 2.8580 2.0386
4.9250 3.2639 2.0386
4.6468 3.6487 2.0386
4.3385 4.0100 2.0386
4.0023 4.3453 2.0386
3.6403 4.6525 2.0386
3.2548 4.9297 2.0386
2.8483 5.1750 2.0386
2.4234 5.3868 2.0386
1.9829 5.5639 2.0386
1.5296 5.7051 2.0386
1.0664 5.8094 2.0386
0.5964 5.8762 2.0386
0.1226 5.9050 2.0386
-0.3521 5.8958 2.0386
-0.8244 5.8484 2.0386
-1.2915 5.7633 2.0386
-1.7502 5.6410 2.0386
-2.1976 5.4823 2.0386
-2.6308 5.2881 2.0386
-3.0471 5.0598 2.0386
-3.4437 4.7989 2.0386
-3.8180 4.5069 2.0386
-4.1678 4.1858 2.0386
-4.4906 3.8377 2.0386
-4.7845 3.4648 2.0386
-5.0475 3.0695 2.0386
-5.2779 2.6543 2.0386
-5.4742 2.2219 2.0386
-5.6352 1.7752 2.0386
-5.7598 1.3170 2.0386
-5.4101 0.7866 1.8862
-5.4561 0.3496 1.8862
-5.4668 -0.0897 1.8862
-5.4422 -0.5285 1.8862
-5.3825 -0.9639 1.8862
-5.2879 -1.3930 1.8862
-5.1592 -1.8133 1.8862
-4.9972 -2.2219 1.8862
-4.8028 -2.6161 1.8862
-4.5775 -2.9935 1.8862
-4.3225 -3.3516 1.8862
-4.2203 -3.8531 1.9707
-4.0319 -4.3239 2.0386
-3.6718 -4.6339 2.0386
-3.2879 -4.9139 2.0386
-2.8828 -5.1623 2.0386
-2.4590 -5.3772 2.0386
-0.7324 -2.0157 0.7394
-1.5665 -5.7018 2.0386
-1.1036 -5.8093 2.0386
-0.6336 -5.8792 2.0386
-0.1594 -5.9112 2.0386
0.3158 -5.9050 2.0386
0.7890 -5.8605 2.0386
1.2570 -5.7783 2.0386
1.7170 -5.6586 2.0386
2.1658 -5.5024 2.0386
2.6006 -5.3107 2.0386
3.0187 -5.0846 2.0386
3.4172 -4.8257 2.0386
3.7935 -4.5356 2.0386
4.1454 -4.2162 2.0386
4.4705 -3.8696 2.0386
4.7666 -3.4980 2.0386
5.0319 -3.1038 2.0386
5.2647 -2.6896 2.0386
5.4635 -2.2580 2.0386
5.6269 -1.8119 2.0386
5.7540 -1.3541 2.0386
5.8439 -0.8876 2.0386
5.8960 -0.4154 2.0386
5.9101 0.0594 2.0386
5.8859 0.5338 2.0386
5.8238 1.0047 2.0386
5.7240 1.4691 2.0386
5.5873 1.9239 2.0386
5.4145 2.3663 2.0386
5.2067 2.7933 2.0386
4.9653 3.2023 2.0386
4.6919 3.5906 2.0386
4.3882 3.9556 2.0386
4.0562 4.2951 2.0386
3.6980 4.6068 2.0386
3.3160 4.8887 2.0386
2.9125 5.1391 2.0386
2.4903 5.3562 2.0386
2.0521 5.5388 2.0386
1.6006 5.6856 2.0386
1.1387 5.7957 2.0386
0.6696 5.8683 2.0386
0.1961 5.9031 2.0386
-0.2786 5.8997 2.0386
-0.7515 5.8582 2.0386
-1.2196 5.7790 2.0386
-1.6797 5.6624 2.0386
-2.1291 5.5092 2.0386
-2.5647 5.3205 2.0386
-2.9838 5.0974 2.0386
-3.3836 4.8414 2.0386
-3.7616 4.5541 2.0386
-4.1153 4.2374 2.0386
-4.4424 3.8934 2.0386
-4.7409 3.5241 2.0386
-5.0088 3.1321 2.0386
-5.2444 2.7198 2.0386
-5.4461 2.2900 2.0386
-5.6126 1.8453 2.0386
-5.7429 1.3886 2.0386
-5.3999 0.8540 1.8862
-5.4513 0.4176 1.8862
-5.4675 -0.0216 1.8862
-5.4483 -0.4606 1.8862
-5.3940 -0.8967 1.8862
-5.3048 -1.3270 1.8862
-5.1814 -1.7488 1.8862
-5.0244 -2.1594 1.8862
-4.8350 -2.5560 1.8862
-4.6144 -2.9362 1.8862
-4.3639 -3.2974 1.8862
-4.2219 -3.7592 1.9494
-4.0854 -4.2733 2.0386
-3.7292 -4.5877 2.0386
-3.3489 -4.8726 2.0386
-2.9469 -5.1259 2.0386
-2.5258 -5.3462 2.0386
-0.7575 -2.0065 0.7394
-1.6374 -5.6818 2.0386
-1.1759 -5.7951 2.0386
-0.7068 -5.8709 2.0386
-0.2330 -5.9087 2.0386
0.2422 -5.9084 2.0386
0.7159 -5.8699 2.0386
1.1849 -5.7935 2.0386
1.6463 -5.6796 2.0386
0.7606 -2.0053 0.7394
2.5343 -5.3427 2.0386
2.9551 -5.1218 2.0386
-2.1366 4.9678 2.0386
-2.5287 4.7802 2.0386
-2.9045 4.5618 2.0386
-3.2615 4.3139 2.0386
-3.5975 4.0381 2.0386
-3.9103 3.7362 2.0386
-4.1979 3.4102 2.0386
-4.4583 3.0621 2.0386
-4.6900 2.6943 2.0386
-4.8914 2.3090 2.0386
-5.0613 1.9088 2.0386
-5.1984 1.4962 2.0386
-5.3020 1.0739 2.0386
-4.9797 0.5977 1.8900
-5.0019 0.1955 1.8862
-5.0017 -0.2069 1.8862
-4.9691 -0.6079 1.8862
-4.9045 -1.0050 1.8862
-4.8081 -1.3957 1.8862
-4.6807 -1.7774 1.8862
-4.5231 -2.1477 1.8862
-4.3362 -2.5041 1.8862
-4.2019 -2.8999 1.9231
-4.1932 -3.4220 2.0386
-3.9050 -3.7478 2.0386
-3.5915 -4.0495 2.0386
-3.2549 -4.3250 2.0386
-2.8971 -4.5725 2.0386
-2.5207 -4.7905 2.0386
-0.7722 -1.8064 0.7398
-0.6246 -1.8623 0.7397
-0.4730 -1.9063 0.7396
-0.3183 -1.9380 0.7396
-0.1617 -1.9572 0.7395
-0.0040 -1.9638 0.7395
0.1537 -1.9578 0.7395
0.3104 -1.9392 0.7395
0.4652 -1.9082 0.7396
0.6170 -1.8649 0.7397
0.7649 -1.8096 0.7398
2.5013 -4.8012 2.0386
2.8788 -4.5847 2.0386
3.2376 -4.3387 2.0386
3.5754 -4.0646 2.0386
3.8902 -3.7642 2.0386
4.1798 -3.4396 2.0386
4.4423 -3.0927 2.0386
4.6762 -2.7259 2.0386
4.8798 -2.3415 2.0386
5.0519 -1.9420 2.0386
5.1913 -1.5300 2.0386
5.2972 -1.1081 2.0386
5.3689 -0.6791 2.0386
5.4058 -0.2457 2.0386
5.4078 0.1892 2.0386
5.3749 0.6228 2.0386
5.3073 1.0524 2.0386
5.2054 1.4751 2.0386
5.0699 1.8883 2.0386
4.9017 2.2893 2.0386
4.7018 2.6754 2.0386
4.4716 3.0443 2.0386
4.2125 3.3934 2.0386
3.9262 3.7206 2.0386
3.6146 4.0238 2.0386
3.2796 4.3009 2.0386
2.9235 4.5502 2.0386
2.5486 4.7702 2.0386
0.7906 1.8176 0.7471
0.6421 1.8754 0.7473
0.4895 1.9212 0.7474
0.3337 1.9544 0.7474
0.4790 5.3865 2.0386
0.0448 5.4076 2.0386
-0.3896 5.3937 2.0386
-0.3012 1.9597 0.7475
-0.4576 1.9290 0.7474
-0.6110 1.8858 0.7473
-0.7604 1.8304 0.7472
-2.4689 4.8114 2.0386
-2.8474 4.5976 2.0386
-3.2075 4.3542 2.0386
-3.5469 4.0826 2.0386
-3.8634 3.7846 2.0386
-4.1550 3.4622 2.0386
-4.4198 3.1174 2.0386
-4.6560 2.7525 2.0386
-4.8622 2.3698 2.0386
-5.0370 1.9717 2.0386
-5.1793 1.5609 2.0386
-5.2882 1.1399 2.0386
-4.9620 0.6584 1.8862
-4.9990 0.2578 1.8862
-5.0038 -0.1445 1.8862
-4.9763 -0.5459 1.8862
-4.9166 -0.9438 1.8862
-4.8251 -1.3357 1.8862
-4.7025 -1.7189 1.8862
-4.5495 -2.0911 1.8862
-4.3670 -2.4498 1.8862
-4.2021 -2.8234 1.9070
-4.1984 -3.3400 2.0208
-3.9514 -3.6989 2.0386
-3.6417 -4.0044 2.0386
-3.3085 -4.2840 2.0386
-2.9539 -4.5360 2.0386
-2.5802 -4.7587 2.0386
-2.1897 -4.9507 2.0386
-0.6478 -1.8544 0.7397
-0.4967 -1.9003 0.7396
-0.3425 -1.9339 0.7396
-0.1861 -1.9550 0.7395
-0.0285 -1.9636 0.7395
0.1293 -1.9596 0.7395
0.2863 -1.9429 0.7395
0.4414 -1.9138 0.7396
0.5937 -1.8724 0.7397
0.7422 -1.8189 0.7398
2.4413 -4.8320 2.0386
2.8214 -4.6203 2.0386
3.1833 -4.3787 2.0386
3.5245 -4.1088 2.0386
3.8430 -3.8124 2.0386
4.1366 -3.4914 2.0386
4.4035 -3.1479 2.0386
4.6419 -2.7840 2.0386
4.8503 -2.4022 2.0386
5.0273 -2.0048 2.0386
5.1719 -1.5946 2.0386
5.2830 -1.1740 2.0386
5.3600 -0.7460 2.0386
5.4024 -0.3131 2.0386
5.4098 0.1218 2.0386
5.3823 0.5558 2.0386
5.3201 0.9862 2.0386
5.2234 1.4102 2.0386
5.0931 1.8250 2.0386
4.9299 2.2281 2.0386
4.7348 2.6166 2.0386
4.5092 2.9883 2.0386
4.2544 3.3407 2.0386
3.9723 3.6714 2.0386
3.6644 3.9784 2.0386
3.3330 4.2597 2.0386
2.9800 4.5135 2.0386
2.6078 4.7381 2.0386
2.2188 4.9321 2.0386
0.6655 1.8672 0.7472
0.5134 1.9149 0.7473
0.3580 1.9501 0.7474
0.2002 1.9726 0.7475
0.1122 5.4066 2.0386
-0.3224 5.3981 2.0386
-0.2768 1.9633 0.7475
-0.4335 1.9346 0.7474
-0.5874 1.8933 0.7473
-0.7375 1.8398 0.7472
-2.4088 4.8418 2.0386
-2.7899 4.6327 2.0386
-3.1530 4.3938 2.0386
-3.4958 4.1264 2.0386
-3.8160 3.8325 2.0386
-4.1115 3.5137 2.0386
-4.3806 3.1723 2.0386
-4.6214 2.8103 2.0386
-4.8323 2.4302 2.0386
-5.0120 2.0343 2.0386
-5.1594 1.6253 2.0386
-5.2735 1.2057 2.0386
-4.9533 0.7202 1.8862
-4.9954 0.3201 1.8862
-5.0052 -0.0821 1.8862
-4.9827 -0.4839 1.8862
-4.9279 -0.8825 1.8862
-4.8414 -1.2754 1.8862
-4.7235 -1.6602 1.8862
-4.5751 -2.0342 1.8862
-4.3972 -2.3952 1.8862
-4.2080 -2.7519 1.8940
-4.1998 -3.2565 2.0018
-3.9971 -3.6493 2.0386
-3.6913 -3.9587 2.0386
-3.3616 -4.2425 2.0386
-3.0101 -4.4988 2.0386
-2.6392 -4.7262 2.0386
-2.2512 -4.9230 2.0386
-0.6708 -1.8463 0.7398
-0.5203 -1.8939 0.7397
-0.3665 -1.9295 0.7396
-0.2104 -1.9526 0.7395
-0.0529 -1.9631 0.7395
0.1049 -1.9610 0.7395
0.2620 -1.9463 0.7395
0.4175 -1.9191 0.7396
0.5703 -1.8796 0.7397
0.7195 -1.8280 0.7398
2.3809 -4.8620 2.0386
2.7636 -4.6551 2.0386
3.1285 -4.4180 2.0386
3.4731 -4.1524 2.0386
3.7952 -3.8600 2.0386
4.0928 -3.5427 2.0386
4.3639 -3.2025 2.0386
4.6069 -2.8416 2.0386
4.8200 -2.4624 2.0386
5.0020 -2.0673 2.0386
5.1517 -1.6589 2.0386
5.2680 -1.2398 2.0386
5.3503 -0.8127 2.0386
5.3981 -0.3804 2.0386
5.4110 0.0543 2.0386
5.3889 0.4887 2.0386
5.3320 0.9198 2.0386
5.2407 1.3450 2.0386
5.1155 1.7614 2.0386
4.9573 2.1665 2.0386
4.7671 2.5575 2.0386
4.5461 2.9319 2.0386
4.2958 3.2874 2.0386
4.0177 3.6216 2.0386
3.7138 3.9325 2.0386
3.3858 4.2179 2.0386
3.0360 4.4760 2.0386
2.6667 4.7052 2.0386
2.2801 4.9041 2.0386
0.6887 1.8588 0.7472
0.5372 1.9083 0.7473
0.3823 1.9455 0.7474
0.2248 1.9700 0.7475
0.1796 5.4048 2.0386
-0.2551 5.4017 2.0386
-0.2523 1.9666 0.7475
-0.4094 1.9399 0.7474
-0.5638 1.9005 0.7473
-0.7145 1.8489 0.7472
-2.3482 4.8714 2.0386
-2.7319 4.6671 2.0386
-3.0980 4.4327 2.0386
-3.4440 4.1697 2.0386
-3.7679 3.8797 2.0386
-4.0674 3.5647 2.0386
-4.3407 3.2266 2.0386
-4.5860 2.8677 2.0386
-4.8016 2.4902 2.0386
-4.9863 2.0966 2.0386
-5.1388 1.6894 2.0386
-5.2581 1.2713 2.0386
-4.9788 0.7873 1.8995
-4.9910 0.3823 1.8862
-5.0058 -0.0198 1.8862
-4.9883 -0.4217 1.8862
-4.9385 -0.8210 1.8862
-4.8568 -1.2150 1.8862
-4.7438 -1.6012 1.8862
-4.6001 -1.9771 1.8862
-4.4267 -2.3402 1.8862
-4.2246 -2.6882 1.8862
-4.2006 -3.1741 1.9832
-4.0423 -3.5992 2.0386
-3.7403 -3.9123 2.0386
-3.4142 -4.2002 2.0386
-3.0660 -4.4610 2.0386
-2.6979 -4.6929 2.0386
-2.3124 -4.8945 2.0386
-0.6938 -1.8378 0.7398
-0.5439 -1.8873 0.7397
-0.3906 -1.9248 0.7396
-0.2347 -1.9498 0.7395
-0.0774 -1.9623 0.7395
0.0804 -1.9622 0.7395
0.2377 -1.9494 0.7395
0.3936 -1.9242 0.7396
0.5468 -1.8865 0.7396
0.6967 -1.8368 0.7397
2.3202 -4.8913 2.0386
2.7054 -4.6892 2.0386
-0.7206 1.6756 0.7469
-2.3280 4.4008 2.0386
-2.6739 4.1997 2.0386
-3.0026 3.9714 2.0386
-3.3120 3.7175 2.0386
-3.5999 3.4396 2.0386
-3.8646 3.1395 2.0386
-4.1044 2.8190 2.0386
-4.3177 2.4804 2.0386
-4.5031 2.1257 2.0386
-4.6594 1.7572 2.0386
-4.7857 1.3774 2.0386
-4.8810 0.9887 2.0386
-4.6638 0.5598 1.9228
-4.6047 0.1799 1.8862
-4.6045 -0.1905 1.8862
-4.5745 -0.5596 1.8862
-4.5150 -0.9252 1.8862
-4.4263 -1.2849 1.8862
-4.3192 -1.6402 1.8907
-4.1803 -1.9849 1.8937
-4.1750 -2.4110 1.9728
-4.1005 -2.8300 2.0386
-3.8601 -3.1502 2.0386
-3.5948 -3.4502 2.0386
-3.3062 -3.7278 2.0386
-2.9963 -3.9814 2.0386
-2.6670 -4.2093 2.0386
-2.3204 -4.4100 2.0386
-0.7112 -1.6636 0.7401
-0.5752 -1.7151 0.7400
-0.4356 -1.7556 0.7399
-0.2932 -1.7848 0.7399
-0.1489 -1.8025 0.7398
-0.0037 -1.8086 0.7398
0.1416 -1.8031 0.7398
0.2859 -1.7859 0.7399
0.4284 -1.7573 0.7399
0.5682 -1.7174 0.7400
0.7044 -1.6665 0.7401
2.3026 -4.4198 2.0386
2.6501 -4.2205 2.0386
2.9804 -3.9940 2.0386
3.2914 -3.7417 2.0386
3.5812 -3.4652 2.0386
3.8478 -3.1664 2.0386
4.0895 -2.8471 2.0386
4.3048 -2.5094 2.0386
4.4922 -2.1556 2.0386
4.6507 -1.7878 2.0386
4.7790 -1.4085 2.0386
4.8765 -1.0201 2.0386
4.9425 -0.6252 2.0386
4.9765 -0.2263 2.0386
4.9784 0.1741 2.0386
4.9481 0.5733 2.0386
4.8859 0.9688 2.0386
4.7921 1.3580 2.0386
4.6674 1.7384 2.0386
4.5125 2.1075 2.0386
4.3285 2.4630 2.0386
4.1166 2.8025 2.0386
3.8780 3.1240 2.0386
3.6145 3.4252 2.0386
3.3276 3.7043 2.0386
3.0193 3.9594 2.0386
2.6915 4.1890 2.0386
2.3463 4.3915 2.0386
0.7275 1.6726 0.7468
0.5909 1.7259 0.7470
0.4505 1.7679 0.7470
0.3070 1.7985 0.7471
0.1616 1.8174 0.7472
0.0151 1.8246 0.7472
-0.1315 1.8199 0.7472
-0.2772 1.8034 0.7471
-0.4211 1.7752 0.7471
-0.5622 1.7354 0.7470
-0.6997 1.6845 0.7469
-2.2729 4.4294 2.0386
-2.6214 4.2326 2.0386
-2.9529 4.0085 2.0386
-3.2654 3.7585 2.0386
-3.5568 3.4842 2.0386
-3.8252 3.1874 2.0386
-4.0689 2.8699 2.0386
-4.2864 2.5340 2.0386
-4.4762 2.1816 2.0386
-4.6371 1.8151 2.0386
-4.7681 1.4369 2.0386
-4.8683 1.0494 2.0386
-4.7351 0.6283 1.9553
-4.6021 0.2373 1.8862
-4.6065 -0.1331 1.8862
-4.5811 -0.5026 1.8862
-4.5262 -0.8689 1.8862
-4.4419 -1.2296 1.8862
-4.3290 -1.5824 1.8862
-4.1881 -1.9251 1.8862
-4.1751 -2.3422 1.9589
-4.1354 -2.7787 2.0386
-3.8990 -3.1019 2.0386
-3.6375 -3.4051 2.0386
-3.3524 -3.6863 2.0386
-3.0457 -3.9438 2.0386
-2.7192 -4.1757 2.0386
-2.3752 -4.3807 2.0386
-0.7318 -1.6546 0.7401
-0.5965 -1.7078 0.7400
-0.4574 -1.7500 0.7399
-0.3154 -1.7810 0.7399
-0.1713 -1.8005 0.7398
-0.0262 -1.8084 0.7398
0.1191 -1.8047 0.7398
0.2636 -1.7894 0.7398
0.4065 -1.7625 0.7399
0.5468 -1.7244 0.7400
0.6836 -1.6751 0.7401
2.2474 -4.4481 2.0386
2.5973 -4.2532 2.0386
2.9304 -4.0309 2.0386
3.2445 -3.7825 2.0386
3.5377 -3.5096 2.0386
3.8080 -3.2141 2.0386
4.0537 -2.8978 2.0386
4.2732 -2.5629 2.0386
4.4650 -2.2114 2.0386
4.6280 -1.8456 2.0386
4.7611 -1.4679 2.0386
4.8634 -1.0808 2.0386
4.9343 -0.6867 2.0386
4.9733 -0.2883 2.0386
4.9802 0.1121 2.0386
4.9549 0.5116 2.0386
4.8976 0.9078 2.0386
4.8087 1.2982 2.0386
4.6887 1.6801 2.0386
4.5384 2.0511 2.0386
4.3589 2.4089 2.0386
4.1512 2.7510 2.0386
3.9167 3.0754 2.0386
3.6569 3.3799 2.0386
3.3735 3.6626 2.0386
3.0684 3.9215 2.0386
2.7435 4.1552 2.0386
2.4008 4.3619 2.0386
0.7483 1.6634 0.7468
0.6124 1.7183 0.7469
0.4725 1.7621 0.7470
0.3294 1.7945 0.7471
0.1843 1.8153 0.7472
0.0379 1.8243 0.7472
-0.1088 1.8214 0.7472
-0.2547 1.8067 0.7471
-0.3989 1.7803 0.7471
-0.5406 1.7423 0.7470
-0.6787 1.6931 0.7469
-2.2176 4.4574 2.0386
-2.5684 4.2650 2.0386
-2.9027 4.0450 2.0386
-3.2183 3.7989 2.0386
-3.5130 3.5282 2.0386
-3.7852 3.2348 2.0386
-4.0328 2.9204 2.0386
-4.2545 2.5872 2.0386
-4.4487 2.2372 2.0386
-4.6141 1.8728 2.0386
-4.7498 1.4962 2.0386
-4.8548 1.1100 2.0386
-4.8088 0.6991 1.9891
-4.5988 0.2946 1.8862
-4.6078 -0.0757 1.8862
-4.5870 -0.4455 1.8862
-4.5366 -0.8124 1.8862
-4.4569 -1.1742 1.8862
-4.3484 -1.5284 1.8862
-4.2118 -1.8727 1.8862
-4.1752 -2.2743 1.9455
-4.1697 -2.7269 2.0386
-3.9374 -3.0530 2.0386
-3.6796 -3.3595 2.0386
-3.3981 -3.6443 2.0386
-3.0946 -3.9055 2.0386
-2.7710 -4.1415 2.0386
-2.4296 -4.3508 2.0386
-0.7524 -1.6454 0.7402
-0.6178 -1.7003 0.7400
-0.4792 -1.7442 0.7400
-0.3376 -1.7769 0.7399
-0.1938 -1.7982 0.7398
-0.0487 -1.8079 0.7398
0.0966 -1.8060 0.7398
0.2413 -1.7925 0.7398
0.3845 -1.7674 0.7399
0.5252 -1.7310 0.7400
0.6626 -1.6834 0.7401
2.1918 -4.4758 2.0386
2.5441 -4.2853 2.0386
2.8799 -4.0671 2.0386
3.1972 -3.8226 2.0386
3.4937 -3.5534 2.0386
3.7677 -3.2613 2.0386
4.0173 -2.9481 2.0386
4.2409 -2.6159 2.0386
4.4372 -2.2669 2.0386
4.6047 -1.9032 2.0386
4.7425 -1.5272 2.0386
4.8496 -1.1413 2.0386
4.9254 -0.7482 2.0386
4.9694 -0.3502 2.0386
4.9813 0.0500 2.0386
4.9609 0.4498 2.0386
4.9086 0.8467 2.0386
4.8245 1.2382 2.0386
4.7093 1.6215 2.0386
4.5637 1.9944 2.0386
4.3886 2.3544 2.0386
4.1852 2.6991 2.0386
3.9547 3.0264 2.0386
3.6988 3.3341 2.0386
3.4189 3.6202 2.0386
3.1170 3.8830 2.0386
2.7950 4.1207 2.0386
2.4550 4.3317 2.0386
0.7690 1.6539 0.7468
0.6337 1.7105 0.7469
0.4944 1.7561 0.7470
0.3518 1.7903 0.7471
0.2069 1.8128 0.7471
0.0606 1.8236 0.7472
-0.0861 1.8226 0.7472
-0.2322 1.8097 0.7471
-0.3767 1.7851 0.7471
-0.5188 1.7490 0.7470
-0.6575 1.7014 0.7469
-2.1618 4.4847 2.0386
-2.5151 4.2966 2.0386
-2.8521 4.0808 2.0386
-3.1707 3.8387 2.0386
-3.4688 3.5717 2.0386
-3.7445 3.2817 2.0386
-3.9961 2.9704 2.0386
-4.2219 2.6400 2.0386
-4.4204 2.2925 2.0386
-4.5904 1.9301 2.0386
-4.7308 1.5553 2.0386
-4.8406 1.1704 2.0386
-4.9124 0.7768 2.0359
-4.5947 0.3519 1.8862
-4.6083 -0.0182 1.8862
-4.5922 -0.3883 1.8862
-4.5463 -0.7558 1.8862
-4.4711 -1.1185 1.8862
-4.3671 -1.4741 1.8862
-4.2348 -1.8201 1.8862
-4.1751 -2.2073 1.9325
-4.1743 -2.6562 2.0246
-3.9751 -3.0037 2.0386
-3.7212 -3.3134 2.0386
-3.4432 -3.6016 2.0386
-3.1430 -3.8666 2.0386
-2.8224 -4.1066 2.0386
-2.4836 -4.3201 2.0386
-0.7729 -1.6359 0.7402
-0.6389 -1.6925 0.7401
-0.5009 -1.7381 0.7400
-0.3597 -1.7726 0.7399
-0.2162 -1.7957 0.7398
-0.0713 -1.8072 0.7398
0.0741 -1.8071 0.7398
0.2190 -1.7953 0.7398
0.3624 -1.7721 0.7399
0.5036 -1.7374 0.7399
0.6416 -1.6915 0.7400
0.7754 -1.6348 0.7401
2.4905 -4.3167 2.0386
-0.6663 1.5491 0.7466
-2.1531 4.0701 2.0386
-2.4731 3.8841 2.0386
-2.7771 3.6730 2.0386
-3.0631 3.4382 2.0386
-3.3295 3.1812 2.0386
-3.5743 2.9036 2.0386
-3.7960 2.6072 2.0386
-3.9933 2.2940 2.0386
-4.1647 1.9659 2.0386
-4.3093 1.6252 2.0386
-4.4261 1.2739 2.0386
-4.5143 0.9143 2.0386
-4.5733 0.5489 2.0386
-4.3513 0.1700 1.9273
-4.2585 -0.1762 1.8862
-4.2307 -0.5176 1.8862
-4.1757 -0.8557 1.8862
-4.1341 -1.2001 1.9049
-4.1417 -1.5728 1.9604
-4.1476 -1.9694 2.0316
-3.9900 -2.3042 2.0386
-3.7922 -2.6173 2.0386
-3.5700 -2.9135 2.0386
-3.3246 -3.1909 2.0386
-3.0577 -3.4476 2.0386
-2.7711 -3.6822 2.0386
-2.4665 -3.8929 2.0386
-0.7795 -1.4814 0.7405
-0.6579 -1.5390 0.7404
-0.5321 -1.5867 0.7403
-0.4030 -1.6242 0.7402
-0.2712 -1.6512 0.7401
-0.1378 -1.6676 0.7401
-0.0034 -1.6732 0.7401
0.1310 -1.6681 0.7401
0.2645 -1.6523 0.7401
0.3964 -1.6258 0.7402
0.5257 -1.5889 0.7402
0.6517 -1.5417 0.7403
0.7735 -1.4846 0.7405
2.4508 -3.9033 2.0386
2.7563 -3.6938 2.0386
3.0440 -3.4604 2.0386
3.3119 -3.2047 2.0386
3.5585 -2.9284 2.0386
3.7821 -2.6331 2.0386
3.9812 -2.3208 2.0386
4.1545 -1.9936 2.0386
4.3011 -1.6534 2.0386
4.4198 -1.3027 2.0386
4.5100 -0.9435 2.0386
4.5710 -0.5782 2.0386
4.6025 -0.2093 2.0386
4.6042 0.1610 2.0386
4.5763 0.5302 2.0386
4.5187 0.8960 2.0386
4.4320 1.2559 2.0386
4.3166 1.6077 2.0386
4.1734 1.9491 2.0386
4.0032 2.2779 2.0386
3.8072 2.5919 2.0386
3.5866 2.8892 2.0386
3.3429 3.1678 2.0386
3.0776 3.4259 2.0386
2.7924 3.6619 2.0386
2.4892 3.8743 2.0386
0.7946 1.4872 0.7465
0.6727 1.5464 0.7466
0.5464 1.5956 0.7467
0.4165 1.6345 0.7468
0.2839 1.6628 0.7468
0.1494 1.6803 0.7469
0.0140 1.6869 0.7469
-0.1215 1.6825 0.7469
-0.2563 1.6673 0.7469
-0.3893 1.6412 0.7468
-0.5198 1.6045 0.7467
-0.6469 1.5574 0.7466
-0.7698 1.5002 0.7465
-2.4245 3.9146 2.0386
-2.7311 3.7073 2.0386
-3.0200 3.4761 2.0386
-3.2895 3.2224 2.0386
-3.5378 2.9479 2.0386
-3.7632 2.6543 2.0386
-3.9644 2.3436 2.0386
-4.1399 2.0177 2.0386
-4.2887 1.6787 2.0386
-4.4098 1.3289 2.0386
-4.5025 0.9705 2.0386
-4.5661 0.6058 2.0386
-4.3807 0.2259 1.9414
-4.2603 -0.1231 1.8862
-4.2368 -0.4649 1.8862
-4.1860 -0.8036 1.8862
-4.1350 -1.1447 1.8986
-4.1407 -1.5136 1.9508
-4.1468 -1.9061 2.0194
-4.0184 -2.2543 2.0386
-3.8245 -2.5698 2.0386
-3.6060 -2.8687 2.0386
-3.3641 -3.1492 2.0386
-3.1004 -3.4093 2.0386
-2.8167 -3.6473 2.0386
-2.5148 -3.8618 2.0386
-2.1966 -4.0514 2.0386
-0.6770 -1.5307 0.7404
-0.5519 -1.5800 0.7403
-0.4232 -1.6190 0.7402
-0.2918 -1.6477 0.7401
-0.1585 -1.6657 0.7401
-0.0243 -1.6731 0.7401
0.1102 -1.6696 0.7401
0.2439 -1.6554 0.7401
0.3761 -1.6306 0.7402
0.5058 -1.5953 0.7402
0.6324 -1.5497 0.7403
0.7549 -1.4941 0.7404
2.4020 -3.9335 2.0386
2.7101 -3.7279 2.0386
3.0006 -3.4981 2.0386
3.2718 -3.2458 2.0386
3.5217 -2.9725 2.0386
3.7490 -2.6800 2.0386
3.9520 -2.3702 2.0386
4.1294 -2.0452 2.0386
4.2802 -1.7069 2.0386
4.4032 -1.3576 2.0386
4.4979 -0.9996 2.0386
4.5635 -0.6351 2.0386
4.5995 -0.2666 2.0386
4.6059 0.1036 2.0386
4.5825 0.4731 2.0386
4.5296 0.8396 2.0386
4.4473 1.2006 2.0386
4.3364 1.5538 2.0386
4.1974 1.8970 2.0386
4.0313 2.2278 2.0386
3.8393 2.5443 2.0386
3.6224 2.8443 2.0386
3.3822 3.1259 2.0386
3.1201 3.3873 2.0386
2.8379 3.6269 2.0386
2.5373 3.8430 2.0386
2.2205 4.0342 2.0386
0.6919 1.5379 0.7466
0.5662 1.5887 0.7467
0.4368 1.6292 0.7468
0.3046 1.6591 0.7468
0.1703 1.6783 0.7469
0.0350 1.6866 0.7469
-0.1006 1.6839 0.7469
-0.2355 1.6703 0.7469
-0.3688 1.6459 0.7468
-0.4998 1.6109 0.7468
-0.6275 1.5653 0.7467
-0.7511 1.5097 0.7466
-2.3755 3.9445 2.0386
-2.6846 3.7411 2.0386
-2.9765 3.5134 2.0386
-3.2491 3.2631 2.0386
-3.5008 2.9917 2.0386
-3.7298 2.7010 2.0386
-3.9348 2.3928 2.0386
-4.1144 2.0691 2.0386
-4.2674 1.7320 2.0386
-4.3929 1.3838 2.0386
-4.4900 1.0265 2.0386
-4.5581 0.6627 2.0386
-4.4164 0.2829 1.9587
-4.2615 -0.0700 1.8862
-4.2423 -0.4120 1.8862
-4.1956 -0.7514 1.8862
-4.1375 -1.0901 1.8934
-4.1396 -1.4550 1.9416
-4.1460 -1.8435 2.0077
-4.0462 -2.2040 2.0386
-3.8562 -2.5219 2.0386
-3.6414 -2.8236 2.0386
-3.4030 -3.1070 2.0386
-3.1426 -3.3703 2.0386
-2.8619 -3.6119 2.0386
-2.5627 -3.8302 2.0386
-2.2469 -4.0237 2.0386
-0.6961 -1.5222 0.7404
-0.5715 -1.5730 0.7403
-0.4433 -1.6137 0.7402
-0.3123 -1.6439 0.7402
-0.1793 -1.6636 0.7401
-0.0451 -1.6726 0.7401
0.0894 -1.6709 0.7401
0.2233 -1.6583 0.7401
0.3557 -1.6351 0.7402
0.4859 -1.6014 0.7402
0.6130 -1.5574 0.7403
0.7362 -1.5034 0.7404
2.3528 -3.9631 2.0386
2.6634 -3.7613 2.0386
2.9568 -3.5353 2.0386
3.2311 -3.2863 2.0386
3.4844 -3.0162 2.0386
3.7153 -2.7265 2.0386
3.9221 -2.4193 2.0386
4.1036 -2.0965 2.0386
4.2586 -1.7601 2.0386
4.3860 -1.4124 2.0386
4.4851 -1.0556 2.0386
4.5552 -0.6920 2.0386
4.5959 -0.3239 2.0386
4.6069 0.0462 2.0386
4.5881 0.4160 2.0386
4.5397 0.7831 2.0386
4.4620 1.1451 2.0386
4.3554 1.4997 2.0386
4.2207 1.8445 2.0386
4.0588 2.1774 2.0386
3.8707 2.4963 2.0386
3.6576 2.7990 2.0386
3.4209 3.0836 2.0386
3.1621 3.3482 2.0386
2.8829 3.5912 2.0386
2.5850 3.8111 2.0386
2.2706 4.0062 2.0386
0.7110 1.5291 0.7466
0.5859 1.5815 0.7467
0.4571 1.6236 0.7468
0.3252 1.6552 0.7468
0.1912 1.6760 0.7469
0.0560 1.6860 0.7469
-0.0796 1.6850 0.7469
-0.2146 1.6732 0.7469
-0.3483 1.6504 0.7468
-0.4797 1.6170 0.7468
-0.6079 1.5731 0.7467
-0.7322 1.5190 0.7466
-2.3261 3.9738 2.0386
-2.6378 3.7742 2.0386
-2.9325 3.5503 2.0386
-3.2082 3.3033 2.0386
-3.4632 3.0351 2.0386
-3.6959 2.7472 2.0386
-3.9047 2.4416 2.0386
-4.0883 2.1202 2.0386
-4.2455 1.7851 2.0386
-4.3753 1.4384 2.0386
-4.4769 1.0824 2.0386
-4.5495 0.7194 2.0386
-4.4532 0.3410 1.9767
-4.2725 -0.0169 1.8909
-4.2470 -0.3591 1.8862
-4.2047 -0.6991 1.8862
-4.1399 -1.0357 1.8884
-4.1384 -1.3969 1.9327
-4.1451 -1.7816 1.9964
-4.0733 -2.1534 2.0386
-3.8873 -2.4737 2.0386
-3.6763 -2.7780 2.0386
-3.4415 -3.0643 2.0386
-3.1844 -3.3309 2.0386
-2.9067 -3.5760 2.0386
-2.6102 -3.7979 2.0386
-2.2969 -3.9954 2.0386
-0.7150 -1.5135 0.7404
-0.5911 -1.5658 0.7403
-0.4634 -1.6080 0.7402
-0.3328 -1.6399 0.7402
-0.2000 -1.6613 0.7401
-0.0659 -1.6719 0.7401
0.0685 -1.6718 0.7401
0.2026 -1.6610 0.7401
0.3353 -1.6394 0.7401
0.4659 -1.6073 0.7402
0.5935 -1.5649 0.7403
0.7174 -1.5124 0.7404
2.3033 -3.9922 2.0386
-0.6184 1.4379 0.7464
-0.7318 1.3834 0.7463
-2.2962 3.6063 2.0386
-2.5785 3.4103 2.0386
-2.8441 3.1923 2.0386
-3.0913 2.9536 2.0386
-3.3187 2.6959 2.0386
-3.5245 2.4207 2.0386
-3.7077 2.1299 2.0386
-3.8669 1.8253 2.0386
-4.0011 1.5089 2.0386
-4.1095 1.1827 2.0386
-4.1914 0.8489 2.0386
-4.2462 0.5096 2.0386
-4.2735 0.1669 2.0386
-4.1824 -0.1731 1.9953
-4.1129 -0.5032 1.9750
-4.1001 -0.8403 1.9948
-4.1078 -1.1925 2.0386
-3.9990 -1.5186 2.0386
-3.8642 -1.8349 2.0386
-3.7045 -2.1394 2.0386
-3.5209 -2.4300 2.0386
-3.3145 -2.7050 2.0386
-3.0867 -2.9626 2.0386
-2.8389 -3.2010 2.0386
-2.5728 -3.4187 2.0386
-2.2900 -3.6144 2.0386
-0.7239 -1.3758 0.7407
-0.6110 -1.4293 0.7406
-0.4942 -1.4736 0.7405
-0.3742 -1.5084 0.7404
-0.2519 -1.5335 0.7404
-0.1279 -1.5487 0.7403
-0.0032 -1.5540 0.7403
0.1216 -1.5493 0.7403
0.2457 -1.5345 0.7404
0.3681 -1.5100 0.7404
0.4882 -1.4756 0.7405
0.6052 -1.4318 0.7406
0.7183 -1.3788 0.7407
2.2754 -3.6239 2.0386
2.5591 -3.4295 2.0386
2.8261 -3.2128 2.0386
3.0749 -2.9755 2.0386
3.3039 -2.7189 2.0386
3.5114 -2.4447 2.0386
3.6963 -2.1548 2.0386
3.8573 -1.8509 2.0386
3.9933 -1.5352 2.0386
4.1036 -1.2095 2.0386
4.1873 -0.8760 2.0386
4.2440 -0.5369 2.0386
4.2732 -0.1943 2.0386
4.2749 0.1495 2.0386
4.2489 0.4923 2.0386
4.1955 0.8318 2.0386
4.1149 1.1660 2.0386
4.0079 1.4927 2.0386
3.8749 1.8097 2.0386
3.7169 2.1149 2.0386
3.5349 2.4065 2.0386
3.3301 2.6825 2.0386
3.1038 2.9412 2.0386
2.8575 3.1809 2.0386
2.5927 3.4000 2.0386
2.3112 3.5972 2.0386
0.7375 1.3804 0.7463
0.6244 1.4354 0.7464
0.5071 1.4811 0.7465
0.3866 1.5171 0.7465
0.2635 1.5434 0.7466
0.1387 1.5596 0.7466
0.0130 1.5657 0.7466
-0.1128 1.5617 0.7466
-0.2379 1.5475 0.7466
-0.3614 1.5233 0.7466
-0.4825 1.4893 0.7465
-0.6005 1.4455 0.7464
-0.7145 1.3925 0.7463
-2.2511 3.6347 2.0386
-2.5358 3.4422 2.0386
-2.8041 3.2275 2.0386
-3.0543 2.9919 2.0386
-3.2848 2.7370 2.0386
-3.4941 2.4644 2.0386
-3.6808 2.1759 2.0386
-3.8438 1.8733 2.0386
-3.9820 1.5586 2.0386
-4.0944 1.2338 2.0386
-4.1804 0.9011 2.0386
-4.2394 0.5624 2.0386
-4.2711 0.2202 2.0386
-4.1997 -0.1214 2.0027
-4.1208 -0.4521 1.9759
-4.0994 -0.7870 1.9895
-4.1076 -1.1371 2.0314
-4.0176 -1.4687 2.0386
-3.8868 -1.7866 2.0386
-3.7309 -2.0930 2.0386
-3.5509 -2.3860 2.0386
-3.3479 -2.6635 2.0386
-3.1233 -2.9239 2.0386
-2.8786 -3.1653 2.0386
-2.6151 -3.3864 2.0386
-2.3348 -3.5855 2.0386
-0.7410 -1.3667 0.7407
-0.6288 -1.4216 0.7406
-0.5125 -1.4674 0.7405
-0.3930 -1.5037 0.7404
-0.2710 -1.5303 0.7404
-0.1472 -1.5470 0.7403
-0.0225 -1.5538 0.7403
0.1023 -1.5506 0.7403
0.2265 -1.5375 0.7404
0.3493 -1.5144 0.7404
0.4698 -1.4816 0.7405
0.5873 -1.4392 0.7405
0.7011 -1.3876 0.7407
2.2301 -3.6520 2.0386
2.5161 -3.4611 2.0386
2.7859 -3.2478 2.0386
3.0376 -3.0136 2.0386
3.2697 -2.7598 2.0386
3.4807 -2.4883 2.0386
3.6692 -2.2007 2.0386
3.8339 -1.8989 2.0386
3.9739 -1.5848 2.0386
4.0882 -1.2605 2.0386
4.1761 -0.9281 2.0386
4.2370 -0.5897 2.0386
4.2705 -0.2476 2.0386
4.2764 0.0962 2.0386
4.2547 0.4393 2.0386
4.2055 0.7795 2.0386
4.1292 1.1147 2.0386
4.0262 1.4426 2.0386
3.8972 1.7612 2.0386
3.7430 2.0685 2.0386
3.5647 2.3623 2.0386
3.3633 2.6408 2.0386
3.1403 2.9023 2.0386
2.8969 3.1451 2.0386
2.6349 3.3674 2.0386
2.3559 3.5681 2.0386
0.7547 1.3711 0.7462
0.6422 1.4275 0.7464
0.5255 1.4746 0.7465
0.4054 1.5122 0.7465
0.2827 1.5400 0.7466
0.1581 1.5577 0.7466
0.0325 1.5654 0.7466
-0.0933 1.5630 0.7466
-0.2186 1.5504 0.7466
-0.3423 1.5277 0.7466
-0.4639 1.4952 0.7465
-0.5824 1.4529 0.7464
-0.6972 1.4013 0.7463
-2.2056 3.6624 2.0386
-2.4926 3.4735 2.0386
-2.7636 3.2622 2.0386
-3.0168 3.0297 2.0386
-3.2504 2.7777 2.0386
-3.4631 2.5078 2.0386
-3.6534 2.2216 2.0386
-3.8201 1.9211 2.0386
-3.9622 1.6081 2.0386
-4.0787 1.2848 2.0386
-4.1689 0.9531 2.0386
-4.2321 0.6152 2.0386
-4.2680 0.2734 2.0386
-4.2171 -0.0693 2.0104
-4.1293 -0.4011 1.9775
-4.0997 -0.7343 1.9851
-4.1064 -1.0819 2.0239
-4.0355 -1.4185 2.0386
-3.9087 -1.7380 2.0386
-3.7567 -2.0464 2.0386
-3.5803 -2.3415 2.0386
-3.3809 -2.6216 2.0386
-3.1595 -2.8847 2.0386
-2.9178 -3.1292 2.0386
-2.6571 -3.3535 2.0386
-2.3793 -3.5561 2.0386
-0.7580 -1.3574 0.7407
-0.6465 -1.4137 0.7406
-0.5308 -1.4609 0.7405
-0.4117 -1.4987 0.7405
-0.2900 -1.5268 0.7404
-0.1665 -1.5451 0.7404
-0.0419 -1.5534 0.7403
0.0830 -1.5518 0.7403
0.2073 -1.5402 0.7404
0.3304 -1.5186 0.7404
0.4513 -1.4873 0.7405
0.5693 -1.4464 0.7405
0.6837 -1.3962 0.7406
2.1844 -3.6795 2.0386
2.4728 -3.4922 2.0386
2.7452 -3.2823 2.0386
2.9999 -3.0512 2.0386
3.2351 -2.8004 2.0386
3.4494 -2.5315 2.0386
3.6415 -2.2462 2.0386
3.8100 -1.9465 2.0386
3.9539 -1.6342 2.0386
4.0722 -1.3114 2.0386
4.1642 -0.9801 2.0386
4.2293 -0.6425 2.0386
4.2671 -0.3008 2.0386
4.2773 0.0429 2.0386
4.2599 0.3862 2.0386
4.2149 0.7270 2.0386
4.1428 1.0631 2.0386
4.0439 1.3924 2.0386
3.9188 1.7125 2.0386
3.7685 2.0217 2.0386
3.5938 2.3177 2.0386
3.3960 2.5987 2.0386
3.1762 2.8630 2.0386
2.9359 3.1087 2.0386
2.6767 3.3344 2.0386
2.4002 3.5385 2.0386
0.7717 1.3616 0.7462
0.6599 1.4193 0.7463
0.5439 1.4679 0.7464
0.4243 1.5070 0.7465
0.3019 1.5363 0.7466
0.1775 1.5556 0.7466
0.0520 1.5649 0.7466
-0.0739 1.5640 0.7466
-0.1992 1.5530 0.7466
-0.3233 1.5319 0.7466
-0.4452 1.5009 0.7465
-0.5643 1.4601 0.7464
-0.6796 1.4099 0.7464
-2.1598 3.6895 2.0386
-2.4492 3.5043 2.0386
-2.7227 3.2963 2.0386
-2.9787 3.0671 2.0386
-3.2155 2.8180 2.0386
-3.4316 2.5507 2.0386
-3.6254 2.2669 2.0386
-3.7959 1.9685 2.0386
-3.9418 1.6574 2.0386
-4.0624 1.3355 2.0386
-4.1566 1.0050 2.0386
-4.2241 0.6679 2.0386
-4.2642 0.3265 2.0386
-4.2368 -0.0168 2.0195
-4.1378 -0.3499 1.9793
-4.1000 -0.6817 1.9810
-4.1050 -1.0270 2.0168
-4.0529 -1.3681 2.0386
-3.9301 -1.6892 2.0386
-3.7819 -1.9994 2.0386
-3.6092 -2.2967 2.0386
-3.4132 -2.5792 2.0386
-3.1952 -2.8451 2.0386
-2.9565 -3.0926 2.0386
-2.6987 -3.3201 2.0386
-2.4234 -3.5262 2.0386
-0.7749 -1.3479 0.7408
-0.6640 -1.4056 0.7406
-0.5490 -1.4542 0.7405
-0.4304 -1.4934 0.7405
-0.3090 -1.5231 0.7404
-0.1857 -1.5429 0.7404
-0.0612 -1.5528 0.7403
0.0637 -1.5527 0.7403
0.1881 -1.5426 0.7403
0.3114 -1.5226 0.7404
0.4327 -1.4928 0.7404
0.5512 -1.4534 0.7405
0.6662 -1.4046 0.7406
0.7770 -1.3467 0.7407
-0.5760 1.3392 0.7462
-0.6816 1.2884 0.7461
-2.1391 3.3595 2.0386
-2.4020 3.1769 2.0386
-2.6494 2.9738 2.0386
-2.8798 2.7515 2.0386
-3.0915 2.5114 2.0386
-3.2833 2.2550 2.0386
-3.4539 1.9841 2.0386
-3.6022 1.7003 2.0386
-3.7273 1.4056 2.0386
-3.8282 1.1017 2.0386
-3.9045 0.7908 2.0386
-3.9555 0.4747 2.0386
-3.9810 0.1555 2.0386
-3.9808 -0.1647 2.0386
-3.9548 -0.4839 2.0386
-3.9033 -0.8000 2.0386
-3.8266 -1.1109 2.0386
-3.7252 -1.4147 2.0386
-3.5997 -1.7093 2.0386
-3.4509 -1.9929 2.0386
-3.2798 -2.2637 2.0386
-3.0876 -2.5199 2.0386
-2.8753 -2.7597 2.0386
-2.6445 -2.9818 2.0386
-2.3966 -3.1846 2.0386
-0.7754 -1.2238 0.7410
-0.6745 -1.2820 0.7409
-0.5693 -1.3318 0.7408
-0.4605 -1.3731 0.7407
-0.3487 -1.4055 0.7406
-0.2347 -1.4289 0.7406
-0.1192 -1.4431 0.7406
-0.0029 -1.4480 0.7405
0.1133 -1.4436 0.7406
0.2289 -1.4299 0.7406
0.3430 -1.4070 0.7406
0.4549 -1.3750 0.7407
0.5639 -1.3341 0.7408
0.6693 -1.2847 0.7409
0.7704 -1.2270 0.7410
2.3838 -3.1947 2.0386
2.6326 -2.9929 2.0386
2.8644 -2.7717 2.0386
3.0776 -2.5327 2.0386
3.2710 -2.2773 2.0386
3.4432 -2.0073 2.0386
3.5932 -1.7242 2.0386
3.7199 -1.4301 2.0386
3.8226 -1.1267 2.0386
3.9006 -0.8161 2.0386
3.9534 -0.5002 2.0386
3.9807 -0.1811 2.0386
3.9822 0.1392 2.0386
3.9580 0.4585 2.0386
3.9083 0.7749 2.0386
3.8333 1.0862 2.0386
3.7335 1.3905 2.0386
3.6097 1.6858 2.0386
3.4625 1.9701 2.0386
3.2930 2.2418 2.0386
3.1022 2.4989 2.0386
2.8914 2.7399 2.0386
2.6619 2.9632 2.0386
2.4153 3.1673 2.0386
0.7878 1.2261 0.7459
0.6869 1.2856 0.7461
0.5815 1.3368 0.7462
0.4723 1.3793 0.7463
0.3600 1.4129 0.7463
0.2454 1.4373 0.7464
0.1292 1.4524 0.7464
0.0121 1.4581 0.7464
-0.1051 1.4544 0.7464
-0.2215 1.4412 0.7464
-0.3365 1.4187 0.7464
-0.4494 1.3870 0.7463
-0.5592 1.3463 0.7462
-0.6655 1.2968 0.7461
-0.7674 1.2390 0.7460
-2.3622 3.2066 2.0386
-2.6122 3.0066 2.0386
-2.8453 2.7871 2.0386
-3.0600 2.5497 2.0386
-3.2550 2.2957 2.0386
-3.4289 2.0270 2.0386
-3.5807 1.7451 2.0386
-3.7094 1.4519 2.0386
-3.8142 1.1494 2.0386
-3.8943 0.8394 2.0386
-3.9493 0.5239 2.0386
-3.9787 0.2051 2.0386
-3.9825 -0.1151 2.0386
-3.9605 -0.4346 2.0386
-3.9130 -0.7513 2.0386
-3.8402 -1.0631 2.0386
-3.7425 -1.3681 2.0386
-3.6207 -1.6643 2.0386
-3.4755 -1.9498 2.0386
-3.3078 -2.2226 2.0386
-3.1187 -2.4812 2.0386
-2.9095 -2.7237 2.0386
-2.6815 -2.9486 2.0386
-2.4361 -3.1545 2.0386
-2.1750 -3.3400 2.0386
-0.6904 -1.2735 0.7409
-0.5859 -1.3246 0.7408
-0.4776 -1.3673 0.7407
-0.3662 -1.4011 0.7406
-0.2525 -1.4259 0.7406
-0.1372 -1.4415 0.7406
-0.0210 -1.4479 0.7405
0.0953 -1.4449 0.7405
0.2111 -1.4326 0.7406
0.3254 -1.4111 0.7406
0.4377 -1.3805 0.7407
0.5472 -1.3410 0.7407
0.6532 -1.2929 0.7408
0.7550 -1.2365 0.7410
2.3438 -3.2241 2.0386
2.5951 -3.0254 2.0386
2.8296 -2.8072 2.0386
3.0459 -2.5709 2.0386
3.2424 -2.3179 2.0386
3.4180 -2.0500 2.0386
3.5714 -1.7689 2.0386
3.7018 -1.4763 2.0386
3.8083 -1.1742 2.0386
3.8902 -0.8646 2.0386
3.9469 -0.5494 2.0386
3.9781 -0.2306 2.0386
3.9837 0.0896 2.0386
3.9635 0.4092 2.0386
3.9176 0.7261 2.0386
3.8465 1.0383 2.0386
3.7506 1.3439 2.0386
3.6304 1.6407 2.0386
3.4868 1.9269 2.0386
3.3207 2.2006 2.0386
3.1331 2.4601 2.0386
2.9253 2.7037 2.0386
2.6987 2.9298 2.0386
2.4546 3.1370 2.0386
2.1947 3.3239 2.0386
0.7028 1.2769 0.7460
0.5981 1.3294 0.7462
0.4894 1.3733 0.7462
0.3776 1.4083 0.7463
0.2633 1.4342 0.7464
0.1473 1.4507 0.7464
0.0303 1.4579 0.7464
-0.0869 1.4556 0.7464
-0.2035 1.4439 0.7464
-0.3188 1.4228 0.7464
-0.4320 1.3925 0.7463
-0.5424 1.3531 0.7462
-0.6493 1.3051 0.7461
-0.7519 1.2485 0.7460
-2.3221 3.2358 2.0386
-2.5745 3.0389 2.0386
-2.8103 2.8224 2.0386
-3.0280 2.5876 2.0386
-3.2261 2.3361 2.0386
-3.4034 2.0695 2.0386
-3.5587 1.7896 2.0386
-3.6910 1.4980 2.0386
-3.7995 1.1968 2.0386
-3.8835 0.8878 2.0386
-3.9424 0.5731 2.0386
-3.9758 0.2546 2.0386
-3.9836 -0.0655 2.0386
-3.9656 -0.3852 2.0386
-3.9220 -0.7024 2.0386
-3.8531 -1.0152 2.0386
-3.7593 -1.3214 2.0386
-3.6411 -1.6191 2.0386
-3.4995 -1.9063 2.0386
-3.3352 -2.1812 2.0386
-3.1494 -2.4421 2.0386
-2.9432 -2.6872 2.0386
-2.7180 -2.9150 2.0386
-2.4752 -3.1239 2.0386
-2.2164 -3.3127 2.0386
-0.7063 -1.2648 0.7409
-0.6024 -1.3173 0.7408
-0.4946 -1.3612 0.7407
-0.3836 -1.3964 0.7407
-0.2703 -1.4227 0.7406
-0.1551 -1.4397 0.7406
-0.0390 -1.4475 0.7405
0.0773 -1.4460 0.7405
0.1932 -1.4351 0.7406
0.3078 -1.4150 0.7406
0.4205 -1.3859 0.7407
0.5305 -1.3477 0.7407
0.6371 -1.3009 0.7408
0.7396 -1.2458 0.7409
2.3035 -3.2531 2.0386
2.5572 -3.0576 2.0386
2.7944 -2.8423 2.0386
3.0136 -2.6086 2.0386
3.2133 -2.3582 2.0386
3.3922 -2.0925 2.0386
3.5491 -1.8133 2.0386
3.6832 -1.5223 2.0386
3.7934 -1.2216 2.0386
3.8791 -0.9130 2.0386
3.9398 -0.5985 2.0386
3.9750 -0.2802 2.0386
3.9845 0.0399 2.0386
3.9683 0.3598 2.0386
3.9264 0.6772 2.0386
3.8592 0.9903 2.0386
3.7671 1.2970 2.0386
3.6506 1.5953 2.0386
3.5106 1.8833 2.0386
3.3479 2.1590 2.0386
3.1636 2.4209 2.0386
2.9588 2.6670 2.0386
2.7350 2.8959 2.0386
2.4935 3.1061 2.0386
2.2359 3.2963 2.0386
0.7187 1.2680 0.7460
0.6146 1.3218 0.7461
0.5065 1.3671 0.7462
0.3951 1.4035 0.7463
0.2811 1.4307 0.7464
0.1653 1.4488 0.7464
0.0484 1.4574 0.7464
-0.0688 1.4566 0.7464
-0.1855 1.4463 0.7464
-0.3011 1.4267 0.7464
-0.4147 1.3978 0.7463
-0.5255 1.3598 0.7462
-0.6330 1.3131 0.7462
-0.7363 1.2578 0.7460
-2.2816 3.2645 2.0386
-2.5364 3.0707 2.0386
-2.7749 2.8572 2.0386
-2.9955 2.6251 2.0386
-3.1967 2.3761 2.0386
-3.3773 2.1118 2.0386
-3.5361 1.8338 2.0386
-3.6721 1.5439 2.0386
-3.7843 1.2441 2.0386
-3.8721 0.9361 2.0386
-3.9349 0.6222 2.0386
-3.9723 0.3042 2.0386
-3.9841 -0.0158 2.0386
-3.9701 -0.3358 2.0386
-3.9304 -0.6535 2.0386
-3.8654 -0.9671 2.0386
-3.7754 -1.2744 2.0386
-3.6610 -1.5736 2.0386
-3.5229 -1.8625 2.0386
-3.3621 -2.1395 2.0386
-3.1795 -2.4027 2.0386
-2.9764 -2.6503 2.0386
-2.7541 -2.8809 2.0386
-2.5139 -3.0928 2.0386
-2.2575 -3.2848 2.0386
-0.7220 -1.2559 0.7410
-0.6187 -1.3097 0.7408
-0.5115 -1.3550 0.7407
-0.4010 -1.3916 0.7407
-0.2880 -1.4192 0.7406
-0.1731 -1.4377 0.7406
-0.0571 -1.4469 0.7405
0.0593 -1.4468 0.7405
0.1753 -1.4374 0.7406
0.2902 -1.4188 0.7406
0.4032 -1.3910 0.7407
0.5136 -1.3542 0.7407
0.6208 -1.3088 0.7408
0.7240 -1.2548 0.7409
-0.5379 1.2507 0.7460
-0.6366 1.2033 0.7459
-0.7311 1.1482 0.7458
-2.2440 2.9679 2.0386
-2.4751 2.7781 2.0386
-2.6903 2.5704 2.0386
-2.8881 2.3461 2.0386
-3.0673 2.1066 2.0386
-3.2266 1.8535 2.0386
-3.3652 1.5884 2.0386
-3.4820 1.3131 2.0386
-3.5763 1.0292 2.0386
-3.6475 0.7387 2.0386
-3.6952 0.4434 2.0386
-3.7190 0.1452 2.0386
-3.7188 -0.1539 2.0386
-3.6945 -0.4521 2.0386
-3.6464 -0.7473 2.0386
-3.5748 -1.0378 2.0386
-3.4800 -1.3216 2.0386
-3.3627 -1.5968 2.0386
-3.2238 -1.8618 2.0386
-3.0639 -2.1147 2.0386
-2.8843 -2.3540 2.0386
-2.6860 -2.5781 2.0386
-2.4704 -2.7855 2.0386
-2.2388 -2.9750 2.0386
-0.7245 -1.1435 0.7412
-0.6302 -1.1978 0.7411
-0.5320 -1.2444 0.7410
-0.4303 -1.2830 0.7409
-0.3258 -1.3133 0.7408
-0.2193 -1.3352 0.7408
-0.1114 -1.3485 0.7407
-0.0027 -1.3530 0.7407
0.1059 -1.3489 0.7407
0.2139 -1.3361 0.7408
0.3205 -1.3147 0.7408
0.4251 -1.2848 0.7409
0.5269 -1.2466 0.7409
0.6254 -1.2004 0.7410
0.7199 -1.1465 0.7411
2.2269 -2.9844 2.0386
2.4593 -2.7958 2.0386
2.6758 -2.5893 2.0386
2.8750 -2.3660 2.0386
3.0557 -2.1274 2.0386
3.2165 -1.8751 2.0386
3.3566 -1.6107 2.0386
3.4750 -1.3360 2.0386
3.5710 -1.0525 2.0386
3.6439 -0.7624 2.0386
3.6932 -0.4673 2.0386
3.7187 -0.1692 2.0386
3.7201 0.1300 2.0386
3.6975 0.4283 2.0386
3.6510 0.7239 2.0386
3.5810 1.0147 2.0386
3.4878 1.2989 2.0386
3.3721 1.5748 2.0386
3.2346 1.8405 2.0386
3.0763 2.0942 2.0386
2.8981 2.3345 2.0386
2.7011 2.5596 2.0386
2.4868 2.7681 2.0386
2.2564 2.9589 2.0386
0.7358 1.1452 0.7458
0.6415 1.2007 0.7459
0.5431 1.2485 0.7460
0.4411 1.2882 0.7461
0.3362 1.3196 0.7461
0.2292 1.3424 0.7462
0.1206 1.3565 0.7462
0.0113 1.3618 0.7462
-0.0981 1.3583 0.7462
-0.2069 1.3460 0.7462
-0.3143 1.3250 0.7462
-0.4197 1.2954 0.7461
-0.5223 1.2574 0.7460
-0.6215 1.2112 0.7459
-0.7167 1.1572 0.7458
-2.2068 2.9956 2.0386
-2.4403 2.8087 2.0386
-2.6580 2.6037 2.0386
-2.8586 2.3819 2.0386
-3.0408 2.1447 2.0386
-3.2033 1.8936 2.0386
-3.3451 1.6302 2.0386
-3.4653 1.3564 2.0386
-3.5632 1.0737 2.0386
-3.6380 0.7841 2.0386
-3.6894 0.4894 2.0386
-3.7169 0.1916 2.0386
-3.7204 -0.1076 2.0386
-3.6999 -0.4060 2.0386
-3.6554 -0.7018 2.0386
-3.5874 -0.9932 2.0386
-3.4962 -1.2781 2.0386
-3.3824 -1.5548 2.0386
-3.2467 -1.8215 2.0386
-3.0900 -2.0764 2.0386
-2.9134 -2.3179 2.0386
-2.7179 -2.5444 2.0386
-2.5049 -2.7545 2.0386
-2.2757 -2.9469 2.0386
-0.7387 -1.1344 0.7412
-0.6451 -1.1899 0.7411
-0.5474 -1.2377 0.7410
-0.4462 -1.2776 0.7409
-0.3422 -1.3092 0.7408
-0.2359 -1.3324 0.7408
-0.1282 -1.3470 0.7408
-0.0196 -1.3529 0.7407
0.0891 -1.3501 0.7407
0.1972 -1.3386 0.7408
0.3041 -1.3185 0.7408
0.4090 -1.2900 0.7409
0.5113 -1.2531 0.7409
0.6104 -1.2081 0.7410
0.7055 -1.1553 0.7411
2.1895 -3.0119 2.0386
2.4243 -2.8263 2.0386
2.6433 -2.6224 2.0386
2.8453 -2.4016 2.0386
3.0289 -2.1654 2.0386
3.1929 -1.9151 2.0386
3.3363 -1.6525 2.0386
3.4582 -1.3792 2.0386
3.5576 -1.0970 2.0386
3.6341 -0.8077 2.0386
3.6871 -0.5132 2.0386
3.7163 -0.2155 2.0386
3.7215 0.0836 2.0386
3.7026 0.3822 2.0386
3.6598 0.6783 2.0386
3.5934 0.9700 2.0386
3.5038 1.2554 2.0386
3.3915 1.5327 2.0386
3.2573 1.8000 2.0386
3.1022 2.0557 2.0386
2.9270 2.2981 2.0386
2.7328 2.5257 2.0386
2.5211 2.7370 2.0386
2.2931 2.9305 2.0386
0.7500 1.1359 0.7458
0.6564 1.1926 0.7459
0.5586 1.2416 0.7460
0.4571 1.2826 0.7461
0.3527 1.3153 0.7461
0.2459 1.3394 0.7462
0.1375 1.3549 0.7462
0.0283 1.3616 0.7462
-0.0812 1.3595 0.7462
-0.1901 1.3485 0.7462
-0.2978 1.3288 0.7462
-0.4035 1.3005 0.7461
-0.5066 1.2638 0.7461
-0.6064 1.2189 0.7460
-0.7023 1.1661 0.7459
-2.1693 3.0229 2.0386
-2.4051 2.8389 2.0386
-2.6254 2.6366 2.0386
-2.8287 2.4173 2.0386
-3.0138 2.1824 2.0386
-3.1794 1.9333 2.0386
-3.3245 1.6718 2.0386
-3.4481 1.3994 2.0386
-3.5495 1.1180 2.0386
-3.6279 0.8294 2.0386
-3.6830 0.5354 2.0386
-3.7142 0.2379 2.0386
-3.7214 -0.0612 2.0386
-3.7046 -0.3599 2.0386
-3.6639 -0.6562 2.0386
-3.5995 -0.9484 2.0386
-3.5118 -1.2344 2.0386
-3.4015 -1.5125 2.0386
-3.2691 -1.7808 2.0386
-3.1157 -2.0377 2.0386
-2.9421 -2.2814 2.0386
-2.7494 -2.5103 2.0386
-2.5390 -2.7231 2.0386
-2.3122 -2.9183 2.0386
-0.7528 -1.1251 0.7412
-0.6599 -1.1818 0.7411
-0.5628 -1.2308 0.7410
-0.4621 -1.2719 0.7409
-0.3585 -1.3048 0.7408
-0.2525 -1.3293 0.7408
-0.1450 -1.3453 0.7408
-0.0365 -1.3525 0.7407
0.0723 -1.3511 0.7407
0.1805 -1.3410 0.7408
0.2876 -1.3222 0.7408
0.3929 -1.2949 0.7408
0.4957 -1.2593 0.7409
0.5953 -1.2156 0.7410
0.6910 -1.1640 0.7411
0.7824 -1.1049 0.7412
2.3889 -2.8563 2.0386
2.6105 -2.6552 2.0386
2.8152 -2.4369 2.0386
3.0017 -2.2029 2.0386
3.1688 -1.9547 2.0386
3.3155 -1.6939 2.0386
3.4407 -1.4222 2.0386
3.5437 -1.1412 2.0386
3.6238 -0.8529 2.0386
3.6804 -0.5592 2.0386
3.7133 -0.2618 2.0386
3.7222 0.0373 2.0386
3.7071 0.3360 2.0386
3.6680 0.6326 2.0386
3.6052 0.9251 2.0386
3.5191 1.2116 2.0386
3.4104 1.4903 2.0386
3.2795 1.7593 2.0386
3.1276 2.0169 2.0386
2.9554 2.2615 2.0386
2.7641 2.4915 2.0386
2.5550 2.7053 2.0386
2.3294 2.9017 2.0386
0.7641 1.1264 0.7457
0.6712 1.1843 0.7459
0.5740 1.2346 0.7460
0.4731 1.2768 0.7461
0.3690 1.3108 0.7461
0.2626 1.3363 0.7462
0.1544 1.3531 0.7462
0.0452 1.3611 0.7462
-0.0642 1.3604 0.7462
-0.1733 1.3508 0.7462
-0.2812 1.3324 0.7462
-0.3873 1.3055 0.7461
-0.4908 1.2700 0.7461
-0.5912 1.2264 0.7460
-0.6877 1.1748 0.7459
-2.1314 3.0497 2.0386
-2.3695 2.8687 2.0386
-2.5923 2.6691 2.0386
-2.7984 2.4524 2.0386
-2.9864 2.2198 2.0386
-3.1551 1.9728 2.0386
-3.3034 1.7131 2.0386
-3.4304 1.4423 2.0386
-3.5353 1.1622 2.0386
-3.6173 0.8745 2.0386
-3.6760 0.5812 2.0386
-3.7109 0.2841 2.0386
-3.7219 -0.0148 2.0386
-3.7088 -0.3137 2.0386
-3.6717 -0.6105 2.0386
-3.6110 -0.9035 2.0386
-3.5269 -1.1906 2.0386
-3.4200 -1.4700 2.0386
-3.2910 -1.7400 2.0386
-3.1408 -1.9987 2.0386
-2.9702 -2.2445 2.0386
-2.7805 -2.4759 2.0386
-2.5728 -2.6912 2.0386
-2.3484 -2.8892 2.0386
-0.7668 -1.1157 0.7412
-0.6746 -1.1735 0.7411
-0.5781 -1.2238 0.7410
-0.4779 -1.2661 0.7409
-0.3747 -1.3003 0.7409
-0.2691 -1.3261 0.7408
-0.1617 -1.3434 0.7408
-0.0533 -1.3520 0.7407
0.0554 -1.3519 0.7407
0.1638 -1.3431 0.7408
0.2711 -1.3257 0.7408
0.3767 -1.2997 0.7408
0.4799 -1.2654 0.7409
0.5801 -1.2229 0.7410
0.6765 -1.1725 0.7411
-0.5036 1.1710 0.7459
-0.5960 1.1266 0.7458
-0.6845 1.0750 0.7457
-0.7685 1.0164 0.7456
-2.3178 2.6015 2.0386
-2.5193 2.4070 2.0386
-2.7046 2.1970 2.0386
-2.8723 1.9727 2.0386
-3.0216 1.7357 2.0386
-3.1513 1.4875 2.0386
-3.2607 1.2296 2.0386
-3.3490 0.9638 2.0386
-3.4157 0.6917 2.0386
-3.4603 0.4152 2.0386
-3.4826 0.1360 2.0386
-3.4824 -0.1442 2.0386
-3.4597 -0.4234 2.0386
-3.4146 -0.6999 2.0386
-3.3475 -0.9719 2.0386
-3.2588 -1.2376 2.0386
-3.1490 -1.4953 2.0386
-3.0188 -1.7434 2.0386
-2.8691 -1.9803 2.0386
-2.7009 -2.2044 2.0386
-2.5153 -2.4142 2.0386
-2.3133 -2.6085 2.0386
-0.7625 -1.0132 0.7414
-0.6786 -1.0710 0.7413
-0.5903 -1.1219 0.7412
-0.4982 -1.1656 0.7411
-0.4030 -1.2017 0.7411
-0.3052 -1.2301 0.7410
-0.2054 -1.2506 0.7409
-0.1043 -1.2630 0.7409
-0.0026 -1.2673 0.7409
0.0992 -1.2634 0.7409
0.2003 -1.2514 0.7409
0.3002 -1.2314 0.7410
0.3981 -1.2034 0.7410
0.4935 -1.1676 0.7411
0.5857 -1.1243 0.7412
0.6742 -1.0738 0.7413
0.7584 -1.0163 0.7414
2.3029 -2.6181 2.0386
2.5057 -2.4247 2.0386
2.6922 -2.2156 2.0386
2.8614 -1.9922 2.0386
3.0120 -1.7559 2.0386
3.1432 -1.5084 2.0386
3.2541 -1.2510 2.0386
3.3440 -0.9857 2.0386
3.4122 -0.7139 2.0386
3.4584 -0.4376 2.0386
3.4823 -0.1584 2.0386
3.4836 0.1217 2.0386
3.4625 0.4011 2.0386
3.4190 0.6778 2.0386
3.3534 0.9502 2.0386
3.2661 1.2163 2.0386
3.1578 1.4747 2.0386
3.0291 1.7234 2.0386
2.8808 1.9611 2.0386
2.7139 2.1860 2.0386
2.5295 2.3969 2.0386
2.3287 2.5922 2.0386
0.7727 1.0133 0.7455
0.6889 1.0722 0.7456
0.6007 1.1242 0.7457
0.5085 1.1689 0.7458
0.4130 1.2061 0.7459
0.3148 1.2354 0.7460
0.2146 1.2568 0.7460
0.1129 1.2700 0.7460
0.0106 1.2750 0.7461
-0.0919 1.2717 0.7461
-0.1937 1.2602 0.7460
-0.2943 1.2405 0.7460
-0.3929 1.2128 0.7459
-0.4890 1.1772 0.7459
-0.5819 1.1340 0.7458
-0.6710 1.0835 0.7457
-0.7558 1.0259 0.7456
-2.2852 2.6302 2.0386
-2.4891 2.4382 2.0386
-2.6770 2.2305 2.0386
-2.8475 2.0083 2.0386
-2.9997 1.7732 2.0386
-3.1325 1.5266 2.0386
-3.2451 1.2701 2.0386
-3.3367 1.0054 2.0386
-3.4068 0.7342 2.0386
-3.4549 0.4583 2.0386
-3.4806 0.1794 2.0386
-3.4839 -0.1008 2.0386
-3.4647 -0.3802 2.0386
-3.4231 -0.6573 2.0386
-3.3593 -0.9301 2.0386
-3.2739 -1.1969 2.0386
-3.1673 -1.4560 2.0386
-3.0403 -1.7057 2.0386
-2.8937 -1.9444 2.0386
-2.7282 -2.1705 2.0386
-2.5451 -2.3827 2.0386
-2.3457 -2.5794 2.0386
-0.7751 -1.0037 0.7415
-0.6919 -1.0625 0.7413
-0.6042 -1.1145 0.7412
-0.5127 -1.1593 0.7411
-0.4180 -1.1966 0.7411
-0.3205 -1.2262 0.7410
-0.2210 -1.2479 0.7410
-0.1201 -1.2616 0.7409
-0.0184 -1.2672 0.7409
0.0835 -1.2646 0.7409
0.1847 -1.2538 0.7409
0.2848 -1.2350 0.7410
0.3831 -1.2082 0.7410
0.4789 -1.1737 0.7411
0.5717 -1.1315 0.7412
0.6608 -1.0821 0.7413
0.7456 -1.0257 0.7414
2.2701 -2.6466 2.0386
2.4753 -2.4557 2.0386
2.6644 -2.2490 2.0386
2.8364 -2.0277 2.0386
2.9899 -1.7934 2.0386
3.1242 -1.5474 2.0386
3.2383 -1.2915 2.0386
3.3314 -1.0273 2.0386
3.4031 -0.7564 2.0386
3.4527 -0.4806 2.0386
3.4800 -0.2018 2.0386
3.4849 0.0783 2.0386
3.4672 0.3579 2.0386
3.4272 0.6352 2.0386
3.3650 0.9083 2.0386
3.2811 1.1756 2.0386
3.1759 1.4352 2.0386
3.0503 1.6856 2.0386
2.9050 1.9251 2.0386
2.7409 2.1521 2.0386
2.5592 2.3652 2.0386
2.3609 2.5630 2.0386
0.7852 1.0035 0.7455
0.7022 1.0635 0.7456
0.6146 1.1166 0.7457
0.5230 1.1625 0.7458
0.4280 1.2008 0.7459
0.3302 1.2314 0.7460
0.2302 1.2540 0.7460
0.1288 1.2685 0.7460
0.0265 1.2748 0.7461
-0.0760 1.2728 0.7461
-0.1780 1.2625 0.7460
-0.2788 1.2441 0.7460
-0.3778 1.2176 0.7460
-0.4743 1.1832 0.7459
-0.5678 1.1412 0.7458
-0.6575 1.0918 0.7457
-0.7430 1.0353 0.7456
-2.2523 2.6585 2.0386
-2.4585 2.4691 2.0386
-2.6489 2.2637 2.0386
-2.8223 2.0437 2.0386
-2.9774 1.8104 2.0386
-3.1132 1.5655 2.0386
-3.2290 1.3105 2.0386
-3.3239 1.0469 2.0386
-3.3974 0.7766 2.0386
-3.4489 0.5013 2.0386
-3.4781 0.2227 2.0386
-3.4849 -0.0573 2.0386
-3.4691 -0.3370 2.0386
-3.4310 -0.6146 2.0386
-3.3707 -0.8881 2.0386
-3.2886 -1.1560 2.0386
-3.1852 -1.4164 2.0386
-3.0613 -1.6677 2.0386
-2.9176 -1.9082 2.0386
-2.7550 -2.1364 2.0386
-2.5746 -2.3508 2.0386
-2.3776 -2.5500 2.0386
-2.1652 -2.7328 2.0386
-0.7051 -1.0538 0.7414
-0.6181 -1.1069 0.7413
-0.5272 -1.1528 0.7412
-0.4328 -1.1913 0.7411
-0.3358 -1.2222 0.7410
-0.2365 -1.2451 0.7410
-0.1358 -1.2600 0.7409
-0.0341 -1.2668 0.7409
0.0677 -1.2655 0.7409
0.1691 -1.2560 0.7409
0.2694 -1.2384 0.7410
0.3680 -1.2129 0.7410
0.4643 -1.1795 0.7411
0.5575 -1.1385 0.7412
0.6472 -1.0902 0.7413
0.7328 -1.0349 0.7414
2.2370 -2.6747 2.0386
2.4445 -2.4864 2.0386
2.6362 -2.2820 2.0386
2.8109 -2.0629 2.0386
2.9674 -1.8305 2.0386
3.1047 -1.5862 2.0386
3.2220 -1.3318 2.0386
3.3184 -1.0687 2.0386
3.3934 -0.7987 2.0386
3.4465 -0.5236 2.0386
3.4773 -0.2452 2.0386
3.4856 0.0349 2.0386
3.4714 0.3147 2.0386
3.4348 0.5924 2.0386
3.3761 0.8663 2.0386
3.2955 1.1346 2.0386
3.1936 1.3955 2.0386
3.0711 1.6474 2.0386
2.9288 1.8887 2.0386
2.7675 2.1178 2.0386
2.5885 2.3331 2.0386
2.3926 2.5334 2.0386
2.1814 2.7173 2.0386
0.7154 1.0546 0.7456
0.6285 1.1088 0.7457
0.5374 1.1559 0.7458
0.4429 1.1954 0.7459
0.3455 1.2272 0.7460
0.2458 1.2510 0.7460
0.1446 1.2668 0.7460
0.0424 1.2743 0.7461
-0.0601 1.2736 0.7461
-0.1622 1.2646 0.7460
-0.2633 1.2475 0.7460
-0.3626 1.2222 0.7460
-0.4595 1.1891 0.7459
-0.5535 1.1482 0.7458
-0.6438 1.0999 0.7457
-0.7300 1.0445 0.7456
-2.2189 2.6863 2.0386
-2.4276 2.4995 2.0386
-2.6205 2.2965 2.0386
-2.7966 2.0787 2.0386
-2.9546 1.8474 2.0386
-3.0935 1.6042 2.0386
