ply
format ascii 1.0
element vertex 2180
property float32 x
property float32 y
property float32 z
end_header
-0.8031 9.0948 2.0387
-1.5324 9.0007 2.0387
-2.2518 8.8481 2.0387
-2.9566 8.6383 2.0387
-3.6422 8.3724 2.0387
-4.3042 8.0522 2.0387
-4.9384 7.6798 2.0387
-5.5405 7.2576 2.0387
-6.1067 6.7883 2.0387
-6.6333 6.2750 2.0387
-7.1170 5.7210 2.0387
-7.5546 5.1298 2.0387
-7.9431 4.5054 2.0387
-8.2802 3.8517 2.0387
-8.5636 3.1729 2.0387
-8.7915 2.4736 2.0387
-8.9624 1.7581 2.0387
-9.0752 1.0312 2.0387
-9.1292 0.2975 2.0387
-9.1239 -0.4381 2.0387
-8.3822 -1.0834 1.8863
-8.2682 -1.7546 1.8863
-8.1005 -2.4144 1.8863
-7.8803 -3.0585 1.8863
-7.6089 -3.6829 1.8863
-6.9074 -4.0597 1.7877
-6.9201 -4.8563 1.8863
-6.5071 -5.3976 1.8863
-6.0518 -5.9040 1.8863
-5.5573 -6.3721 1.8863
-5.0266 -6.7988 1.8863
-4.8240 -7.7617 2.0387
-4.1838 -8.1250 2.0387
-3.5165 -8.4355 2.0387
-2.8263 -8.6914 2.0387
-2.1178 -8.8908 2.0387
-1.3955 -9.0325 2.0387
-0.6641 -9.1156 2.0387
0.0716 -9.1396 2.0387
0.8069 -9.1042 2.0387
1.5369 -9.0098 2.0387
2.2570 -8.8569 2.0387
2.9624 -8.6465 2.0387
3.6486 -8.3800 2.0387
4.3110 -8.0591 2.0387
4.9455 -7.6859 2.0387
5.1332 -6.7200 1.8863
5.6572 -6.2850 1.8863
6.1444 -5.8092 1.8863
6.5918 -5.2958 1.8863
6.9964 -4.7480 1.8863
7.3546 -4.1689 1.8860
7.6699 -3.5652 1.8870
7.9348 -2.9375 1.8877
8.1473 -2.2899 1.8882
8.3059 -1.6270 1.8885
8.4096 -0.9533 1.8885
8.4577 -0.2734 1.8883
8.2308 0.3974 1.8389
8.3862 1.0862 1.8871
8.2672 1.7566 1.8862
8.0989 2.4162 1.8863
7.8779 3.0600 1.8863
7.6058 3.6839 1.8863
7.2843 4.2839 1.8863
6.9157 4.8560 1.8863
6.7180 5.5757 1.9489
6.5352 6.3790 2.0387
6.0004 6.8840 2.0387
5.4268 7.3443 2.0387
4.8180 7.7570 2.0387
4.1780 8.1193 2.0387
3.5109 8.4290 2.0387
2.8212 8.6840 2.0387
2.1131 8.8827 2.0387
1.3914 9.0238 2.0387
0.6606 9.1064 2.0387
-0.0744 9.1299 2.0387
-0.8089 9.0943 2.0387
-1.5381 8.9997 2.0387
-2.2574 8.8467 2.0387
-2.9620 8.6364 2.0387
-3.6475 8.3701 2.0387
-4.3093 8.0495 2.0387
-4.9432 7.6767 2.0387
-5.5450 7.2541 2.0387
-6.1110 6.7845 2.0387
-6.6373 6.2709 2.0387
-7.1206 5.7165 2.0387
-7.5578 5.1251 2.0387
-7.9460 4.5004 2.0387
-8.2826 3.8465 2.0387
-8.5656 3.1676 2.0387
-8.7931 2.4680 2.0387
-8.9636 1.7525 2.0387
-9.0759 1.0255 2.0387
-9.1294 0.2918 2.0387
-9.1236 -0.4439 2.0387
-8.3815 -1.0887 1.8863
-8.2671 -1.7598 1.8863
-8.0990 -2.4195 1.8863
-7.8784 -3.0635 1.8863
-7.6066 -3.6877 1.8863
-6.9086 -4.0663 1.7887
-6.9170 -4.8607 1.8863
-6.5037 -5.4017 1.8863
-6.0481 -5.9078 1.8863
-5.5533 -6.3756 1.8863
-5.0224 -6.8020 1.8863
-4.8191 -7.7648 2.0387
-4.1787 -8.1276 2.0387
-3.5112 -8.4377 2.0387
-2.8209 -8.6931 2.0387
-2.1122 -8.8921 2.0387
-1.3898 -9.0334 2.0387
-0.6583 -9.1160 2.0387
0.0774 -9.1395 2.0387
0.8126 -9.1037 2.0387
1.5426 -9.0088 2.0387
2.2625 -8.8555 2.0387
2.9678 -8.6447 2.0387
3.6538 -8.3777 2.0387
4.3161 -8.0564 2.0387
4.9503 -7.6828 2.0387
5.1374 -6.7167 1.8863
5.6611 -6.2814 1.8863
6.1481 -5.8053 1.8863
6.5952 -5.2916 1.8863
6.9994 -4.7436 1.8863
7.3573 -4.1643 1.8860
7.6721 -3.5604 1.8870
7.9366 -2.9325 1.8878
8.1487 -2.2848 1.8883
8.3069 -1.6218 1.8885
8.4102 -0.9480 1.8885
8.4579 -0.2681 1.8883
8.2295 0.4025 1.8387
8.3855 1.0915 1.8871
8.2661 1.7618 1.8862
8.0974 2.4213 1.8863
7.8760 3.0650 1.8863
7.6035 3.6887 1.8863
7.2816 4.2885 1.8863
6.9126 4.8603 1.8863
6.7191 5.5837 1.9502
6.5311 6.3831 2.0387
5.9961 6.8878 2.0387
5.4221 7.3477 2.0387
4.8131 7.7600 2.0387
4.1729 8.1219 2.0387
3.5056 8.4312 2.0387
2.8157 8.6858 2.0387
2.1075 8.8840 2.0387
1.3857 9.0247 2.0387
0.6549 9.1068 2.0387
-0.0801 9.1299 2.0387
-0.8146 9.0938 2.0387
-1.5438 8.9987 2.0387
-2.2629 8.8453 2.0387
-2.9675 8.6345 2.0387
-3.6527 8.3678 2.0387
-4.3143 8.0468 2.0387
-4.9480 7.6736 2.0387
-5.5496 7.2506 2.0387
-6.1152 6.7806 2.0387
-6.6412 6.2667 2.0387
-7.1242 5.7120 2.0387
-7.5610 5.1203 2.0387
-7.9488 4.4954 2.0387
-8.2851 3.8412 2.0387
-8.5676 3.1622 2.0387
-8.7947 2.4625 2.0387
-8.9647 1.7468 2.0387
-9.0765 1.0198 2.0387
-9.1295 0.2860 2.0387
-9.1233 -0.4496 2.0387
-8.3808 -1.0940 1.8863
-8.2660 -1.7650 1.8863
-8.0975 -2.4245 1.8863
-7.8764 -3.0685 1.8863
-7.6043 -3.6925 1.8863
-6.9097 -4.0728 1.7897
-6.9140 -4.8650 1.8863
-6.5003 -5.4058 1.8863
-6.0444 -5.9116 1.8863
-5.5493 -6.3791 1.8863
-5.0181 -6.8052 1.8863
-4.8142 -7.7678 2.0387
-4.1736 -8.1302 2.0387
-3.5059 -8.4400 2.0387
-2.8154 -8.6949 2.0387
-2.1066 -8.8934 2.0387
-1.3841 -9.0343 2.0387
-0.6526 -9.1165 2.0387
0.0831 -9.1395 2.0387
0.8183 -9.1032 2.0387
1.5483 -9.0078 2.0387
2.2681 -8.8541 2.0387
2.9733 -8.6428 2.0387
3.6591 -8.3754 2.0387
4.3212 -8.0537 2.0387
4.9552 -7.6797 2.0387
5.1416 -6.7135 1.8863
5.6651 -6.2779 1.8863
6.1517 -5.8015 1.8863
6.5985 -5.2875 1.8863
7.0024 -4.7392 1.8863
7.3599 -4.1597 1.8861
7.6744 -3.5556 1.8870
7.9385 -2.9275 1.8878
8.1502 -2.2797 1.8883
8.3079 -1.6166 1.8885
8.4108 -0.9427 1.8885
8.4580 -0.2628 1.8883
8.2282 0.4077 1.8384
8.3848 1.0968 1.8871
8.2649 1.7670 1.8862
8.0959 2.4264 1.8863
7.8740 3.0699 1.8863
7.6011 3.6935 1.8863
7.2789 4.2930 1.8863
6.9096 4.8647 1.8863
6.7201 5.5917 1.9515
6.5271 6.3872 2.0387
5.9917 6.8915 2.0387
5.4175 7.3511 2.0387
4.8082 7.7630 2.0387
4.1678 8.1246 2.0387
3.5003 8.4334 2.0387
2.8102 8.6876 2.0387
2.1019 8.8854 2.0387
1.3800 9.0256 2.0387
0.6492 9.1072 2.0387
-0.0858 9.1299 2.0387
-0.8203 9.0933 2.0387
-1.5494 8.9977 2.0387
-2.2685 8.8439 2.0387
-2.9729 8.6327 2.0387
-3.6580 8.3655 2.0387
-4.3194 8.0441 2.0387
-4.9528 7.6705 2.0387
-5.5542 7.2471 2.0387
-6.1195 6.7768 2.0387
-6.6452 6.2625 2.0387
-7.1278 5.7076 2.0387
-7.5642 5.1156 2.0387
-7.9516 4.4904 2.0387
-8.2875 3.8360 2.0387
-8.5696 3.1568 2.0387
-8.7962 2.4570 2.0387
-8.9658 1.7412 2.0387
-9.0772 1.0141 2.0387
-9.1297 0.2803 2.0387
6.2044 5.1428 2.0387
5.7703 5.6252 2.0387
5.2987 6.0712 2.0387
4.7928 6.4777 2.0387
4.2558 6.8422 2.0387
3.6913 7.1624 2.0387
3.1028 7.4360 2.0387
2.4943 7.6614 2.0387
1.8696 7.8372 2.0387
1.2328 7.9621 2.0387
0.5880 8.0354 2.0387
-0.0605 8.0566 2.0387
-0.7087 8.0256 2.0387
-1.3523 7.9425 2.0387
-1.9871 7.8079 2.0387
-2.6090 7.6227 2.0387
-3.2140 7.3881 2.0387
-3.7982 7.1055 2.0387
-4.3578 6.7769 2.0387
-4.8891 6.4043 2.0387
-5.3887 5.9902 2.0387
-5.8534 5.5372 2.0387
-6.2802 5.0483 2.0387
-6.6663 4.5267 2.0387
-7.0092 3.9756 2.0387
-7.3066 3.3987 2.0387
-7.5566 2.7998 2.0387
-7.7577 2.1827 2.0387
-7.3173 1.4354 1.8863
-7.4093 0.8419 1.8863
-7.4533 0.2429 1.8863
-7.4490 -0.3577 1.8863
-7.3963 -0.9560 1.8863
-7.2957 -1.5482 1.8863
-7.1477 -2.1304 1.8863
-6.9534 -2.6988 1.8863
-6.7139 -3.2497 1.8863
-6.4308 -3.7796 1.8863
-6.1060 -4.2850 1.8863
-5.7416 -4.7627 1.8863
-5.3399 -5.2094 1.8863
-4.9035 -5.6224 1.8863
-4.4352 -5.9990 1.8863
-4.2564 -6.8486 2.0387
-3.6916 -7.1691 2.0387
-3.1027 -7.4430 2.0387
-2.4938 -7.6687 2.0387
-1.8686 -7.8447 2.0387
-1.2313 -7.9697 2.0387
-0.5859 -8.0430 2.0387
0.0632 -8.0642 2.0387
0.7120 -8.0330 2.0387
1.3561 -7.9496 2.0387
1.9914 -7.8147 2.0387
2.6138 -7.6291 2.0387
3.2192 -7.3940 2.0387
3.8038 -7.1109 2.0387
4.3636 -6.7816 2.0387
4.8951 -6.4084 2.0387
5.0854 -5.6497 1.9217
5.4215 -5.1257 1.8863
5.8163 -4.6727 1.8863
6.1733 -4.1894 1.8863
6.4902 -3.6789 1.8863
6.7650 -3.1446 1.8863
6.9959 -2.5899 1.8863
7.1814 -2.0185 1.8863
7.3203 -1.4340 1.8863
7.4116 -0.8402 1.8863
7.4549 -0.2410 1.8863
7.4499 0.3597 1.8863
7.3965 0.9580 1.8863
7.2951 1.5501 1.8863
7.1464 2.1320 1.8863
6.9514 2.7001 1.8863
6.7113 3.2507 1.8863
6.4454 3.7905 1.8915
6.5445 4.5953 2.0229
6.2012 5.1467 2.0387
5.7667 5.6289 2.0387
5.2949 6.0745 2.0387
4.7887 6.4807 2.0387
4.2515 6.8449 2.0387
3.6868 7.1647 2.0387
3.0982 7.4380 2.0387
2.4895 7.6630 2.0387
1.8647 7.8384 2.0387
1.2278 7.9629 2.0387
0.5830 8.0358 2.0387
-0.0656 8.0566 2.0387
-0.7138 8.0251 2.0387
-1.3573 7.9416 2.0387
-1.9920 7.8066 2.0387
-2.6138 7.6210 2.0387
-3.2187 7.3860 2.0387
-3.8027 7.1031 2.0387
-4.3620 6.7741 2.0387
-4.8931 6.4012 2.0387
-5.3925 5.9868 2.0387
-5.8569 5.5335 2.0387
-6.2834 5.0444 2.0387
-6.6691 4.5225 2.0387
-7.0117 3.9712 2.0387
-7.3087 3.3941 2.0387
-7.5584 2.7951 2.0387
-7.7591 2.1778 2.0387
-7.3182 1.4308 1.8863
-7.4099 0.8372 1.8863
-7.4535 0.2382 1.8863
-7.4488 -0.3624 1.8863
-7.3957 -0.9607 1.8863
-7.2947 -1.5528 1.8863
-7.1464 -2.1349 1.8863
-6.9516 -2.7032 1.8863
-6.7118 -3.2540 1.8863
-6.4284 -3.7837 1.8863
-6.1033 -4.2889 1.8863
-5.7386 -4.7663 1.8863
-5.3366 -5.2128 1.8863
-4.8999 -5.6255 1.8863
-4.4315 -6.0018 1.8863
-4.2521 -6.8512 2.0387
-3.6870 -7.1714 2.0387
-3.0981 -7.4450 2.0387
-2.4889 -7.6703 2.0387
-1.8636 -7.8459 2.0387
-1.2263 -7.9705 2.0387
-0.5809 -8.0434 2.0387
0.0683 -8.0641 2.0387
0.7170 -8.0325 2.0387
1.3611 -7.9488 2.0387
1.9963 -7.8135 2.0387
2.6186 -7.6275 2.0387
3.2239 -7.3919 2.0387
3.8082 -7.1085 2.0387
4.3679 -6.7789 2.0387
4.8991 -6.4053 2.0387
5.0861 -5.6434 1.9207
5.4247 -5.1223 1.8863
5.8192 -4.6690 1.8863
6.1759 -4.1855 1.8863
6.4925 -3.6748 1.8863
6.7670 -3.1404 1.8863
6.9975 -2.5855 1.8863
7.1826 -2.0140 1.8863
7.3212 -1.4294 1.8863
7.4122 -0.8355 1.8863
7.4551 -0.2363 1.8863
7.4496 0.3644 1.8863
7.3959 0.9627 1.8863
7.2941 1.5547 1.8863
7.1451 2.1365 1.8863
6.9497 2.7045 1.8863
6.7093 3.2549 1.8863
6.4456 3.7960 1.8922
6.5454 4.6021 2.0241
6.1980 5.1506 2.0387
5.7632 5.6325 2.0387
5.2910 6.0778 2.0387
4.7846 6.4837 2.0387
4.2472 6.8476 2.0387
3.6823 7.1670 2.0387
3.0935 7.4399 2.0387
2.4847 7.6646 2.0387
1.8597 7.8395 2.0387
1.2228 7.9637 2.0387
0.5779 8.0361 2.0387
-0.0707 8.0565 2.0387
-0.7188 8.0247 2.0387
-1.3623 7.9408 2.0387
-1.9969 7.8054 2.0387
-2.6186 7.6194 2.0387
-3.2233 7.3840 2.0387
-3.8071 7.1007 2.0387
-4.3663 6.7714 2.0387
-4.8971 6.3982 2.0387
-5.3963 5.9834 2.0387
-5.8604 5.5298 2.0387
-6.2866 5.0404 2.0387
-6.6720 4.5183 2.0387
-7.0142 3.9668 2.0387
-7.3109 3.3895 2.0387
-7.5602 2.7903 2.0387
-7.7605 2.1729 2.0387
-7.3191 1.4262 1.8863
-7.4104 0.8326 1.8863
-7.4536 0.2335 1.8863
-7.4485 -0.3671 1.8863
-7.3951 -0.9654 1.8863
-7.2937 -1.5574 1.8863
-7.1450 -2.1394 1.8863
-6.9500 -2.7076 1.8863
-6.7098 -3.2582 1.8863
-6.4261 -3.7877 1.8863
-6.1006 -4.2927 1.8863
-5.7356 -4.7699 1.8863
-5.3333 -5.2162 1.8863
-4.8964 -5.6286 1.8863
-4.4277 -6.0045 1.8863
-4.2478 -6.8539 2.0387
-3.6825 -7.1737 2.0387
-3.0934 -7.4469 2.0387
-2.4841 -7.6719 2.0387
-1.8587 -7.8470 2.0387
-1.2212 -7.9713 2.0387
-0.5758 -8.0438 2.0387
0.0734 -8.0641 2.0387
0.7221 -8.0321 2.0387
1.3661 -7.9479 2.0387
2.0012 -7.8122 2.0387
2.6234 -7.6258 2.0387
3.2285 -7.3899 2.0387
3.8127 -7.1061 2.0387
4.3721 -6.7761 2.0387
4.9032 -6.4022 2.0387
5.0868 -5.6371 1.9196
5.4279 -5.1189 1.8863
5.8221 -4.6654 1.8863
6.1785 -4.1816 1.8863
6.4948 -3.6708 1.8863
6.7689 -3.1361 1.8863
6.9991 -2.5811 1.8863
7.1839 -2.0094 1.8863
7.3220 -1.4248 1.8863
7.4127 -0.8309 1.8863
7.4552 -0.2316 1.8863
7.4494 0.3691 1.8863
7.3953 0.9673 1.8863
7.2932 1.5592 1.8863
7.1437 2.1410 1.8863
6.9480 2.7089 1.8863
6.7072 3.2591 1.8863
6.4457 3.8016 1.8930
6.5463 4.6089 2.0253
6.1947 5.1545 2.0387
5.7596 5.6361 2.0387
5.2872 6.0812 2.0387
4.7805 6.4868 2.0387
4.2429 6.8502 2.0387
3.6777 7.1693 2.0387
3.0888 7.4419 2.0387
2.4798 7.6661 2.0387
1.8548 7.8407 2.0387
1.2178 7.9644 2.0387
0.5729 8.0365 2.0387
-0.0757 8.0565 2.0387
-0.7239 8.0242 2.0387
-1.3673 7.9399 2.0387
-2.0018 7.8041 2.0387
-2.6234 7.6178 2.0387
-3.2280 7.3820 2.0387
-3.8116 7.0983 2.0387
-4.3705 6.7687 2.0387
-4.9012 6.3951 2.0387
-5.4000 5.9800 2.0387
-5.8639 5.5262 2.0387
-6.2897 5.0365 2.0387
-6.6748 4.5140 2.0387
-7.0167 3.9624 2.0387
-7.3130 3.3850 2.0387
-7.5619 2.7855 2.0387
-7.7618 2.1680 2.0387
-7.3200 1.4216 1.8863
-7.4109 0.8279 1.8863
-7.4538 0.2288 1.8863
5.5433 4.5947 2.0387
5.1554 5.0258 2.0387
4.7341 5.4242 2.0387
4.2821 5.7874 2.0387
3.8023 6.1131 2.0387
3.2980 6.3992 2.0387
2.7722 6.6437 2.0387
2.2285 6.8451 2.0387
1.6704 7.0021 2.0387
1.1015 7.1138 2.0387
0.5254 7.1793 2.0387
-0.0541 7.1982 2.0387
-0.6332 7.1705 2.0387
-1.2082 7.0962 2.0387
-1.7754 6.9760 2.0387
-2.3310 6.8105 2.0387
-2.8716 6.6009 2.0387
-3.3935 6.3484 2.0387
-3.8935 6.0548 2.0387
-4.3682 5.7219 2.0387
-4.8145 5.3519 2.0387
-5.2297 4.9472 2.0387
-5.6110 4.5104 2.0387
-5.9560 4.0443 2.0387
-6.2623 3.5519 2.0387
-6.5280 3.0365 2.0387
-6.7514 2.5014 2.0387
-6.4129 1.8043 1.8863
-6.5375 1.2824 1.8863
-6.6197 0.7521 1.8863
-6.6590 0.2170 1.8863
-6.6551 -0.3196 1.8863
-6.6080 -0.8542 1.8863
-6.5181 -1.3832 1.8863
-6.3858 -1.9033 1.8863
-6.2122 -2.4111 1.8863
-5.9982 -2.9033 1.8863
-5.7453 -3.3767 1.8863
-5.4551 -3.8282 1.8863
-5.1295 -4.2550 1.8863
-4.7706 -4.6541 1.8863
-4.3807 -5.0230 1.8863
-4.2191 -5.7066 2.0085
-3.8026 -6.1184 2.0387
-3.2980 -6.4047 2.0387
-2.7719 -6.6495 2.0387
-2.2279 -6.8511 2.0387
-1.6693 -7.0083 2.0387
-1.1000 -7.1200 2.0387
-0.5235 -7.1855 2.0387
0.0565 -7.2043 2.0387
0.6360 -7.1765 2.0387
1.2115 -7.1020 2.0387
1.7791 -6.9815 2.0387
2.3351 -6.8156 2.0387
2.8768 -6.6040 2.0387
3.3982 -6.3527 2.0387
3.8983 -6.0585 2.0387
4.3732 -5.7251 2.0387
4.8196 -5.3545 2.0387
5.1498 -4.8689 2.0056
5.2484 -4.2165 1.9052
5.5151 -3.7428 1.8863
5.7982 -3.2867 1.8863
6.0438 -2.8094 1.8863
6.2501 -2.3138 1.8863
6.4158 -1.8033 1.8863
6.5399 -1.2811 1.8863
6.6216 -0.7506 1.8863
6.6603 -0.2153 1.8863
6.6558 0.3213 1.8863
6.6081 0.8559 1.8863
6.5176 1.3848 1.8863
6.3848 1.9048 1.8863
6.2219 2.4167 1.8897
6.2990 3.0509 1.9816
6.2067 3.6501 2.0387
5.8926 4.1376 2.0387
5.5404 4.5982 2.0387
5.1522 5.0290 2.0387
4.7306 5.4272 2.0387
4.2784 5.7901 2.0387
3.7985 6.1155 2.0387
3.2939 6.4012 2.0387
2.7680 6.6454 2.0387
2.2242 6.8465 2.0387
1.6660 7.0032 2.0387
1.0970 7.1145 2.0387
0.5209 7.1796 2.0387
-0.0586 7.1982 2.0387
-0.6377 7.1701 2.0387
-1.2127 7.0955 2.0387
-1.7797 6.9749 2.0387
-2.3353 6.8090 2.0387
-2.8757 6.5991 2.0387
-3.3975 6.3463 2.0387
-3.8973 6.0524 2.0387
-4.3717 5.7192 2.0387
-4.8179 5.3489 2.0387
-5.2329 4.9439 2.0387
-5.6139 4.5068 2.0387
-5.9585 4.0405 2.0387
-6.2645 3.5480 2.0387
-6.5299 3.0324 2.0387
-6.7529 2.4972 2.0387
-6.4140 1.8002 1.8863
-6.5383 1.2783 1.8863
-6.6202 0.7480 1.8863
-6.6591 0.2128 1.8863
-6.6549 -0.3238 1.8863
-6.6075 -0.8583 1.8863
-6.5172 -1.3873 1.8863
-6.3846 -1.9074 1.8863
-6.2106 -2.4151 1.8863
-5.9963 -2.9071 1.8863
-5.7431 -3.3804 1.8863
-5.4527 -3.8317 1.8863
-5.1268 -4.2582 1.8863
-4.7676 -4.6571 1.8863
-4.3775 -5.0258 1.8863
-4.2185 -5.7133 2.0099
-3.7987 -6.1208 2.0387
-3.2939 -6.4068 2.0387
-2.7677 -6.6512 2.0387
-2.2236 -6.8525 2.0387
-1.6649 -7.0093 2.0387
-1.0955 -7.1206 2.0387
-0.5189 -7.1858 2.0387
0.0610 -7.2043 2.0387
0.6406 -7.1761 2.0387
1.2160 -7.1012 2.0387
1.7835 -6.9804 2.0387
2.3394 -6.8142 2.0387
2.8805 -6.6031 2.0387
3.4022 -6.3505 2.0387
3.9021 -6.0561 2.0387
4.3768 -5.7224 2.0387
4.8230 -5.3515 2.0387
5.1507 -4.8635 2.0047
5.2491 -4.2117 1.9046
5.5174 -3.7393 1.8863
5.8003 -3.2831 1.8863
6.0455 -2.8056 1.8863
6.2515 -2.3099 1.8863
6.4169 -1.7993 1.8863
6.5407 -1.2770 1.8863
6.6220 -0.7465 1.8863
6.6604 -0.2111 1.8863
6.6556 0.3255 1.8863
6.6076 0.8600 1.8863
6.5167 1.3889 1.8863
6.3836 1.9088 1.8863
6.2221 2.4213 1.8903
6.2997 3.0562 1.9824
6.2044 3.6540 2.0387
5.8900 4.1413 2.0387
5.5375 4.6017 2.0387
5.1490 5.0323 2.0387
4.7272 5.4302 2.0387
4.2748 5.7928 2.0387
3.7946 6.1179 2.0387
3.2899 6.4033 2.0387
2.7639 6.6472 2.0387
2.2199 6.8479 2.0387
1.6616 7.0042 2.0387
1.0925 7.1151 2.0387
0.5164 7.1799 2.0387
-0.0631 7.1981 2.0387
-0.6422 7.1697 2.0387
-1.2171 7.0947 2.0387
-1.7841 6.9738 2.0387
-2.3396 6.8076 2.0387
-2.8799 6.5973 2.0387
-3.4015 6.3442 2.0387
-3.9011 6.0499 2.0387
-4.3753 5.7164 2.0387
-4.8213 5.3458 2.0387
-5.2360 4.9406 2.0387
-5.6167 4.5033 2.0387
-5.9610 4.0368 2.0387
-6.2667 3.5441 2.0387
-6.5318 3.0283 2.0387
-6.7545 2.4929 2.0387
-6.4151 1.7962 1.8863
-6.5391 1.2742 1.8863
-6.6206 0.7438 1.8863
-6.6593 0.2086 1.8863
-6.6547 -0.3280 1.8863
-6.6069 -0.8625 1.8863
-6.5163 -1.3914 1.8863
-6.3834 -1.9114 1.8863
-6.2091 -2.4190 1.8863
-5.9945 -2.9109 1.8863
-5.7410 -3.3840 1.8863
-5.4503 -3.8351 1.8863
-5.1241 -4.2614 1.8863
-4.7647 -4.6601 1.8863
-4.3744 -5.0285 1.8863
-4.2179 -5.7201 2.0114
-3.7949 -6.1232 2.0387
-3.2899 -6.4089 2.0387
-2.7635 -6.6529 2.0387
-2.2193 -6.8539 2.0387
-1.6605 -7.0104 2.0387
-1.0910 -7.1213 2.0387
-0.5144 -7.1861 2.0387
0.0655 -7.2043 2.0387
0.6451 -7.1757 2.0387
1.2204 -7.1005 2.0387
1.7878 -6.9792 2.0387
2.3437 -6.8127 2.0387
2.8843 -6.6020 2.0387
3.4062 -6.3484 2.0387
3.9059 -6.0536 2.0387
4.3804 -5.7196 2.0387
4.8263 -5.3485 2.0387
5.1515 -4.8582 2.0039
5.2499 -4.2068 1.9039
5.5198 -3.7358 1.8863
5.8024 -3.2794 1.8863
6.0473 -2.8018 1.8863
6.2530 -2.3060 1.8863
6.4181 -1.7952 1.8863
6.5415 -1.2729 1.8863
6.6225 -0.7423 1.8863
6.6605 -0.2070 1.8863
6.6554 0.3297 1.8863
6.6070 0.8642 1.8863
6.5158 1.3930 1.8863
6.3824 1.9128 1.8863
6.2223 2.4259 1.8908
6.3004 3.0614 1.9832
6.2021 3.6579 2.0387
5.8874 4.1450 2.0387
5.5346 4.6052 2.0387
5.1459 5.0355 2.0387
4.7238 5.4331 2.0387
4.2711 5.7955 2.0387
3.7908 6.1203 2.0387
3.2859 6.4054 2.0387
2.7597 6.6489 2.0387
2.2156 6.8493 2.0387
1.6572 7.0053 2.0387
1.0880 7.1158 2.0387
0.5118 7.1802 2.0387
-0.0677 7.1981 2.0387
-0.6467 7.1693 2.0387
-1.2216 7.0939 2.0387
-1.7885 6.9726 2.0387
-2.3439 6.8061 2.0387
-2.8840 6.5954 2.0387
-3.4055 6.3420 2.0387
-3.9049 6.0474 2.0387
-4.3789 5.7137 2.0387
-4.8246 5.3428 2.0387
-5.2391 4.9373 2.0387
-5.6195 4.4998 2.0387
-5.9636 4.0330 2.0387
-6.2690 3.5401 2.0387
-6.5337 3.0242 2.0387
-6.7561 2.4887 2.0387
-6.4163 1.7922 1.8863
-6.5399 1.2700 1.8863
-6.6211 0.7396 1.8863
-6.6594 0.2044 1.8863
5.0017 4.1458 2.0387
4.6517 4.5348 2.0387
4.2716 4.8943 2.0387
3.8637 5.2220 2.0387
3.4309 5.5159 2.0387
2.9758 5.7740 2.0387
2.5014 5.9946 2.0387
2.0108 6.1764 2.0387
1.5072 6.3181 2.0387
0.9939 6.4188 2.0387
0.4741 6.4779 2.0387
-0.0488 6.4950 2.0387
-0.5713 6.4700 2.0387
-1.0902 6.4030 2.0387
-1.6019 6.2945 2.0387
-2.1033 6.1452 2.0387
-2.5911 5.9561 2.0387
-3.0620 5.7283 2.0387
-3.5131 5.4633 2.0387
-3.9414 5.1629 2.0387
-4.3442 4.8291 2.0387
-4.7188 4.4639 2.0387
-5.0629 4.0697 2.0387
-5.3741 3.6492 2.0387
-5.6505 3.2049 2.0387
-5.8902 2.7399 2.0387
-5.6364 2.0883 1.8863
-5.7863 1.6280 1.8863
-5.8987 1.1571 1.8863
-5.9729 0.6786 1.8863
-6.0083 0.1958 1.8863
-6.0048 -0.2884 1.8863
-5.9623 -0.7707 1.8863
-5.8811 -1.2481 1.8863
-5.7618 -1.7174 1.8863
-5.6051 -2.1755 1.8863
-5.4120 -2.6196 1.8863
-5.1838 -3.0467 1.8863
-4.9219 -3.4541 1.8863
-4.6281 -3.8391 1.8863
-4.3043 -4.1992 1.8863
-4.2386 -4.8601 2.0228
-3.8639 -5.2263 2.0387
-3.4309 -5.5204 2.0387
-2.9756 -5.7787 2.0387
-2.5010 -5.9995 2.0387
-2.0101 -6.1814 2.0387
-1.5062 -6.3232 2.0387
-0.9924 -6.4240 2.0387
-0.4723 -6.4831 2.0387
0.0510 -6.5001 2.0387
0.5739 -6.4750 2.0387
1.0931 -6.4078 2.0387
1.6052 -6.2990 2.0387
2.1068 -6.1494 2.0387
2.5950 -5.9599 2.0387
3.0660 -5.7317 2.0387
3.5173 -5.4663 2.0387
3.9457 -5.1655 2.0387
4.3485 -4.8311 2.0387
4.7231 -4.4655 2.0387
5.0670 -4.0708 2.0387
5.3069 -3.6015 2.0117
5.3892 -3.0549 1.9431
5.4711 -2.5432 1.8925
5.6392 -2.0877 1.8863
5.7888 -1.6271 1.8863
5.9008 -1.1559 1.8863
5.9745 -0.6773 1.8863
6.0094 -0.1943 1.8863
6.0054 0.2899 1.8863
5.9641 0.7724 1.8869
6.0233 1.2798 1.9320
6.0960 1.8186 1.9960
6.0565 2.3525 2.0387
5.8473 2.8321 2.0387
5.6003 3.2934 2.0387
5.3169 3.7333 2.0387
4.9991 4.1490 2.0387
4.6488 4.5377 2.0387
4.2685 4.8970 2.0387
3.8605 5.2245 2.0387
3.4274 5.5181 2.0387
2.9722 5.7759 2.0387
2.4976 5.9962 2.0387
2.0070 6.1777 2.0387
1.5033 6.3191 2.0387
0.9898 6.4195 2.0387
0.4700 6.4782 2.0387
-0.0529 6.4950 2.0387
-0.5754 6.4697 2.0387
-1.0942 6.4023 2.0387
-1.6059 6.2935 2.0387
-2.1072 6.1439 2.0387
-2.5948 5.9544 2.0387
-3.0656 5.7263 2.0387
-3.5166 5.4611 2.0387
-3.9447 5.1605 2.0387
-4.3473 4.8263 2.0387
-4.7217 4.4609 2.0387
-5.0654 4.0665 2.0387
-5.3764 3.6458 2.0387
-5.6525 3.2014 2.0387
-5.8919 2.7362 2.0387
-5.6377 2.0847 1.8863
-5.7873 1.6243 1.8863
-5.8995 1.1534 1.8863
-5.9733 0.6749 1.8863
-6.0085 0.1920 1.8863
-6.0046 -0.2922 1.8863
-5.9618 -0.7745 1.8863
-5.8803 -1.2518 1.8863
-5.7607 -1.7210 1.8863
-5.6037 -2.1791 1.8863
-5.4103 -2.6230 1.8863
-5.1819 -3.0500 1.8863
-4.9198 -3.4572 1.8863
-4.6257 -3.8420 1.8863
-4.3017 -4.2019 1.8863
-4.2383 -4.8660 2.0241
-3.8606 -5.2287 2.0387
-3.4274 -5.5226 2.0387
-2.9720 -5.7806 2.0387
-2.4972 -6.0011 2.0387
-2.0062 -6.1827 2.0387
-1.5021 -6.3242 2.0387
-0.9884 -6.4246 2.0387
-0.4682 -6.4834 2.0387
0.0551 -6.5001 2.0387
0.5779 -6.4746 2.0387
1.0971 -6.4071 2.0387
1.6091 -6.2980 2.0387
2.1107 -6.1481 2.0387
2.5986 -5.9583 2.0387
3.0696 -5.7298 2.0387
3.5207 -5.4641 2.0387
3.9490 -5.1630 2.0387
4.3516 -4.8284 2.0387
4.7259 -4.4625 2.0387
5.0696 -4.0676 2.0387
5.3076 -3.5971 2.0111
5.3898 -3.0507 1.9427
5.4719 -2.5394 1.8922
5.6405 -2.0842 1.8863
5.7898 -1.6235 1.8863
5.9015 -1.1522 1.8863
5.9749 -0.6735 1.8863
6.0095 -0.1905 1.8863
6.0052 0.2937 1.8863
5.9645 0.7763 1.8871
6.0239 1.2839 1.9325
6.0966 1.8229 1.9966
6.0550 2.3563 2.0387
5.8455 2.8358 2.0387
5.5982 3.2969 2.0387
5.3146 3.7366 2.0387
4.9965 4.1521 2.0387
4.6460 4.5406 2.0387
4.2654 4.8996 2.0387
3.8572 5.2269 2.0387
3.4239 5.5202 2.0387
2.9685 5.7777 2.0387
2.4939 5.9978 2.0387
2.0031 6.1789 2.0387
1.4993 6.3200 2.0387
0.9858 6.4201 2.0387
0.4659 6.4785 2.0387
-0.0570 6.4950 2.0387
-0.5795 6.4693 2.0387
-1.0982 6.4017 2.0387
-1.6099 6.2925 2.0387
-2.1110 6.1426 2.0387
-2.5986 5.9528 2.0387
-3.0692 5.7244 2.0387
-3.5200 5.4589 2.0387
-3.9479 5.1580 2.0387
-4.3503 4.8236 2.0387
-4.7245 4.4579 2.0387
-5.0680 4.0634 2.0387
-5.3787 3.6424 2.0387
-5.6545 3.1978 2.0387
-5.8937 2.7324 2.0387
-5.6390 2.0812 1.8863
-5.7884 1.6207 1.8863
-5.9002 1.1496 1.8863
-5.9738 0.6711 1.8863
-6.0086 0.1882 1.8863
-6.0044 -0.2960 1.8863
-5.9613 -0.7782 1.8863
-5.8795 -1.2555 1.8863
-5.7596 -1.7246 1.8863
-5.6023 -2.1826 1.8863
-5.4087 -2.6264 1.8863
-5.1800 -3.0533 1.8863
-4.9176 -3.4603 1.8863
-4.6233 -3.8449 1.8863
-4.2990 -4.2046 1.8863
-4.2380 -4.8719 2.0255
-3.8573 -5.2311 2.0387
-3.4240 -5.5247 2.0387
-2.9683 -5.7824 2.0387
-2.4934 -6.0027 2.0387
-2.0023 -6.1839 2.0387
-1.4982 -6.3251 2.0387
-0.9844 -6.4252 2.0387
-0.4641 -6.4837 2.0387
0.0591 -6.5000 2.0387
0.5820 -6.4742 2.0387
1.1011 -6.4064 2.0387
1.6131 -6.2970 2.0387
2.1146 -6.1468 2.0387
2.6023 -5.9566 2.0387
3.0732 -5.7278 2.0387
3.5242 -5.4619 2.0387
3.9522 -5.1605 2.0387
4.3546 -4.8257 2.0387
4.7287 -4.4595 2.0387
5.0721 -4.0645 2.0387
5.3082 -3.5926 2.0105
5.3904 -3.0466 1.9422
5.4726 -2.5355 1.8920
5.6418 -2.0806 1.8863
5.7908 -1.6198 1.8863
5.9022 -1.1485 1.8863
5.9753 -0.6698 1.8863
6.0096 -0.1868 1.8863
6.0050 0.2975 1.8863
5.9648 0.7802 1.8874
6.0244 1.2880 1.9329
6.0971 1.8273 1.9971
6.0535 2.3601 2.0387
5.8437 2.8395 2.0387
5.5961 3.3005 2.0387
5.3122 3.7400 2.0387
4.9938 4.1552 2.0387
4.6431 4.5435 2.0387
4.2623 4.9023 2.0387
3.8539 5.2293 2.0387
3.4205 5.5224 2.0387
2.9649 5.7796 2.0387
2.4901 5.9994 2.0387
1.9992 6.1802 2.0387
1.4953 6.3209 2.0387
0.9818 6.4207 2.0387
0.4618 6.4788 2.0387
-0.0611 6.4949 2.0387
-0.5836 6.4689 2.0387
-1.1023 6.4010 2.0387
-1.6138 6.2915 2.0387
-2.1149 6.1412 2.0387
-2.6023 5.9512 2.0387
-3.0728 5.7225 2.0387
-3.5234 5.4567 2.0387
-3.9512 5.1555 2.0387
-4.3533 4.8209 2.0387
-4.7273 4.4550 2.0387
-5.0706 4.0602 2.0387
-5.3810 3.6390 2.0387
-5.6565 3.1943 2.0387
-5.8954 2.7287 2.0387
-5.6403 2.0777 1.8863
-5.7894 1.6171 1.8863
-5.9009 1.1459 1.8863
-5.9742 0.6674 1.8863
-6.0087 0.1844 1.8863
4.5493 3.7708 2.0387
4.2310 4.1246 2.0387
3.8852 4.4516 2.0387
3.5143 4.7497 2.0387
3.1206 5.0170 2.0387
2.7067 5.2518 2.0387
2.2752 5.4525 2.0387
1.8290 5.6178 2.0387
1.3709 5.7467 2.0387
0.9040 5.8383 2.0387
0.4312 5.8921 2.0387
-0.0444 5.9077 2.0387
-0.5197 5.8849 2.0387
-0.9916 5.8240 2.0387
-1.4571 5.7253 2.0387
-1.9131 5.5895 2.0387
-2.3567 5.4174 2.0387
-2.7851 5.2102 2.0387
-3.1954 4.9692 2.0387
-3.5850 4.6960 2.0387
-3.9513 4.3923 2.0387
-4.2921 4.0601 2.0387
-4.6050 3.7016 2.0387
-4.8881 3.3191 2.0387
-5.1394 2.9150 2.0387
-5.3575 2.4920 2.0387
-5.1266 1.8994 1.8863
-5.2630 1.4807 1.8863
-5.3652 1.0524 1.8863
-5.4326 0.6172 1.8863
-5.4648 0.1780 1.8863
-5.4616 -0.2623 1.8863
-5.4229 -0.7010 1.8863
-5.3491 -1.1352 1.8863
-5.2405 -1.5620 1.8863
-5.0980 -1.9787 1.8863
-4.9224 -2.3827 1.8863
-4.7148 -2.7711 1.8863
-4.4766 -3.1416 1.8863
-4.2494 -3.5250 1.9042
-4.2312 -4.1279 2.0387
-3.8853 -4.4551 2.0387
-3.5143 -4.7534 2.0387
-3.1204 -5.0209 2.0387
-2.7063 -5.2558 2.0387
-2.2746 -5.4567 2.0387
-1.8282 -5.6221 2.0387
-1.3699 -5.7511 2.0387
-0.9026 -5.8427 2.0387
-0.4295 -5.8965 2.0387
0.0464 -5.9119 2.0387
0.5219 -5.8890 2.0387
0.9942 -5.8280 2.0387
1.4599 -5.7291 2.0387
0.6951 -2.0288 0.7395
2.3601 -5.4206 2.0387
2.7886 -5.2131 2.0387
3.1990 -4.9717 2.0387
3.5887 -4.6981 2.0387
3.9550 -4.3940 2.0387
4.2957 -4.0614 2.0387
4.6086 -3.7025 2.0387
4.8915 -3.3196 2.0387
5.1426 -2.9151 2.0387
5.3604 -2.4918 2.0387
5.5083 -2.0393 2.0258
5.5811 -1.5687 1.9995
5.6503 -1.1069 1.9859
5.7168 -0.6481 1.9845
5.7814 -0.1870 1.9952
5.8502 0.2824 2.0203
5.8611 0.7591 2.0387
5.7809 1.2283 2.0387
5.6631 1.6894 2.0387
5.5086 2.1396 2.0387
5.3184 2.5759 2.0387
5.0937 2.9955 2.0387
4.8360 3.3956 2.0387
4.5469 3.7737 2.0387
4.2284 4.1272 2.0387
3.8824 4.4540 2.0387
3.5113 4.7519 2.0387
3.1174 5.0190 2.0387
2.7034 5.2535 2.0387
2.2718 5.4539 2.0387
1.8255 5.6190 2.0387
1.3673 5.7476 2.0387
0.9003 5.8389 2.0387
0.4275 5.8924 2.0387
-0.0481 5.9076 2.0387
-0.5234 5.8846 2.0387
-0.9952 5.8233 2.0387
-1.4607 5.7244 2.0387
-1.9166 5.5883 2.0387
-2.3602 5.4159 2.0387
-2.7884 5.2085 2.0387
-3.1985 4.9672 2.0387
-3.5879 4.6938 2.0387
-3.9541 4.3898 2.0387
-4.2946 4.0575 2.0387
-4.6073 3.6987 2.0387
-4.8901 3.3160 2.0387
-5.1413 2.9118 2.0387
-5.3590 2.4887 2.0387
-5.1278 1.8962 1.8863
-5.2639 1.4774 1.8863
-5.3659 1.0490 1.8863
-5.4330 0.6138 1.8863
-5.4650 0.1746 1.8863
-5.4614 -0.2658 1.8863
-5.4225 -0.7044 1.8863
-5.3484 -1.1386 1.8863
-5.2396 -1.5653 1.8863
-5.0968 -1.9820 1.8863
-4.9209 -2.3857 1.8863
-4.7131 -2.7741 1.8863
-4.4746 -3.1445 1.8863
-4.2493 -3.5294 1.9052
-4.2285 -4.1305 2.0387
-3.8825 -4.4575 2.0387
-3.5113 -4.7556 2.0387
-3.1173 -5.0229 2.0387
-2.7030 -5.2575 2.0387
-2.2712 -5.4581 2.0387
-1.8247 -5.6232 2.0387
-1.3663 -5.7519 2.0387
-0.8990 -5.8433 2.0387
-0.4258 -5.8967 2.0387
0.0501 -5.9119 2.0387
0.5256 -5.8887 2.0387
0.9978 -5.8273 2.0387
1.4635 -5.7281 2.0387
0.6964 -2.0283 0.7395
2.3635 -5.4191 2.0387
2.7919 -5.2113 2.0387
3.2021 -4.9697 2.0387
3.5916 -4.6958 2.0387
3.9578 -4.3915 2.0387
4.2983 -4.0587 2.0387
4.6109 -3.6996 2.0387
4.8935 -3.3165 2.0387
5.1444 -2.9119 2.0387
5.3620 -2.4884 2.0387
5.5089 -2.0356 2.0255
5.5817 -1.5651 1.9994
5.6509 -1.1033 1.9858
5.7174 -0.6445 1.9845
5.7819 -0.1833 1.9954
5.8508 0.2861 2.0206
5.8607 0.7628 2.0387
5.7801 1.2319 2.0387
5.6620 1.6930 2.0387
5.5073 2.1431 2.0387
5.3168 2.5793 2.0387
5.0918 2.9987 2.0387
4.8339 3.3986 2.0387
4.5446 3.7765 2.0387
4.2258 4.1299 2.0387
3.8796 4.4565 2.0387
3.5083 4.7541 2.0387
3.1143 5.0210 2.0387
2.7001 5.2552 2.0387
2.2683 5.4554 2.0387
1.8219 5.6201 2.0387
1.3637 5.7484 2.0387
0.8966 5.8395 2.0387
0.4238 5.8926 2.0387
-0.0518 5.9076 2.0387
-0.5271 5.8842 2.0387
-0.9989 5.8227 2.0387
-1.4643 5.7235 2.0387
-1.9201 5.5871 2.0387
-2.3636 5.4144 2.0387
-2.7916 5.2067 2.0387
-3.2017 4.9652 2.0387
-3.5909 4.6915 2.0387
-3.9569 4.3874 2.0387
-4.2972 4.0548 2.0387
-4.6097 3.6958 2.0387
-4.8922 3.3130 2.0387
-5.1431 2.9086 2.0387
-5.3606 2.4853 2.0387
-5.1290 1.8929 1.8863
-5.2648 1.4741 1.8863
-5.3665 1.0456 1.8863
-5.4334 0.6104 1.8863
-5.4651 0.1712 1.8863
-5.4613 -0.2692 1.8863
-5.4221 -0.7079 1.8863
-5.3477 -1.1419 1.8863
-5.2386 -1.5686 1.8863
-5.0955 -1.9852 1.8863
-4.9194 -2.3888 1.8863
-4.7113 -2.7771 1.8863
-4.4727 -3.1473 1.8863
-4.2492 -3.5338 1.9061
-4.2260 -4.1332 2.0387
-3.8797 -4.4600 2.0387
-3.5083 -4.7578 2.0387
-3.1141 -5.0248 2.0387
-2.6997 -5.2592 2.0387
-2.2678 -5.4595 2.0387
-1.8211 -5.6244 2.0387
-1.3626 -5.7528 2.0387
-0.8953 -5.8438 2.0387
-0.4221 -5.8970 2.0387
0.0538 -5.9119 2.0387
0.5294 -5.8884 2.0387
1.0015 -5.8267 2.0387
1.4671 -5.7272 2.0387
0.6976 -2.0279 0.7395
2.3669 -5.4176 2.0387
2.7951 -5.2096 2.0387
3.2053 -4.9677 2.0387
3.5946 -4.6936 2.0387
3.9606 -4.3890 2.0387
4.3008 -4.0560 2.0387
4.6132 -3.6967 2.0387
4.8956 -3.3134 2.0387
5.1463 -2.9086 2.0387
5.3635 -2.4850 2.0387
5.5095 -2.0318 2.0253
5.5822 -1.5615 1.9992
5.6514 -1.0997 1.9858
5.7179 -0.6409 1.9846
5.7824 -0.1797 1.9955
5.8513 0.2898 2.0208
5.8602 0.7665 2.0387
5.7793 1.2355 2.0387
5.6610 1.6966 2.0387
5.5059 2.1466 2.0387
5.3152 2.5826 2.0387
5.0899 3.0019 2.0387
4.8317 3.4017 2.0387
4.5422 3.7794 2.0387
4.2232 4.1326 2.0387
3.8768 4.4589 2.0387
3.5053 4.7563 2.0387
3.1111 5.0229 2.0387
2.6967 5.2569 2.0387
2.2649 5.4568 2.0387
1.8184 5.6213 2.0387
1.3601 5.7493 2.0387
0.8930 5.8400 2.0387
0.4201 5.8929 2.0387
-0.0555 5.9076 2.0387
-0.5308 5.8839 2.0387
-1.0026 5.8221 2.0387
-1.4679 5.7225 2.0387
-1.9237 5.5859 2.0387
-2.3670 5.4130 2.0387
-2.7949 5.2050 2.0387
-3.2048 4.9632 2.0387
-3.5939 4.6892 2.0387
-3.9596 4.3849 2.0387
-4.2997 4.0521 2.0387
-4.6120 3.6929 2.0387
-4.8943 3.3099 2.0387
-5.1449 2.9053 2.0387
-5.3622 2.4819 2.0387
-5.1302 1.8897 1.8863
-5.2657 1.4708 1.8863
-5.3672 1.0423 1.8863
-5.4338 0.6070 1.8863
-5.4652 0.1677 1.8863
4.1652 3.4524 2.0387
3.8737 3.7763 2.0387
3.5572 4.0757 2.0387
3.2176 4.3487 2.0387
2.8571 4.5934 2.0387
2.4782 4.8084 2.0387
0.7633 1.8293 0.7470
0.6137 1.8850 0.7472
0.4601 1.9285 0.7472
0.3034 1.9594 0.7473
0.3948 5.3947 2.0387
-0.0406 5.4089 2.0387
-0.1744 1.9751 0.7473
-0.3328 1.9546 0.7473
-0.4890 1.9213 0.7472
-0.6419 1.8755 0.7471
-2.1578 4.9600 2.0387
-2.5500 4.7703 2.0387
-2.9256 4.5497 2.0387
-3.2823 4.2995 2.0387
-3.6178 4.0215 2.0387
-3.9297 3.7174 2.0387
-4.2162 3.3891 2.0387
-4.4754 3.0389 2.0387
-4.7055 2.6689 2.0387
-4.9051 2.2816 2.0387
-4.6990 1.7409 1.8884
-4.8186 1.3557 1.8863
-4.9122 0.9635 1.8863
-4.9739 0.5651 1.8863
-5.0034 0.1630 1.8863
-5.0004 -0.2402 1.8863
-4.9650 -0.6418 1.8863
-4.8974 -1.0393 1.8863
-4.7980 -1.4301 1.8863
-4.6675 -1.8117 1.8863
-4.5067 -2.1814 1.8863
-4.3166 -2.5371 1.8863
-4.2318 -2.9698 1.9476
-4.1652 -3.4552 2.0387
-3.8738 -3.7792 2.0387
-3.5572 -4.0788 2.0387
-3.2175 -4.3519 2.0387
-2.8569 -4.5968 2.0387
-2.4777 -4.8119 2.0387
-0.7559 -1.8132 0.7399
-0.6074 -1.8679 0.7398
-0.4551 -1.9106 0.7398
-0.2998 -1.9408 0.7397
-0.1427 -1.9586 0.7397
0.0154 -1.9637 0.7396
0.1734 -1.9561 0.7397
0.3302 -1.9359 0.7397
0.4850 -1.9032 0.7398
0.6367 -1.8582 0.7398
2.1607 -4.9627 2.0387
2.5530 -4.7727 2.0387
2.9288 -4.5518 2.0387
3.2855 -4.3013 2.0387
3.6210 -4.0229 2.0387
3.9329 -3.7184 2.0387
4.2193 -3.3898 2.0387
4.4783 -3.0392 2.0387
4.7083 -2.6689 2.0387
4.9076 -2.2813 2.0387
5.0752 -1.8789 2.0387
5.2098 -1.4644 2.0387
5.3106 -1.0404 2.0387
5.3770 -0.6096 2.0387
5.4085 -0.1749 2.0387
5.4048 0.2609 2.0387
5.3662 0.6950 2.0387
5.2927 1.1245 2.0387
5.1849 1.5468 2.0387
5.0435 1.9589 2.0387
4.8693 2.3584 2.0387
4.6636 2.7425 2.0387
4.4277 3.1089 2.0387
4.1630 3.4550 2.0387
3.8714 3.7788 2.0387
3.5546 4.0780 2.0387
3.2149 4.3507 2.0387
2.8542 4.5952 2.0387
2.4751 4.8099 2.0387
0.7622 1.8298 0.7470
0.6125 1.8854 0.7472
0.4589 1.9288 0.7472
0.3022 1.9596 0.7473
0.3914 5.3949 2.0387
-0.0440 5.4089 2.0387
-0.1757 1.9750 0.7473
-0.3340 1.9544 0.7473
-0.4902 1.9210 0.7472
-0.6431 1.8751 0.7471
-2.1609 4.9587 2.0387
-2.5530 4.7687 2.0387
-2.9285 4.5478 2.0387
-3.2850 4.2975 2.0387
-3.6203 4.0192 2.0387
-3.9321 3.7149 2.0387
-4.2183 3.3864 2.0387
-4.4773 3.0360 2.0387
-4.7072 2.6659 2.0387
-4.9066 2.2785 2.0387
-4.6962 1.7366 1.8868
-4.8194 1.3526 1.8863
-4.9128 0.9604 1.8863
-4.9743 0.5620 1.8863
-5.0035 0.1598 1.8863
-5.0003 -0.2434 1.8863
-4.9646 -0.6450 1.8863
-4.8967 -1.0424 1.8863
-4.7971 -1.4331 1.8863
-4.6663 -1.8146 1.8863
-4.5053 -2.1843 1.8863
-4.3150 -2.5398 1.8863
-4.2317 -2.9738 1.9484
-4.1631 -3.4578 2.0387
-3.8714 -3.7817 2.0387
-3.5546 -4.0811 2.0387
-3.2147 -4.3540 2.0387
-2.8540 -4.5986 2.0387
-2.4747 -4.8135 2.0387
-0.7547 -1.8137 0.7399
-0.6062 -1.8683 0.7398
-0.4539 -1.9108 0.7398
-0.2986 -1.9410 0.7397
-0.1414 -1.9587 0.7397
0.0166 -1.9637 0.7396
0.1746 -1.9560 0.7397
0.3315 -1.9357 0.7397
0.4862 -1.9029 0.7398
0.6378 -1.8578 0.7398
2.1638 -4.9614 2.0387
2.5560 -4.7711 2.0387
2.9316 -4.5499 2.0387
3.2882 -4.2992 2.0387
3.6235 -4.0206 2.0387
3.9352 -3.7159 2.0387
4.2214 -3.3871 2.0387
4.4802 -3.0364 2.0387
4.7099 -2.6659 2.0387
4.9091 -2.2782 2.0387
5.0764 -1.8758 2.0387
5.2107 -1.4611 2.0387
5.3113 -1.0370 2.0387
5.3774 -0.6062 2.0387
5.4086 -0.1715 2.0387
5.4047 0.2643 2.0387
5.3657 0.6983 2.0387
5.2920 1.1278 2.0387
5.1839 1.5500 2.0387
5.0422 1.9621 2.0387
4.8678 2.3615 2.0387
4.6619 2.7455 2.0387
4.4257 3.1117 2.0387
4.1608 3.4576 2.0387
3.8690 3.7812 2.0387
3.5521 4.0802 2.0387
3.2121 4.3527 2.0387
2.8513 4.5970 2.0387
2.4721 4.8115 2.0387
0.7610 1.8302 0.7470
0.6113 1.8858 0.7472
0.4576 1.9291 0.7472
0.3009 1.9598 0.7473
0.3880 5.3951 2.0387
-0.0474 5.4088 2.0387
-0.1769 1.9749 0.7473
-0.3352 1.9542 0.7473
-0.4914 1.9207 0.7472
-0.6443 1.8747 0.7471
-2.1640 4.9573 2.0387
-2.5560 4.7671 2.0387
-2.9314 4.5460 2.0387
-3.2877 4.2954 2.0387
-3.6228 4.0169 2.0387
-3.9344 3.7124 2.0387
-4.2205 3.3838 2.0387
-4.4792 3.0332 2.0387
-4.7089 2.6630 2.0387
-4.9080 2.2754 2.0387
-4.6959 1.7331 1.8863
-4.8203 1.3496 1.8863
-4.9134 0.9573 1.8863
-4.9746 0.5588 1.8863
-5.0036 0.1567 1.8863
-5.0001 -0.2465 1.8863
-4.9642 -0.6481 1.8863
-4.8961 -1.0455 1.8863
-4.7962 -1.4362 1.8863
-4.6652 -1.8175 1.8863
-4.5039 -2.1871 1.8863
-4.3134 -2.5425 1.8863
-4.2317 -2.9777 1.9493
-4.1609 -3.4604 2.0387
-3.8690 -3.7841 2.0387
-3.5520 -4.0833 2.0387
-3.2120 -4.3560 2.0387
-2.8511 -4.6004 2.0387
-2.4717 -4.8150 2.0387
-0.7536 -1.8142 0.7399
-0.6051 -1.8687 0.7398
-0.4527 -1.9111 0.7398
-0.2974 -1.9412 0.7397
-0.1402 -1.9588 0.7397
0.0179 -1.9637 0.7396
0.1758 -1.9559 0.7397
0.3327 -1.9355 0.7397
0.4874 -1.9026 0.7398
0.6390 -1.8574 0.7398
2.1669 -4.9600 2.0387
2.5590 -4.7695 2.0387
2.9345 -4.5481 2.0387
3.2910 -4.2971 2.0387
3.6260 -4.0183 2.0387
3.9376 -3.7134 2.0387
4.2235 -3.3845 2.0387
4.4821 -3.0336 2.0387
4.7116 -2.6630 2.0387
4.9105 -2.2751 2.0387
5.0776 -1.8726 2.0387
5.2116 -1.4578 2.0387
5.3119 -1.0337 2.0387
5.3777 -0.6028 2.0387
5.4087 -0.1681 2.0387
5.4045 0.2677 2.0387
5.3653 0.7017 2.0387
5.2913 1.1312 2.0387
5.1829 1.5533 2.0387
5.0410 1.9653 2.0387
4.8664 2.3645 2.0387
4.6602 2.7484 2.0387
4.4237 3.1144 2.0387
4.1587 3.4603 2.0387
3.8666 3.7836 2.0387
3.5495 4.0824 2.0387
3.2094 4.3547 2.0387
2.8485 4.5988 2.0387
2.4691 4.8131 2.0387
0.7599 1.8307 0.7470
0.6102 1.8862 0.7472
0.4564 1.9294 0.7472
0.2997 1.9600 0.7473
0.3846 5.3954 2.0387
-0.0508 5.4088 2.0387
-0.1781 1.9748 0.7473
-0.3365 1.9540 0.7473
-0.4926 1.9204 0.7472
-0.6455 1.8743 0.7471
-2.1671 4.9560 2.0387
-2.5590 4.7655 2.0387
-2.9342 4.5442 2.0387
-3.2904 4.2933 2.0387
-3.6253 4.0147 2.0387
-3.9367 3.7099 2.0387
-4.2226 3.3811 2.0387
-4.4811 3.0304 2.0387
-4.7105 2.6600 2.0387
-4.9094 2.2724 2.0387
-4.6970 1.7301 1.8863
-4.8211 1.3466 1.8863
-4.9140 0.9542 1.8863
-4.9750 0.5557 1.8863
-5.0037 0.1535 1.8863
3.8345 3.1783 2.0387
3.5662 3.4765 2.0387
3.2748 3.7521 2.0387
2.9621 4.0034 2.0387
2.6303 4.2287 2.0387
2.2814 4.4266 2.0387
0.7025 1.6834 0.7468
0.5648 1.7347 0.7469
0.4234 1.7747 0.7469
0.2792 1.8031 0.7470
0.1332 1.8198 0.7470
-0.0137 1.8246 0.7470
-0.1605 1.8176 0.7470
-0.3062 1.7987 0.7470
-0.4500 1.7681 0.7469
-0.5907 1.7259 0.7469
-0.7276 1.6726 0.7468
-2.3475 4.3916 2.0387
-2.6934 4.1885 2.0387
-3.0217 3.9582 2.0387
-3.3305 3.7022 2.0387
-3.6177 3.4222 2.0387
-3.8815 3.1200 2.0387
-4.1200 2.7976 2.0387
-4.3319 2.4570 2.0387
-4.5157 2.1004 2.0387
-4.6135 1.7093 2.0140
-4.4360 1.2480 1.8863
-4.5221 0.8870 1.8863
-4.5790 0.5202 1.8863
-4.6061 0.1500 1.8863
-4.6033 -0.2211 1.8863
-4.5707 -0.5909 1.8863
-4.5085 -0.9568 1.8863
-4.4170 -1.3166 1.8863
-4.2968 -1.6678 1.8863
-4.2145 -2.0401 1.9162
-4.2101 -2.4746 1.9985
-4.0779 -2.8618 2.0387
-3.8344 -3.1808 2.0387
-3.5661 -3.4791 2.0387
-3.2746 -3.7549 2.0387
-2.9619 -4.0063 2.0387
-2.6300 -4.2317 2.0387
-2.2809 -4.4297 2.0387
-0.6961 -1.6698 0.7402
-0.5594 -1.7202 0.7401
-0.4191 -1.7595 0.7400
-0.2761 -1.7874 0.7400
-0.1314 -1.8038 0.7400
0.0142 -1.8085 0.7399
0.1597 -1.8015 0.7400
0.3041 -1.7829 0.7400
0.4467 -1.7528 0.7400
0.5863 -1.7113 0.7401
0.7222 -1.6588 0.7402
2.3502 -4.3937 2.0387
2.6962 -4.1902 2.0387
3.0246 -3.9596 2.0387
3.3334 -3.7034 2.0387
3.6205 -3.4231 2.0387
3.8842 -3.1206 2.0387
4.1226 -2.7978 2.0387
4.3343 -2.4569 2.0387
4.5179 -2.1002 2.0387
4.6721 -1.7297 2.0387
4.7961 -1.3481 2.0387
4.8889 -0.9578 2.0387
4.9500 -0.5612 2.0387
4.9790 -0.1611 2.0387
4.9756 0.2401 2.0387
4.9401 0.6398 2.0387
4.8724 1.0352 2.0387
4.7732 1.4239 2.0387
4.6430 1.8034 2.0387
4.4827 2.1711 2.0387
4.2933 2.5248 2.0387
4.0761 2.8620 2.0387
3.8325 3.1807 2.0387
3.5640 3.4787 2.0387
3.2724 3.7542 2.0387
2.9596 4.0053 2.0387
2.6276 4.2304 2.0387
2.2786 4.4281 2.0387
0.7014 1.6838 0.7468
0.5637 1.7350 0.7469
0.4223 1.7750 0.7469
0.2781 1.8033 0.7470
0.1320 1.8199 0.7470
-0.0149 1.8246 0.7470
-0.1616 1.8175 0.7470
-0.3074 1.7985 0.7470
-0.4511 1.7678 0.7469
-0.5918 1.7256 0.7469
-0.7287 1.6721 0.7468
-2.3503 4.3901 2.0387
-2.6960 4.1868 2.0387
-3.0242 3.9563 2.0387
-3.3329 3.7001 2.0387
-3.6199 3.4199 2.0387
-3.8834 3.1176 2.0387
-4.1218 2.7950 2.0387
-4.3334 2.4543 2.0387
-4.5170 2.0976 2.0387
-4.6099 1.7046 2.0119
-4.4368 1.2452 1.8863
-4.5227 0.8841 1.8863
-4.5793 0.5173 1.8863
-4.6062 0.1471 1.8863
-4.6032 -0.2240 1.8863
-4.5704 -0.5938 1.8863
-4.5079 -0.9597 1.8863
-4.4161 -1.3194 1.8863
-4.2957 -1.6705 1.8863
-4.2145 -2.0433 1.9168
-4.2101 -2.4781 1.9992
-4.0761 -2.8644 2.0387
-3.8324 -3.1832 2.0387
-3.5639 -3.4814 2.0387
-3.2723 -3.7569 2.0387
-2.9594 -4.0082 2.0387
-2.6273 -4.2334 2.0387
-2.2782 -4.4312 2.0387
-0.6950 -1.6703 0.7402
-0.5583 -1.7206 0.7401
-0.4180 -1.7598 0.7400
-0.2750 -1.7876 0.7400
-0.1303 -1.8038 0.7400
0.0153 -1.8085 0.7399
0.1608 -1.8014 0.7400
0.3053 -1.7827 0.7400
0.4478 -1.7525 0.7400
0.5874 -1.7110 0.7401
0.7233 -1.6584 0.7402
2.3530 -4.3922 2.0387
2.6988 -4.1885 2.0387
3.0271 -3.9577 2.0387
3.3357 -3.7013 2.0387
3.6227 -3.4208 2.0387
3.8861 -3.1181 2.0387
4.1244 -2.7952 2.0387
4.3359 -2.4542 2.0387
4.5192 -2.0973 2.0387
4.6732 -1.7268 2.0387
4.7969 -1.3451 2.0387
4.8895 -0.9547 2.0387
4.9503 -0.5581 2.0387
4.9791 -0.1579 2.0387
4.9755 0.2433 2.0387
4.9396 0.6429 2.0387
4.8718 1.0383 2.0387
4.7723 1.4269 2.0387
4.6419 1.8063 2.0387
4.4813 2.1739 2.0387
4.2917 2.5275 2.0387
4.0743 2.8646 2.0387
3.8305 3.1831 2.0387
3.5618 3.4810 2.0387
3.2701 3.7562 2.0387
2.9571 4.0071 2.0387
2.6250 4.2320 2.0387
2.2758 4.4295 2.0387
0.7003 1.6843 0.7468
0.5626 1.7354 0.7469
0.4211 1.7752 0.7469
0.2769 1.8035 0.7470
0.1309 1.8200 0.7470
-0.0160 1.8246 0.7470
-0.1628 1.8174 0.7470
-0.3085 1.7983 0.7470
-0.4522 1.7675 0.7469
-0.5929 1.7252 0.7469
-0.7297 1.6717 0.7468
-2.3531 4.3887 2.0387
-2.6986 4.1851 2.0387
-3.0267 3.9544 2.0387
-3.3352 3.6980 2.0387
-3.6220 3.4177 2.0387
-3.8854 3.1151 2.0387
-4.1236 2.7924 2.0387
-4.3350 2.4515 2.0387
-4.5183 2.0948 2.0387
-4.6063 1.7000 2.0099
-4.4375 1.2424 1.8863
-4.5232 0.8813 1.8863
-4.5796 0.5144 1.8863
-4.6063 0.1442 1.8863
-4.6031 -0.2269 1.8863
-4.5700 -0.5966 1.8863
-4.5073 -0.9625 1.8863
-4.4153 -1.3221 1.8863
-4.2947 -1.6732 1.8863
-4.2145 -2.0466 1.9174
-4.2100 -2.4816 1.9999
-4.0743 -2.8670 2.0387
-3.8304 -3.1856 2.0387
-3.5617 -3.4836 2.0387
-3.2699 -3.7590 2.0387
-2.9569 -4.0100 2.0387
-2.6246 -4.2350 2.0387
-2.2754 -4.4326 2.0387
-0.6940 -1.6707 0.7402
-0.5572 -1.7209 0.7401
-0.4169 -1.7600 0.7400
-0.2739 -1.7878 0.7400
-0.1291 -1.8039 0.7400
0.0165 -1.8084 0.7399
0.1619 -1.8013 0.7400
0.3064 -1.7825 0.7400
0.4489 -1.7522 0.7401
0.5885 -1.7106 0.7401
0.7243 -1.6579 0.7402
2.3558 -4.3907 2.0387
2.7014 -4.1868 2.0387
3.0296 -3.9558 2.0387
3.3380 -3.6992 2.0387
3.6248 -3.4185 2.0387
3.8881 -3.1157 2.0387
4.1261 -2.7926 2.0387
4.3374 -2.4515 2.0387
4.5205 -2.0945 2.0387
4.6743 -1.7239 2.0387
4.7978 -1.3421 2.0387
4.8901 -0.9516 2.0387
4.9507 -0.5550 2.0387
4.9792 -0.1548 2.0387
4.9753 0.2464 2.0387
4.9392 0.6460 2.0387
4.8711 1.0413 2.0387
4.7714 1.4299 2.0387
4.6407 1.8092 2.0387
4.4800 2.1768 2.0387
4.2901 2.5302 2.0387
4.0725 2.8671 2.0387
3.8285 3.1855 2.0387
3.5596 3.4832 2.0387
3.2677 3.7583 2.0387
2.9546 4.0090 2.0387
2.6223 4.2337 2.0387
2.2731 4.4309 2.0387
0.6993 1.6847 0.7468
0.5615 1.7358 0.7469
0.4200 1.7755 0.7469
0.2758 1.8036 0.7470
0.1297 1.8201 0.7470
-0.0171 1.8246 0.7470
-0.1639 1.8173 0.7470
-0.3096 1.7981 0.7470
-0.4533 1.7672 0.7469
-0.5940 1.7248 0.7469
-0.7308 1.6712 0.7468
-2.3558 4.3872 2.0387
-2.7013 4.1834 2.0387
-3.0292 3.9525 2.0387
-3.3375 3.6959 2.0387
-3.6242 3.4154 2.0387
-3.8873 3.1127 2.0387
-4.1253 2.7898 2.0387
-4.3365 2.4488 2.0387
-4.5196 2.0919 2.0387
-4.6027 1.6954 2.0078
-4.4383 1.2396 1.8863
-4.5238 0.8785 1.8863
-4.5799 0.5116 1.8863
-4.6064 0.1413 1.8863
3.5463 2.9394 2.0387
3.2982 3.2152 2.0387
3.0287 3.4702 2.0387
2.7396 3.7026 2.0387
2.4327 3.9110 2.0387
0.7725 1.4989 0.7464
0.6495 1.5564 0.7465
0.5222 1.6038 0.7466
0.3914 1.6408 0.7467
0.2581 1.6670 0.7467
0.1231 1.6825 0.7468
-0.0127 1.6869 0.7468
-0.1484 1.6804 0.7468
-0.2831 1.6630 0.7467
-0.4160 1.6347 0.7467
-0.5462 1.5957 0.7466
-0.6727 1.5464 0.7465
-2.1711 4.0616 2.0387
-2.4910 3.8738 2.0387
-2.7947 3.6608 2.0387
-3.0803 3.4240 2.0387
-3.3459 3.1651 2.0387
-3.5898 2.8856 2.0387
-3.8105 2.5873 2.0387
-4.0064 2.2723 2.0387
-4.1764 1.9426 2.0387
-4.3192 1.6002 2.0387
-4.2690 1.2010 1.9628
-4.1823 0.8203 1.8863
-4.2349 0.4811 1.8863
-4.2599 0.1387 1.8863
-4.2574 -0.2045 1.8863
-4.2272 -0.5465 1.8863
-4.1843 -0.8880 1.8929
-4.1830 -1.2469 1.9316
-4.1864 -1.6250 1.9872
-4.1469 -2.0074 2.0387
-3.9720 -2.3346 2.0387
-3.7714 -2.6468 2.0387
-3.5462 -2.9417 2.0387
-3.2981 -3.2176 2.0387
-3.0285 -3.4727 2.0387
-2.7393 -3.7052 2.0387
-2.4323 -3.9137 2.0387
-0.7663 -1.4882 0.7406
-0.6440 -1.5448 0.7405
-0.5175 -1.5915 0.7404
-0.3877 -1.6278 0.7403
-0.2555 -1.6536 0.7403
-0.1216 -1.6688 0.7402
0.0131 -1.6731 0.7402
0.1477 -1.6667 0.7402
0.2814 -1.6495 0.7403
0.4132 -1.6216 0.7403
0.5424 -1.5832 0.7404
0.6681 -1.5346 0.7405
2.1736 -4.0634 2.0387
2.4935 -3.8753 2.0387
2.7972 -3.6620 2.0387
3.0828 -3.4250 2.0387
3.3484 -3.1658 2.0387
3.5922 -2.8860 2.0387
3.8127 -2.5875 2.0387
4.0085 -2.2723 2.0387
4.1783 -1.9423 2.0387
4.3210 -1.5997 2.0387
4.4356 -1.2468 2.0387
4.5214 -0.8858 2.0387
4.5779 -0.5191 2.0387
4.6048 -0.1490 2.0387
4.6017 0.2221 2.0387
4.5688 0.5917 2.0387
4.5062 0.9574 2.0387
4.4145 1.3169 2.0387
4.2941 1.6678 2.0387
4.1458 2.0079 2.0387
3.9707 2.3350 2.0387
3.7698 2.6469 2.0387
3.5445 2.9417 2.0387
3.2962 3.2173 2.0387
3.0265 3.4721 2.0387
2.7372 3.7043 2.0387
2.4302 3.9125 2.0387
0.7716 1.4994 0.7464
0.6485 1.5568 0.7465
0.5212 1.6041 0.7466
0.3904 1.6410 0.7467
0.2571 1.6672 0.7467
0.1221 1.6825 0.7468
-0.0137 1.6869 0.7468
-0.1494 1.6803 0.7468
-0.2842 1.6628 0.7467
-0.4170 1.6344 0.7467
-0.5472 1.5954 0.7466
-0.6737 1.5460 0.7465
-2.1737 4.0603 2.0387
-2.4934 3.8722 2.0387
-2.7970 3.6590 2.0387
-3.0824 3.4221 2.0387
-3.3479 3.1630 2.0387
-3.5916 2.8833 2.0387
-3.8121 2.5850 2.0387
-4.0078 2.2698 2.0387
-4.1776 1.9400 2.0387
-4.3202 1.5975 2.0387
-4.2677 1.1977 1.9618
-4.1828 0.8177 1.8863
-4.2352 0.4784 1.8863
-4.2600 0.1361 1.8863
-4.2573 -0.2072 1.8863
-4.2269 -0.5492 1.8863
-4.1842 -0.8908 1.8931
-4.1831 -1.2497 1.9319
-4.1864 -1.6280 1.9877
-4.1457 -2.0100 2.0387
-3.9706 -2.3371 2.0387
-3.7697 -2.6491 2.0387
-3.5444 -2.9440 2.0387
-3.2960 -3.2197 2.0387
-3.0263 -3.4746 2.0387
-2.7369 -3.7069 2.0387
-2.4298 -3.9152 2.0387
-0.7654 -1.4887 0.7406
-0.6430 -1.5452 0.7405
-0.5165 -1.5918 0.7404
-0.3867 -1.6281 0.7403
-0.2544 -1.6538 0.7403
-0.1205 -1.6688 0.7402
0.0142 -1.6731 0.7402
0.1488 -1.6666 0.7402
0.2824 -1.6493 0.7403
0.4142 -1.6213 0.7403
0.5434 -1.5829 0.7404
0.6691 -1.5342 0.7405
2.1761 -4.0620 2.0387
2.4959 -3.8737 2.0387
2.7995 -3.6603 2.0387
3.0850 -3.4231 2.0387
3.3504 -3.1637 2.0387
3.5940 -2.8838 2.0387
3.8144 -2.5851 2.0387
4.0099 -2.2698 2.0387
4.1795 -1.9397 2.0387
4.3220 -1.5970 2.0387
4.4364 -1.2440 2.0387
4.5220 -0.8830 2.0387
4.5783 -0.5162 2.0387
4.6048 -0.1461 2.0387
4.6016 0.2250 2.0387
4.5684 0.5945 2.0387
4.5056 0.9602 2.0387
4.4136 1.3197 2.0387
4.2930 1.6705 2.0387
4.1446 2.0106 2.0387
3.9692 2.3375 2.0387
3.7681 2.6493 2.0387
3.5426 2.9439 2.0387
3.2942 3.2194 2.0387
3.0243 3.4740 2.0387
2.7349 3.7060 2.0387
2.4277 3.9140 2.0387
0.7706 1.4998 0.7464
0.6475 1.5572 0.7465
0.5201 1.6045 0.7466
0.3894 1.6413 0.7467
0.2560 1.6674 0.7467
0.1210 1.6826 0.7468
-0.0148 1.6869 0.7468
-0.1505 1.6802 0.7468
-0.2852 1.6626 0.7467
-0.4181 1.6341 0.7467
-0.5482 1.5950 0.7466
-0.6747 1.5455 0.7465
-2.1762 4.0589 2.0387
-2.4959 3.8706 2.0387
-2.7993 3.6572 2.0387
-3.0846 3.4201 2.0387
-3.3499 3.1608 2.0387
-3.5934 2.8810 2.0387
-3.8137 2.5826 2.0387
-4.0093 2.2673 2.0387
-4.1788 1.9373 2.0387
-4.3212 1.5948 2.0387
-4.2663 1.1945 1.9609
-4.1833 0.8151 1.8863
-4.2355 0.4758 1.8863
-4.2601 0.1334 1.8863
-4.2571 -0.2099 1.8863
-4.2265 -0.5518 1.8863
-4.1841 -0.8935 1.8933
-4.1831 -1.2526 1.9323
-4.1864 -1.6310 1.9882
-4.1444 -2.0126 2.0387
-3.9691 -2.3396 2.0387
-3.7680 -2.6515 2.0387
-3.5425 -2.9462 2.0387
-3.2940 -3.2218 2.0387
-3.0241 -3.4765 2.0387
-2.7346 -3.7086 2.0387
-2.4273 -3.9167 2.0387
-0.7644 -1.4892 0.7406
-0.6420 -1.5456 0.7405
-0.5155 -1.5921 0.7404
-0.3857 -1.6283 0.7403
-0.2534 -1.6539 0.7403
-0.1195 -1.6689 0.7402
0.0152 -1.6731 0.7402
0.1498 -1.6665 0.7402
0.2834 -1.6491 0.7403
0.4153 -1.6211 0.7403
0.5444 -1.5825 0.7404
0.6701 -1.5338 0.7405
2.1787 -4.0606 2.0387
2.4984 -3.8721 2.0387
2.8018 -3.6585 2.0387
3.0871 -3.4211 2.0387
3.3524 -3.1616 2.0387
3.5958 -2.8815 2.0387
3.8160 -2.5827 2.0387
4.0114 -2.2672 2.0387
4.1807 -1.9370 2.0387
4.3230 -1.5943 2.0387
4.4371 -1.2412 2.0387
4.5225 -0.8801 2.0387
4.5786 -0.5133 2.0387
4.6049 -0.1432 2.0387
4.6014 0.2279 2.0387
4.5680 0.5974 2.0387
4.5050 0.9631 2.0387
4.4128 1.3224 2.0387
4.2920 1.6732 2.0387
4.1433 2.0132 2.0387
3.9678 2.3400 2.0387
3.7665 2.6517 2.0387
3.5408 2.9461 2.0387
3.2921 3.2214 2.0387
3.0222 3.4759 2.0387
2.7326 3.7077 2.0387
2.4253 3.9155 2.0387
0.7697 1.5003 0.7464
0.6465 1.5576 0.7465
0.5191 1.6048 0.7466
0.3883 1.6415 0.7467
0.2550 1.6675 0.7467
0.1200 1.6827 0.7468
-0.0159 1.6869 0.7468
-0.1516 1.6801 0.7468
-0.2863 1.6624 0.7467
-0.4191 1.6339 0.7467
-0.5492 1.5947 0.7466
-0.6757 1.5451 0.7465
-2.1788 4.0575 2.0387
-2.4983 3.8691 2.0387
-2.8016 3.6555 2.0387
-3.0867 3.4182 2.0387
-3.3519 3.1587 2.0387
-3.5953 2.8788 2.0387
-3.8153 2.5802 2.0387
-4.0107 2.2648 2.0387
-4.1800 1.9347 2.0387
-4.3222 1.5921 2.0387
-4.2650 1.1912 1.9599
-4.1838 0.8124 1.8863
-4.2358 0.4731 1.8863
-4.2602 0.1307 1.8863
3.2927 2.7292 2.0387
3.0623 2.9852 2.0387
2.8121 3.2219 2.0387
2.5436 3.4377 2.0387
2.2587 3.6312 2.0387
0.7170 1.3913 0.7462
0.6028 1.4447 0.7463
0.4847 1.4886 0.7464
0.3633 1.5229 0.7464
0.2396 1.5473 0.7465
0.1143 1.5616 0.7465
-0.0118 1.5658 0.7465
-0.1377 1.5597 0.7465
-0.2628 1.5435 0.7465
-0.3861 1.5173 0.7464
-0.5070 1.4811 0.7464
-0.6244 1.4354 0.7463
-0.7378 1.3803 0.7462
-2.3128 3.5967 2.0387
-2.5948 3.3989 2.0387
-2.8600 3.1791 2.0387
-3.1066 2.9387 2.0387
-3.3331 2.6792 2.0387
-3.5379 2.4023 2.0387
-3.7198 2.1098 2.0387
-3.8776 1.8036 2.0387
-4.0103 1.4857 2.0387
-4.1169 1.1582 2.0387
-4.1304 0.8101 2.0064
-4.1027 0.4661 1.9682
-4.1157 0.1340 1.9628
-4.1302 -0.1984 1.9709
-4.1427 -0.5356 1.9910
-4.1528 -0.8814 2.0234
-4.0992 -1.2219 2.0387
-3.9877 -1.5478 2.0387
-3.8503 -1.8638 2.0387
-3.6879 -2.1676 2.0387
-3.5015 -2.4574 2.0387
-3.2925 -2.7313 2.0387
-3.0621 -2.9874 2.0387
-2.8118 -3.2242 2.0387
-2.5433 -3.4401 2.0387
-2.2582 -3.6337 2.0387
-0.7117 -1.3821 0.7408
-0.5981 -1.4347 0.7407
-0.4806 -1.4780 0.7406
-0.3601 -1.5118 0.7405
-0.2373 -1.5358 0.7405
-0.1129 -1.5499 0.7405
0.0122 -1.5539 0.7404
0.1372 -1.5479 0.7405
0.2613 -1.5319 0.7405
0.3838 -1.5060 0.7405
0.5038 -1.4704 0.7406
0.6205 -1.4252 0.7407
0.7333 -1.3709 0.7408
2.3151 -3.5980 2.0387
2.5971 -3.4000 2.0387
2.8622 -3.1799 2.0387
3.1088 -2.9393 2.0387
3.3352 -2.6795 2.0387
3.5399 -2.4024 2.0387
3.7217 -2.1097 2.0387
3.8794 -1.8034 2.0387
4.0118 -1.4853 2.0387
4.1182 -1.1576 2.0387
4.1980 -0.8224 2.0387
4.2504 -0.4819 2.0387
4.2753 -0.1383 2.0387
4.2725 0.2062 2.0387
4.2419 0.5493 2.0387
