ply
format ascii 1.0
element vertex 2165
property float32 x
property float32 y
property float32 z
end_header
-5.9418 13.6834 2.0383
-7.0201 13.1642 2.0383
-8.0537 12.5606 2.0383
-9.0360 11.8764 2.0383
-9.9607 11.1158 2.0383
-10.8219 10.2838 2.0383
-11.6142 9.3855 2.0383
-12.3324 8.4265 2.0383
-12.9719 7.4130 2.0383
-13.5285 6.3513 2.0383
-13.9987 5.2482 2.0383
-14.3794 4.1107 2.0383
-14.6680 2.9459 2.0383
-14.8625 1.7614 2.0383
-14.9618 0.5647 2.0383
-14.9648 -0.6367 2.0383
-14.8717 -1.8348 2.0383
-14.6828 -3.0222 2.0383
-14.3993 -4.1910 2.0383
-14.0228 -5.3339 2.0383
-13.5557 -6.4433 2.0383
-13.0009 -7.5120 2.0383
-12.3618 -8.5332 2.0383
-11.6425 -9.5001 2.0383
-10.8476 -10.4065 2.0383
-9.2358 -10.4055 1.8859
-8.3748 -11.1159 1.8859
-7.4592 -11.7550 1.8859
-6.4950 -12.3185 1.8859
-5.4883 -12.8027 1.8859
-4.4455 -13.2045 1.8859
-3.6463 -14.6137 2.0383
-2.4638 -14.8616 2.0383
-1.2649 -15.0134 2.0383
-0.0576 -15.0682 2.0383
1.1503 -15.0256 2.0383
2.3509 -14.8858 2.0383
3.5364 -14.6498 2.0383
4.6991 -14.3190 2.0383
5.3953 -12.8567 1.8859
6.4078 -12.3819 1.8859
7.3802 -11.8296 1.8863
8.3186 -11.2190 1.8898
9.2051 -10.5323 1.8930
10.0332 -9.7739 1.8960
8.0740 -6.6921 1.4198
8.5142 -5.9741 1.4086
12.1073 -7.1202 1.9027
12.6453 -6.1299 1.9043
13.0994 -5.0981 1.9054
13.4666 -4.0320 1.9062
13.7443 -2.9392 1.9066
13.9305 -1.8275 1.9066
14.0243 -0.7047 1.9062
14.0592 0.4223 1.9102
7.3095 0.8093 0.9992
14.0062 2.7010 1.9388
9.7823 2.7151 1.3804
13.3937 4.9040 1.9402
12.8839 5.9279 1.9300
12.2892 6.8977 1.9186
11.6162 7.8064 1.9061
10.8720 8.6478 1.8927
10.1039 9.4540 1.8859
5.4213 5.9568 1.0982
4.6908 6.0674 1.0460
4.0228 6.1686 1.0047
3.4021 6.2626 0.9726
3.5148 7.9259 1.1835
4.9385 14.0883 2.0383
3.7925 14.4358 2.0383
2.6227 14.6907 2.0383
1.4364 14.8515 2.0383
0.2413 14.9171 2.0383
-0.9551 14.8871 2.0383
-2.1453 14.7619 2.0383
-3.3216 14.5421 2.0383
-4.4767 14.2292 2.0383
-5.6031 13.8252 2.0383
-6.6938 13.3326 2.0383
-7.7419 12.7545 2.0383
-8.7406 12.0946 2.0383
-9.6836 11.3569 2.0383
-10.5649 10.5463 2.0383
-11.3789 9.6677 2.0383
-12.1203 8.7267 2.0383
-12.7844 7.7293 2.0383
-10.8596 5.8560 2.0383
-11.2971 4.9679 2.0383
-11.6622 4.0476 2.0383
-11.9527 3.1006 2.0383
-12.1665 2.1332 2.0383
-12.3022 1.1515 2.0383
-12.3590 0.1618 2.0383
-12.3363 -0.8296 2.0383
-12.2343 -1.8164 2.0383
-12.0535 -2.7921 2.0383
-11.7950 -3.7505 2.0383
-11.4603 -4.6854 2.0383
-11.0516 -5.5907 2.0383
-10.5715 -6.4607 2.0383
-10.0229 -7.2895 2.0383
-9.4093 -8.0719 2.0383
-8.0816 -8.1446 1.8859
-7.4050 -8.7686 1.8859
-6.6802 -9.3364 1.8859
-5.9119 -9.8442 1.8859
-5.1051 -10.2887 1.8859
-4.2691 -10.6772 1.8877
-3.6715 -11.8636 2.0383
-2.7094 -12.1216 2.0383
-1.7294 -12.3015 2.0383
-0.7380 -12.4019 2.0383
0.2583 -12.4223 2.0383
1.2531 -12.3623 2.0383
2.2399 -12.2226 2.0383
3.2123 -12.0038 2.0383
4.1639 -11.7075 2.0383
5.0885 -11.3355 2.0383
5.5330 -10.0762 1.8859
6.3221 -9.5994 1.8859
7.0702 -9.0606 1.8859
7.7729 -8.4642 1.8861
8.4350 -7.8221 1.8884
8.5104 -6.7076 1.7791
9.5915 -6.3839 1.8921
10.0775 -5.5976 1.8936
10.4973 -4.7735 1.8947
10.8479 -3.9175 1.8956
11.1268 -3.0354 1.8961
11.3322 -2.1334 1.8963
11.4626 -1.2179 1.8963
11.5173 -0.2951 1.8959
11.4960 0.6286 1.8952
7.2947 0.9898 1.2122
10.1343 2.2141 1.7087
11.0796 3.3708 1.9083
10.7282 4.2300 1.9009
10.3053 5.0521 1.8925
9.8298 5.8397 1.8859
9.3271 6.6066 1.8859
8.7648 7.3307 1.8859
8.1635 8.0240 1.8899
5.1892 5.9914 1.3090
4.4799 6.0989 1.2501
3.8279 6.1976 1.2036
3.2874 6.4233 1.1926
3.6477 8.8038 1.5753
3.7908 11.7309 2.0383
2.8377 11.9950 2.0383
1.8668 12.1821 2.0383
0.8842 12.2912 2.0383
-0.1039 12.3214 2.0383
-1.0912 12.2726 2.0383
-2.0714 12.1452 2.0383
-3.0383 11.9400 2.0383
-3.9857 11.6582 2.0383
-4.9076 11.3016 2.0383
-5.7982 10.8727 2.0383
-6.6518 10.3740 2.0383
-7.4629 9.8086 2.0383
-8.2264 9.1802 2.0383
-8.9373 8.4927 2.0383
-9.5912 7.7505 2.0383
-10.1839 6.9582 2.0383
-10.7114 6.1210 2.0383
-11.1705 5.2440 2.0383
-11.5580 4.3330 2.0383
-11.8716 3.3935 2.0383
-12.1091 2.4318 2.0383
-12.2690 1.4538 2.0383
-12.3500 0.4659 2.0383
-12.3518 -0.5257 2.0383
-12.2740 -1.5146 2.0383
-12.1173 -2.4943 2.0383
-11.8824 -3.4587 2.0383
-11.5709 -4.4015 2.0383
-11.1847 -5.3165 2.0383
-10.7262 -6.1980 2.0383
-10.1982 -7.0400 2.0383
-9.6042 -7.8372 2.0383
-8.2789 -7.9425 1.8859
-7.6179 -8.5830 1.8859
-6.9073 -9.1684 1.8859
-6.1519 -9.6950 1.8859
-5.3564 -10.1593 1.8859
-4.5259 -10.5582 1.8859
-3.9621 -11.7690 2.0383
-3.0067 -12.0507 2.0383
-2.0315 -12.2547 2.0383
-1.0430 -12.3796 2.0383
-0.0474 -12.4246 2.0383
0.9485 -12.3893 2.0383
1.9384 -12.2739 2.0383
2.9159 -12.0792 2.0383
3.8746 -11.8065 2.0383
4.8081 -11.4575 2.0383
5.3281 -10.2957 1.9019
6.0842 -9.7523 1.8859
6.8454 -9.2322 1.8859
7.5622 -8.6527 1.8859
8.2375 -8.0249 1.8877
8.8624 -7.3457 1.8898
8.9264 -6.2636 1.7907
9.9353 -5.8430 1.8932
10.3758 -5.0299 1.8944
10.7479 -4.1831 1.8953
11.0490 -3.3083 1.8960
11.2771 -2.4118 1.8963
11.4307 -1.4998 1.8963
11.5086 -0.5785 1.8960
11.5106 0.3455 1.8954
7.3000 0.8081 1.2093
11.3357 2.1858 1.9015
9.9433 2.7596 1.7002
10.8438 3.9701 1.9033
10.4424 4.8043 1.8952
9.9715 5.5964 1.8859
9.4878 6.3757 1.8859
8.9434 7.1135 1.8859
8.3419 7.8051 1.8859
5.4210 5.9563 1.3300
4.6906 6.0670 1.2667
4.0227 6.1681 1.2167
3.4020 6.2621 1.1777
3.5148 7.9256 1.4331
4.0785 11.6347 2.0383
3.1322 11.9221 2.0383
2.1662 12.1330 2.0383
1.1864 12.2661 2.0383
0.1994 12.3205 2.0383
-0.7888 12.2960 2.0383
-1.7719 12.1926 2.0383
-2.7435 12.0111 2.0383
-3.6975 11.7526 2.0383
-4.6279 11.4189 2.0383
-5.5287 11.0119 2.0383
-6.3942 10.5342 2.0383
-7.2189 9.9889 2.0383
-7.9975 9.3794 2.0383
-8.7251 8.7096 2.0383
-9.3970 7.9837 2.0383
-10.0088 7.2063 2.0383
-10.5567 6.3823 2.0383
-9.2352 4.9798 2.0383
-9.6068 4.2245 2.0383
-9.9169 3.4416 2.0383
-10.1635 2.6363 2.0383
-10.3448 1.8136 2.0383
-10.4598 0.9789 2.0383
-10.5075 0.1374 2.0383
-10.4877 -0.7055 2.0383
-10.4005 -1.5443 2.0383
-10.2463 -2.3737 2.0383
-10.0260 -3.1882 2.0383
-9.7410 -3.9827 2.0383
-9.3932 -4.7520 2.0383
-8.9846 -5.4912 2.0383
-7.8811 -5.7321 1.8859
-7.3983 -6.3470 1.8859
-6.8676 -6.9213 1.8859
-6.2924 -7.4513 1.8859
-5.6762 -7.9335 1.8859
-5.0232 -8.3647 1.8859
-4.3375 -8.7421 1.8859
-3.9164 -9.7956 2.0383
-3.1193 -10.0796 2.0383
-2.3018 -10.2986 2.0383
-1.4692 -10.4512 2.0383
-0.6270 -10.5363 2.0383
0.2195 -10.5535 2.0383
1.0646 -10.5025 2.0383
1.9029 -10.3837 2.0383
2.7290 -10.1978 2.0383
3.5374 -9.9461 2.0383
4.3229 -9.6302 2.0383
5.0805 -9.2522 2.0383
5.5638 -8.4481 1.9536
6.0067 -7.6979 1.8859
6.6035 -7.1908 1.8859
7.1574 -6.6374 1.8859
7.6650 -6.0414 1.8859
8.1230 -5.4066 1.8859
8.5323 -4.7395 1.8868
8.8873 -4.0415 1.8878
9.1838 -3.3167 1.8885
9.4200 -2.5699 1.8889
9.5941 -1.8064 1.8891
9.7051 -1.0313 1.8891
9.7521 -0.2500 1.8887
9.7350 0.5321 1.8882
7.2203 0.9795 1.4116
9.5098 2.0775 1.8863
9.3082 2.8317 1.8859
9.0487 3.5676 1.8859
8.7311 4.2802 1.8859
8.3575 4.9648 1.8859
7.9305 5.6172 1.8859
7.9176 6.6219 2.0036
7.4871 7.3589 2.0383
5.1890 5.9909 1.5393
4.4797 6.0984 1.4699
3.8277 6.1972 1.4153
3.2874 6.4230 1.4022
4.0142 9.6881 2.0383
3.2242 9.9771 2.0383
2.4136 10.2020 2.0383
1.5879 10.3614 2.0383
0.7521 10.4543 2.0383
-0.0884 10.4801 2.0383
-0.9281 10.4387 2.0383
-1.7619 10.3304 2.0383
-2.5843 10.1558 2.0383
-3.3902 9.9162 2.0383
-4.1743 9.6128 2.0383
-4.9318 9.2479 2.0383
-5.6577 8.8235 2.0383
-6.3475 8.3425 2.0383
-6.9967 7.8078 2.0383
-7.6012 7.2229 2.0383
-8.1571 6.5915 2.0383
-8.6609 5.9175 2.0383
-9.1092 5.2053 2.0383
-9.4993 4.4593 2.0383
-9.8285 3.6844 2.0383
-10.0947 2.8854 2.0383
-10.2962 2.0675 2.0383
-10.4316 1.2359 2.0383
-10.5000 0.3959 2.0383
-10.5010 -0.4472 2.0383
-10.4344 -1.2878 2.0383
-10.3006 -2.1206 2.0383
-10.1005 -2.9403 2.0383
-9.8352 -3.7415 2.0383
-9.5065 -4.5190 2.0383
-9.1163 -5.2679 2.0383
-8.6672 -5.9833 2.0383
-7.5517 -6.1625 1.8859
-7.0353 -6.7497 1.8859
-6.4733 -7.2937 1.8859
-5.8693 -7.7908 1.8859
-5.2272 -8.2380 1.8859
-4.5511 -8.6322 1.8859
-4.1561 -9.6957 2.0383
-3.3662 -9.9993 2.0383
-2.5544 -10.2384 2.0383
-1.7259 -10.4115 2.0383
-0.8860 -10.5174 2.0383
-0.0403 -10.5555 2.0383
0.8058 -10.5254 2.0383
1.6468 -10.4273 2.0383
2.4772 -10.2619 2.0383
3.2916 -10.0302 2.0383
4.0847 -9.7338 2.0383
4.8514 -9.3746 2.0383
5.5006 -8.8171 2.0070
5.8246 -7.8557 1.8888
6.4248 -7.3514 1.8859
6.9923 -6.8119 1.8859
7.5144 -6.2285 1.8859
7.9880 -5.6052 1.8859
8.4121 -4.9474 1.8865
8.7845 -4.2587 1.8875
9.0992 -3.5416 1.8883
9.3541 -2.8010 1.8888
9.5474 -2.0421 1.8891
9.6778 -1.2700 1.8891
9.7445 -0.4900 1.8889
9.7470 0.2924 1.8884
7.1888 0.7956 1.4010
9.5607 1.8433 1.8866
9.3760 2.6020 1.8859
9.1346 3.3441 1.8859
8.8346 4.0644 1.8859
8.4779 4.7580 1.8859
8.0670 5.4208 1.8859
7.8718 6.2609 1.9522
7.6666 7.1730 2.0383
5.4208 5.9558 1.5639
4.6904 6.0665 1.4895
4.0225 6.1677 1.4306
3.4019 6.2617 1.3848
3.5147 7.9253 1.6850
3.4689 9.8952 2.0383
2.6641 10.1399 2.0383
1.8425 10.3195 2.0383
1.0092 10.4329 2.0383
0.1696 10.4793 2.0383
-0.6709 10.4586 2.0383
-1.5071 10.3707 2.0383
-2.3336 10.2164 2.0383
-3.1450 9.9965 2.0383
-3.9364 9.7125 2.0383
-4.7026 9.3662 2.0383
-5.4387 8.9598 2.0383
-6.1400 8.4959 2.0383
-6.8021 7.9773 2.0383
-7.4208 7.4074 2.0383
-7.9920 6.7898 2.0383
-8.5121 6.1285 2.0383
-8.9778 5.4275 2.0383
-8.0220 4.3255 2.0383
-8.3446 3.6693 2.0383
-8.6137 2.9892 2.0383
-8.8275 2.2896 2.0383
-8.9848 1.5750 2.0383
-9.0843 0.8500 2.0383
-9.1254 0.1191 2.0383
-9.1079 -0.6129 2.0383
-9.0318 -1.3413 2.0383
-8.8976 -2.0614 2.0383
-8.7060 -2.7686 2.0383
-8.4582 -3.4584 2.0383
-8.1559 -4.1263 2.0383
-7.8009 -4.7679 2.0383
-6.8425 -4.9769 1.8859
-6.4231 -5.5106 1.8859
-5.9622 -6.0090 1.8859
-5.4625 -6.4689 1.8859
-4.9275 -6.8873 1.8859
-4.3605 -7.2614 1.8859
-4.0695 -8.2021 2.0383
-3.3996 -8.5032 2.0383
-2.7076 -8.7495 2.0383
-1.9979 -8.9394 2.0383
-1.2752 -9.0718 2.0383
-0.5442 -9.1455 2.0383
0.1905 -9.1603 2.0383
0.9241 -9.1160 2.0383
1.6517 -9.0129 2.0383
2.3687 -8.8515 2.0383
3.0704 -8.6331 2.0383
3.7522 -8.3590 2.0383
4.4098 -8.0309 2.0383
5.0388 -7.6511 2.0383
5.6352 -7.2219 2.0383
5.8705 -6.3928 1.9315
6.2129 -5.7617 1.8859
6.6537 -5.2444 1.8859
7.0514 -4.6935 1.8859
7.4035 -4.1126 1.8859
7.7078 -3.5053 1.8859
7.9622 -2.8757 1.8859
8.1653 -2.2278 1.8859
8.3156 -1.5658 1.8859
8.4124 -0.8941 1.8859
8.4549 -0.2169 1.8859
8.4429 0.4613 1.8859
7.1919 0.9755 1.6192
8.2565 1.8035 1.8859
8.0833 2.4588 1.8859
7.8582 3.0980 1.8859
7.5826 3.7170 1.8859
7.5995 4.5143 1.9745
7.4444 5.2727 2.0383
6.9962 5.8511 2.0383
6.5032 6.3916 2.0383
5.1888 5.9905 1.7720
4.4795 6.0980 1.6921
3.8276 6.1968 1.6292
3.2874 6.4228 1.6142
3.4872 8.4159 2.0383
2.8009 8.6671 2.0383
2.0969 8.8626 2.0383
1.3795 9.0012 2.0383
0.6534 9.0820 2.0383
-0.0767 9.1045 2.0383
-0.8063 9.0687 2.0383
-1.5306 8.9746 2.0383
-2.2451 8.8230 2.0383
-2.9452 8.6147 2.0383
-3.6265 8.3512 2.0383
-4.2845 8.0340 2.0383
-4.9151 7.6653 2.0383
-5.5143 7.2473 2.0383
-6.0782 6.7827 2.0383
-6.6032 6.2744 2.0383
-7.0860 5.7258 2.0383
-7.5234 5.1402 2.0383
-7.9127 4.5214 2.0383
-8.2512 3.8733 2.0383
-8.5369 3.2001 2.0383
-8.7679 2.5060 2.0383
-8.9426 1.7955 2.0383
-9.0599 1.0732 2.0383
-9.1190 0.3436 2.0383
-9.1195 -0.3885 2.0383
-9.0614 -1.1185 2.0383
-8.9449 -1.8417 2.0383
-8.7708 -2.5534 2.0383
-8.5401 -3.2490 2.0383
-8.2543 -3.9240 2.0383
-7.9152 -4.5741 2.0383
-6.9624 -4.8066 1.8859
-6.5563 -5.3505 1.8859
-6.1078 -5.8600 1.8859
-5.6197 -6.3321 1.8859
-5.0952 -6.7635 1.8859
-4.5376 -7.1515 1.8859
-4.1703 -7.9102 1.9908
-3.6076 -8.4165 2.0383
-2.9219 -8.6799 2.0383
-2.2172 -8.8873 2.0383
-1.4980 -9.0374 2.0383
-0.7690 -9.1292 2.0383
-0.0349 -9.1621 2.0383
0.6995 -9.1359 2.0383
1.4294 -9.0507 2.0383
2.1502 -8.9072 2.0383
2.8571 -8.7061 2.0383
3.5455 -8.4489 2.0383
4.2109 -8.1371 2.0383
4.8492 -7.7729 2.0383
5.4560 -7.3587 2.0383
5.8215 -6.6612 1.9687
6.0695 -5.9131 1.8859
6.5229 -5.4068 1.8859
6.9341 -4.8659 1.8859
7.3005 -4.2937 1.8859
7.6196 -3.6941 1.8859
7.8896 -3.0709 1.8859
8.1086 -2.4282 1.8859
8.2752 -1.7701 1.8859
8.3884 -1.1009 1.8859
8.4476 -0.4250 1.8859
8.4524 0.2534 1.8859
7.1608 0.7924 1.6072
8.2990 1.5999 1.8859
8.1420 2.2593 1.8859
7.9327 2.9039 1.8859
7.6724 3.5295 1.8859
7.5651 4.2456 1.9377
7.5725 5.0883 2.0383
7.1386 5.6775 2.0383
6.6590 6.2301 2.0383
5.4205 5.9553 1.8004
4.6902 6.0660 1.7147
4.0224 6.1672 1.6469
3.4017 6.2613 1.5941
3.6934 8.3279 2.0383
3.0135 8.5959 2.0383
2.3144 8.8086 2.0383
1.6007 8.9648 2.0383
0.8768 9.0634 2.0383
0.1474 9.1039 2.0383
-0.5828 9.0859 2.0383
-1.3093 9.0096 2.0383
-2.0273 8.8755 2.0383
-2.7323 8.6845 2.0383
-3.4198 8.4378 2.0383
-4.0854 8.1369 2.0383
-4.7248 7.7837 2.0383
-5.3341 7.3806 2.0383
-5.9092 6.9300 2.0383
-6.4465 6.4348 2.0383
-6.9426 5.8981 2.0383
-7.3942 5.3235 2.0383
-7.7986 4.7145 2.0383
-7.0802 3.8175 2.0383
-7.3647 3.2382 2.0383
-7.6020 2.6380 2.0383
-7.7906 2.0205 2.0383
-7.9291 1.3898 2.0383
-8.0167 0.7499 2.0383
-8.0528 0.1050 2.0383
-8.0371 -0.5410 2.0383
-7.9698 -1.1837 2.0383
-7.8510 -1.8191 2.0383
-7.6818 -2.4431 2.0383
-7.4629 -3.0516 2.0383
-7.1960 -3.6408 2.0383
-6.8826 -4.2068 2.0383
-6.1225 -4.4533 1.9127
-5.6667 -4.8618 1.8859
-5.2599 -5.3014 1.8859
-4.8190 -5.7070 1.8859
-4.3469 -6.0759 1.8859
-4.1189 -6.8593 2.0194
-3.5898 -7.2355 2.0383
-2.9988 -7.5010 2.0383
-2.3883 -7.7182 2.0383
-1.7623 -7.8856 2.0383
-1.1248 -8.0022 2.0383
-0.4799 -8.0673 2.0383
0.1681 -8.0802 2.0383
0.8152 -8.0411 2.0383
1.4570 -7.9501 2.0383
2.0894 -7.8078 2.0383
2.7083 -7.6151 2.0383
3.3098 -7.3733 2.0383
3.8898 -7.0840 2.0383
4.4447 -6.7490 2.0383
4.9708 -6.3706 2.0383
5.4648 -5.9511 2.0383
5.9234 -5.4934 2.0383
6.1118 -4.8175 1.9638
6.2403 -4.1538 1.8920
6.5312 -3.6281 1.8859
6.7997 -3.0925 1.8859
7.0244 -2.5371 1.8859
7.2037 -1.9656 1.8859
7.3365 -1.3816 1.8859
7.4221 -0.7890 1.8859
7.4598 -0.1916 1.8859
7.4495 0.4069 1.8859
7.1634 0.9715 1.8278
7.2854 1.5912 1.8859
7.2557 2.2069 1.9185
7.3466 2.8962 1.9981
7.2321 3.5450 2.0383
6.9231 4.1123 2.0383
6.5698 4.6530 2.0383
6.1744 5.1636 2.0383
5.7394 5.6407 2.0383
5.2678 6.0815 2.0383
4.7625 6.4830 2.0383
4.2267 6.8428 2.0383
3.2874 6.4225 1.8288
3.0780 7.4280 2.0383
2.4723 7.6499 2.0383
1.8509 7.8226 2.0383
1.2177 7.9450 2.0383
0.5768 8.0164 2.0383
-0.0677 8.0364 2.0383
-0.7117 8.0048 2.0383
-1.3511 7.9217 2.0383
-1.9817 7.7879 2.0383
-2.5997 7.6040 2.0383
-3.2010 7.3714 2.0383
-3.7818 7.0914 2.0383
-4.3385 6.7659 2.0383
-4.8673 6.3968 2.0383
-5.3650 5.9867 2.0383
-5.8283 5.5380 2.0383
-6.2543 5.0536 2.0383
-6.6403 4.5367 2.0383
-6.9837 3.9904 2.0383
-7.2824 3.4183 2.0383
-7.5344 2.8241 2.0383
-7.7380 2.2115 2.0383
-7.8920 1.5844 2.0383
-7.9953 0.9469 2.0383
-8.0473 0.3031 2.0383
-8.0475 -0.3430 2.0383
-7.9959 -0.9872 2.0383
-7.8929 -1.6252 2.0383
-7.7390 -2.2532 2.0383
-7.5352 -2.8669 2.0383
-7.2829 -3.4624 2.0383
-6.9835 -4.0359 2.0383
-6.4808 -4.4744 1.9898
-5.7842 -4.7206 1.8859
-5.3884 -5.1700 1.8859
-4.9577 -5.5863 1.8859
-4.4948 -5.9668 1.8859
-4.1159 -6.4871 1.9392
-3.7666 -7.1447 2.0383
-3.1824 -7.4246 2.0383
-2.5774 -7.6568 2.0383
-1.9558 -7.8396 2.0383
-1.3213 -7.9719 2.0383
-0.6783 -8.0528 2.0383
-0.0307 -8.0818 2.0383
0.6170 -8.0586 2.0383
1.2609 -7.9835 2.0383
1.8966 -7.8568 2.0383
2.5202 -7.6795 2.0383
3.1274 -7.4526 2.0383
3.7144 -7.1777 2.0383
4.2774 -6.8565 2.0383
4.8127 -6.4912 2.0383
5.3169 -6.0840 2.0383
5.7867 -5.6377 2.0383
6.0729 -5.0339 1.9904
6.1973 -4.3489 1.9107
6.4403 -3.7879 1.8859
6.7220 -3.2590 1.8859
6.9602 -2.7093 1.8859
7.1536 -2.1424 1.8859
7.3008 -1.5618 1.8859
7.4009 -0.9715 1.8859
7.4533 -0.3751 1.8859
7.4577 0.2234 1.8859
7.1325 0.7891 1.8143
7.3229 1.4115 1.8859
7.2312 2.0065 1.8982
7.3182 2.6788 1.9717
7.3176 3.3661 2.0383
7.0227 3.9410 2.0383
6.6827 4.4902 2.0383
6.3000 5.0104 2.0383
5.8769 5.4981 2.0383
5.4162 5.9504 2.0383
4.9209 6.3642 2.0383
4.3941 6.7370 2.0383
3.4016 6.2608 1.8060
3.2600 7.3503 2.0383
2.6599 7.5870 2.0383
2.0429 7.7749 2.0383
1.4129 7.9129 2.0383
0.7740 8.0000 2.0383
0.1301 8.0357 2.0383
-0.5144 8.0199 2.0383
-1.1557 7.9526 2.0383
-1.7895 7.8343 2.0383
-2.4118 7.6657 2.0383
-3.0186 7.4479 2.0383
-3.6061 7.1822 2.0383
-4.1705 6.8704 2.0383
-4.7082 6.5145 2.0383
-5.2158 6.1167 2.0383
-5.6900 5.6795 2.0383
-6.1278 5.2058 2.0383
-6.5263 4.6985 2.0383
-6.8830 4.1609 2.0383
-6.3267 3.4111 2.0383
-6.5808 2.8935 2.0383
-6.7928 2.3570 2.0383
-6.9611 1.8053 2.0383
-7.0848 1.2417 2.0383
-7.1629 0.6699 2.0383
-7.1950 0.0936 2.0383
-7.1808 -0.4835 2.0383
-7.1204 -1.0577 2.0383
-7.0142 -1.6254 2.0383
-6.8628 -2.1828 2.0383
-6.6672 -2.7264 2.0383
-6.4285 -3.2527 2.0383
-6.1484 -3.7582 2.0383
-5.8285 -4.2397 2.0383
-5.3197 -4.5643 1.9820
-4.8046 -4.8427 1.9285
-4.4229 -5.2380 1.9378
-4.1493 -5.7999 2.0154
-3.7135 -6.1844 2.0383
-3.2064 -6.4630 2.0383
-2.6785 -6.7000 2.0383
-2.1332 -6.8939 2.0383
-1.5740 -7.0434 2.0383
-1.0046 -7.1475 2.0383
-0.4286 -7.2055 2.0383
0.1502 -7.2171 2.0383
0.7281 -7.1821 2.0383
1.3013 -7.1008 2.0383
1.8662 -6.9737 2.0383
2.4190 -6.8016 2.0383
2.9562 -6.5857 2.0383
3.4743 -6.3273 2.0383
3.9699 -6.0282 2.0383
4.4399 -5.6902 2.0383
4.8811 -5.3156 2.0383
5.2908 -4.9068 2.0383
5.6664 -4.4665 2.0383
6.0053 -3.9974 2.0383
6.3054 -3.5028 2.0383
6.4165 -2.9183 1.9923
6.5155 -2.3534 1.9583
6.6096 -1.8036 1.9371
6.6993 -1.2617 1.9278
6.7865 -0.7216 1.9303
6.8722 -0.1766 1.9448
6.9574 0.3799 1.9716
7.0433 0.9551 2.0116
7.0348 1.5363 2.0383
6.8876 2.0948 2.0383
6.6961 2.6396 2.0383
6.4617 3.1672 2.0383
6.1858 3.6742 2.0383
5.8702 4.1574 2.0383
5.5170 4.6137 2.0383
5.1285 5.0401 2.0383
4.7071 5.4341 2.0383
4.2557 5.7929 2.0383
3.7770 6.1145 2.0383
3.2742 6.3967 2.0383
2.7506 6.6377 2.0383
2.2093 6.8360 2.0383
1.6540 6.9905 2.0383
1.0882 7.0999 2.0383
0.5155 7.1638 2.0383
-0.0604 7.1817 2.0383
-0.6360 7.1534 2.0383
-1.2074 7.0793 2.0383
-1.7710 6.9597 2.0383
-2.3233 6.7954 2.0383
-2.8606 6.5874 2.0383
-3.3797 6.3372 2.0383
-3.8770 6.0462 2.0383
-4.3496 5.7164 2.0383
-4.7943 5.3498 2.0383
-5.2083 4.9488 2.0383
-5.5889 4.5158 2.0383
-5.9337 4.0538 2.0383
-6.2405 3.5656 2.0383
-6.5073 3.0544 2.0383
-6.7323 2.5234 2.0383
-6.9142 1.9759 2.0383
-7.0516 1.4156 2.0383
-7.1438 0.8460 2.0383
-7.1900 0.2707 2.0383
-7.1901 -0.3066 2.0383
-7.1438 -0.8821 2.0383
-7.0516 -1.4522 2.0383
-6.9140 -2.0131 2.0383
-6.7318 -2.5613 2.0383
-6.5062 -3.0933 2.0383
-6.2386 -3.6055 2.0383
-5.9308 -4.0948 2.0383
-5.5205 -4.5055 2.0150
-4.9467 -4.7463 1.9382
-4.5303 -5.1050 1.9293
-4.2194 -5.6013 1.9819
-3.8644 -6.0909 2.0383
-3.3644 -6.3819 2.0383
-2.8425 -6.6319 2.0383
-2.3021 -6.8391 2.0383
-1.7468 -7.0024 2.0383
-1.1802 -7.1205 2.0383
-0.6058 -7.1927 2.0383
-0.0274 -7.2185 2.0383
0.5512 -7.1978 2.0383
1.1262 -7.1307 2.0383
1.6940 -7.0175 2.0383
2.2509 -6.8591 2.0383
2.7933 -6.6565 2.0383
3.3176 -6.4110 2.0383
3.8205 -6.1242 2.0383
4.2986 -5.7979 2.0383
4.7490 -5.4343 2.0383
5.1687 -5.0357 2.0383
5.5550 -4.6047 2.0383
5.9053 -4.1442 2.0383
6.2176 -3.6571 2.0383
6.3850 -3.0958 2.0055
6.4857 -2.5248 1.9673
6.5812 -1.9711 1.9423
6.6721 -1.4275 1.9294
6.7599 -0.8875 1.9283
6.8460 -0.3447 1.9391
6.9313 0.2075 1.9620
7.0168 0.7762 1.9979
7.0710 1.3628 2.0383
6.9375 1.9248 2.0383
6.7595 2.4742 2.0383
6.5381 3.0074 2.0383
6.2747 3.5211 2.0383
5.9711 4.0119 2.0383
5.6292 4.4767 2.0383
5.2513 4.9126 2.0383
4.8397 5.3168 2.0383
4.3972 5.6867 2.0383
3.9265 6.0200 2.0383
3.4308 6.3144 2.0383
2.9132 6.5683 2.0383
2.3770 6.7798 2.0383
1.8257 6.9478 2.0383
1.2627 7.0712 2.0383
0.6917 7.1491 2.0383
0.1163 7.1811 2.0383
-0.4597 7.1670 2.0383
-1.0327 7.1069 2.0383
-1.5991 7.0011 2.0383
-2.1553 6.8504 2.0383
-2.6976 6.6558 2.0383
-3.2226 6.4183 2.0383
-3.7270 6.1397 2.0383
-4.2075 5.8216 2.0383
-4.6610 5.4660 2.0383
-5.0847 5.0753 2.0383
-5.4759 4.6519 2.0383
-5.8319 4.1985 2.0383
-6.1506 3.7180 2.0383
-5.7093 3.0782 2.0383
-5.9386 2.6110 2.0383
-6.1297 2.1268 2.0383
-6.2816 1.6289 2.0383
-6.3930 1.1204 2.0383
-6.4634 0.6044 2.0383
-6.4923 0.0844 2.0383
-6.4793 -0.4364 2.0383
-6.4247 -0.9545 2.0383
-6.3288 -1.4667 2.0383
-6.1921 -1.9696 2.0383
-6.0154 -2.4600 2.0383
-5.8000 -2.9348 2.0383
-5.5471 -3.3908 2.0383
-5.2585 -3.8252 2.0383
-4.9359 -4.2351 2.0383
-4.5813 -4.6178 2.0383
-4.1972 -4.9709 2.0383
-3.7859 -5.2921 2.0383
-3.3501 -5.5793 2.0383
-2.8925 -5.8305 2.0383
-2.4163 -6.0443 2.0383
-1.9244 -6.2191 2.0383
-1.4199 -6.3539 2.0383
-0.9062 -6.4478 2.0383
-0.3866 -6.5001 2.0383
0.1355 -6.5105 2.0383
0.6568 -6.4789 2.0383
1.1739 -6.4056 2.0383
1.6834 -6.2909 2.0383
2.1821 -6.1357 2.0383
2.6667 -5.9409 2.0383
3.1341 -5.7079 2.0383
3.5812 -5.4381 2.0383
4.0052 -5.1332 2.0383
4.4033 -4.7953 2.0383
4.7729 -4.4266 2.0383
5.1117 -4.0294 2.0383
5.4175 -3.6063 2.0383
5.6883 -3.1601 2.0383
5.9224 -2.6937 2.0383
6.1183 -2.2101 2.0383
6.2747 -1.7123 2.0383
6.3907 -1.2037 2.0383
6.4654 -0.6876 2.0383
6.4985 -0.1671 2.0383
6.4898 0.3542 2.0383
6.4393 0.8730 2.0383
6.3474 1.3861 2.0383
6.2147 1.8900 2.0383
6.0420 2.3816 2.0383
5.8306 2.8577 2.0383
5.5817 3.3153 2.0383
5.2971 3.7513 2.0383
4.9784 4.1631 2.0383
4.6279 4.5480 2.0383
4.2478 4.9036 2.0383
3.8404 5.2275 2.0383
3.4085 5.5178 2.0383
2.9549 5.7725 2.0383
2.4823 5.9901 2.0383
1.9939 6.1692 2.0383
1.4928 6.3086 2.0383
0.9821 6.4074 2.0383
0.4653 6.4651 2.0383
-0.0545 6.4813 2.0383
-0.5739 6.4558 2.0383
-1.0896 6.3889 2.0383
-1.5983 6.2809 2.0383
-2.0967 6.1326 2.0383
-2.5817 5.9450 2.0383
-3.0501 5.7191 2.0383
-3.4989 5.4565 2.0383
-3.9254 5.1588 2.0383
-4.3267 4.8279 2.0383
-4.7003 4.4659 2.0383
-5.0437 4.0752 2.0383
-5.3548 3.6582 2.0383
-5.6316 3.2176 2.0383
-5.8723 2.7562 2.0383
-6.0752 2.2769 2.0383
-6.2392 1.7829 2.0383
-6.3632 1.2772 2.0383
-6.4462 0.7633 2.0383
-6.4878 0.2440 2.0383
-6.4877 -0.2768 2.0383
-6.4459 -0.7961 2.0383
-6.3626 -1.3104 2.0383
-6.2383 -1.8165 2.0383
-6.0738 -2.3111 2.0383
-5.8701 -2.7910 2.0383
-5.6286 -3.2531 2.0383
-5.3507 -3.6945 2.0383
-5.0383 -4.1121 2.0383
-4.6933 -4.5035 2.0383
-4.3180 -4.8659 2.0383
-3.9148 -5.1971 2.0383
-3.4862 -5.4949 2.0383
-3.0350 -5.7574 2.0383
-2.5642 -5.9828 2.0383
-2.0767 -6.1697 2.0383
-1.5757 -6.3169 2.0383
-1.0646 -6.4234 2.0383
-0.5464 -6.4885 2.0383
-0.0247 -6.5118 2.0383
0.4972 -6.4931 2.0383
1.0159 -6.4325 2.0383
1.5281 -6.3304 2.0383
2.0305 -6.1876 2.0383
2.5198 -6.0048 2.0383
2.9927 -5.7833 2.0383
3.4464 -5.5246 2.0383
3.8778 -5.2303 2.0383
4.2841 -4.9023 2.0383
4.6627 -4.5428 2.0383
5.0112 -4.1541 2.0383
5.3274 -3.7387 2.0383
5.6091 -3.2993 2.0383
5.8546 -2.8388 2.0383
6.0624 -2.3601 2.0383
6.2310 -1.8663 2.0383
6.3594 -1.3607 2.0383
6.4469 -0.8465 2.0383
6.4928 -0.3270 2.0383
6.4969 0.1944 2.0383
6.4592 0.7143 2.0383
6.3800 1.2295 2.0383
6.2597 1.7366 2.0383
6.0992 2.2323 2.0383
5.8995 2.7135 2.0383
5.6620 3.1771 2.0383
5.3881 3.6200 2.0383
5.0797 4.0395 2.0383
4.7387 4.4330 2.0383
4.3674 4.7978 2.0383
3.9681 5.1317 2.0383
3.5435 5.4325 2.0383
3.0962 5.6983 2.0383
2.6291 5.9274 2.0383
2.1452 6.1184 2.0383
1.6476 6.2701 2.0383
1.1396 6.3814 2.0383
0.6243 6.4518 2.0383
0.1050 6.4807 2.0383
-0.4148 6.4680 2.0383
-0.9320 6.4138 2.0383
-1.4432 6.3184 2.0383
-1.9451 6.1824 2.0383
-2.4345 6.0067 2.0383
-2.9083 5.7924 2.0383
-3.3635 5.5408 2.0383
-3.7971 5.2537 2.0383
-4.2064 4.9328 2.0383
-4.5888 4.5801 2.0383
-4.9417 4.1980 2.0383
-5.2630 3.7887 2.0383
-5.5505 3.3551 2.0383
-5.1935 2.7999 2.0383
-5.4020 2.3749 2.0383
-5.5758 1.9345 2.0383
-5.7138 1.4816 2.0383
-5.8151 1.0189 2.0383
-5.8791 0.5496 2.0383
-5.9052 0.0766 2.0383
-5.8934 -0.3970 2.0383
-5.8436 -0.8683 2.0383
-5.7562 -1.3341 2.0383
-5.6318 -1.7915 2.0383
-5.4711 -2.2375 2.0383
-5.2750 -2.6693 2.0383
-5.0450 -3.0840 2.0383
-4.7824 -3.4790 2.0383
-4.4889 -3.8518 2.0383
-4.1664 -4.1998 2.0383
-3.8170 -4.5208 2.0383
-3.4429 -4.8129 2.0383
-3.0466 -5.0740 2.0383
-2.6305 -5.3024 2.0383
-2.1973 -5.4968 2.0383
-1.7499 -5.6557 2.0383
-1.2912 -5.7782 2.0383
-0.8241 -5.8636 2.0383
-0.3516 -5.9111 2.0383
0.1232 -5.9205 2.0383
0.5973 -5.8918 2.0383
1.0675 -5.8251 2.0383
1.5309 -5.7208 2.0383
0.7188 -2.0210 0.7383
2.4250 -5.4026 2.0383
2.8501 -5.1907 2.0383
3.2567 -4.9453 2.0383
3.6422 -4.6681 2.0383
4.0043 -4.3609 2.0383
4.3405 -4.0256 2.0383
4.6486 -3.6644 2.0383
4.9268 -3.2797 2.0383
5.1731 -2.8740 2.0383
5.3860 -2.4499 2.0383
5.5643 -2.0101 2.0383
5.7066 -1.5574 2.0383
5.8121 -1.0949 2.0383
5.8802 -0.6254 2.0383
5.9104 -0.1521 2.0383
5.9025 0.3220 2.0383
5.8567 0.7939 2.0383
5.7732 1.2606 2.0383
5.6526 1.7189 2.0383
5.4956 2.1661 2.0383
5.3034 2.5992 2.0383
5.0771 3.0154 2.0383
4.8183 3.4121 2.0383
4.5285 3.7867 2.0383
4.2097 4.1369 2.0383
3.8640 4.4604 2.0383
3.4935 4.7551 2.0383
3.1007 5.0192 2.0383
2.6880 5.2510 2.0383
2.2581 5.4490 2.0383
1.8139 5.6119 2.0383
1.3580 5.7388 2.0383
0.8935 5.8287 2.0383
0.4233 5.8812 2.0383
-0.0496 5.8960 2.0383
-0.5221 5.8728 2.0383
-0.9912 5.8120 2.0383
-1.4539 5.7138 2.0383
-1.9074 5.5789 2.0383
-2.3486 5.4081 2.0383
-2.7747 5.2026 2.0383
-3.1830 4.9637 2.0383
-3.5709 4.6928 2.0383
-3.9359 4.3918 2.0383
-4.2757 4.0625 2.0383
-4.5881 3.7070 2.0383
-4.8711 3.3276 2.0383
-5.1228 2.9268 2.0383
-5.3417 2.5071 2.0383
-5.5262 2.0711 2.0383
-5.6753 1.6217 2.0383
-5.7880 1.1617 2.0383
-5.8635 0.6941 2.0383
-5.9012 0.2219 2.0383
-5.9010 -0.2519 2.0383
-5.8629 -0.7242 2.0383
-5.7870 -1.1920 2.0383
-5.6739 -1.6523 2.0383
-5.5242 -2.1021 2.0383
-5.3389 -2.5386 2.0383
-5.1191 -2.9588 2.0383
-4.8663 -3.3601 2.0383
-4.5821 -3.7399 2.0383
-4.2683 -4.0958 2.0383
-3.9269 -4.4253 2.0383
-3.5602 -4.7265 2.0383
-3.1704 -4.9973 2.0383
-2.7600 -5.2359 2.0383
-2.3319 -5.4409 2.0383
-0.6842 -2.0328 0.7385
-1.4329 -5.7446 2.0383
-0.9680 -5.8414 2.0383
-0.4968 -5.9006 2.0383
-0.0225 -5.9217 2.0383
0.4522 -5.9046 2.0383
0.9239 -5.8495 2.0383
1.3897 -5.7567 2.0383
0.6688 -2.0380 0.7383
2.2914 -5.4606 2.0383
2.7215 -5.2593 2.0383
3.1341 -5.0240 2.0383
3.5264 -4.7564 2.0383
3.8959 -4.4582 2.0383
4.2402 -4.1313 2.0383
4.5572 -3.7778 2.0383
4.8448 -3.4001 2.0383
5.1010 -3.0005 2.0383
5.3244 -2.5818 2.0383
5.5134 -2.1464 2.0383
5.6668 -1.6974 2.0383
5.7837 -1.2376 2.0383
5.8633 -0.7700 2.0383
5.9052 -0.2975 2.0383
5.9090 0.1767 2.0383
5.8748 0.6496 2.0383
5.8028 1.1182 2.0383
5.6935 1.5794 2.0383
5.5476 2.0303 2.0383
5.3661 2.4680 2.0383
5.1501 2.8897 2.0383
4.9010 3.2926 2.0383
4.6206 3.6743 2.0383
4.3105 4.0322 2.0383
3.9728 4.3641 2.0383
3.6096 4.6679 2.0383
3.2234 4.9416 2.0383
2.8165 5.1834 2.0383
2.3916 5.3919 2.0383
1.9515 5.5657 2.0383
1.4989 5.7037 2.0383
1.0367 5.8051 2.0383
0.5679 5.8691 2.0383
0.0956 5.8955 2.0383
-0.3774 5.8839 2.0383
-0.8478 5.8346 2.0383
-1.3129 5.7478 2.0383
-1.7695 5.6241 2.0383
-2.2147 5.4642 2.0383
-2.6457 5.2693 2.0383
-3.0598 5.0404 2.0383
-3.4542 4.7792 2.0383
-3.8266 4.4872 2.0383
-4.1743 4.1664 2.0383
-4.4954 3.8187 2.0383
-4.7875 3.4464 2.0383
-5.0490 3.0519 2.0383
-4.7554 2.5637 2.0383
-4.9463 2.1745 2.0383
-5.1054 1.7712 2.0383
-5.2317 1.3564 2.0383
-5.3244 0.9328 2.0383
-5.3829 0.5031 2.0383
-5.4067 0.0700 2.0383
-5.3958 -0.3636 2.0383
-5.3502 -0.7951 2.0383
-5.2701 -1.2216 2.0383
-5.1561 -1.6403 2.0383
-5.0089 -2.0487 2.0383
-4.8294 -2.4439 2.0383
-4.6187 -2.8236 2.0383
-4.3782 -3.1852 2.0383
-4.1095 -3.5263 2.0383
-3.8142 -3.8449 2.0383
-3.4943 -4.1388 2.0383
-3.1518 -4.4061 2.0383
-2.7889 -4.6450 2.0383
-2.4080 -4.8541 2.0383
-0.7293 -1.8244 0.7390
-0.5807 -1.8767 0.7389
-0.4284 -1.9171 0.7387
-0.2733 -1.9451 0.7386
-0.1166 -1.9607 0.7386
0.0409 -1.9637 0.7385
0.1981 -1.9542 0.7385
0.3541 -1.9322 0.7386
0.5078 -1.8977 0.7386
0.6583 -1.8512 0.7387
2.2199 -4.9456 2.0383
2.6090 -4.7517 2.0383
2.9812 -4.5271 2.0383
3.3342 -4.2734 2.0383
3.6656 -3.9922 2.0383
3.9734 -3.6853 2.0383
4.2555 -3.3547 2.0383
4.5102 -3.0025 2.0383
4.7357 -2.6311 2.0383
4.9307 -2.2429 2.0383
5.0939 -1.8402 2.0383
5.2243 -1.4259 2.0383
5.3210 -1.0025 2.0383
5.3833 -0.5727 2.0383
5.4111 -0.1394 2.0383
5.4040 0.2947 2.0383
5.3621 0.7268 2.0383
5.2857 1.1540 2.0383
5.1753 1.5737 2.0383
5.0317 1.9831 2.0383
4.8558 2.3797 2.0383
4.6486 2.7608 2.0383
4.4117 3.1240 2.0383
4.1464 3.4671 2.0383
3.8546 3.7878 2.0383
3.5381 4.0840 2.0383
3.1989 4.3539 2.0383
2.8392 4.5958 2.0383
2.4613 4.8081 2.0383
0.7587 1.8308 0.7480
0.6096 1.8860 0.7481
0.4565 1.9290 0.7482
0.3004 1.9595 0.7483
0.3876 5.3853 2.0383
-0.0454 5.3988 2.0383
-0.1755 1.9746 0.7485
-0.3333 1.9541 0.7484
-0.4888 1.9209 0.7484
-0.6412 1.8753 0.7483
-2.1505 4.9521 2.0383
-2.5407 4.7639 2.0383
-2.9146 4.5451 2.0383
-3.2698 4.2971 2.0383
-3.6041 4.0214 2.0383
-3.9152 3.7198 2.0383
-4.2012 3.3943 2.0383
-4.4603 3.0469 2.0383
-4.6907 2.6798 2.0383
-4.8911 2.2955 2.0383
-5.0600 1.8962 2.0383
-5.1965 1.4847 2.0383
-5.2996 1.0635 2.0383
-5.3686 0.6354 2.0383
-5.4031 0.2031 2.0383
-5.4029 -0.2307 2.0383
-5.3679 -0.6632 2.0383
-5.2983 -1.0915 2.0383
-5.1947 -1.5129 2.0383
-5.0575 -1.9247 2.0383
-4.8878 -2.3242 2.0383
-4.6866 -2.7089 2.0383
-4.4551 -3.0763 2.0383
-4.1948 -3.4240 2.0383
-3.9075 -3.7497 2.0383
-3.5950 -4.0514 2.0383
-3.2591 -4.3270 2.0383
-2.9023 -4.5748 2.0383
-2.5266 -4.7933 2.0383
-0.7740 -1.8060 0.7391
-0.6267 -1.8620 0.7389
-0.4754 -1.9060 0.7388
-0.3211 -1.9378 0.7387
-0.1648 -1.9573 0.7386
-0.0074 -1.9641 0.7386
0.1500 -1.9585 0.7385
0.3065 -1.9402 0.7386
0.4610 -1.9096 0.7386
0.6126 -1.8667 0.7387
0.7603 -1.8119 0.7388
2.4913 -4.8145 2.0383
2.8690 -4.5992 2.0383
3.2281 -4.3542 2.0383
3.5664 -4.0812 2.0383
3.8816 -3.7820 2.0383
4.1718 -3.4585 2.0383
4.4351 -3.1127 2.0383
4.6697 -2.7469 2.0383
4.8742 -2.3636 2.0383
5.0473 -1.9651 2.0383
5.1878 -1.5541 2.0383
5.2949 -1.1331 2.0383
5.3679 -0.7050 2.0383
5.4063 -0.2725 2.0383
5.4098 0.1616 2.0383
5.3786 0.5946 2.0383
5.3128 1.0236 2.0383
5.2127 1.4459 2.0383
5.0792 1.8588 2.0383
4.9131 2.2595 2.0383
4.7154 2.6457 2.0383
4.4874 3.0147 2.0383
4.2307 3.3642 2.0383
3.9468 3.6919 2.0383
3.6377 3.9959 2.0383
3.3052 4.2740 2.0383
2.9515 4.5247 2.0383
2.5790 4.7462 2.0383
2.1900 4.9371 2.0383
0.6558 1.8704 0.7481
0.5038 1.9171 0.7482
0.3485 1.9515 0.7483
0.1910 1.9732 0.7484
0.0875 5.3984 2.0383
-0.3455 5.3878 2.0383
-0.2851 1.9617 0.7484
-0.4414 1.9324 0.7484
-0.5948 1.8906 0.7483
-0.7444 1.8366 0.7482
-2.4227 4.8250 2.0383
-2.8018 4.6154 2.0383
-3.1630 4.3762 2.0383
-3.5039 4.1088 2.0383
-3.8223 3.8150 2.0383
-4.1163 3.4966 2.0383
-4.3838 3.1557 2.0383
-4.6232 2.7944 2.0383
-4.3782 2.3602 2.0383
-4.5539 2.0019 2.0383
-4.7003 1.6306 2.0383
-4.8165 1.2487 2.0383
-4.9018 0.8587 2.0383
-4.9556 0.4631 2.0383
-4.9775 0.0644 2.0383
-4.9674 -0.3349 2.0383
-4.9254 -0.7321 2.0383
-4.8516 -1.1247 2.0383
-4.7466 -1.5102 2.0383
-4.6110 -1.8860 2.0383
-4.4457 -2.2499 2.0383
-4.2517 -2.5993 2.0383
-4.0303 -2.9322 2.0383
-3.7829 -3.2462 2.0383
-3.5111 -3.5394 2.0383
-3.2165 -3.8099 2.0383
-2.9012 -4.0559 2.0383
-2.5672 -4.2758 2.0383
-2.2165 -4.4683 2.0383
-0.6716 -1.6802 0.7394
-0.5347 -1.7284 0.7392
-0.3945 -1.7655 0.7391
-0.2517 -1.7914 0.7390
-0.1074 -1.8057 0.7390
0.0377 -1.8085 0.7389
0.1825 -1.7998 0.7389
0.3261 -1.7794 0.7390
0.4677 -1.7477 0.7390
0.6063 -1.7048 0.7391
0.7411 -1.6510 0.7392
2.4015 -4.3738 2.0383
2.7441 -4.1672 2.0383
3.0690 -3.9336 2.0383
3.3741 -3.6748 2.0383
3.6575 -3.3923 2.0383
3.9172 -3.0880 2.0383
4.1516 -2.7639 2.0383
4.3593 -2.4221 2.0383
4.5388 -2.0647 2.0383
4.6891 -1.6941 2.0383
4.8091 -1.3127 2.0383
4.8982 -0.9229 2.0383
4.9556 -0.5273 2.0383
4.9812 -0.1284 2.0383
4.9747 0.2712 2.0383
4.9362 0.6689 2.0383
4.8660 1.0622 2.0383
4.7644 1.4486 2.0383
4.6323 1.8256 2.0383
4.4703 2.1907 2.0383
4.2797 2.5416 2.0383
4.0616 2.8760 2.0383
3.8174 3.1919 2.0383
3.5488 3.4871 2.0383
3.2574 3.7599 2.0383
2.9451 4.0085 2.0383
2.6140 4.2312 2.0383
2.2662 4.4266 2.0383
0.6983 1.6848 0.7476
0.5610 1.7355 0.7477
0.4201 1.7751 0.7479
0.2764 1.8032 0.7480
0.1310 1.8196 0.7480
-0.0153 1.8242 0.7481
-0.1615 1.8171 0.7481
-0.3067 1.7982 0.7480
-0.4498 1.7677 0.7480
-0.5900 1.7257 0.7479
-0.7264 1.6727 0.7478
-2.3393 4.3861 2.0383
-2.6835 4.1846 2.0383
-3.0105 3.9563 2.0383
-3.3183 3.7024 2.0383
-3.6047 3.4247 2.0383
-3.8680 3.1250 2.0383
-4.1065 2.8051 2.0383
-4.3186 2.4672 2.0383
-4.5031 2.1133 2.0383
-4.6586 1.7457 2.0383
-4.7842 1.3668 2.0383
-4.8790 0.9790 2.0383
-4.9425 0.5849 2.0383
-4.9742 0.1868 2.0383
-4.9739 -0.2125 2.0383
-4.9417 -0.6106 2.0383
-4.8776 -1.0049 2.0383
-4.7821 -1.3928 2.0383
-4.6558 -1.7719 2.0383
-4.4995 -2.1397 2.0383
-4.3142 -2.4938 2.0383
-4.1011 -2.8320 2.0383
-3.8615 -3.1520 2.0383
-3.5969 -3.4518 2.0383
-3.3092 -3.7294 2.0383
-3.0000 -3.9832 2.0383
-2.6715 -4.2112 2.0383
-2.3257 -4.4123 2.0383
-0.7128 -1.6632 0.7394
-0.5771 -1.7148 0.7393
-0.4378 -1.7553 0.7391
-0.2957 -1.7847 0.7390
-0.1518 -1.8026 0.7390
-0.0068 -1.8089 0.7389
0.1381 -1.8037 0.7389
0.2822 -1.7869 0.7390
0.4245 -1.7587 0.7390
0.5642 -1.7192 0.7391
0.7002 -1.6686 0.7392
2.2932 -4.4317 2.0383
2.6408 -4.2335 2.0383
2.9714 -4.0080 2.0383
3.2828 -3.7568 2.0383
3.5730 -3.4814 2.0383
3.8401 -3.1836 2.0383
4.0825 -2.8653 2.0383
4.2985 -2.5287 2.0383
4.4868 -2.1758 2.0383
4.6462 -1.8090 2.0383
4.7756 -1.4307 2.0383
4.8742 -1.0432 2.0383
4.9414 -0.6491 2.0383
4.9768 -0.2510 2.0383
4.9801 0.1487 2.0383
4.9514 0.5473 2.0383
4.8909 0.9422 2.0383
4.7989 1.3310 2.0383
4.6760 1.7111 2.0383
4.5231 2.0801 2.0383
4.3412 2.4356 2.0383
4.1313 2.7753 2.0383
3.8950 3.0971 2.0383
3.6337 3.3989 2.0383
3.3491 3.6787 2.0383
3.0430 3.9349 2.0383
2.7175 4.1657 2.0383
2.3745 4.3697 2.0383
0.7395 1.6670 0.7475
0.6035 1.7212 0.7477
0.4636 1.7642 0.7478
0.3207 1.7958 0.7479
0.1757 1.8158 0.7480
0.0296 1.8240 0.7480
-0.1167 1.8205 0.7481
-0.2623 1.8052 0.7480
-0.4062 1.7783 0.7480
-0.5474 1.7398 0.7479
-0.6850 1.6901 0.7478
-2.2306 4.4423 2.0383
-2.5797 4.2494 2.0383
-2.9122 4.0291 2.0383
-3.2261 3.7829 2.0383
-3.5192 3.5124 2.0383
-3.7898 3.2192 2.0383
-4.0361 2.9053 2.0383
-4.2565 2.5726 2.0383
-4.0495 2.1829 2.0383
-4.2119 1.8515 2.0383
-4.3473 1.5080 2.0383
-4.4548 1.1548 2.0383
-4.5336 0.7941 2.0383
-4.5833 0.4282 2.0383
-4.6036 0.0594 2.0383
-4.5942 -0.3098 2.0383
-4.5552 -0.6772 2.0383
-4.4870 -1.0403 2.0383
-4.3898 -1.3968 2.0383
-4.2644 -1.7444 2.0383
-4.1114 -2.0808 2.0383
-3.9320 -2.4040 2.0383
-3.7272 -2.7118 2.0383
-3.4984 -3.0022 2.0383
-3.2470 -3.2733 2.0383
-2.9746 -3.5234 2.0383
-2.6829 -3.7509 2.0383
-2.3740 -3.9542 2.0383
-0.7440 -1.4998 0.7398
-0.6213 -1.5544 0.7397
-0.4947 -1.5991 0.7395
-0.3650 -1.6334 0.7394
-0.2329 -1.6573 0.7394
-0.0993 -1.6706 0.7393
0.0349 -1.6732 0.7393
0.1688 -1.6651 0.7393
0.3017 -1.6463 0.7393
0.4327 -1.6169 0.7394
0.5609 -1.5772 0.7394
0.6856 -1.5274 0.7395
2.2208 -4.0447 2.0383
2.5376 -3.8536 2.0383
2.8381 -3.6377 2.0383
3.1203 -3.3983 2.0383
3.3823 -3.1371 2.0383
3.6225 -2.8558 2.0383
3.8393 -2.5561 2.0383
4.0313 -2.2399 2.0383
4.1974 -1.9095 2.0383
4.3364 -1.5668 2.0383
4.4475 -1.2141 2.0383
4.5298 -0.8536 2.0383
4.5830 -0.4878 2.0383
4.6067 -0.1189 2.0383
4.6008 0.2507 2.0383
4.5652 0.6185 2.0383
4.5003 0.9823 2.0383
4.4064 1.3397 2.0383
4.2842 1.6883 2.0383
4.1345 2.0260 2.0383
3.9582 2.3505 2.0383
3.7566 2.6599 2.0383
3.5308 2.9521 2.0383
3.2823 3.2252 2.0383
3.0128 3.4775 2.0383
2.7241 3.7074 2.0383
2.4178 3.9134 2.0383
0.7683 1.5007 0.7471
0.6456 1.5576 0.7473
0.5187 1.6045 0.7474
0.3884 1.6411 0.7475
0.2556 1.6670 0.7476
0.1211 1.6822 0.7477
-0.0142 1.6865 0.7477
-0.1493 1.6799 0.7477
-0.2835 1.6625 0.7477
-0.4159 1.6343 0.7476
-0.5455 1.5955 0.7476
-0.6716 1.5464 0.7475
-2.1637 4.0569 2.0383
-2.4821 3.8705 2.0383
-2.7846 3.6593 2.0383
-3.0692 3.4244 2.0383
-3.3341 3.1676 2.0383
-3.5776 2.8904 2.0383
-3.7982 2.5945 2.0383
-3.9944 2.2819 2.0383
-4.1649 1.9545 2.0383
-4.3087 1.6145 2.0383
-4.4249 1.2641 2.0383
-4.5125 0.9054 2.0383
-4.5712 0.5408 2.0383
-4.6005 0.1727 2.0383
-4.6002 -0.1967 2.0383
-4.5703 -0.5648 2.0383
-4.5110 -0.9295 2.0383
-4.4227 -1.2882 2.0383
-4.3058 -1.6388 2.0383
-4.1612 -1.9789 2.0383
-3.9898 -2.3064 2.0383
-3.7927 -2.6191 2.0383
-3.5710 -2.9151 2.0383
-3.3264 -3.1923 2.0383
-3.0602 -3.4490 2.0383
-2.7743 -3.6836 2.0383
-2.4705 -3.8945 2.0383
-0.7807 -1.4811 0.7399
-0.6594 -1.5387 0.7397
-0.5339 -1.5864 0.7396
-0.4050 -1.6240 0.7395
-0.2736 -1.6511 0.7394
-0.1404 -1.6677 0.7393
-0.0063 -1.6736 0.7393
0.1278 -1.6687 0.7393
0.2611 -1.6532 0.7393
0.3928 -1.6271 0.7393
0.5219 -1.5905 0.7394
0.6478 -1.5437 0.7395
0.7695 -1.4871 0.7396
2.4421 -3.9149 2.0383
2.7478 -3.7065 2.0383
3.0358 -3.4742 2.0383
3.3041 -3.2195 2.0383
3.5512 -2.9441 2.0383
3.7753 -2.6498 2.0383
3.9751 -2.3385 2.0383
4.1493 -2.0122 2.0383
4.2967 -1.6731 2.0383
4.4164 -1.3232 2.0383
4.5076 -0.9649 2.0383
4.5698 -0.6004 2.0383
4.6026 -0.2322 2.0383
4.6058 0.1374 2.0383
4.5793 0.5060 2.0383
4.5233 0.8713 2.0383
4.4383 1.2309 2.0383
4.3247 1.5824 2.0383
4.1833 1.9237 2.0383
4.0151 2.2525 2.0383
3.8210 2.5667 2.0383
3.6025 2.8644 2.0383
3.3609 3.1435 2.0383
3.0976 3.4024 2.0383
2.8146 3.6394 2.0383
2.5135 3.8528 2.0383
2.1963 4.0415 2.0383
0.6837 1.5412 0.7472
0.5580 1.5913 0.7474
0.4287 1.6310 0.7475
0.2965 1.6602 0.7476
0.1625 1.6787 0.7477
0.0274 1.6864 0.7477
-0.1079 1.6831 0.7477
-0.2425 1.6690 0.7477
-0.3755 1.6440 0.7477
-0.5061 1.6085 0.7476
-0.6333 1.5626 0.7475
-0.7565 1.5066 0.7474
-2.3861 3.9304 2.0383
-2.6936 3.7266 2.0383
-2.9839 3.4989 2.0383
-3.2551 3.2486 2.0383
-3.5053 2.9774 2.0383
-3.7331 2.6871 2.0383
-3.9369 2.3794 2.0383
-3.7601 2.0268 2.0383
-3.9109 1.7190 2.0383
-4.0366 1.4001 2.0383
-4.1363 1.0722 2.0383
-4.2095 0.7372 2.0383
-4.2556 0.3975 2.0383
-4.2743 0.0551 2.0383
-4.2656 -0.2878 2.0383
-4.2294 -0.6288 2.0383
-4.1660 -0.9659 2.0383
-4.0757 -1.2969 2.0383
-3.9592 -1.6197 2.0383
-3.8172 -1.9320 2.0383
-3.6506 -2.2320 2.0383
-3.4604 -2.5178 2.0383
-3.2479 -2.7874 2.0383
-3.0145 -3.0390 2.0383
-2.7616 -3.2712 2.0383
-2.4908 -3.4824 2.0383
-2.2040 -3.6712 2.0383
-0.6909 -1.3929 0.7401
-0.5770 -1.4437 0.7399
-0.4594 -1.4851 0.7398
-0.3389 -1.5171 0.7397
-0.2163 -1.5393 0.7397
-0.0922 -1.5516 0.7396
0.0324 -1.5540 0.7396
0.1568 -1.5465 0.7396
0.2802 -1.5290 0.7396
0.4019 -1.5017 0.7397
0.5209 -1.4648 0.7397
0.6367 -1.4186 0.7398
0.7484 -1.3632 0.7399
2.3559 -3.5777 2.0383
2.6348 -3.3772 2.0383
2.8968 -3.1550 2.0383
3.1400 -2.9125 2.0383
3.3630 -2.6513 2.0383
3.5644 -2.3731 2.0383
3.7427 -2.0796 2.0383
3.8969 -1.7728 2.0383
4.0260 -1.4547 2.0383
4.1291 -1.1272 2.0383
4.2056 -0.7926 2.0383
4.2550 -0.4530 2.0383
4.2771 -0.1105 2.0383
4.2716 0.2327 2.0383
4.2386 0.5742 2.0383
4.1784 0.9119 2.0383
4.0912 1.2437 2.0383
3.9778 1.5674 2.0383
3.8389 1.8810 2.0383
3.6752 2.1824 2.0383
3.4880 2.4696 2.0383
3.2784 2.7409 2.0383
3.0477 2.9945 2.0383
2.7975 3.2288 2.0383
2.5294 3.4423 2.0383
2.2450 3.6336 2.0383
0.7131 1.3929 0.7469
0.5992 1.4458 0.7470
0.4814 1.4893 0.7471
0.3605 1.5232 0.7472
0.2372 1.5473 0.7473
0.1124 1.5614 0.7474
-0.0131 1.5654 0.7474
-0.1386 1.5592 0.7474
-0.2631 1.5430 0.7474
-0.3860 1.5169 0.7473
-0.5063 1.4809 0.7473
-0.6234 1.4354 0.7472
-0.7363 1.3806 0.7471
-2.3048 3.5939 2.0383
-2.5856 3.3977 2.0383
-2.8499 3.1797 2.0383
-3.0959 2.9412 2.0383
-3.3220 2.6837 2.0383
-3.5268 2.4090 2.0383
-3.7089 2.1187 2.0383
-3.8672 1.8147 2.0383
-4.0007 1.4990 2.0383
-4.1085 1.1736 2.0383
-4.1899 0.8406 2.0383
-4.2443 0.5021 2.0383
-4.2715 0.1603 2.0383
-4.2712 -0.1827 2.0383
-4.2434 -0.5245 2.0383
-4.1883 -0.8631 2.0383
-4.1062 -1.1962 2.0383
-3.9977 -1.5217 2.0383
-3.8634 -1.8374 2.0383
-3.7042 -2.1415 2.0383
-3.5212 -2.4318 2.0383
-3.3154 -2.7065 2.0383
-3.0882 -2.9638 2.0383
-2.8411 -3.2022 2.0383
-2.5756 -3.4199 2.0383
-2.2936 -3.6157 2.0383
-0.7250 -1.3756 0.7401
-0.6124 -1.4291 0.7400
-0.4958 -1.4734 0.7399
-0.3762 -1.5083 0.7398
-0.2541 -1.5335 0.7397
-0.1304 -1.5489 0.7396
-0.0059 -1.5543 0.7396
0.1187 -1.5498 0.7396
0.2425 -1.5354 0.7396
0.3648 -1.5111 0.7396
0.4847 -1.4772 0.7397
0.6016 -1.4337 0.7398
0.7146 -1.3811 0.7399
2.2672 -3.6346 2.0383
2.5510 -3.4411 2.0383
2.8183 -3.2254 2.0383
3.0675 -2.9890 2.0383
3.2969 -2.7334 2.0383
3.5050 -2.4602 2.0383
3.6905 -2.1712 2.0383
3.8522 -1.8683 2.0383
3.9891 -1.5534 2.0383
4.1003 -1.2285 2.0383
4.1850 -0.8959 2.0383
4.2428 -0.5575 2.0383
4.2733 -0.2157 2.0383
4.2762 0.1275 2.0383
4.2516 0.4697 2.0383
4.1997 0.8089 2.0383
4.1208 1.1427 2.0383
4.0154 1.4691 2.0383
3.8841 1.7860 2.0383
3.7280 2.0913 2.0383
3.5479 2.3831 2.0383
3.3450 2.6595 2.0383
3.1206 2.9187 2.0383
2.8762 3.1591 2.0383
2.6134 3.3791 2.0383
2.3339 3.5774 2.0383
0.7472 1.3749 0.7468
0.6346 1.4305 0.7470
0.5179 1.4770 0.7471
0.3979 1.5139 0.7472
0.2753 1.5410 0.7473
0.1508 1.5581 0.7474
0.0254 1.5652 0.7474
-0.1002 1.5622 0.7474
-0.2251 1.5491 0.7474
-0.3485 1.5259 0.7474
-0.4697 1.4930 0.7473
-0.5879 1.4503 0.7472
-0.7022 1.3984 0.7471
-2.2156 3.6495 2.0383
-2.5012 3.4603 2.0383
-2.7707 3.2488 2.0383
-3.0225 3.0164 2.0383
-3.2548 2.7646 2.0383
-3.4663 2.4950 2.0383
-3.6555 2.2093 2.0383
-3.5029 1.8881 2.0383
-3.6433 1.6014 2.0383
-3.7604 1.3043 2.0383
-3.8533 0.9987 2.0383
-3.9215 0.6867 2.0383
-3.9644 0.3702 2.0383
-3.9818 0.0512 2.0383
-3.9736 -0.2682 2.0383
-3.9399 -0.5859 2.0383
-3.8808 -0.8999 2.0383
-3.7967 -1.2082 2.0383
-3.6881 -1.5089 2.0383
-3.5558 -1.7998 2.0383
-3.4006 -2.0793 2.0383
-3.2234 -2.3454 2.0383
-3.0254 -2.5965 2.0383
-2.8080 -2.8310 2.0383
-2.5723 -3.0472 2.0383
-2.3201 -3.2439 2.0383
-0.7458 -1.2423 0.7405
-0.6438 -1.2979 0.7403
-0.5376 -1.3452 0.7402
-0.4281 -1.3838 0.7401
-0.3158 -1.4136 0.7400
-0.2015 -1.4343 0.7399
-0.0859 -1.4458 0.7399
0.0302 -1.4481 0.7398
0.1461 -1.4410 0.7398
0.2611 -1.4247 0.7399
0.3745 -1.3993 0.7399
0.4854 -1.3649 0.7400
0.5933 -1.3218 0.7401
0.6974 -1.2702 0.7402
2.1944 -3.3325 2.0383
2.4543 -3.1458 2.0383
2.6983 -2.9389 2.0383
2.9249 -2.7130 2.0383
3.1326 -2.4698 2.0383
3.3202 -2.2106 2.0383
3.4863 -1.9373 2.0383
3.6299 -1.6515 2.0383
3.7502 -1.3551 2.0383
3.8463 -1.0501 2.0383
3.9176 -0.7384 2.0383
3.9637 -0.4220 2.0383
3.9842 -0.1030 2.0383
3.9791 0.2166 2.0383
3.9484 0.5348 2.0383
3.8923 0.8494 2.0383
3.8112 1.1585 2.0383
3.7056 1.4601 2.0383
3.5762 1.7522 2.0383
3.4238 2.0329 2.0383
3.2494 2.3005 2.0383
3.0541 2.5533 2.0383
2.8393 2.7896 2.0383
2.6062 3.0079 2.0383
2.3564 3.2068 2.0383
0.7659 1.2397 0.7465
0.6642 1.2972 0.7466
0.5581 1.3464 0.7468
0.4484 1.3870 0.7469
0.3358 1.4185 0.7470
0.2209 1.4410 0.7471
0.1047 1.4541 0.7471
-0.0122 1.4578 0.7471
-0.1291 1.4521 0.7471
-0.2451 1.4370 0.7471
-0.3595 1.4126 0.7471
-0.4715 1.3792 0.7470
-0.5805 1.3368 0.7469
-0.6858 1.2858 0.7468
-2.1472 3.3481 2.0383
-2.4088 3.1653 2.0383
-2.6550 2.9622 2.0383
-2.8842 2.7400 2.0383
-3.0948 2.5001 2.0383
-3.2856 2.2441 2.0383
-3.4552 1.9737 2.0383
-3.6027 1.6905 2.0383
-3.7270 1.3964 2.0383
-3.8274 1.0932 2.0383
-3.9032 0.7830 2.0383
-3.9539 0.4676 2.0383
-3.9792 0.1492 2.0383
-3.9789 -0.1703 2.0383
-3.9530 -0.4887 2.0383
-3.9016 -0.8041 2.0383
-3.8251 -1.1144 2.0383
-3.7240 -1.4176 2.0383
-3.5989 -1.7117 2.0383
-3.4506 -1.9949 2.0383
-3.2800 -2.2653 2.0383
-3.0883 -2.5212 2.0383
-2.8767 -2.7609 2.0383
-2.6465 -2.9829 2.0383
-2.3992 -3.1857 2.0383
-0.7762 -1.2236 0.7405
-0.6755 -1.2817 0.7404
-0.5706 -1.3316 0.7402
-0.4620 -1.3729 0.7401
-0.3505 -1.4054 0.7400
-0.2367 -1.4289 0.7399
-0.1215 -1.4433 0.7399
-0.0054 -1.4484 0.7398
0.1106 -1.4442 0.7398
0.2260 -1.4307 0.7399
0.3399 -1.4081 0.7399
0.4517 -1.3764 0.7400
0.5606 -1.3359 0.7400
0.6659 -1.2869 0.7402
0.7670 -1.2296 0.7403
2.3762 -3.2053 2.0383
2.6252 -3.0044 2.0383
2.8573 -2.7842 2.0383
3.0710 -2.5461 2.0383
3.2649 -2.2917 2.0383
3.4377 -2.0225 2.0383
3.5883 -1.7403 2.0383
3.7158 -1.4470 2.0383
3.8194 -1.1445 2.0383
3.8984 -0.8346 2.0383
3.9522 -0.5194 2.0383
3.9806 -0.2010 2.0383
3.9834 0.1187 2.0383
3.9606 0.4375 2.0383
3.9122 0.7534 2.0383
3.8387 1.0644 2.0383
3.7406 1.3685 2.0383
3.6184 1.6637 2.0383
3.4729 1.9481 2.0383
3.3051 2.2200 2.0383
3.1161 2.4775 2.0383
2.9072 2.7190 2.0383
2.6795 2.9429 2.0383
2.4347 3.1479 2.0383
2.1743 3.3326 2.0383
0.6959 1.2804 0.7466
0.5910 1.3323 0.7467
0.4824 1.3755 0.7469
0.3706 1.4098 0.7470
0.2564 1.4351 0.7470
0.1405 1.4510 0.7471
0.0237 1.4576 0.7471
-0.0933 1.4548 0.7471
-0.2096 1.4426 0.7471
-0.3246 1.4211 0.7471
-0.4375 1.3904 0.7470
-0.5475 1.3507 0.7470
-0.6539 1.3023 0.7468
-0.7561 1.2455 0.7467
-2.3301 3.2236 2.0383
-2.5812 3.0266 2.0383
-2.8158 2.8101 2.0383
-3.0322 2.5755 2.0383
-3.2292 2.3243 2.0383
-3.4055 2.0581 2.0383
-3.2725 1.7638 2.0383
-3.4037 1.4960 2.0383
-3.5131 1.2184 2.0383
-3.5998 0.9329 2.0383
-3.6635 0.6414 2.0383
-3.7035 0.3457 2.0383
-3.7198 0.0478 2.0383
-3.7121 -0.2506 2.0383
-3.6806 -0.5474 2.0383
-3.6253 -0.8408 2.0383
-3.5467 -1.1288 2.0383
-3.4453 -1.4096 2.0383
-3.3217 -1.6814 2.0383
-3.1766 -1.9425 2.0383
-3.0111 -2.1911 2.0383
-2.8262 -2.4256 2.0383
-2.6230 -2.6446 2.0383
-2.4029 -2.8466 2.0383
-2.1673 -3.0303 2.0383
-0.6968 -1.1608 0.7407
-0.6015 -1.2128 0.7405
-0.5024 -1.2570 0.7404
-0.4000 -1.2931 0.7403
-0.2951 -1.3209 0.7402
-0.1883 -1.3403 0.7401
-0.0803 -1.3510 0.7401
0.0282 -1.3531 0.7401
0.1365 -1.3465 0.7401
0.2440 -1.3313 0.7401
0.3499 -1.3076 0.7401
0.4536 -1.2754 0.7402
0.5544 -1.2351 0.7403
0.6516 -1.1868 0.7404
0.7447 -1.1310 0.7405
2.2926 -2.9386 2.0383
2.5205 -2.7453 2.0383
2.7322 -2.5344 2.0383
2.9263 -2.3071 2.0383
3.1014 -2.0651 2.0383
3.2566 -1.8097 2.0383
3.3909 -1.5428 2.0383
3.5032 -1.2660 2.0383
3.5930 -0.9811 2.0383
3.6596 -0.6899 2.0383
3.7027 -0.3943 2.0383
3.7219 -0.0963 2.0383
3.7172 0.2023 2.0383
3.6886 0.4995 2.0383
3.6362 0.7934 2.0383
3.5604 1.0822 2.0383
3.4618 1.3639 2.0383
3.3409 1.6368 2.0383
3.1985 1.8991 2.0383
3.0356 2.1491 2.0383
2.8532 2.3853 2.0383
2.6525 2.6060 2.0383
2.4348 2.8100 2.0383
2.2015 2.9958 2.0383
0.7154 1.1578 0.7463
0.6203 1.2116 0.7464
0.5213 1.2575 0.7466
0.4188 1.2954 0.7467
0.3136 1.3248 0.7468
0.2064 1.3458 0.7468
0.0978 1.3580 0.7469
-0.0114 1.3615 0.7469
-0.1205 1.3562 0.7469
-0.2289 1.3421 0.7469
-0.3357 1.3193 0.7468
-0.4404 1.2881 0.7468
-0.5422 1.2485 0.7467
-0.6405 1.2008 0.7466
-0.7346 1.1455 0.7465
-2.2504 2.9571 2.0383
-2.4804 2.7673 2.0383
-2.6945 2.5597 2.0383
-2.8913 2.3356 2.0383
-3.0695 2.0965 2.0383
-3.2280 1.8438 2.0383
-3.3657 1.5792 2.0383
-3.4819 1.3045 2.0383
-3.5756 1.0212 2.0383
-3.6464 0.7314 2.0383
-3.6938 0.4368 2.0383
-3.7174 0.1393 2.0383
-3.7170 -0.1592 2.0383
-3.6928 -0.4567 2.0383
-3.6448 -0.7513 2.0383
-3.5733 -1.0411 2.0383
-3.4788 -1.3243 2.0383
-3.3619 -1.5991 2.0383
-3.2233 -1.8636 2.0383
-3.0640 -2.1162 2.0383
-2.8849 -2.3553 2.0383
-2.6872 -2.5792 2.0383
-2.4721 -2.7865 2.0383
-2.2411 -2.9760 2.0383
-0.7252 -1.1434 0.7407
-0.6312 -1.1977 0.7406
-0.5331 -1.2443 0.7404
-0.4317 -1.2829 0.7403
-0.3275 -1.3133 0.7402
-0.2212 -1.3352 0.7402
-0.1135 -1.3486 0.7401
-0.0051 -1.3534 0.7401
0.1034 -1.3495 0.7401
0.2112 -1.3369 0.7401
0.3176 -1.3157 0.7401
0.4220 -1.2862 0.7402
0.5238 -1.2483 0.7403
0.6222 -1.2025 0.7404
0.7166 -1.1489 0.7405
2.2196 -2.9942 2.0383
2.4522 -2.8066 2.0383
2.6691 -2.6009 2.0383
2.8687 -2.3785 2.0383
3.0498 -2.1408 2.0383
3.2112 -1.8894 2.0383
3.3520 -1.6258 2.0383
3.4711 -1.3518 2.0383
3.5679 -1.0692 2.0383
3.6417 -0.7797 2.0383
3.6920 -0.4853 2.0383
3.7186 -0.1879 2.0383
3.7212 0.1108 2.0383
3.6999 0.4086 2.0383
3.6547 0.7037 2.0383
3.5861 0.9943 2.0383
3.4944 1.2783 2.0383
3.3803 1.5541 2.0383
3.2444 1.8199 2.0383
3.0877 2.0738 2.0383
2.9112 2.3144 2.0383
2.7160 2.5400 2.0383
2.5033 2.7493 2.0383
2.2746 2.9408 2.0383
0.7437 1.1398 0.7462
0.6500 1.1959 0.7464
0.5520 1.2443 0.7465
0.4505 1.2846 0.7466
0.3461 1.3167 0.7467
0.2394 1.3403 0.7468
0.1312 1.3552 0.7469
0.0221 1.3614 0.7469
-0.0871 1.3587 0.7469
-0.1958 1.3473 0.7469
-0.3031 1.3272 0.7469
-0.4086 1.2985 0.7468
-0.5113 1.2615 0.7467
-0.6108 1.2163 0.7466
-0.7062 1.1633 0.7465
-2.1769 3.0116 2.0383
-2.4115 2.8275 2.0383
-2.6306 2.6252 2.0383
-2.8328 2.4060 2.0383
-3.0169 2.1713 2.0383
-3.1815 1.9226 2.0383
-3.0646 1.6517 2.0383
-3.1875 1.4008 2.0383
-3.2899 1.1409 2.0383
-3.3711 0.8736 2.0383
-3.4307 0.6006 2.0383
-3.4682 0.3237 2.0383
-3.4834 0.0446 2.0383
-3.4762 -0.2348 2.0383
-3.4466 -0.5127 2.0383
-3.3949 -0.7874 2.0383
-3.3213 -1.0571 2.0383
-3.2262 -1.3201 2.0383
-3.1105 -1.5746 2.0383
-2.9746 -1.8190 2.0383
-2.8196 -2.0518 2.0383
-2.6464 -2.2714 2.0383
-2.4561 -2.4765 2.0383
-2.2500 -2.6656 2.0383
-0.7378 -1.0316 0.7410
-0.6526 -1.0872 0.7409
-0.5634 -1.1359 0.7407
-0.4705 -1.1773 0.7406
-0.3746 -1.2112 0.7405
-0.2764 -1.2372 0.7404
-0.1763 -1.2554 0.7404
-0.0752 -1.2654 0.7403
0.0264 -1.2674 0.7403
0.1279 -1.2612 0.7403
0.2285 -1.2470 0.7403
0.3277 -1.2247 0.7404
0.4248 -1.1946 0.7404
0.5192 -1.1568 0.7405
0.6103 -1.1116 0.7406
0.6975 -1.0593 0.7407
0.7802 -1.0001 0.7409
2.3601 -2.5707 2.0383
2.5584 -2.3732 2.0383
