ply
format ascii 1.0
element vertex 2179
property float32 x
property float32 y
property float32 z
end_header
-4.4039 7.9427 2.0383
-5.0247 7.5625 2.0383
-5.6132 7.1341 2.0383
-6.1656 6.6604 2.0383
-6.6784 6.1443 2.0383
-7.1485 5.5890 2.0383
-7.5729 4.9981 2.0383
-7.9489 4.3753 2.0383
-8.2741 3.7246 2.0383
-8.5465 3.0500 2.0383
-8.7644 2.3558 2.0383
-8.9264 1.6464 2.0383
-9.0314 0.9263 2.0383
-9.0787 0.1998 2.0383
-9.0680 -0.5282 2.0383
-8.9993 -1.2533 2.0383
-8.8730 -1.9708 2.0383
-8.6899 -2.6762 2.0383
-8.4510 -3.3650 2.0383
-8.1578 -4.0329 2.0383
-7.8121 -4.6754 2.0383
-7.4160 -5.2886 2.0383
-6.9720 -5.8685 2.0383
-6.4828 -6.4112 2.0383
-5.9516 -6.9134 2.0383
-5.3816 -7.3717 2.0383
-4.7765 -7.7831 2.0383
-4.1400 -8.1449 2.0383
-3.4763 -8.4548 2.0383
-2.7895 -8.7105 2.0383
-2.0841 -8.9105 2.0383
-1.3646 -9.0533 2.0383
-0.6356 -9.1379 2.0383
0.0982 -9.1637 2.0383
0.8320 -9.1305 2.0383
1.5611 -9.0384 2.0383
2.2807 -8.8878 2.0383
2.9861 -8.6799 2.0383
3.6726 -8.4157 2.0383
4.3359 -8.0971 2.0383
4.9716 -7.7259 2.0383
5.5754 -7.3047 2.0383
6.1435 -6.8362 2.0383
6.6720 -6.3233 2.0383
7.0895 -5.7145 2.0189
7.2269 -4.9259 1.9390
7.3901 -4.2129 1.8859
7.7034 -3.6077 1.8859
7.9670 -2.9792 1.8859
8.1790 -2.3315 1.8859
8.3382 -1.6690 1.8859
8.4434 -0.9958 1.8859
8.4941 -0.3166 1.8859
8.4899 0.3644 1.8859
8.4309 1.0427 1.8859
8.3175 1.7137 1.8859
8.3555 2.4330 1.9333
8.4611 3.2187 2.0119
8.2800 3.9351 2.0383
5.4217 3.1318 1.3927
4.6978 3.2414 1.2702
4.0879 3.3338 1.1745
3.8960 3.7350 1.2023
4.0145 4.5191 1.3472
4.1664 5.5245 1.5430
4.3713 6.8802 1.8187
4.2636 8.0743 2.0383
3.6014 8.3854 2.0383
2.9167 8.6424 2.0383
2.2140 8.8437 2.0383
1.4978 8.9881 2.0383
0.7728 9.0748 2.0383
0.0434 9.1033 2.0383
-0.6856 9.0735 2.0383
-1.4096 8.9856 2.0383
-2.1239 8.8403 2.0383
-2.8242 8.6386 2.0383
-3.5060 8.3818 2.0383
-4.1649 8.0716 2.0383
-7.5983 -2.5914 2.0383
-7.3690 -3.1929 2.0383
-7.0923 -3.7744 2.0383
-6.7700 -4.3321 2.0383
-6.4040 -4.8625 2.0383
-5.9966 -5.3622 2.0383
-5.5504 -5.8279 2.0383
-5.0682 -6.2566 2.0383
-4.5529 -6.6455 2.0383
-4.0080 -6.9921 2.0383
-3.4368 -7.2941 2.0383
-2.8430 -7.5494 2.0383
-2.2303 -7.7564 2.0383
-1.6029 -7.9138 2.0383
-0.9644 -8.0202 2.0383
-0.3192 -8.0751 2.0383
0.3285 -8.0781 2.0383
0.9746 -8.0289 2.0383
1.6149 -7.9280 2.0383
2.2453 -7.7759 2.0383
2.8615 -7.5736 2.0383
3.4597 -7.3223 2.0383
4.0358 -7.0236 2.0383
4.5862 -6.6794 2.0383
5.1072 -6.2919 2.0383
5.5953 -5.8638 2.0383
6.0475 -5.3976 2.0383
6.4607 -4.8965 2.0383
6.8322 -4.3637 2.0383
7.1597 -3.8028 2.0383
7.4408 -3.2173 2.0383
7.5733 -2.5768 2.0116
7.6744 -1.9418 1.9908
7.7719 -1.3155 1.9826
7.8669 -0.6904 1.9867
7.9606 -0.0588 2.0031
8.0541 0.5870 2.0325
8.0018 1.2332 2.0383
7.8749 1.8693 2.0383
7.6974 2.4929 2.0383
7.4703 3.1001 2.0383
5.9538 3.0507 1.6866
5.1357 3.1747 1.5228
4.4589 3.2772 1.3963
3.8829 3.3645 1.2969
3.9371 4.0066 1.4186
4.0664 4.8624 1.6016
4.6609 6.5798 2.0383
4.1171 6.9287 2.0383
3.5473 7.2327 2.0383
2.9552 7.4901 2.0383
2.3448 7.6991 2.0383
1.7198 7.8586 2.0383
1.0844 7.9676 2.0383
0.4425 8.0254 2.0383
-0.2016 8.0317 2.0383
-0.8440 7.9867 2.0383
-1.4805 7.8905 2.0383
-2.1070 7.7439 2.0383
-2.7197 7.5478 2.0383
-3.3147 7.3036 2.0383
-3.8881 7.0128 2.0383
-4.4364 6.6772 2.0383
-4.9561 6.2992 2.0383
-5.4439 5.8810 2.0383
-5.8969 5.4253 2.0383
-6.3120 4.9350 2.0383
-6.6868 4.4133 2.0383
-7.0188 3.8634 2.0383
-7.3060 3.2888 2.0383
-7.5465 2.6931 2.0383
-7.7388 2.0801 2.0383
-7.8817 1.4536 2.0383
-7.9742 0.8177 2.0383
-8.0158 0.1763 2.0383
-8.0061 -0.4665 2.0383
-7.9451 -1.1067 2.0383
-7.8334 -1.7401 2.0383
-7.6713 -2.3628 2.0383
-7.4601 -2.9707 2.0383
-7.2009 -3.5601 2.0383
-6.8954 -4.1271 2.0383
-6.5454 -4.6682 2.0383
-6.1532 -5.1797 2.0383
-5.7211 -5.6584 2.0383
-5.2520 -6.1013 2.0383
-4.7487 -6.5053 2.0383
-4.2145 -6.8680 2.0383
-3.6526 -7.1868 2.0383
-3.0668 -7.4598 2.0383
-2.4607 -7.6850 2.0383
-1.8383 -7.8610 2.0383
-1.2034 -7.9865 2.0383
-0.5603 -8.0607 2.0383
0.0869 -8.0831 2.0383
0.7342 -8.0533 2.0383
1.3771 -7.9717 2.0383
2.0117 -7.8386 2.0383
2.6337 -7.6548 2.0383
3.2390 -7.4216 2.0383
3.8238 -7.1404 2.0383
4.3842 -6.8129 2.0383
4.9166 -6.4413 2.0383
5.4174 -6.0280 2.0383
5.8833 -5.5757 2.0383
6.3114 -5.0872 2.0383
6.6987 -4.5659 2.0383
7.0429 -4.0150 2.0383
7.3415 -3.4382 2.0383
7.5343 -2.8174 2.0226
7.6372 -2.1771 1.9971
7.7359 -1.5485 1.9842
7.8317 -0.9238 1.9837
7.9258 -0.2955 1.9955
8.0192 0.3440 2.0200
8.0360 0.9936 2.0383
7.9282 1.6333 2.0383
7.7694 2.2620 2.0383
7.5607 2.8759 2.0383
7.3034 3.4707 2.0383
5.4215 3.1314 1.5788
4.6976 3.2410 1.4398
4.0878 3.3334 1.3313
3.8960 3.7346 1.3627
3.9512 4.4474 1.5029
4.1663 5.5239 1.7487
4.3231 6.8037 2.0383
3.7625 7.1247 2.0383
3.1784 7.3997 2.0383
2.5743 7.6269 2.0383
1.9543 7.8050 2.0383
1.3223 7.9329 2.0383
0.6824 8.0098 2.0383
0.0386 8.0354 2.0383
-0.6049 8.0095 2.0383
-1.2441 7.9323 2.0383
-1.8748 7.8044 2.0383
-2.4931 7.6266 2.0383
-3.0951 7.4002 2.0383
-3.6770 7.1265 2.0383
-6.7908 -2.3163 2.0383
-6.5856 -2.8537 2.0383
-6.3381 -3.3733 2.0383
-6.0498 -3.8716 2.0383
-5.7224 -4.3454 2.0383
-5.3582 -4.7917 2.0383
-4.9592 -5.2076 2.0383
-4.5281 -5.5904 2.0383
-4.0676 -5.9376 2.0383
-3.5805 -6.2470 2.0383
-3.0701 -6.5165 2.0383
-2.5394 -6.7442 2.0383
-1.9921 -6.9289 2.0383
-1.4314 -7.0690 2.0383
-0.8611 -7.1638 2.0383
-0.2849 -7.2126 2.0383
0.2937 -7.2149 2.0383
0.8707 -7.1708 2.0383
1.4425 -7.0804 2.0383
2.0054 -6.9443 2.0383
2.5556 -6.7634 2.0383
3.0897 -6.5388 2.0383
3.6041 -6.2719 2.0383
4.0954 -5.9644 2.0383
4.5605 -5.6183 2.0383
4.9964 -5.2359 2.0383
5.4001 -4.8196 2.0383
5.7690 -4.3722 2.0383
6.1007 -3.8965 2.0383
6.3930 -3.3956 2.0383
6.6441 -2.8728 2.0383
6.8523 -2.3316 2.0383
7.0162 -1.7753 2.0383
7.1349 -1.2078 2.0383
7.2075 -0.6326 2.0383
7.2335 -0.0536 2.0383
7.2130 0.5256 2.0383
7.1459 1.1011 2.0383
7.0328 1.6692 2.0383
6.8745 2.2262 2.0383
6.6720 2.7685 2.0383
6.4266 3.2927 2.0383
5.1355 3.1743 1.7048
4.4587 3.2769 1.5631
3.8828 3.3641 1.4519
3.9370 4.0062 1.5880
4.0663 4.8619 1.7927
4.1642 5.8780 2.0383
3.6785 6.1900 2.0383
3.1696 6.4619 2.0383
2.6408 6.6922 2.0383
2.0954 6.8793 2.0383
1.5371 7.0221 2.0383
0.9693 7.1198 2.0383
0.3957 7.1718 2.0383
-0.1799 7.1777 2.0383
-0.7540 7.1377 2.0383
-1.3229 7.0520 2.0383
-1.8830 6.9212 2.0383
-2.4307 6.7462 2.0383
-2.9625 6.5281 2.0383
-3.4752 6.2683 2.0383
-3.9654 5.9685 2.0383
-4.4300 5.6307 2.0383
-4.8662 5.2570 2.0383
-5.2711 4.8497 2.0383
-5.6423 4.4114 2.0383
-5.9773 3.9451 2.0383
-6.2741 3.4535 2.0383
-6.5308 2.9398 2.0383
-6.7458 2.4073 2.0383
-6.9176 1.8593 2.0383
-7.0452 1.2993 2.0383
-7.1278 0.7308 2.0383
-7.1648 0.1574 2.0383
-7.1560 -0.4172 2.0383
-7.1013 -0.9893 2.0383
-7.0012 -1.5555 2.0383
-6.8562 -2.1119 2.0383
-6.6671 -2.6552 2.0383
-6.4352 -3.1819 2.0383
-6.1619 -3.6885 2.0383
-5.8489 -4.1718 2.0383
-5.4982 -4.6287 2.0383
-5.1119 -5.0563 2.0383
-4.6925 -5.4517 2.0383
-4.2426 -5.8125 2.0383
-3.7650 -6.1362 2.0383
-3.2629 -6.4208 2.0383
-2.7394 -6.6643 2.0383
-2.1979 -6.8651 2.0383
-1.6418 -7.0220 2.0383
-1.0747 -7.1338 2.0383
-0.5002 -7.1998 2.0383
0.0779 -7.2195 2.0383
0.6560 -7.1926 2.0383
1.2301 -7.1195 2.0383
1.7968 -7.0003 2.0383
2.3522 -6.8360 2.0383
2.8927 -6.6275 2.0383
3.4148 -6.3762 2.0383
3.9151 -6.0837 2.0383
4.3904 -5.7518 2.0383
4.8375 -5.3826 2.0383
5.2535 -4.9787 2.0383
5.6356 -4.5425 2.0383
5.9815 -4.0770 2.0383
6.2887 -3.5851 2.0383
6.5554 -3.0701 2.0383
6.7798 -2.5353 2.0383
6.9603 -1.9843 2.0383
7.0960 -1.4205 2.0383
7.1858 -0.8478 2.0383
7.2293 -0.2697 2.0383
7.2261 0.3098 2.0383
7.1763 0.8871 2.0383
7.0803 1.4584 2.0383
6.9387 2.0200 2.0383
6.7526 2.5682 2.0383
6.5230 3.0996 2.0383
5.4212 3.1310 1.7676
4.6975 3.2407 1.6119
4.0877 3.3331 1.4903
3.8959 3.7343 1.5255
3.8781 4.3648 1.6512
4.3387 5.7519 2.0383
3.8625 6.0782 2.0383
3.3619 6.3653 2.0383
2.8401 6.6113 2.0383
2.3005 6.8146 2.0383
1.7466 6.9741 2.0383
1.1819 7.0887 2.0383
0.6101 7.1577 2.0383
0.0348 7.1809 2.0383
-0.5404 7.1580 2.0383
-1.1116 7.0893 2.0383
-1.6754 6.9752 2.0383
-2.2281 6.8166 2.0383
-2.7663 6.6144 2.0383
-3.2865 6.3699 2.0383
-6.1289 -2.0907 2.0383
-5.9435 -2.5758 2.0383
-5.7200 -3.0446 2.0383
-5.4596 -3.4942 2.0383
-5.1640 -3.9216 2.0383
-4.8351 -4.3243 2.0383
-4.4749 -4.6994 2.0383
-4.0857 -5.0446 2.0383
-3.6700 -5.3578 2.0383
-3.2304 -5.6367 2.0383
-2.7697 -5.8796 2.0383
-2.2909 -6.0849 2.0383
-1.7969 -6.2512 2.0383
-1.2911 -6.3774 2.0383
-0.7766 -6.4627 2.0383
-0.2567 -6.5064 2.0383
0.2651 -6.5083 2.0383
0.7856 -6.4683 2.0383
1.3014 -6.3866 2.0383
1.8090 -6.2637 2.0383
2.3053 -6.1003 2.0383
2.7869 -5.8976 2.0383
3.2508 -5.6568 2.0383
3.6939 -5.3794 2.0383
4.1133 -5.0672 2.0383
4.5063 -4.7222 2.0383
4.8703 -4.3468 2.0383
5.2030 -3.9432 2.0383
5.5021 -3.5141 2.0383
5.7657 -3.0624 2.0383
5.9922 -2.5910 2.0383
6.1800 -2.1029 2.0383
6.3279 -1.6013 2.0383
6.4350 -1.0894 2.0383
6.5005 -0.5707 2.0383
6.5242 -0.0485 2.0383
6.5058 0.4739 2.0383
6.4454 0.9930 2.0383
6.3436 1.5054 2.0383
6.2010 2.0078 2.0383
6.0185 2.4971 2.0383
5.7973 2.9700 2.0383
5.5390 3.4235 2.0383
4.4586 3.2765 1.7326
3.8827 3.3638 1.6092
3.9370 4.0058 1.7601
4.1716 4.9873 2.0383
3.7573 5.3033 2.0383
3.3193 5.5850 2.0383
2.8602 5.8305 2.0383
2.3831 6.0385 2.0383
1.8911 6.2076 2.0383
1.3873 6.3367 2.0383
0.8750 6.4251 2.0383
0.3574 6.4722 2.0383
-0.1621 6.4778 2.0383
-0.6803 6.4419 2.0383
-1.1938 6.3648 2.0383
-1.6993 6.2469 2.0383
-2.1937 6.0891 2.0383
-2.6738 5.8924 2.0383
-3.1366 5.6580 2.0383
-3.5792 5.3875 2.0383
-3.9987 5.0826 2.0383
-4.3924 4.7453 2.0383
-4.7580 4.3777 2.0383
-5.0931 3.9821 2.0383
-5.3956 3.5611 2.0383
-5.6635 3.1174 2.0383
-5.8952 2.6537 2.0383
-6.0892 2.1729 2.0383
-6.2443 1.6783 2.0383
-6.3594 1.1727 2.0383
-6.4339 0.6595 2.0383
-6.4672 0.1420 2.0383
-6.4591 -0.3767 2.0383
-6.4096 -0.8931 2.0383
-6.3191 -1.4041 2.0383
-6.1880 -1.9063 2.0383
-6.0172 -2.3966 2.0383
-5.8077 -2.8718 2.0383
-5.5609 -3.3290 2.0383
-5.2782 -3.7650 2.0383
-4.9615 -4.1772 2.0383
-4.6127 -4.5629 2.0383
-4.2341 -4.9196 2.0383
-3.8279 -5.2449 2.0383
-3.3969 -5.5368 2.0383
-2.9438 -5.7933 2.0383
-2.4713 -6.0128 2.0383
-1.9827 -6.1938 2.0383
-1.4809 -6.3351 2.0383
-0.9692 -6.4357 2.0383
-0.4510 -6.4950 2.0383
0.0705 -6.5125 2.0383
0.5919 -6.4881 2.0383
1.1098 -6.4219 2.0383
1.6209 -6.3143 2.0383
2.1218 -6.1659 2.0383
2.6092 -5.9777 2.0383
3.0801 -5.7509 2.0383
3.5313 -5.4870 2.0383
3.9598 -5.1875 2.0383
4.3630 -4.8545 2.0383
4.7381 -4.4902 2.0383
5.0827 -4.0968 2.0383
5.3946 -3.6769 2.0383
5.6717 -3.2333 2.0383
5.9122 -2.7689 2.0383
6.1146 -2.2866 2.0383
6.2775 -1.7897 2.0383
6.3999 -1.2813 2.0383
6.4810 -0.7647 2.0383
6.5203 -0.2434 2.0383
6.5175 0.2793 2.0383
6.4728 0.8000 2.0383
6.3864 1.3153 2.0383
6.2589 1.8219 2.0383
6.0911 2.3164 2.0383
5.8842 2.7958 2.0383
5.6396 3.2568 2.0383
4.6974 3.2403 1.7867
4.0876 3.3327 1.6519
3.8959 3.7339 1.6908
4.3194 4.8611 2.0383
3.9147 5.1894 2.0383
3.4852 5.4841 2.0383
3.0336 5.7433 2.0383
2.5629 5.9655 2.0383
2.0761 6.1492 2.0383
1.5763 6.2933 2.0383
1.0668 6.3969 2.0383
0.5508 6.4595 2.0383
0.0316 6.4806 2.0383
-0.4874 6.4602 2.0383
-1.0031 6.3983 2.0383
-1.5119 6.2956 2.0383
-2.0109 6.1525 2.0383
-2.4967 5.9702 2.0383
-2.9663 5.7497 2.0383
-5.5757 -1.9022 2.0383
-5.4069 -2.3434 2.0383
-5.2034 -2.7699 2.0383
-4.9664 -3.1788 2.0383
-4.6974 -3.5676 2.0383
-4.3980 -3.9337 2.0383
-4.0702 -4.2748 2.0383
-3.7161 -4.5887 2.0383
-3.3379 -4.8734 2.0383
-2.9379 -5.1269 2.0383
-2.5188 -5.3476 2.0383
-0.7556 -2.0072 0.7393
-1.6340 -5.6853 2.0383
-1.1739 -5.7999 2.0383
-0.7060 -5.8773 2.0383
-0.2332 -5.9169 2.0383
0.2413 -5.9184 2.0383
0.7146 -5.8819 2.0383
1.1836 -5.8074 2.0383
1.6451 -5.6955 2.0383
0.7584 -2.0069 0.7375
2.5342 -5.3624 2.0383
2.9559 -5.1434 2.0383
3.3587 -4.8911 2.0383
3.7400 -4.6072 2.0383
4.0973 -4.2935 2.0383
4.4282 -3.9521 2.0383
4.7306 -3.5852 2.0383
5.0025 -3.1951 2.0383
5.2423 -2.7844 2.0383
5.4482 -2.3558 2.0383
5.6189 -1.9120 2.0383
5.7534 -1.4560 2.0383
5.8509 -0.9906 2.0383
5.9105 -0.5190 2.0383
5.9321 -0.0442 2.0383
5.9155 0.4307 2.0383
5.8607 0.9027 2.0383
5.7683 1.3687 2.0383
5.6387 1.8256 2.0383
5.4729 2.2705 2.0383
5.2720 2.7006 2.0383
5.0372 3.1130 2.0383
4.7702 3.5052 2.0383
3.8827 3.3634 1.7694
4.1467 4.2188 2.0383
3.7942 4.5357 2.0383
3.4175 4.8232 2.0383
3.0192 5.0796 2.0383
2.6018 5.3031 2.0383
2.1679 5.4925 2.0383
1.7204 5.6464 2.0383
1.2622 5.7641 2.0383
0.7962 5.8447 2.0383
0.3253 5.8877 2.0383
-0.1473 5.8930 2.0383
-0.6187 5.8605 2.0383
-1.0858 5.7904 2.0383
-1.5458 5.6833 2.0383
-1.9957 5.5398 2.0383
-2.4325 5.3609 2.0383
-2.8537 5.1478 2.0383
-3.2564 4.9018 2.0383
-3.6381 4.6244 2.0383
-3.9964 4.3176 2.0383
-4.3291 3.9831 2.0383
-4.6340 3.6232 2.0383
-4.9092 3.2402 2.0383
-5.1530 2.8364 2.0383
-5.3639 2.4144 2.0383
-5.5404 1.9770 2.0383
-5.6814 1.5269 2.0383
-5.7861 1.0669 2.0383
-5.8538 0.5999 2.0383
-5.8840 0.1290 2.0383
-5.8765 -0.3429 2.0383
-5.8314 -0.8127 2.0383
-5.7489 -1.2776 2.0383
-5.6295 -1.7345 2.0383
-5.4740 -2.1805 2.0383
-5.2833 -2.6128 2.0383
-5.0586 -3.0285 2.0383
-4.8013 -3.4251 2.0383
-4.5130 -3.8000 2.0383
-4.1957 -4.1507 2.0383
-3.8511 -4.4750 2.0383
-3.4816 -4.7708 2.0383
-3.0894 -5.0361 2.0383
-2.6772 -5.2693 2.0383
-2.2474 -5.4687 2.0383
-1.8029 -5.6331 2.0383
-1.3466 -5.7615 2.0383
-0.8812 -5.8528 2.0383
-0.4099 -5.9065 2.0383
0.0644 -5.9223 2.0383
0.5385 -5.8999 2.0383
1.0094 -5.8396 2.0383
1.4741 -5.7416 2.0383
0.6981 -2.0285 0.7375
2.3726 -5.4353 2.0383
2.8007 -5.2290 2.0383
3.2109 -4.9889 2.0383
3.6005 -4.7166 2.0383
3.9670 -4.4138 2.0383
4.3080 -4.0825 2.0383
4.6213 -3.7248 2.0383
4.9048 -3.3431 2.0383
5.1567 -2.9398 2.0383
5.3754 -2.5175 2.0383
5.5594 -2.0791 2.0383
5.7076 -1.6273 2.0383
5.8189 -1.1650 2.0383
5.8927 -0.6954 2.0383
5.9285 -0.2214 2.0383
5.9261 0.2538 2.0383
5.8856 0.7273 2.0383
5.8071 1.1958 2.0383
5.6913 1.6565 2.0383
5.5389 2.1062 2.0383
5.3509 2.5421 2.0383
5.1286 2.9615 2.0383
4.8735 3.3615 2.0383
4.0875 3.3324 1.8163
4.2715 4.0936 2.0383
3.9286 4.4209 2.0383
3.5606 4.7196 2.0383
3.1701 4.9877 2.0383
2.7595 5.2237 2.0383
2.3314 5.4259 2.0383
1.8887 5.5932 2.0383
1.4341 5.7245 2.0383
0.9707 5.8190 2.0383
0.5013 5.8761 2.0383
0.0290 5.8954 2.0383
-0.4432 5.8770 2.0383
-0.9123 5.8209 2.0383
-1.3753 5.7275 2.0383
-1.8293 5.5975 2.0383
-2.2713 5.4317 2.0383
-2.6986 5.2312 2.0383
-5.1058 -1.7421 2.0383
-4.9511 -2.1461 2.0383
-4.7646 -2.5365 2.0383
-4.5475 -2.9109 2.0383
-4.3010 -3.2668 2.0383
-4.0268 -3.6020 2.0383
-3.7266 -3.9142 2.0383
-3.4023 -4.2016 2.0383
-3.0559 -4.4620 2.0383
-2.6896 -4.6941 2.0383
-2.3059 -4.8960 2.0383
-0.6920 -1.8385 0.7396
-0.5425 -1.8879 0.7393
-0.3896 -1.9252 0.7390
-0.2342 -1.9501 0.7388
-0.0773 -1.9626 0.7386
0.0801 -1.9626 0.7384
0.2370 -1.9500 0.7382
0.3924 -1.9250 0.7381
0.5453 -1.8876 0.7380
0.6948 -1.8382 0.7380
2.3197 -4.9083 2.0383
2.7057 -4.7077 2.0383
3.0743 -4.4767 2.0383
3.4233 -4.2169 2.0383
3.7502 -3.9297 2.0383
4.0531 -3.6173 2.0383
4.3298 -3.2814 2.0383
4.5787 -2.9244 2.0383
4.7981 -2.5485 2.0383
4.9866 -2.1562 2.0383
5.1429 -1.7501 2.0383
5.2660 -1.3327 2.0383
5.3553 -0.9068 2.0383
5.4099 -0.4752 2.0383
5.4298 -0.0406 2.0383
5.4146 0.3941 2.0383
5.3646 0.8261 2.0383
5.2800 1.2527 2.0383
5.1615 1.6709 2.0383
5.0099 2.0782 2.0383
4.8261 2.4720 2.0383
4.6113 2.8496 2.0383
4.3670 3.2087 2.0383
4.0948 3.5469 2.0383
3.7964 3.8621 2.0383
3.4738 4.1523 2.0383
3.1290 4.4157 2.0383
2.7644 4.6505 2.0383
2.3823 4.8553 2.0383
0.7278 1.8437 0.7473
0.5778 1.8962 0.7476
0.4241 1.9365 0.7479
0.2677 1.9643 0.7482
0.2981 5.3912 2.0383
-0.1346 5.3962 2.0383
-0.2080 1.9713 0.7487
-0.3653 1.9482 0.7489
-0.5201 1.9124 0.7490
-0.6715 1.8643 0.7490
-2.2275 4.9095 2.0383
-2.6132 4.7144 2.0383
-2.9821 4.4891 2.0383
-3.3317 4.2351 2.0383
-3.6599 3.9541 2.0383
-3.9646 3.6479 2.0383
-4.2439 3.3183 2.0383
-4.4960 2.9674 2.0383
-4.7193 2.5976 2.0383
-4.9124 2.2112 2.0383
-5.0740 1.8106 2.0383
-5.2031 1.3983 2.0383
-5.2990 0.9770 2.0383
-5.3609 0.5493 2.0383
-5.3885 0.1180 2.0383
-5.3816 -0.3141 2.0383
-5.3402 -0.7444 2.0383
-5.2645 -1.1701 2.0383
-5.1551 -1.5885 2.0383
-5.0126 -1.9969 2.0383
-4.8378 -2.3927 2.0383
-4.6320 -2.7734 2.0383
-4.3963 -3.1364 2.0383
-4.1322 -3.4796 2.0383
-3.8415 -3.8006 2.0383
-3.5259 -4.0975 2.0383
-3.1875 -4.3682 2.0383
-2.8284 -4.6110 2.0383
-2.4508 -4.8243 2.0383
-0.7467 -1.8171 0.7398
-0.5987 -1.8709 0.7394
-0.4469 -1.9127 0.7391
-0.2924 -1.9423 0.7389
-0.1359 -1.9594 0.7387
0.0214 -1.9641 0.7385
0.1786 -1.9562 0.7383
0.3347 -1.9358 0.7381
0.4886 -1.9030 0.7380
0.6395 -1.8580 0.7380
2.1719 -4.9751 2.0383
2.5637 -4.7862 2.0383
2.9390 -4.5663 2.0383
3.2956 -4.3171 2.0383
3.6310 -4.0399 2.0383
3.9431 -3.7366 2.0383
4.2298 -3.4092 2.0383
4.4893 -3.0598 2.0383
4.7199 -2.6907 2.0383
4.9200 -2.3043 2.0383
5.0884 -1.9030 2.0383
5.2241 -1.4895 2.0383
5.3260 -1.0664 2.0383
5.3936 -0.6366 2.0383
5.4265 -0.2028 2.0383
5.4243 0.2322 2.0383
5.3873 0.6655 2.0383
5.3156 1.0944 2.0383
5.2097 1.5161 2.0383
5.0703 1.9278 2.0383
4.8983 2.3269 2.0383
4.6949 2.7108 2.0383
4.4615 3.0771 2.0383
4.1995 3.4233 2.0383
3.9106 3.7474 2.0383
3.5968 4.0472 2.0383
3.2600 4.3207 2.0383
2.9026 4.5664 2.0383
2.5267 4.7825 2.0383
0.7826 1.8210 0.7472
0.6343 1.8780 0.7475
0.4818 1.9229 0.7478
0.3263 1.9554 0.7481
0.4592 5.3805 2.0383
0.0267 5.3984 2.0383
-0.4057 5.3816 2.0383
-0.3069 1.9583 0.7488
-0.4627 1.9272 0.7489
-0.6155 1.8837 0.7490
-0.7643 1.8280 0.7491
-2.4713 4.7907 2.0383
-4.7011 -1.6042 2.0383
-4.5586 -1.9761 2.0383
-4.3868 -2.3356 2.0383
-4.1867 -2.6803 2.0383
-3.9597 -3.0079 2.0383
-3.7072 -3.3164 2.0383
-3.4307 -3.6038 2.0383
-3.1320 -3.8682 2.0383
-2.8131 -4.1079 2.0383
-2.4758 -4.3214 2.0383
-0.7708 -1.6369 0.7402
-0.6372 -1.6932 0.7399
-0.4995 -1.7387 0.7397
-0.3587 -1.7730 0.7394
-0.2156 -1.7960 0.7392
-0.0711 -1.8075 0.7390
0.0738 -1.8075 0.7388
0.2183 -1.7959 0.7386
0.3614 -1.7728 0.7385
0.5022 -1.7384 0.7384
0.6399 -1.6929 0.7384
0.7735 -1.6365 0.7384
2.4904 -4.3329 2.0383
2.8296 -4.1203 2.0383
3.1508 -3.8810 2.0383
3.4516 -3.6168 2.0383
3.7303 -3.3292 2.0383
3.9850 -3.0201 2.0383
4.2141 -2.6915 2.0383
4.4160 -2.3456 2.0383
4.5894 -1.9845 2.0383
4.7333 -1.6107 2.0383
4.8467 -1.2266 2.0383
4.9288 -0.8347 2.0383
4.9792 -0.4374 2.0383
4.9975 -0.0375 2.0383
4.9836 0.3626 2.0383
4.9376 0.7602 2.0383
4.8599 1.1528 2.0383
4.7509 1.5378 2.0383
4.6114 1.9127 2.0383
4.4423 2.2752 2.0383
4.2447 2.6228 2.0383
4.0200 2.9534 2.0383
3.7695 3.2648 2.0383
3.4949 3.5551 2.0383
3.1980 3.8223 2.0383
2.8807 4.0648 2.0383
2.5451 4.2811 2.0383
2.1934 4.4697 2.0383
0.6698 1.6966 0.7470
0.5318 1.7449 0.7473
0.3904 1.7820 0.7475
0.2464 1.8076 0.7478
0.1008 1.8215 0.7480
-0.0454 1.8237 0.7482
-0.1914 1.8141 0.7483
-0.3361 1.7927 0.7484
-0.4785 1.7598 0.7485
-0.6179 1.7156 0.7486
-0.7533 1.6603 0.7486
-2.4061 4.3410 2.0383
-2.7458 4.1336 2.0383
-3.0678 3.8998 2.0383
-3.3700 3.6411 2.0383
-3.6507 3.3590 2.0383
-3.9079 3.0555 2.0383
-4.1400 2.7325 2.0383
-4.3456 2.3919 2.0383
-4.5234 2.0361 2.0383
-4.6722 1.6672 2.0383
-4.7911 1.2875 2.0383
-4.8794 0.8995 2.0383
-4.9363 0.5057 2.0383
-4.9617 0.1086 2.0383
-4.9553 -0.2894 2.0383
-4.9171 -0.6856 2.0383
-4.8473 -1.0776 2.0383
-4.7465 -1.4628 2.0383
-4.6152 -1.8388 2.0383
-4.4542 -2.2032 2.0383
-4.2646 -2.5536 2.0383
-4.0475 -2.8878 2.0383
-3.8043 -3.2037 2.0383
-3.5365 -3.4992 2.0383
-3.2459 -3.7724 2.0383
-2.9343 -4.0215 2.0383
-2.6036 -4.2450 2.0383
-2.2560 -4.4413 2.0383
-0.6875 -1.6734 0.7400
-0.5513 -1.7230 0.7398
-0.4115 -1.7615 0.7395
-0.2692 -1.7888 0.7392
-0.1251 -1.8046 0.7390
0.0198 -1.8089 0.7389
0.1646 -1.8016 0.7387
0.3083 -1.7828 0.7386
0.4501 -1.7526 0.7385
0.5890 -1.7111 0.7384
0.7242 -1.6588 0.7384
2.3597 -4.4051 2.0383
2.7051 -4.2027 2.0383
3.0333 -3.9733 2.0383
3.3419 -3.7181 2.0383
3.6291 -3.4390 2.0383
3.8930 -3.1377 2.0383
4.1318 -2.8161 2.0383
4.3440 -2.4764 2.0383
4.5282 -2.1208 2.0383
4.6832 -1.7515 2.0383
4.8080 -1.3709 2.0383
4.9019 -0.9816 2.0383
4.9642 -0.5860 2.0383
4.9944 -0.1867 2.0383
4.9926 0.2136 2.0383
4.9585 0.6124 2.0383
4.8926 1.0072 2.0383
4.7952 1.3953 2.0383
4.6670 1.7743 2.0383
4.5088 2.1416 2.0383
4.3217 2.4951 2.0383
4.1069 2.8323 2.0383
3.8658 3.1511 2.0383
3.6000 3.4494 2.0383
3.3112 3.7254 2.0383
3.0013 3.9774 2.0383
2.6722 4.2036 2.0383
2.3263 4.4027 2.0383
0.7202 1.6758 0.7469
0.5837 1.7282 0.7472
0.4435 1.7695 0.7475
0.3003 1.7994 0.7477
0.1552 1.8177 0.7479
0.0091 1.8242 0.7481
-0.1371 1.8190 0.7483
-0.2823 1.8020 0.7484
-0.4257 1.7734 0.7485
-0.5664 1.7334 0.7486
-0.7033 1.6822 0.7486
-2.2754 4.4113 2.0383
-4.3483 -1.4840 2.0383
-4.2164 -1.8280 2.0383
-4.0575 -2.1605 2.0383
-3.8724 -2.4792 2.0383
-3.6623 -2.7822 2.0383
-3.4287 -3.0675 2.0383
-3.1729 -3.3333 2.0383
-2.8966 -3.5777 2.0383
-2.6015 -3.7994 2.0383
-2.2896 -3.9967 2.0383
-0.7130 -1.5144 0.7405
-0.5894 -1.5665 0.7402
-0.4621 -1.6086 0.7399
-0.3318 -1.6403 0.7397
-0.1994 -1.6616 0.7395
-0.0657 -1.6723 0.7393
0.0684 -1.6723 0.7391
0.2021 -1.6615 0.7390
0.3344 -1.6402 0.7389
0.4647 -1.6083 0.7388
0.5921 -1.5662 0.7388
0.7156 -1.5140 0.7388
2.3029 -4.0065 2.0383
2.6166 -3.8098 2.0383
2.9134 -3.5886 2.0383
3.1916 -3.3442 2.0383
3.4493 -3.0783 2.0383
3.6848 -2.7925 2.0383
3.8966 -2.4887 2.0383
4.0832 -2.1688 2.0383
4.2436 -1.8350 2.0383
4.3767 -1.4894 2.0383
4.4815 -1.1343 2.0383
4.5575 -0.7719 2.0383
4.6041 -0.4046 2.0383
4.6211 -0.0347 2.0383
4.6083 0.3352 2.0383
4.5658 0.7029 2.0383
4.4940 1.0659 2.0383
4.3933 1.4219 2.0383
4.2644 1.7686 2.0383
4.1081 2.1038 2.0383
3.9254 2.4253 2.0383
3.7177 2.7310 2.0383
3.4861 3.0191 2.0383
3.2322 3.2876 2.0383
2.9577 3.5348 2.0383
2.6643 3.7591 2.0383
2.3540 3.9592 2.0383
0.7429 1.5138 0.7464
0.6194 1.5686 0.7467
0.4918 1.6132 0.7470
0.3610 1.6475 0.7472
0.2279 1.6711 0.7475
0.0933 1.6840 0.7477
-0.0419 1.6860 0.7478
-0.1769 1.6771 0.7480
-0.3106 1.6574 0.7481
-0.4424 1.6270 0.7482
-0.5712 1.5861 0.7482
-0.6964 1.5350 0.7482
-2.2256 4.0155 2.0383
-2.5398 3.8237 2.0383
-2.8377 3.6075 2.0383
-3.1173 3.3681 2.0383
-3.3770 3.1073 2.0383
-3.6149 2.8265 2.0383
-3.8297 2.5277 2.0383
-4.0199 2.2126 2.0383
-4.1843 1.8834 2.0383
-4.3220 1.5421 2.0383
-4.4320 1.1909 2.0383
-4.5136 0.8320 2.0383
-4.5662 0.4677 2.0383
-4.5897 0.1003 2.0383
-4.5837 -0.2678 2.0383
-4.5483 -0.6343 2.0383
-4.4837 -0.9969 2.0383
-4.3904 -1.3532 2.0383
-4.2688 -1.7010 2.0383
-4.1198 -2.0380 2.0383
-3.9444 -2.3621 2.0383
-3.7435 -2.6712 2.0383
-3.5185 -2.9633 2.0383
-3.2708 -3.2365 2.0383
-3.0019 -3.4892 2.0383
-2.7136 -3.7195 2.0383
-2.4078 -3.9261 2.0383
-0.7580 -1.4924 0.7406
-0.6360 -1.5482 0.7403
-0.5100 -1.5941 0.7400
-0.3807 -1.6297 0.7398
-0.2490 -1.6549 0.7396
-0.1157 -1.6696 0.7394
0.0184 -1.6735 0.7392
0.1523 -1.6668 0.7391
0.2853 -1.6494 0.7389
0.4164 -1.6214 0.7388
0.5450 -1.5831 0.7388
0.6700 -1.5346 0.7388
2.1820 -4.0732 2.0383
2.5015 -3.8861 2.0383
2.8048 -3.6739 2.0383
3.0902 -3.4380 2.0383
3.3557 -3.1799 2.0383
3.5997 -2.9013 2.0383
3.8205 -2.6039 2.0383
4.0167 -2.2898 2.0383
4.1870 -1.9610 2.0383
4.3303 -1.6195 2.0383
4.4458 -1.2677 2.0383
4.5326 -0.9077 2.0383
4.5902 -0.5419 2.0383
4.6182 -0.1728 2.0383
4.6165 0.1974 2.0383
4.5851 0.5662 2.0383
4.5242 0.9312 2.0383
4.4342 1.2901 2.0383
4.3157 1.6406 2.0383
4.1695 1.9803 2.0383
3.9966 2.3071 2.0383
3.7980 2.6190 2.0383
3.5751 2.9139 2.0383
3.3294 3.1898 2.0383
3.0623 3.4452 2.0383
2.7758 3.6782 2.0383
2.4716 3.8875 2.0383
0.7878 1.4909 0.7463
0.6660 1.5493 0.7466
0.5398 1.5978 0.7469
0.4101 1.6360 0.7472
0.2777 1.6636 0.7474
0.1436 1.6805 0.7476
0.0085 1.6865 0.7478
-0.1266 1.6817 0.7479
-0.2609 1.6660 0.7480
-0.3935 1.6396 0.7481
-0.5236 1.6026 0.7482
-0.6502 1.5552 0.7482
-0.7726 1.4979 0.7482
-4.0377 -1.3781 2.0383
-3.9152 -1.6976 2.0383
-3.7675 -2.0063 2.0383
-3.5955 -2.3022 2.0383
-3.4005 -2.5835 2.0383
-3.1834 -2.8484 2.0383
-2.9459 -3.0951 2.0383
-2.6893 -3.3220 2.0383
-2.4153 -3.5277 2.0383
-0.7727 -1.3490 0.7410
-0.6621 -1.4064 0.7407
-0.5474 -1.4549 0.7404
-0.4291 -1.4939 0.7402
-0.3081 -1.5235 0.7400
-0.1851 -1.5433 0.7398
-0.0610 -1.5532 0.7396
0.0636 -1.5531 0.7394
0.1877 -1.5432 0.7393
0.3107 -1.5233 0.7392
0.4317 -1.4937 0.7392
0.5499 -1.4546 0.7391
0.6647 -1.4061 0.7391
0.7752 -1.3486 0.7391
2.4290 -3.5367 2.0383
2.7046 -3.3313 2.0383
2.9628 -3.1044 2.0383
3.2020 -2.8575 2.0383
3.4206 -2.5922 2.0383
3.6172 -2.3102 2.0383
3.7905 -2.0133 2.0383
3.9393 -1.7035 2.0383
4.0628 -1.3827 2.0383
4.1602 -1.0530 2.0383
4.2307 -0.7166 2.0383
4.2740 -0.3757 2.0383
4.2898 -0.0324 2.0383
4.2780 0.3111 2.0383
4.2386 0.6524 2.0383
4.1720 0.9894 2.0383
4.0786 1.3199 2.0383
3.9590 1.6418 2.0383
3.8139 1.9530 2.0383
3.6444 2.2515 2.0383
3.4516 2.5353 2.0383
3.2366 2.8028 2.0383
3.0010 3.0521 2.0383
2.7462 3.2817 2.0383
2.4739 3.4900 2.0383
2.1858 3.6759 2.0383
0.6897 1.4051 0.7462
0.5750 1.4559 0.7465
0.4565 1.4974 0.7467
0.3351 1.5292 0.7470
0.2116 1.5511 0.7472
0.0866 1.5630 0.7474
-0.0389 1.5649 0.7475
-0.1641 1.5566 0.7476
-0.2883 1.5383 0.7477
-0.4105 1.5101 0.7478
-0.5301 1.4722 0.7479
-0.6463 1.4248 0.7479
-0.7583 1.3682 0.7479
-2.3584 3.5508 2.0383
-2.6351 3.3500 2.0383
-2.8948 3.1278 2.0383
-3.1359 2.8855 2.0383
-3.3569 2.6248 2.0383
-3.5563 2.3473 2.0383
-3.7330 2.0547 2.0383
-3.8857 1.7490 2.0383
-4.0135 1.4320 2.0383
-4.1156 1.1059 2.0383
-4.1914 0.7726 2.0383
-4.2403 0.4343 2.0383
-4.2620 0.0931 2.0383
-4.2564 -0.2488 2.0383
-4.2235 -0.5891 2.0383
-4.1635 -0.9258 2.0383
-4.0767 -1.2567 2.0383
-3.9638 -1.5796 2.0383
-3.8254 -1.8925 2.0383
-3.6624 -2.1935 2.0383
-3.4758 -2.4804 2.0383
-3.2668 -2.7516 2.0383
-3.0368 -3.0053 2.0383
-2.7871 -3.2398 2.0383
-2.5194 -3.4536 2.0383
-2.2353 -3.6453 2.0383
-0.7039 -1.3861 0.7408
-0.5906 -1.4379 0.7405
-0.4735 -1.4805 0.7403
-0.3535 -1.5136 0.7401
-0.2311 -1.5370 0.7398
-0.1074 -1.5506 0.7397
0.0171 -1.5543 0.7395
0.1415 -1.5480 0.7394
0.2650 -1.5319 0.7393
0.3868 -1.5059 0.7392
0.5062 -1.4703 0.7391
0.6223 -1.4253 0.7391
0.7345 -1.3711 0.7391
2.3222 -3.6075 2.0383
2.6038 -3.4105 2.0383
2.8687 -3.1914 2.0383
3.1152 -2.9518 2.0383
3.3416 -2.6932 2.0383
3.5465 -2.4172 2.0383
3.7286 -2.1256 2.0383
3.8867 -1.8204 2.0383
4.0198 -1.5034 2.0383
4.1270 -1.1768 2.0383
4.2076 -0.8427 2.0383
4.2611 -0.5032 2.0383
4.2872 -0.1605 2.0383
4.2856 0.1831 2.0383
4.2565 0.5255 2.0383
4.2000 0.8643 2.0383
4.1165 1.1975 2.0383
4.0066 1.5229 2.0383
3.8709 1.8383 2.0383
3.7104 2.1418 2.0383
3.5261 2.4313 2.0383
3.3193 2.7051 2.0383
3.0912 2.9614 2.0383
2.8433 3.1985 2.0383
2.5773 3.4149 2.0383
2.2949 3.6093 2.0383
0.7313 1.3838 0.7461
0.6182 1.4381 0.7464
0.5011 1.4830 0.7467
0.3807 1.5185 0.7469
0.2578 1.5441 0.7471
0.1333 1.5598 0.7473
0.0079 1.5654 0.7475
-0.1175 1.5609 0.7476
-0.2421 1.5463 0.7477
-0.3652 1.5218 0.7478
-0.4859 1.4875 0.7479
-0.6034 1.4435 0.7479
-0.7171 1.3903 0.7479
-3.7616 -1.2841 2.0383
-3.6474 -1.5817 2.0383
-3.5098 -1.8692 2.0383
-3.3496 -2.1449 2.0383
-3.1678 -2.4069 2.0383
-2.9655 -2.6537 2.0383
-2.7442 -2.8834 2.0383
-2.5051 -3.0948 2.0383
-2.2498 -3.2864 2.0383
-0.7199 -1.2570 0.7411
-0.6169 -1.3105 0.7409
-0.5100 -1.3556 0.7406
-0.3998 -1.3921 0.7404
-0.2870 -1.4196 0.7402
-0.1724 -1.4380 0.7400
-0.0567 -1.4473 0.7399
0.0593 -1.4472 0.7397
0.1750 -1.4379 0.7396
0.2895 -1.4194 0.7395
0.4023 -1.3919 0.7395
0.5125 -1.3554 0.7394
0.6194 -1.3102 0.7394
0.7224 -1.2566 0.7394
2.2625 -3.2941 2.0383
2.5192 -3.1028 2.0383
2.7597 -2.8914 2.0383
2.9824 -2.6615 2.0383
3.1860 -2.4144 2.0383
3.3690 -2.1517 2.0383
3.5304 -1.8752 2.0383
3.6691 -1.5866 2.0383
3.7842 -1.2879 2.0383
3.8748 -0.9808 2.0383
3.9406 -0.6675 2.0383
3.9809 -0.3500 2.0383
3.9956 -0.0302 2.0383
3.9846 0.2896 2.0383
3.9480 0.6075 2.0383
3.8860 0.9214 2.0383
3.7990 1.2293 2.0383
3.6877 1.5291 2.0383
3.5526 1.8190 2.0383
3.3948 2.0970 2.0383
3.2152 2.3615 2.0383
3.0150 2.6107 2.0383
2.7956 2.8429 2.0383
2.5583 3.0568 2.0383
2.3046 3.2510 2.0383
0.7450 1.2528 0.7458
0.6424 1.3086 0.7460
0.5355 1.3559 0.7463
0.4252 1.3945 0.7465
0.3122 1.4241 0.7467
0.1971 1.4445 0.7469
0.0807 1.4556 0.7471
-0.0361 1.4573 0.7472
-0.1528 1.4497 0.7474
-0.2684 1.4326 0.7475
-0.3823 1.4064 0.7475
-0.4937 1.3710 0.7476
-0.6019 1.3269 0.7476
-0.7061 1.2742 0.7476
-2.1972 3.3082 2.0383
-2.4550 3.1212 2.0383
-2.6970 2.9141 2.0383
-2.9216 2.6884 2.0383
-3.1275 2.4455 2.0383
-3.3134 2.1869 2.0383
-3.4780 1.9144 2.0383
-3.6203 1.6295 2.0383
-3.7394 1.3342 2.0383
-3.8345 1.0303 2.0383
-3.9050 0.7197 2.0383
-3.9506 0.4045 2.0383
-3.9708 0.0866 2.0383
-3.9655 -0.2319 2.0383
-3.9348 -0.5490 2.0383
-3.8789 -0.8627 2.0383
-3.7980 -1.1709 2.0383
-3.6928 -1.4718 2.0383
-3.5638 -1.7633 2.0383
-3.4119 -2.0436 2.0383
-3.2380 -2.3109 2.0383
-3.0433 -2.5635 2.0383
-2.8289 -2.7998 2.0383
-2.5962 -3.0182 2.0383
-2.3468 -3.2174 2.0383
-0.7572 -1.2350 0.7412
-0.6558 -1.2915 0.7410
-0.5502 -1.3398 0.7407
-0.4412 -1.3795 0.7405
-0.3293 -1.4104 0.7403
-0.2153 -1.4322 0.7401
-0.1000 -1.4449 0.7399
0.0160 -1.4483 0.7398
0.1319 -1.4425 0.7396
0.2470 -1.4274 0.7395
0.3605 -1.4032 0.7395
0.4717 -1.3700 0.7394
0.5799 -1.3280 0.7394
0.6845 -1.2776 0.7394
0.7847 -1.2189 0.7394
2.4253 -3.1765 2.0383
2.6720 -2.9725 2.0383
2.9015 -2.7493 2.0383
3.1124 -2.5084 2.0383
3.3033 -2.2514 2.0383
3.4729 -1.9798 2.0383
3.6201 -1.6955 2.0383
3.7441 -1.4003 2.0383
3.8439 -1.0961 2.0383
3.9190 -0.7849 2.0383
3.9688 -0.4687 2.0383
3.9931 -0.1496 2.0383
3.9918 0.1705 2.0383
3.9647 0.4893 2.0383
3.9121 0.8050 2.0383
3.8344 1.1153 2.0383
3.7320 1.4183 2.0383
3.6057 1.7122 2.0383
3.4562 1.9949 2.0383
3.2846 2.2646 2.0383
3.0920 2.5196 2.0383
2.8796 2.7584 2.0383
2.6488 2.9793 2.0383
2.4010 3.1810 2.0383
0.7821 1.2299 0.7457
0.6812 1.2887 0.7459
0.5758 1.3392 0.7462
0.4667 1.3811 0.7464
0.3546 1.4141 0.7467
0.2402 1.4380 0.7469
0.1242 1.4526 0.7470
0.0075 1.4578 0.7472
-0.1093 1.4536 0.7473
-0.2254 1.4401 0.7474
-0.3401 1.4172 0.7475
-0.4525 1.3853 0.7476
-0.5619 1.3444 0.7476
-0.6678 1.2948 0.7476
-3.5143 -1.1998 2.0383
-3.4075 -1.4778 2.0383
-3.2789 -1.7464 2.0383
-3.1292 -2.0040 2.0383
-2.9593 -2.2488 2.0383
-2.7703 -2.4792 2.0383
-2.5635 -2.6939 2.0383
-2.3401 -2.8913 2.0383
-0.7646 -1.1170 0.7416
-0.6726 -1.1745 0.7413
-0.5764 -1.2246 0.7411
-0.4764 -1.2667 0.7408
-0.3735 -1.3008 0.7406
-0.2681 -1.3265 0.7404
-0.1611 -1.3437 0.7403
-0.0530 -1.3524 0.7401
0.0555 -1.3523 0.7400
0.1636 -1.3436 0.7399
0.2706 -1.3264 0.7398
0.3759 -1.3006 0.7397
0.4789 -1.2665 0.7397
0.5788 -1.2243 0.7397
0.6750 -1.1742 0.7397
0.7670 -1.1166 0.7397
2.3531 -2.8981 2.0383
2.5777 -2.7008 2.0383
2.7858 -2.4860 2.0383
2.9759 -2.2552 2.0383
3.1469 -2.0098 2.0383
3.2976 -1.7516 2.0383
3.4272 -1.4820 2.0383
3.5346 -1.2030 2.0383
3.6193 -0.9162 2.0383
3.6807 -0.6236 2.0383
3.7184 -0.3270 2.0383
3.7322 -0.0283 2.0383
3.7220 0.2704 2.0383
3.6878 0.5674 2.0383
3.6299 0.8605 2.0383
3.5487 1.1481 2.0383
3.4447 1.4282 2.0383
3.3186 1.6990 2.0383
3.1712 1.9588 2.0383
3.0035 2.2058 2.0383
2.8166 2.4386 2.0383
2.6116 2.6556 2.0383
2.3900 2.8555 2.0383
0.7873 1.1105 0.7454
0.6959 1.1701 0.7456
0.6000 1.2221 0.7459
0.5002 1.2663 0.7461
0.3972 1.3024 0.7463
0.2916 1.3300 0.7465
0.1841 1.3491 0.7467
0.0755 1.3595 0.7468
-0.0337 1.3611 0.7470
-0.1426 1.3539 0.7471
-0.2506 1.3380 0.7472
-0.3570 1.3135 0.7473
-0.4610 1.2805 0.7473
-0.5621 1.2392 0.7473
-0.6595 1.1900 0.7473
-0.7526 1.1332 0.7473
-2.2936 2.9161 2.0383
-2.5197 2.7227 2.0383
-2.7297 2.5118 2.0383
-2.9221 2.2849 2.0383
-3.0957 2.0433 2.0383
-3.2495 1.7886 2.0383
-3.3824 1.5224 2.0383
-3.4937 1.2465 2.0383
-3.5826 0.9625 2.0383
-3.6485 0.6724 2.0383
-3.6910 0.3779 2.0383
-3.7098 0.0808 2.0383
-3.7049 -0.2167 2.0383
-3.6762 -0.5130 2.0383
-3.6239 -0.8061 2.0383
-3.5483 -1.0941 2.0383
-3.4499 -1.3751 2.0383
-3.3294 -1.6475 2.0383
-3.1874 -1.9094 2.0383
-3.0249 -2.1591 2.0383
-2.8430 -2.3951 2.0383
-2.6427 -2.6158 2.0383
-2.4253 -2.8198 2.0383
-2.1922 -3.0057 2.0383
-0.7074 -1.1539 0.7414
-0.6127 -1.2068 0.7411
-0.5141 -1.2519 0.7409
-0.4122 -1.2890 0.7407
-0.3076 -1.3179 0.7405
-0.2011 -1.3383 0.7403
-0.0934 -1.3501 0.7402
0.0150 -1.3533 0.7400
0.1233 -1.3479 0.7399
0.2309 -1.3338 0.7398
0.3369 -1.3112 0.7397
0.4408 -1.2802 0.7397
0.5419 -1.2409 0.7397
0.6396 -1.1938 0.7397
0.7332 -1.1389 0.7397
2.2654 -2.9670 2.0383
2.4958 -2.7765 2.0383
2.7102 -2.5680 2.0383
2.9072 -2.3430 2.0383
3.0854 -2.1029 2.0383
3.2439 -1.8493 2.0383
3.3814 -1.5837 2.0383
3.4972 -1.3080 2.0383
3.5904 -1.0239 2.0383
3.6606 -0.7333 2.0383
3.7072 -0.4379 2.0383
3.7299 -0.1398 2.0383
3.7286 0.1591 2.0383
3.7034 0.4570 2.0383
3.6543 0.7518 2.0383
3.5817 1.0417 2.0383
3.4861 1.3247 2.0383
3.3682 1.5992 2.0383
3.2286 1.8633 2.0383
3.0684 2.1153 2.0383
2.8885 2.3536 2.0383
2.6901 2.5766 2.0383
2.4745 2.7830 2.0383
2.2431 2.9714 2.0383
0.7306 1.1487 0.7455
0.6363 1.2036 0.7458
0.5379 1.2508 0.7460
0.4360 1.2899 0.7462
0.3312 1.3207 0.7464
0.2244 1.3430 0.7466
0.1161 1.3566 0.7468
0.0070 1.3615 0.7469
-0.1021 1.3576 0.7471
-0.2105 1.3449 0.7472
-0.3175 1.3236 0.7472
-0.4225 1.2938 0.7473
-0.5248 1.2556 0.7473
-0.6236 1.2093 0.7473
-3.2911 -1.1237 2.0383
-3.1911 -1.3841 2.0383
-3.0706 -1.6357 2.0383
-2.9303 -1.8768 2.0383
-2.7712 -2.1060 2.0383
-2.5942 -2.3218 2.0383
-2.4005 -2.5228 2.0383
-2.1913 -2.7077 2.0383
-0.7161 -1.0462 0.7417
-0.6299 -1.1001 0.7414
-0.5398 -1.1470 0.7412
-0.4462 -1.1865 0.7410
-0.3497 -1.2184 0.7408
-0.2511 -1.2425 0.7406
-0.1508 -1.2586 0.7405
-0.0496 -1.2667 0.7403
0.0520 -1.2667 0.7402
0.1532 -1.2585 0.7401
0.2535 -1.2423 0.7400
0.3522 -1.2182 0.7400
0.4486 -1.1862 0.7399
0.5422 -1.1467 0.7399
0.6323 -1.0998 0.7399
0.7184 -1.0458 0.7400
2.2034 -2.7136 2.0383
2.4137 -2.5288 2.0383
2.6084 -2.3277 2.0383
2.7865 -2.1116 2.0383
2.9465 -1.8819 2.0383
3.0877 -1.6401 2.0383
3.2090 -1.3877 2.0383
3.3096 -1.1264 2.0383
3.3889 -0.8579 2.0383
3.4464 -0.5839 2.0383
3.4817 -0.3062 2.0383
3.4946 -0.0266 2.0383
3.4851 0.2531 2.0383
3.4531 0.5311 2.0383
3.3990 0.8057 2.0383
3.3230 1.0749 2.0383
3.2256 1.3372 2.0383
3.1076 1.5908 2.0383
2.9696 1.8340 2.0383
2.8126 2.0654 2.0383
2.6376 2.2834 2.0383
2.4457 2.4866 2.0383
2.2382 2.6738 2.0383
0.7372 1.0397 0.7452
0.6516 1.0955 0.7455
0.5618 1.1442 0.7457
0.4684 1.1856 0.7459
0.3719 1.2193 0.7461
0.2731 1.2452 0.7463
0.1725 1.2630 0.7465
0.0707 1.2727 0.7466
-0.0315 1.2742 0.7468
-0.1335 1.2675 0.7469
-0.2346 1.2526 0.7470
-0.3342 1.2297 0.7470
-0.4316 1.1988 0.7471
-0.5262 1.1602 0.7471
-0.6174 1.1141 0.7471
-0.7046 1.0609 0.7470
-2.1480 2.7311 2.0383
-2.3598 2.5499 2.0383
-2.5564 2.3524 2.0383
-2.7366 2.1399 2.0383
-2.8992 1.9136 2.0383
-3.0433 1.6751 2.0383
-3.1678 1.4258 2.0383
-3.2720 1.1673 2.0383
-3.3552 0.9014 2.0383
-3.4169 0.6296 2.0383
-3.4567 0.3538 2.0383
-3.4744 0.0756 2.0383
-3.4697 -0.2031 2.0383
-3.4428 -0.4806 2.0383
-3.3938 -0.7550 2.0383
-3.3230 -1.0247 2.0383
-3.2308 -1.2879 2.0383
-3.1179 -1.5430 2.0383
-2.9849 -1.7882 2.0383
-2.8327 -2.0221 2.0383
-2.6622 -2.2430 2.0383
-2.4746 -2.4497 2.0383
-2.2710 -2.6407 2.0383
-0.7470 -1.0244 0.7418
-0.6625 -1.0808 0.7415
-0.5738 -1.1303 0.7413
-0.4814 -1.1726 0.7411
-0.3860 -1.2074 0.7409
-0.2881 -1.2344 0.7407
-0.1883 -1.2535 0.7405
-0.0874 -1.2646 0.7404
0.0141 -1.2676 0.7402
0.1156 -1.2625 0.7401
0.2163 -1.2493 0.7400
0.3156 -1.2281 0.7400
0.4129 -1.1991 0.7399
0.5077 -1.1623 0.7399
0.5991 -1.1181 0.7399
0.6868 -1.0668 0.7399
0.7701 -1.0086 0.7400
2.3370 -2.5997 2.0383
2.5377 -2.4045 2.0383
2.7221 -2.1938 2.0383
2.8890 -1.9690 2.0383
3.0373 -1.7315 2.0383
3.1661 -1.4829 2.0383
3.2745 -1.2248 2.0383
3.3618 -0.9588 2.0383
3.4275 -0.6866 2.0383
3.4712 -0.4101 2.0383
3.4925 -0.1310 2.0383
3.4913 0.1489 2.0383
3.4677 0.4278 2.0383
3.4217 0.7038 2.0383
3.3538 0.9752 2.0383
3.2644 1.2403 2.0383
3.1540 1.4973 2.0383
3.0233 1.7446 2.0383
2.8733 1.9806 2.0383
2.7049 2.2037 2.0383
2.5191 2.4126 2.0383
2.3173 2.6059 2.0383
0.7679 1.0172 0.7451
0.6841 1.0755 0.7454
0.5958 1.1269 0.7456
0.5036 1.1710 0.7459
0.4082 1.2076 0.7461
0.3102 1.2365 0.7463
0.2101 1.2573 0.7464
0.1087 1.2701 0.7466
0.0066 1.2746 0.7467
-0.0955 1.2710 0.7468
-0.1970 1.2591 0.7469
-0.2972 1.2392 0.7470
-0.3955 1.2112 0.7470
-0.4913 1.1755 0.7471
-0.5838 1.1322 0.7471
-3.0883 -1.0546 2.0383
-2.9945 -1.2990 2.0383
-2.8814 -1.5350 2.0383
-2.7497 -1.7613 2.0383
-2.6004 -1.9764 2.0383
-2.4343 -2.1789 2.0383
-2.2524 -2.3675 2.0383
-0.7485 -0.9250 0.7420
-0.6720 -0.9819 0.7418
-0.5911 -1.0325 0.7416
-0.5065 -1.0765 0.7413
-0.4187 -1.1136 0.7411
-0.3282 -1.1435 0.7410
-0.2356 -1.1661 0.7408
-0.1415 -1.1813 0.7406
-0.0465 -1.1889 0.7405
0.0489 -1.1888 0.7404
0.1439 -1.1812 0.7403
0.2380 -1.1660 0.7402
0.3306 -1.1433 0.7402
0.4211 -1.1134 0.7401
0.5089 -1.0762 0.7401
0.5935 -1.0322 0.7401
0.6743 -0.9816 0.7402
0.7508 -0.9246 0.7402
2.2647 -2.3726 2.0383
2.4474 -2.1840 2.0383
2.6144 -1.9812 2.0383
2.7646 -1.7657 2.0383
2.8971 -1.5388 2.0383
3.0108 -1.3020 2.0383
3.1053 -1.0569 2.0383
3.1797 -0.8050 2.0383
3.2337 -0.5480 2.0383
3.2668 -0.2874 2.0383
3.2790 -0.0251 2.0383
3.2700 0.2374 2.0383
3.2400 0.4982 2.0383
3.1892 0.7558 2.0383
3.1180 1.0085 2.0383
3.0267 1.2546 2.0383
2.9159 1.4925 2.0383
2.7865 1.7207 2.0383
2.6392 1.9379 2.0383
2.4750 2.1424 2.0383
2.2950 2.3332 2.0383
0.7675 0.9168 0.7449
0.6917 0.9754 0.7451
0.6114 1.0277 0.7454
0.5272 1.0734 0.7456
0.4395 1.1122 0.7458
0.3490 1.1439 0.7460
0.2563 1.1682 0.7461
0.1618 1.1849 0.7463
0.0664 1.1940 0.7464
-0.0295 1.1954 0.7466
-0.1252 1.1891 0.7467
-0.2200 1.1752 0.7467
-0.3134 1.1536 0.7468
-0.4048 1.1247 0.7468
-0.4936 1.0885 0.7468
-0.5792 1.0453 0.7468
-0.6610 0.9953 0.7468
-0.7385 0.9390 0.7468
-2.2145 2.3930 2.0383
-2.3990 2.2077 2.0383
-2.5681 2.0082 2.0383
-2.7208 1.7958 2.0383
-2.8559 1.5720 2.0383
-2.9728 1.3380 2.0383
-3.0706 1.0955 2.0383
-3.1487 0.8459 2.0383
-3.2066 0.5908 2.0383
-3.2439 0.3319 2.0383
-3.2605 0.0709 2.0383
-3.2561 -0.1907 2.0383
-3.2308 -0.4511 2.0383
-3.1848 -0.7086 2.0383
-3.1183 -0.9617 2.0383
-3.0318 -1.2087 2.0383
-2.9258 -1.4481 2.0383
-2.8009 -1.6782 2.0383
-2.6581 -1.8976 2.0383
-2.4981 -2.1050 2.0383
-2.3220 -2.2988 2.0383
-0.7758 -0.9022 0.7421
-0.7010 -0.9614 0.7419
-0.6217 -1.0144 0.7416
-0.5385 -1.0609 0.7414
-0.4518 -1.1006 0.7412
-0.3622 -1.1332 0.7410
-0.2703 -1.1586 0.7409
-0.1767 -1.1765 0.7407
-0.0820 -1.1869 0.7406
0.0133 -1.1897 0.7404
0.1085 -1.1849 0.7403
0.2030 -1.1726 0.7402
0.2963 -1.1527 0.7402
0.3876 -1.1254 0.7401
0.4765 -1.0909 0.7401
0.5624 -1.0494 0.7401
0.6446 -1.0012 0.7402
0.7228 -0.9466 0.7402
2.1928 -2.4392 2.0383
2.3811 -2.2560 2.0383
2.5541 -2.0584 2.0383
2.7107 -1.8475 2.0383
2.8498 -1.6247 2.0383
2.9707 -1.3914 2.0383
3.0724 -1.1492 2.0383
3.1543 -0.8996 2.0383
3.2159 -0.6443 2.0383
3.2569 -0.3849 2.0383
3.2769 -0.1230 2.0383
3.2758 0.1396 2.0383
3.2537 0.4013 2.0383
3.2106 0.6603 2.0383
3.1469 0.9150 2.0383
3.0630 1.1637 2.0383
2.9594 1.4048 2.0383
2.8369 1.6369 2.0383
2.6962 1.8583 2.0383
2.5381 2.0677 2.0383
2.3639 2.2637 2.0383
2.1745 2.4451 2.0383
0.7205 0.9543 0.7450
0.6418 1.0090 0.7453
0.5590 1.0572 0.7455
0.4726 1.0986 0.7457
0.3830 1.1329 0.7459
0.2911 1.1600 0.7461
0.1972 1.1795 0.7462
0.1021 1.1915 0.7464
0.0063 1.1958 0.7465
-0.0895 1.1924 0.7466
-0.1848 1.1813 0.7467
-0.2788 1.1625 0.7468
-0.3710 1.1363 0.7468
-0.4608 1.1028 0.7468
-0.5477 1.0622 0.7468
-2.9031 -0.9915 2.0383
-2.8149 -1.2212 2.0383
-2.7085 -1.4431 2.0383
-2.5847 -1.6558 2.0383
-2.4443 -1.8580 2.0383
-2.2881 -2.0483 2.0383
-0.7711 -0.8105 0.7423
-0.7036 -0.8696 0.7421
-0.6317 -0.9231 0.7419
-0.5557 -0.9707 0.7417
-0.4762 -1.0121 0.7415
-0.3936 -1.0469 0.7413
-0.3085 -1.0751 0.7411
-0.2214 -1.0964 0.7410
-0.1329 -1.1106 0.7408
-0.0436 -1.1178 0.7407
0.0460 -1.1177 0.7406
0.1353 -1.1105 0.7405
0.2238 -1.0963 0.7404
0.3108 -1.0749 0.7404
0.3959 -1.0467 0.7403
0.4785 -1.0118 0.7403
0.5580 -0.9704 0.7403
0.6340 -0.9228 0.7404
0.7059 -0.8693 0.7404
0.7733 -0.8101 0.7405
2.3004 -2.0527 2.0383
2.4574 -1.8621 2.0383
2.5985 -1.6596 2.0383
2.7230 -1.4463 2.0383
2.8299 -1.2238 2.0383
2.9187 -0.9934 2.0383
2.9886 -0.7567 2.0383
3.0393 -0.5151 2.0383
3.0705 -0.2702 2.0383
3.0820 -0.0236 2.0383
3.0736 0.2230 2.0383
3.0454 0.4682 2.0383
2.9977 0.7103 2.0383
2.9307 0.9478 2.0383
2.8449 1.1791 2.0383
2.7409 1.4027 2.0383
2.6192 1.6173 2.0383
2.4808 1.8214 2.0383
2.3265 2.0137 2.0383
0.7880 0.8011 0.7446
0.7214 0.8617 0.7448
0.6502 0.9167 0.7450
0.5747 0.9659 0.7452
0.4955 1.0088 0.7455
0.4131 1.0453 0.7456
0.3281 1.0750 0.7458
0.2409 1.0978 0.7460
0.1522 1.1136 0.7461
0.0625 1.1221 0.7463
-0.0276 1.1234 0.7464
-0.1176 1.1175 0.7465
-0.2067 1.1044 0.7465
-0.2945 1.0842 0.7466
-0.3804 1.0570 0.7466
-0.4638 1.0229 0.7466
-0.5443 0.9823 0.7466
-0.6212 0.9354 0.7466
-0.6940 0.8825 0.7466
-0.7624 0.8239 0.7465
-2.2552 2.0753 2.0383
-2.4142 1.8878 2.0383
-2.5577 1.6882 2.0383
-2.6847 1.4777 2.0383
-2.7946 1.2578 2.0383
-2.8865 1.0298 2.0383
-2.9599 0.7951 2.0383
-3.0144 0.5553 2.0383
-3.0495 0.3120 2.0383
-3.0650 0.0666 2.0383
-3.0609 -0.1793 2.0383
-3.0371 -0.4241 2.0383
-2.9938 -0.6663 2.0383
-2.9313 -0.9042 2.0383
-2.8499 -1.1364 2.0383
-2.7502 -1.3614 2.0383
-2.6329 -1.5777 2.0383
-2.4986 -1.7839 2.0383
-2.3481 -1.9788 2.0383
-2.1826 -2.1610 2.0383
-0.7293 -0.8482 0.7422
-0.6590 -0.9039 0.7420
-0.5845 -0.9537 0.7418
-0.5062 -0.9974 0.7416
-0.4247 -1.0347 0.7414
-0.3405 -1.0654 0.7412
-0.2541 -1.0892 0.7410
-0.1661 -1.1061 0.7409
-0.0770 -1.1159 0.7407
0.0126 -1.1186 0.7406
0.1021 -1.1141 0.7405
0.1909 -1.1024 0.7404
0.2786 -1.0837 0.7404
0.3645 -1.0581 0.7403
0.4480 -1.0256 0.7403
0.5287 -0.9866 0.7403
0.6061 -0.9413 0.7404
0.6796 -0.8899 0.7404
0.7487 -0.8328 0.7405
2.2380 -2.1204 2.0383
2.4006 -1.9347 2.0383
2.5478 -1.7364 2.0383
2.6786 -1.5270 2.0383
2.7921 -1.3078 2.0383
2.8877 -1.0802 2.0383
2.9648 -0.8456 2.0383
3.0227 -0.6056 2.0383
3.0612 -0.3618 2.0383
3.0800 -0.1157 2.0383
3.0790 0.1311 2.0383
3.0582 0.3771 2.0383
3.0178 0.6205 2.0383
2.9579 0.8599 2.0383
2.8791 1.0937 2.0383
2.7818 1.3203 2.0383
2.6666 1.5384 2.0383
2.5343 1.7466 2.0383
2.3859 1.9434 2.0383
2.2221 2.1277 2.0383
0.7468 0.8397 0.7447
0.6772 0.8969 0.7449
0.6033 0.9483 0.7452
0.5254 0.9936 0.7454
0.4442 1.0325 0.7456
0.3601 1.0647 0.7458
0.2736 1.0901 0.7459
0.1854 1.1085 0.7461
0.0960 1.1198 0.7462
0.0060 1.1238 0.7463
-0.0841 1.1206 0.7464
-0.1736 1.1101 0.7465
-0.2620 1.0926 0.7466
-0.3487 1.0679 0.7466
-0.4331 1.0364 0.7466
-0.5147 0.9982 0.7466
-2.7329 -0.9335 2.0383
-2.6498 -1.1497 2.0383
-2.5497 -1.3586 2.0383
-2.4331 -1.5589 2.0383
-2.3009 -1.7492 2.0383
-2.1539 -1.9283 2.0383
-0.7259 -0.7631 0.7424
-0.6624 -0.8188 0.7422
-0.5947 -0.8691 0.7420
-0.5231 -0.9140 0.7418
-0.4482 -0.9529 0.7416
-0.3705 -0.9857 0.7414
-0.2904 -1.0122 0.7413
-0.2084 -1.0323 0.7411
-0.1251 -1.0457 0.7410
-0.0410 -1.0524 0.7408
0.0434 -1.0524 0.7407
0.1275 -1.0456 0.7407
0.2108 -1.0322 0.7406
0.2927 -1.0121 0.7405
0.3728 -0.9855 0.7405
0.4505 -0.9527 0.7405
0.5254 -0.9137 0.7405
0.5969 -0.8688 0.7405
0.6646 -0.8184 0.7406
0.7281 -0.7628 0.7407
0.7869 -0.7022 0.7407
2.3131 -1.7528 2.0383
2.4460 -1.5621 2.0383
2.5631 -1.3614 2.0383
2.6638 -1.1520 2.0383
2.7473 -0.9351 2.0383
2.8132 -0.7123 2.0383
2.8609 -0.4849 2.0383
2.8903 -0.2544 2.0383
2.9010 -0.0223 2.0383
2.8932 0.2098 2.0383
2.8667 0.4406 2.0383
2.8218 0.6685 2.0383
2.7588 0.8920 2.0383
2.6780 1.1098 2.0383
2.5801 1.3203 2.0383
2.4656 1.5223 2.0383
2.3354 1.7144 2.0383
2.1901 1.8954 2.0383
0.7418 0.7540 0.7445
0.6791 0.8110 0.7447
0.6120 0.8628 0.7449
0.5410 0.9091 0.7451
0.4664 0.9495 0.7453
0.3889 0.9838 0.7455
0.3088 1.0118 0.7457
0.2268 1.0333 0.7458
0.1433 1.0481 0.7460
0.0588 1.0561 0.7461
-0.0260 1.0574 0.7462
-0.1106 1.0518 0.7463
-0.1945 1.0394 0.7464
-0.2772 1.0204 0.7464
-0.3580 0.9948 0.7464
-0.4365 0.9628 0.7465
-0.5122 0.9246 0.7465
-0.5846 0.8804 0.7464
-0.6532 0.8306 0.7464
-0.7175 0.7754 0.7463
-2.1230 1.9538 2.0383
-2.2727 1.7772 2.0383
-2.4078 1.5893 2.0383
-2.5275 1.3912 2.0383
-2.6309 1.1841 2.0383
-2.7174 0.9694 2.0383
-2.7865 0.7485 2.0383
-2.8378 0.5228 2.0383
-2.8708 0.2936 2.0383
-2.8854 0.0626 2.0383
-2.8815 -0.1689 2.0383
-2.8591 -0.3994 2.0383
-2.8183 -0.6273 2.0383
-2.7595 -0.8513 2.0383
-2.6828 -1.0699 2.0383
-2.5890 -1.2817 2.0383
-2.4785 -1.4853 2.0383
-2.3520 -1.6795 2.0383
-2.2104 -1.8629 2.0383
-0.7484 -0.7411 0.7425
-0.6866 -0.7986 0.7423
-0.6204 -0.8510 0.7421
-0.5502 -0.8979 0.7419
-0.4765 -0.9391 0.7417
-0.3998 -0.9742 0.7415
-0.3205 -1.0031 0.7413
-0.2392 -1.0256 0.7412
-0.1563 -1.0415 0.7410
-0.0724 -1.0507 0.7409
0.0119 -1.0532 0.7408
0.0962 -1.0489 0.7407
0.1798 -1.0380 0.7406
0.2623 -1.0203 0.7406
0.3432 -0.9962 0.7405
0.4219 -0.9656 0.7405
0.4979 -0.9289 0.7405
0.5707 -0.8862 0.7405
0.6398 -0.8379 0.7406
0.7050 -0.7841 0.7406
0.7656 -0.7253 0.7407
2.2597 -1.8211 2.0383
2.3982 -1.6345 2.0383
2.5213 -1.4374 2.0383
2.6282 -1.2310 2.0383
2.7182 -1.0168 2.0383
2.7907 -0.7960 2.0383
2.8452 -0.5701 2.0383
2.8815 -0.3406 2.0383
2.8992 -0.1090 2.0383
2.8983 0.1233 2.0383
2.8787 0.3548 2.0383
2.8407 0.5840 2.0383
2.7844 0.8093 2.0383
2.7102 1.0293 2.0383
2.6186 1.2427 2.0383
2.5102 1.4480 2.0383
2.3857 1.6440 2.0383
2.2460 1.8293 2.0383
0.7640 0.7314 0.7444
0.7030 0.7903 0.7446
0.6375 0.8441 0.7449
0.5679 0.8925 0.7451
0.4946 0.9351 0.7453
0.4181 0.9717 0.7454
0.3389 1.0021 0.7456
0.2576 1.0260 0.7458
0.1745 1.0433 0.7459
0.0904 1.0539 0.7461
0.0057 1.0577 0.7462
-0.0791 1.0547 0.7463
-0.1633 1.0448 0.7463
-0.2465 1.0283 0.7464
-0.3281 1.0051 0.7464
-0.4076 0.9755 0.7465
-0.4844 0.9395 0.7465
-2.5758 -0.8800 2.0383
-2.4975 -1.0838 2.0383
-2.4031 -1.2807 2.0383
-2.2932 -1.4694 2.0383
-2.1685 -1.6488 2.0383
-0.7396 -0.6623 0.7427
-0.6842 -0.7193 0.7425
-0.6243 -0.7718 0.7423
-0.5605 -0.8193 0.7421
-0.4931 -0.8615 0.7419
-0.4225 -0.8982 0.7417
-0.3492 -0.9292 0.7415
-0.2737 -0.9542 0.7414
-0.1964 -0.9731 0.7412
-0.1179 -0.9857 0.7411
-0.0386 -0.9921 0.7410
0.0409 -0.9920 0.7409
0.1202 -0.9857 0.7408
0.1987 -0.9730 0.7408
0.2760 -0.9541 0.7407
0.3515 -0.9290 0.7407
0.4247 -0.8980 0.7407
0.4953 -0.8613 0.7407
0.5627 -0.8190 0.7407
0.6265 -0.7715 0.7408
0.6863 -0.7190 0.7408
0.7418 -0.6619 0.7409
2.1800 -1.6519 2.0383
2.3052 -1.4722 2.0383
2.4156 -1.2831 2.0383
2.5104 -1.0857 2.0383
2.5892 -0.8814 2.0383
2.6512 -0.6713 2.0383
2.6962 -0.4571 2.0383
2.7239 -0.2398 2.0383
2.7341 -0.0211 2.0383
2.7267 0.1977 2.0383
2.7017 0.4152 2.0383
2.6594 0.6299 2.0383
2.6001 0.8406 2.0383
2.5240 1.0458 2.0383
2.4317 1.2442 2.0383
2.3239 1.4346 2.0383
2.2011 1.6156 2.0383
0.7537 0.6522 0.7442
0.6991 0.7105 0.7444
0.6400 0.7642 0.7447
0.5768 0.8131 0.7449
0.5098 0.8567 0.7450
0.4396 0.8947 0.7452
0.3665 0.9271 0.7454
0.2911 0.9534 0.7456
0.2138 0.9737 0.7457
0.1351 0.9876 0.7458
0.0555 0.9952 0.7459
-0.0244 0.9964 0.7460
-0.1042 0.9911 0.7461
-0.1832 0.9795 0.7462
-0.2611 0.9616 0.7462
-0.3373 0.9374 0.7463
-0.4113 0.9073 0.7463
-0.4826 0.8713 0.7463
-0.5509 0.8296 0.7463
-0.6155 0.7827 0.7462
-0.6761 0.7307 0.7462
-0.7324 0.6741 0.7461
-2.1421 1.6751 2.0383
-2.2695 1.4980 2.0383
-2.3822 1.3112 2.0383
-2.4797 1.1160 2.0383
-2.5613 0.9137 2.0383
-2.6264 0.7054 2.0383
-2.6747 0.4927 2.0383
-2.7059 0.2767 2.0383
-2.7196 0.0589 2.0383
-2.7159 -0.1593 2.0383
-2.6948 -0.3765 2.0383
-2.6563 -0.5914 2.0383
-2.6008 -0.8025 2.0383
-2.5286 -1.0085 2.0383
-2.4401 -1.2081 2.0383
-2.3359 -1.4001 2.0383
-2.2167 -1.5830 2.0383
-0.7591 -0.6399 0.7428
-0.7054 -0.6986 0.7426
-0.6471 -0.7528 0.7423
-0.5847 -0.8022 0.7421
-0.5186 -0.8464 0.7419
-0.4491 -0.8852 0.7418
-0.3768 -0.9183 0.7416
-0.3021 -0.9456 0.7414
-0.2254 -0.9668 0.7413
-0.1473 -0.9817 0.7412
-0.0682 -0.9904 0.7410
0.0113 -0.9928 0.7409
0.0907 -0.9888 0.7409
0.1696 -0.9784 0.7408
0.2473 -0.9618 0.7407
0.3236 -0.9391 0.7407
0.3977 -0.9103 0.7407
0.4693 -0.8756 0.7407
0.5380 -0.8354 0.7407
0.6032 -0.7898 0.7407
0.6645 -0.7391 0.7408
0.7217 -0.6837 0.7409
0.7742 -0.6239 0.7410
2.2602 -1.5404 2.0383
2.3762 -1.3546 2.0383
2.4769 -1.1602 2.0383
2.5617 -0.9583 2.0383
2.6301 -0.7502 2.0383
2.6815 -0.5374 2.0383
2.7156 -0.3211 2.0383
2.7323 -0.1028 2.0383
2.7315 0.1162 2.0383
2.7131 0.3343 2.0383
2.6772 0.5503 2.0383
2.6242 0.7626 2.0383
2.5543 0.9700 2.0383
2.4680 1.1711 2.0383
2.3659 1.3646 2.0383
2.2486 1.5493 2.0383
0.7728 0.6294 0.7442
0.7200 0.6893 0.7444
0.6626 0.7447 0.7446
0.6008 0.7954 0.7448
0.5352 0.8410 0.7450
0.4661 0.8812 0.7452
0.3941 0.9157 0.7453
0.3195 0.9443 0.7455
0.2428 0.9668 0.7456
0.1645 0.9831 0.7458
0.0852 0.9931 0.7459
0.0054 0.9967 0.7460
-0.0745 0.9938 0.7461
-0.1539 0.9846 0.7462
-0.2323 0.9690 0.7462
-0.3091 0.9471 0.7463
-0.3840 0.9192 0.7463
-0.4564 0.8853 0.7463
