ply
format ascii 1.0
element vertex 2179
property float32 x
property float32 y
property float32 z
end_header
0.4890 9.0977 2.0384
-0.2418 9.1073 2.0384
-0.9711 9.0584 2.0384
-1.6940 8.9514 2.0384
-2.4061 8.7870 2.0384
-3.1028 8.5661 2.0384
-3.7796 8.2902 2.0384
-4.4322 7.9611 2.0384
-5.0565 7.5808 2.0384
-5.6484 7.1518 2.0384
-6.2041 6.6767 2.0384
-6.7202 6.1587 2.0384
-7.1932 5.6010 2.0384
-7.6201 5.0072 2.0384
-7.9982 4.3810 2.0384
-8.3250 3.7264 2.0384
-8.5984 3.0477 2.0384
-8.8167 2.3492 2.0384
-8.9783 1.6353 2.0384
-9.0823 0.9106 2.0384
-9.1279 0.1798 2.0384
-9.1148 -0.5525 2.0384
-9.0431 -1.2815 2.0384
-8.9131 -2.0026 2.0384
-8.7258 -2.7110 2.0384
-8.4821 -3.4023 2.0384
-7.5720 -3.7676 1.8860
-7.2471 -4.3631 1.8860
6.6256 4.5748 2.0384
6.2366 5.0903 2.0384
5.8076 5.5729 2.0384
5.3414 6.0196 2.0384
4.8411 6.4275 2.0384
4.3098 6.7940 2.0384
3.7509 7.1167 2.0384
3.1681 7.3937 2.0384
2.5650 7.6231 2.0384
1.9455 7.8036 2.0384
1.3137 7.9339 2.0384
0.6734 8.0133 2.0384
0.0290 8.0412 2.0384
-0.6157 8.0174 2.0384
-1.2564 7.9422 2.0384
-1.8890 7.8160 2.0384
-2.5094 7.6396 2.0384
-3.1139 7.4142 2.0384
-3.6983 7.1411 2.0384
-4.2591 6.8221 2.0384
-4.7926 6.4593 2.0384
-5.2954 6.0549 2.0384
-5.7643 5.6115 2.0384
-6.1963 5.1320 2.0384
-6.5885 4.6194 2.0384
-6.9386 4.0770 2.0384
-7.2441 3.5083 2.0384
-7.5032 2.9168 2.0384
-7.7141 2.3064 2.0384
-7.8755 1.6810 2.0384
-7.9862 1.0446 2.0384
-8.0457 0.4012 2.0384
-8.0535 -0.2450 2.0384
-8.0094 -0.8899 2.0384
-7.9138 -1.5292 2.0384
-7.7672 -2.1589 2.0384
-7.0059 -2.5680 1.8864
-6.7775 -3.1212 1.8860
-6.5067 -3.6550 1.8860
-6.1939 -4.1654 1.8860
-5.8411 -4.6491 1.8860
-5.4506 -5.1031 1.8860
-5.0249 -5.5243 1.8860
-4.5666 -5.9101 1.8860
-4.2036 -6.4492 1.9437
-3.8527 -7.0959 2.0384
-3.2720 -7.3826 2.0384
-2.6701 -7.6218 2.0384
-2.0509 -7.8119 2.0384
-1.4184 -7.9517 2.0384
-0.7767 -8.0402 2.0384
-0.1299 -8.0769 2.0384
0.5178 -8.0615 2.0384
1.1622 -7.9942 2.0384
1.7990 -7.8753 2.0384
2.4243 -7.7056 2.0384
3.0339 -7.4863 2.0384
3.6239 -7.2188 2.0384
4.1905 -6.9047 2.0384
4.7299 -6.5462 2.0384
5.2388 -6.1455 2.0384
5.6495 -5.6411 2.0155
5.7744 -4.9076 1.9133
6.0607 -4.3654 1.8860
6.3901 -3.8651 1.8860
6.6784 -3.3401 1.8860
6.9235 -2.7937 1.8860
7.1239 -2.2295 1.8860
7.2785 -1.6511 1.8860
7.3861 -1.0623 1.8860
7.4461 -0.4668 1.8860
7.4582 0.1314 1.8860
7.4223 0.7286 1.8860
7.3387 1.3209 1.8860
7.2079 1.9045 1.8860
7.0308 2.4756 1.8860
7.0629 3.1438 1.9565
7.0712 3.8540 2.0384
6.7384 4.4077 2.0384
6.3624 4.9327 2.0384
5.9456 5.4260 2.0384
5.4908 5.8842 2.0384
5.0008 6.3045 2.0384
4.4787 6.6841 2.0384
3.9281 7.0208 2.0384
3.3523 7.3123 2.0384
2.7552 7.5567 2.0384
2.1404 7.7526 2.0384
1.5120 7.8987 2.0384
0.8739 7.9940 2.0384
0.2303 8.0380 2.0384
-0.4147 8.0304 2.0384
-1.0570 7.9712 2.0384
-1.6926 7.8608 2.0384
-2.3173 7.7000 2.0384
-2.9271 7.4897 2.0384
-3.5182 7.2313 2.0384
-4.0868 6.9265 2.0384
-4.6292 6.5771 2.0384
-5.1420 6.1854 2.0384
-5.6218 5.7539 2.0384
-6.0656 5.2854 2.0384
-6.4705 4.7828 2.0384
-6.8340 4.2493 2.0384
-7.1536 3.6884 2.0384
-7.4274 3.1037 2.0384
-7.6535 2.4988 2.0384
-7.8305 1.8776 2.0384
-7.9571 1.2442 2.0384
-8.0327 0.6025 2.0384
-8.0566 -0.0432 2.0384
-8.0287 -0.6890 2.0384
-7.9491 -1.3305 2.0384
-7.8184 -1.9636 2.0384
-7.6373 -2.5844 2.0384
-6.8531 -2.9503 1.8860
-6.5958 -3.4907 1.8860
-6.2959 -4.0088 1.8860
-5.9554 -4.5012 1.8860
-5.5764 -4.9648 1.8860
-5.1614 -5.3965 1.8860
-4.7130 -5.7936 1.8860
-4.2341 -6.1535 1.8860
-4.0290 -6.9969 2.0384
-3.4557 -7.2981 2.0384
-2.8600 -7.5523 2.0384
-2.2458 -7.7579 2.0384
-1.6170 -7.9135 2.0384
-0.9777 -8.0181 2.0384
-0.3321 -8.0710 2.0384
0.3158 -8.0719 2.0384
0.9616 -8.0207 2.0384
1.6013 -7.9179 2.0384
2.2306 -7.7640 2.0384
2.8455 -7.5600 2.0384
3.4421 -7.3074 2.0384
4.0163 -7.0076 2.0384
4.5646 -6.6628 2.0384
5.0835 -6.2750 2.0384
5.5694 -5.8469 2.0384
5.7370 -5.1287 1.9428
5.9497 -4.5159 1.8860
6.2916 -4.0241 1.8860
6.5929 -3.5064 1.8860
6.8517 -2.9663 1.8860
7.0662 -2.4073 1.8860
7.2352 -1.8329 1.8860
7.3576 -1.2470 1.8860
7.4325 -0.6532 1.8860
7.4596 -0.0554 1.8860
7.4387 0.5425 1.8860
7.3699 1.1367 1.8860
7.2538 1.7234 1.8860
7.1033 2.3028 1.8893
7.0324 2.9215 1.9270
7.1297 3.6573 2.0281
6.8471 4.2377 2.0384
6.4843 4.7721 2.0384
6.0800 5.2756 2.0384
5.6367 5.7451 2.0384
5.1573 6.1775 2.0384
4.6449 6.5701 2.0384
4.1029 6.9205 2.0384
3.5346 7.2262 2.0384
2.9437 7.4856 2.0384
2.3340 7.6967 2.0384
1.7094 7.8585 2.0384
1.0739 7.9697 2.0384
0.4316 8.0298 2.0384
-0.2134 8.0383 2.0384
-0.8571 7.9952 2.0384
-1.4952 7.9007 2.0384
-2.1237 7.7556 2.0384
-2.7386 7.5606 2.0384
-3.3360 7.3171 2.0384
-3.9120 7.0265 2.0384
-4.4629 6.6908 2.0384
-4.9853 6.3121 2.0384
-5.4757 5.8927 2.0384
-5.9311 5.4355 2.0384
-6.3484 4.9431 2.0384
-6.7251 4.4190 2.0384
-7.0587 3.8663 2.0384
-7.3470 3.2885 2.0384
-7.5881 2.6895 2.0384
-7.7806 2.0730 2.0384
-7.9231 1.4430 2.0384
-8.0146 0.8034 2.0384
-8.0547 0.1585 2.0384
-8.0430 -0.4876 2.0384
-7.9795 -1.1309 2.0384
-7.8646 -1.7671 2.0384
-7.6991 -2.3922 2.0384
-6.9245 -2.7776 1.8860
-6.6808 -3.3243 1.8860
-6.3940 -3.8497 1.8860
5.9200 4.0875 2.0384
5.5725 4.5481 2.0384
5.1893 4.9795 2.0384
4.7728 5.3787 2.0384
4.3258 5.7432 2.0384
3.8511 6.0707 2.0384
3.3517 6.3592 2.0384
2.8310 6.6068 2.0384
2.2921 6.8119 2.0384
1.7385 6.9732 2.0384
1.1739 7.0897 2.0384
0.6018 7.1606 2.0384
0.0259 7.1856 2.0384
-0.5502 7.1644 2.0384
-1.1227 7.0972 2.0384
-1.6880 6.9844 2.0384
-2.2425 6.8268 2.0384
-2.7826 6.6253 2.0384
-3.3048 6.3812 2.0384
-3.8059 6.0961 2.0384
-4.2826 5.7718 2.0384
-4.7319 5.4104 2.0384
-5.1509 5.0142 2.0384
-5.5368 4.5857 2.0384
-5.8872 4.1276 2.0384
-6.1999 3.6429 2.0384
-6.4728 3.1346 2.0384
-6.7042 2.6061 2.0384
-6.8925 2.0607 2.0384
-7.0366 1.5018 2.0384
-7.1355 0.9332 2.0384
-7.1885 0.3583 2.0384
-7.1953 -0.2190 2.0384
-7.1558 -0.7951 2.0384
-7.0702 -1.3663 2.0384
-6.9391 -1.9289 2.0384
-6.3877 -2.3415 1.9252
-6.0547 -2.7885 1.8860
-5.8127 -3.2652 1.8860
-5.5332 -3.7212 1.8860
-5.2179 -4.1532 1.8860
-4.8690 -4.5587 1.8860
-4.4886 -4.9349 1.8860
-4.1684 -5.3948 1.9272
-3.9378 -6.0417 2.0384
-3.4414 -6.3385 2.0384
-2.9227 -6.5945 2.0384
-2.3850 -6.8081 2.0384
-1.8319 -6.9779 2.0384
-1.2669 -7.1027 2.0384
-0.6937 -7.1817 2.0384
-0.1160 -7.2145 2.0384
0.4625 -7.2007 2.0384
1.0381 -7.1406 2.0384
1.6069 -7.0344 2.0384
2.1654 -6.8829 2.0384
2.7099 -6.6870 2.0384
3.2369 -6.4480 2.0384
3.7430 -6.1676 2.0384
4.2249 -5.8474 2.0384
4.6795 -5.4895 2.0384
5.1039 -5.0964 2.0384
5.4953 -4.6705 2.0384
5.8513 -4.2146 2.0384
5.9655 -3.6084 1.9710
6.0657 -3.0338 1.9176
6.1848 -2.4957 1.8860
6.3640 -1.9917 1.8860
6.5021 -1.4751 1.8860
6.5984 -0.9491 1.8860
6.6610 -0.4177 1.8885
6.6631 0.1173 1.8860
6.6728 0.6549 1.8979
6.7526 1.2153 1.9424
6.8373 1.8064 2.0024
6.7893 2.3904 2.0384
6.5748 2.9264 2.0384
6.3180 3.4434 2.0384
6.0208 3.9381 2.0384
5.6849 4.4074 2.0384
5.3126 4.8481 2.0384
4.9062 5.2576 2.0384
4.4685 5.6333 2.0384
4.0021 5.9726 2.0384
3.5101 6.2735 2.0384
2.9956 6.5340 2.0384
2.4620 6.7525 2.0384
1.9127 6.9276 2.0384
1.3511 7.0582 2.0384
0.7810 7.1434 2.0384
0.2059 7.1828 2.0384
-0.3706 7.1760 2.0384
-0.9446 7.1231 2.0384
-1.5125 7.0245 2.0384
-2.0708 6.8808 2.0384
-2.6157 6.6928 2.0384
-3.1439 6.4619 2.0384
-3.6520 6.1894 2.0384
-4.1366 5.8772 2.0384
-4.5948 5.5271 2.0384
-5.0235 5.1415 2.0384
-5.4200 4.7228 2.0384
-5.7818 4.2736 2.0384
-6.1065 3.7969 2.0384
-6.3920 3.2958 2.0384
-6.6365 2.7731 2.0384
-6.8384 2.2325 2.0384
-6.9964 1.6775 2.0384
-7.1095 1.1115 2.0384
-7.1769 0.5382 2.0384
-7.1981 -0.0388 2.0384
-7.1730 -0.6157 2.0384
-7.1018 -1.1888 2.0384
-6.9849 -1.7544 2.0384
-6.8229 -2.3090 2.0384
-6.1223 -2.6358 1.8860
-5.8923 -3.1185 1.8860
-5.6243 -3.5813 1.8860
-5.3200 -4.0211 1.8860
-4.9814 -4.4352 1.8860
-4.6106 -4.8208 1.8860
-4.2100 -5.1754 1.8860
-4.0877 -5.9410 2.0384
-3.5989 -6.2502 2.0384
-3.0868 -6.5191 2.0384
-2.5547 -6.7461 2.0384
-2.0060 -6.9297 2.0384
-1.4443 -7.0686 2.0384
-0.8733 -7.1620 2.0384
-0.2966 -7.2092 2.0384
0.2821 -7.2100 2.0384
0.8590 -7.1643 2.0384
1.4303 -7.0724 2.0384
1.9924 -6.9350 2.0384
2.5417 -6.7528 2.0384
3.0745 -6.5272 2.0384
3.5875 -6.2595 2.0384
4.0773 -5.9515 2.0384
4.5407 -5.6052 2.0384
4.9749 -5.2228 2.0384
5.3769 -4.8068 2.0384
5.7441 -4.3600 2.0384
5.9326 -3.7945 1.9909
6.0352 -3.2099 1.9327
6.1379 -2.6574 1.8913
6.3124 -2.1506 1.8860
6.4635 -1.6375 1.8860
6.5729 -1.1141 1.8860
6.6400 -0.5836 1.8860
6.6643 -0.0496 1.8860
6.6547 0.4852 1.8886
6.7267 1.0374 1.9268
6.8105 1.6180 1.9820
6.8474 2.2198 2.0384
6.6463 2.7610 2.0384
6.4026 3.2842 2.0384
6.1178 3.7863 2.0384
5.7938 4.2638 2.0384
5.4326 4.7138 2.0384
5.0366 5.1333 2.0384
4.6083 5.5198 2.0384
4.1506 5.8707 2.0384
3.6662 6.1838 2.0384
3.1584 6.4571 2.0384
2.6304 6.6889 2.0384
2.0856 6.8777 2.0384
1.5275 7.0223 2.0384
0.9597 7.1217 2.0384
0.3857 7.1754 2.0384
-0.1907 7.1831 2.0384
-0.7659 7.1446 2.0384
-1.3361 7.0602 2.0384
-1.8978 6.9304 2.0384
-2.4472 6.7562 2.0384
-2.9811 6.5385 2.0384
-3.4957 6.2788 2.0384
-3.9881 5.9788 2.0384
-4.4548 5.6403 2.0384
-4.8930 5.2655 2.0384
-5.2999 4.8569 2.0384
-5.6727 4.4169 2.0384
-6.0092 3.9485 2.0384
-6.3072 3.4545 2.0384
-6.5647 2.9383 2.0384
-6.7801 2.4030 2.0384
-6.9519 1.8521 2.0384
-7.0791 1.2891 2.0384
-7.1608 0.7177 2.0384
-7.1965 0.1415 2.0384
-7.1858 -0.4358 2.0384
-7.1290 -1.0105 2.0384
-7.0263 -1.5789 2.0384
-6.8783 -2.1373 2.0384
-6.2029 -2.4883 1.8911
-5.9683 -2.9698 1.8860
-5.7120 -3.4391 1.8860
5.3420 3.6882 2.0384
5.0285 4.1040 2.0384
4.6827 4.4933 2.0384
4.3070 4.8535 2.0384
3.9036 5.1826 2.0384
3.4753 5.4782 2.0384
3.0247 5.7386 2.0384
2.5547 5.9620 2.0384
2.0685 6.1472 2.0384
1.5689 6.2928 2.0384
1.0594 6.3979 2.0384
0.5431 6.4620 2.0384
0.0234 6.4846 2.0384
-0.4965 6.4654 2.0384
-1.0132 6.4048 2.0384
-1.5233 6.3030 2.0384
-2.0237 6.1607 2.0384
-2.5111 5.9789 2.0384
-2.9824 5.7586 2.0384
-3.4346 5.5013 2.0384
-3.8648 5.2086 2.0384
-4.2702 4.8824 2.0384
-4.6482 4.5248 2.0384
-4.9964 4.1381 2.0384
-5.3126 3.7247 2.0384
-5.5947 3.2872 2.0384
-5.8409 2.8285 2.0384
-6.0496 2.3516 2.0384
-6.2195 1.8594 2.0384
-6.3494 1.3551 2.0384
-6.4385 0.8419 2.0384
-6.4863 0.3232 2.0384
-6.4923 -0.1977 2.0384
-6.4566 -0.7176 2.0384
-6.3793 -1.2329 2.0384
-6.2609 -1.7405 2.0384
-6.1022 -2.2370 2.0384
-5.4627 -2.5160 1.8860
-5.2443 -2.9461 1.8860
-4.9921 -3.3574 1.8860
-4.7076 -3.7471 1.8860
-4.3927 -4.1129 1.8860
-4.1281 -4.5386 1.9226
-3.9775 -5.1479 2.0384
-3.5525 -5.4507 2.0384
-3.1046 -5.7184 2.0384
-2.6366 -5.9493 2.0384
-2.1516 -6.1419 2.0384
-1.6526 -6.2950 2.0384
-1.1429 -6.4076 2.0384
-0.6258 -6.4789 2.0384
-0.1046 -6.5084 2.0384
0.4173 -6.4960 2.0384
0.9365 -6.4417 2.0384
1.4497 -6.3459 2.0384
1.9535 -6.2092 2.0384
2.4447 -6.0325 2.0384
2.9201 -5.8170 2.0384
3.3767 -5.5640 2.0384
3.8115 -5.2752 2.0384
4.2216 -4.9524 2.0384
4.6045 -4.5978 2.0384
4.9577 -4.2136 2.0384
5.2788 -3.8024 2.0384
5.5659 -3.3668 2.0384
5.8171 -2.9095 2.0384
6.0308 -2.4337 2.0384
6.2056 -1.9423 2.0384
6.3045 -1.4304 2.0269
6.3888 -0.9191 2.0240
6.4712 -0.4059 2.0335
6.4976 0.1143 2.0384
6.4666 0.6346 2.0384
6.3939 1.1506 2.0384
6.2802 1.6591 2.0384
6.1261 2.1568 2.0384
5.9326 2.6405 2.0384
5.7010 3.1070 2.0384
5.4329 3.5535 2.0384
5.1299 3.9769 2.0384
4.7940 4.3747 2.0384
4.4274 4.7443 2.0384
4.0323 5.0833 2.0384
3.6115 5.3896 2.0384
3.1676 5.6612 2.0384
2.7033 5.8963 2.0384
2.2218 6.0936 2.0384
1.7261 6.2516 2.0384
1.2194 6.3695 2.0384
0.7048 6.4464 2.0384
0.1858 6.4820 2.0384
-0.3344 6.4759 2.0384
-0.8524 6.4282 2.0384
-1.3650 6.3392 2.0384
-1.8687 6.2094 2.0384
-2.3605 6.0398 2.0384
-2.8372 5.8314 2.0384
-3.2957 5.5855 2.0384
-3.7330 5.3037 2.0384
-4.1465 4.9877 2.0384
-4.5333 4.6397 2.0384
-4.8911 4.2618 2.0384
-5.2175 3.8564 2.0384
-5.5104 3.4262 2.0384
-5.7680 2.9738 2.0384
-5.9886 2.5022 2.0384
-6.1707 2.0145 2.0384
-6.3132 1.5136 2.0384
-6.4151 1.0028 2.0384
-6.4758 0.4855 2.0384
-6.4949 -0.0351 2.0384
-6.4722 -0.5555 2.0384
-6.4078 -1.0727 2.0384
-6.3022 -1.5831 2.0384
-6.1560 -2.0834 2.0384
-5.5573 -2.3927 1.8974
-5.3162 -2.8137 1.8860
-5.0743 -3.2312 1.8860
-4.7997 -3.6279 1.8860
-4.4941 -4.0015 1.8860
-4.1596 -4.3493 1.8860
-4.1050 -5.0465 2.0384
-3.6878 -5.3598 2.0384
-3.2467 -5.6387 2.0384
-2.7847 -5.8813 2.0384
-2.3046 -6.0860 2.0384
-1.8097 -6.2516 2.0384
-1.3029 -6.3768 2.0384
-0.7878 -6.4611 2.0384
-0.2675 -6.5037 2.0384
0.2545 -6.5043 2.0384
0.7749 -6.4631 2.0384
1.2903 -6.3802 2.0384
1.7974 -6.2562 2.0384
2.2929 -6.0919 2.0384
2.7736 -5.8884 2.0384
3.2364 -5.6469 2.0384
3.6782 -5.3691 2.0384
4.0964 -5.0567 2.0384
4.4880 -4.7118 2.0384
4.8507 -4.3366 2.0384
5.1821 -3.9335 2.0384
5.4801 -3.5052 2.0384
5.7427 -3.0544 2.0384
5.9682 -2.5840 2.0384
6.1553 -2.0972 2.0384
6.2776 -1.5905 2.0303
6.3628 -1.0786 2.0236
6.4456 -0.5667 2.0292
6.4988 -0.0485 2.0384
6.4808 0.4724 2.0384
6.4211 0.9902 2.0384
6.3201 1.5014 2.0384
6.1785 2.0028 2.0384
5.9971 2.4912 2.0384
5.7773 2.9634 2.0384
5.5204 3.4164 2.0384
5.2281 3.8474 2.0384
4.9022 4.2535 2.0384
4.5450 4.6321 2.0384
4.1585 4.9809 2.0384
3.7455 5.2976 2.0384
3.3085 5.5802 2.0384
2.8503 5.8269 2.0384
2.3738 6.0362 2.0384
1.8822 6.2066 2.0384
1.3785 6.3371 2.0384
0.8661 6.4269 2.0384
0.3481 6.4754 2.0384
-0.1721 6.4823 2.0384
-0.6911 6.4475 2.0384
-1.2058 6.3714 2.0384
-1.7126 6.2543 2.0384
-2.2085 6.0970 2.0384
-2.6902 5.9005 2.0384
-3.1547 5.6662 2.0384
-3.5989 5.3954 2.0384
-4.0201 5.0899 2.0384
-4.4156 4.7516 2.0384
-4.7827 4.3828 2.0384
-5.1191 3.9857 2.0384
-5.4227 3.5630 2.0384
-5.6915 3.1172 2.0384
-5.9238 2.6513 2.0384
-6.1181 2.1683 2.0384
-6.2730 1.6711 2.0384
-6.3877 1.1631 2.0384
-6.4613 0.6475 2.0384
-6.4934 0.1276 2.0384
-6.4838 -0.3933 2.0384
-6.4324 -0.9119 2.0384
-6.3396 -1.4247 2.0384
-6.2059 -1.9285 2.0384
-5.8199 -2.3348 1.9666
-5.3847 -2.6796 1.8860
-5.1534 -3.1030 1.8860
4.8591 3.3547 2.0384
4.5740 3.7329 2.0384
4.2595 4.0871 2.0384
3.9178 4.4148 2.0384
3.5509 4.7142 2.0384
3.1613 4.9831 2.0384
2.7514 5.2200 2.0384
2.3240 5.4233 2.0384
1.8816 5.5918 2.0384
1.4272 5.7243 2.0384
0.9637 5.8200 2.0384
0.4941 5.8782 2.0384
0.0213 5.8988 2.0384
-0.4516 5.8814 2.0384
-0.9216 5.8262 2.0384
-1.3857 5.7336 2.0384
-1.8409 5.6042 2.0384
-2.2843 5.4387 2.0384
-2.7130 5.2383 2.0384
-3.1243 5.0042 2.0384
-3.5156 4.7380 2.0384
-3.8844 4.4412 2.0384
-4.2283 4.1159 2.0384
-4.5450 3.7641 2.0384
-4.8325 3.3880 2.0384
-5.0891 2.9900 2.0384
-5.3130 2.5728 2.0384
-5.5028 2.1389 2.0384
-5.6572 1.6912 2.0384
-5.7754 1.2325 2.0384
-5.8563 0.7657 2.0384
-5.8997 0.2939 2.0384
-5.9051 -0.1799 2.0384
-5.8725 -0.6527 2.0384
-5.8021 -1.1215 2.0384
-5.6944 -1.5831 2.0384
-5.5500 -2.0347 2.0384
-5.2906 -2.4368 2.0083
-4.8173 -2.7063 1.9049
-4.5401 -3.0535 1.8860
-4.2814 -3.4080 1.8860
-4.1233 -3.8608 1.9466
-3.9804 -4.3764 2.0384
-3.6173 -4.6818 2.0384
-3.2308 -4.9571 2.0384
-2.8234 -5.2005 2.0384
-2.3978 -5.4105 2.0384
-0.7091 -2.0242 0.7387
-1.5029 -5.7248 2.0384
-1.0393 -5.8272 2.0384
-0.5691 -5.8920 2.0384
-0.0951 -5.9188 2.0384
0.3795 -5.9075 2.0384
0.8516 -5.8581 2.0384
1.3183 -5.7710 2.0384
1.7765 -5.6467 2.0384
2.2232 -5.4861 2.0384
2.6556 -5.2901 2.0384
3.0708 -5.0600 2.0384
3.4662 -4.7974 2.0384
3.8392 -4.5039 2.0384
4.1874 -4.1814 2.0384
4.5087 -3.8321 2.0384
4.8008 -3.4581 2.0384
5.0619 -3.0620 2.0384
5.2904 -2.6462 2.0384
5.4848 -2.2134 2.0384
5.6438 -1.7666 2.0384
5.7665 -1.3084 2.0384
5.8520 -0.8419 2.0384
5.8999 -0.3702 2.0384
5.9097 0.1038 2.0384
5.8816 0.5771 2.0384
5.8156 1.0464 2.0384
5.7122 1.5090 2.0384
5.5721 1.9616 2.0384
5.3962 2.4016 2.0384
5.1856 2.8260 2.0384
4.9418 3.2321 2.0384
4.6662 3.6173 2.0384
4.3607 3.9792 2.0384
4.0273 4.3155 2.0384
3.6680 4.6239 2.0384
3.2852 4.9025 2.0384
2.8814 5.1496 2.0384
2.4591 5.3636 2.0384
2.0211 5.5430 2.0384
1.5702 5.6868 2.0384
1.1092 5.7941 2.0384
0.6412 5.8641 2.0384
0.1690 5.8964 2.0384
-0.3042 5.8909 2.0384
-0.7754 5.8475 2.0384
-1.2417 5.7665 2.0384
-1.6999 5.6485 2.0384
-2.1473 5.4942 2.0384
-2.5809 5.3046 2.0384
-2.9980 5.0809 2.0384
-3.3958 4.8245 2.0384
-3.7719 4.5370 2.0384
-4.1237 4.2204 2.0384
-4.4492 3.8766 2.0384
-4.7460 3.5078 2.0384
-5.0125 3.1165 2.0384
-5.2467 2.7050 2.0384
-5.4473 2.2760 2.0384
-5.6129 1.8323 2.0384
-5.7424 1.3766 2.0384
-5.8351 0.9121 2.0384
-5.8902 0.4415 2.0384
-5.9075 -0.0320 2.0384
-5.8868 -0.5055 2.0384
-5.8281 -0.9758 2.0384
-5.7320 -1.4399 2.0384
-5.5990 -1.8950 2.0384
-5.4298 -2.3379 2.0384
-4.9456 -2.6176 1.9291
-4.6150 -2.9388 1.8860
-4.3652 -3.2996 1.8860
-4.1587 -3.7029 1.9190
-4.0886 -4.2752 2.0384
-3.7332 -4.5896 2.0384
-3.3538 -4.8745 2.0384
-2.9526 -5.1281 2.0384
-2.5324 -5.3486 2.0384
-0.7596 -2.0059 0.7388
-1.6457 -5.6853 2.0384
-1.1849 -5.7992 2.0384
-0.7164 -5.8758 2.0384
-0.2433 -5.9145 2.0384
0.2315 -5.9151 2.0384
0.7047 -5.8776 2.0384
1.1734 -5.8022 2.0384
1.6346 -5.6895 2.0384
0.7556 -2.0075 0.7386
2.5223 -5.3550 2.0384
2.9432 -5.1354 2.0384
3.3450 -4.8828 2.0384
3.7253 -4.5987 2.0384
4.0815 -4.2851 2.0384
4.4114 -3.9439 2.0384
4.7128 -3.5774 2.0384
4.9838 -3.1879 2.0384
5.2227 -2.7779 2.0384
5.4279 -2.3502 2.0384
5.5981 -1.9074 2.0384
5.7322 -1.4524 2.0384
5.8294 -0.9883 2.0384
5.8890 -0.5178 2.0384
5.9107 -0.0442 2.0384
5.8944 0.4296 2.0384
5.8402 0.9005 2.0384
5.7484 1.3655 2.0384
5.6197 1.8216 2.0384
5.4549 2.2658 2.0384
5.2550 2.6953 2.0384
5.0214 3.1075 2.0384
4.7555 3.4995 2.0384
4.4592 3.8689 2.0384
4.1342 4.2134 2.0384
3.7828 4.5307 2.0384
3.4071 4.8189 2.0384
3.0096 5.0760 2.0384
2.5928 5.3004 2.0384
2.1594 5.4908 2.0384
1.7122 5.6458 2.0384
1.2540 5.7646 2.0384
0.7879 5.8463 2.0384
0.3167 5.8904 2.0384
-0.1565 5.8967 2.0384
-0.6287 5.8651 2.0384
-1.0968 5.7958 2.0384
-1.5579 5.6893 2.0384
-2.0090 5.5462 2.0384
-2.4472 5.3675 2.0384
-2.8697 5.1543 2.0384
-3.2738 4.9079 2.0384
-3.6570 4.6300 2.0384
-4.0166 4.3223 2.0384
-4.3505 3.9867 2.0384
-4.6565 3.6255 2.0384
-4.9327 3.2409 2.0384
-5.1771 2.8354 2.0384
-5.3884 2.4116 2.0384
-5.5650 1.9722 2.0384
-5.7059 1.5200 2.0384
-5.8102 1.0579 2.0384
-5.8771 0.5889 2.0384
-5.9062 0.1159 2.0384
-5.8973 -0.3579 2.0384
-5.8505 -0.8295 2.0384
-5.7660 -1.2959 2.0384
-5.6444 -1.7541 2.0384
-5.4864 -2.2011 2.0384
-5.0877 -2.5319 1.9593
-4.6949 -2.8270 1.8892
4.4490 3.0715 2.0384
4.1880 3.4178 2.0384
3.9001 3.7421 2.0384
3.5872 4.0423 2.0384
3.2514 4.3164 2.0384
2.8946 4.5627 2.0384
2.5194 4.7796 2.0384
0.7806 1.8216 0.7478
0.6322 1.8786 0.7479
0.4796 1.9234 0.7480
0.3239 1.9558 0.7481
0.4524 5.3824 2.0384
0.0195 5.4013 2.0384
-0.4135 5.3854 2.0384
-0.3097 1.9581 0.7482
-0.4657 1.9268 0.7481
-0.6186 1.8831 0.7480
-0.7674 1.8272 0.7479
-2.4842 4.7965 2.0384
-2.8608 4.5821 2.0384
-3.2191 4.3383 2.0384
-3.5568 4.0666 2.0384
-3.8716 3.7687 2.0384
-4.1616 3.4465 2.0384
-4.4249 3.1021 2.0384
-4.6597 2.7377 2.0384
-4.8647 2.3556 2.0384
-5.0384 1.9583 2.0384
-5.1798 1.5484 2.0384
-5.2879 1.1283 2.0384
-5.3620 0.7010 2.0384
-5.4016 0.2690 2.0384
-5.4065 -0.1648 2.0384
-5.3766 -0.5977 2.0384
-5.3121 -1.0268 2.0384
-5.2134 -1.4495 2.0384
-5.0812 -1.8629 2.0384
-4.9162 -2.2644 2.0384
-4.7195 -2.6514 2.0384
-4.4741 -3.0092 2.0301
-4.2363 -3.3722 2.0384
-3.9529 -3.7013 2.0384
-3.6439 -4.0066 2.0384
-3.3115 -4.2861 2.0384
-2.9576 -4.5381 2.0384
-2.5847 -4.7609 2.0384
-2.1950 -4.9531 2.0384
-0.6495 -1.8541 0.7391
-0.4988 -1.9000 0.7390
-0.3449 -1.9337 0.7389
-0.1888 -1.9550 0.7388
-0.0316 -1.9638 0.7388
0.1259 -1.9601 0.7388
0.2826 -1.9438 0.7388
0.4375 -1.9150 0.7389
0.5896 -1.8740 0.7390
0.7379 -1.8209 0.7391
2.4310 -4.8428 2.0384
2.8111 -4.6322 2.0384
3.1731 -4.3918 2.0384
3.5146 -4.1232 2.0384
3.8334 -3.8280 2.0384
4.1275 -3.5082 2.0384
4.3950 -3.1659 2.0384
4.6341 -2.8033 2.0384
4.8433 -2.4226 2.0384
5.0213 -2.0265 2.0384
5.1669 -1.6174 2.0384
5.2793 -1.1979 2.0384
5.3577 -0.7709 2.0384
5.4015 -0.3390 2.0384
5.4106 0.0950 2.0384
5.3849 0.5282 2.0384
5.3245 0.9580 2.0384
5.2299 1.3814 2.0384
5.1017 1.7959 2.0384
4.9407 2.1988 2.0384
4.7479 2.5874 2.0384
4.5247 2.9592 2.0384
4.2724 3.3120 2.0384
3.9928 3.6434 2.0384
3.6875 3.9513 2.0384
3.3586 4.2337 2.0384
3.0081 4.4889 2.0384
2.6384 4.7151 2.0384
2.2517 4.9111 2.0384
0.6790 1.8621 0.7479
0.5276 1.9107 0.7480
0.3728 1.9470 0.7481
0.2155 1.9708 0.7482
0.1548 5.3991 2.0384
-0.2785 5.3940 2.0384
-0.2606 1.9653 0.7482
-0.4173 1.9379 0.7481
-0.5712 1.8980 0.7480
-0.7214 1.8459 0.7479
-2.3633 4.8571 2.0384
-2.7451 4.6523 2.0384
-3.1094 4.4175 2.0384
-3.4537 4.1543 2.0384
-3.7759 3.8643 2.0384
-4.0738 3.5495 2.0384
-4.3456 3.2118 2.0384
-4.5896 2.8534 2.0384
-4.8040 2.4766 2.0384
-4.9876 2.0838 2.0384
-5.1392 1.6775 2.0384
-5.2578 1.2604 2.0384
-5.3425 0.8350 2.0384
-5.3930 0.4042 2.0384
-5.4087 -0.0294 2.0384
-5.3897 -0.4629 2.0384
-5.3359 -0.8935 2.0384
-5.2479 -1.3184 2.0384
-5.1260 -1.7350 2.0384
-4.9711 -2.1405 2.0384
-4.7842 -2.5323 2.0384
-4.5637 -2.9062 2.0372
-4.3086 -3.2569 2.0334
-4.0442 -3.6010 2.0384
-3.7430 -3.9139 2.0384
-3.4176 -4.2017 2.0384
-3.0702 -4.4625 2.0384
-2.7030 -4.6946 2.0384
-2.3183 -4.8965 2.0384
-0.6957 -1.8373 0.7392
-0.5462 -1.8869 0.7390
-0.3932 -1.9245 0.7389
-0.2377 -1.9497 0.7389
-0.0807 -1.9624 0.7388
0.0768 -1.9626 0.7388
0.2338 -1.9502 0.7388
0.3894 -1.9253 0.7389
0.5424 -1.8881 0.7389
0.6921 -1.8388 0.7390
2.3090 -4.9022 2.0384
2.6943 -4.7013 2.0384
3.0622 -4.4700 2.0384
3.4103 -4.2100 2.0384
3.7365 -3.9229 2.0384
4.0385 -3.6106 2.0384
4.3144 -3.2750 2.0384
4.5626 -2.9185 2.0384
4.7813 -2.5432 2.0384
4.9692 -2.1517 2.0384
5.1250 -1.7463 2.0384
5.2478 -1.3298 2.0384
5.3369 -0.9049 2.0384
5.3915 -0.4742 2.0384
5.4115 -0.0406 2.0384
5.3966 0.3932 2.0384
5.3470 0.8244 2.0384
5.2631 1.2501 2.0384
5.1453 1.6677 2.0384
4.9944 2.0744 2.0384
4.8114 2.4677 2.0384
4.5976 2.8451 2.0384
4.3542 3.2041 2.0384
4.0829 3.5424 2.0384
3.7854 3.8578 2.0384
3.4636 4.1484 2.0384
3.1197 4.4122 2.0384
2.7557 4.6477 2.0384
2.3741 4.8532 2.0384
0.7254 1.8444 0.7478
0.5753 1.8969 0.7480
0.4214 1.9371 0.7481
0.2648 1.9647 0.7481
0.2900 5.3936 2.0384
-0.1433 5.3993 2.0384
-0.2113 1.9712 0.7482
-0.3686 1.9478 0.7482
-0.5235 1.9118 0.7481
-0.6750 1.8635 0.7480
-2.2408 4.9148 2.0384
-2.6277 4.7195 2.0384
-2.9977 4.4939 2.0384
-3.3485 4.2394 2.0384
-3.6778 3.9576 2.0384
-3.9835 3.6504 2.0384
-4.2637 3.3196 2.0384
-4.5165 2.9674 2.0384
-4.7403 2.5961 2.0384
-4.9337 2.2080 2.0384
-5.0954 1.8057 2.0384
-5.2243 1.3916 2.0384
-5.3197 0.9685 2.0384
-5.3809 0.5391 2.0384
-5.4075 0.1061 2.0384
-5.3993 -0.3277 2.0384
-5.3564 -0.7595 2.0384
-5.2790 -1.1865 2.0384
-5.1676 -1.6060 2.0384
-5.0230 -2.0153 2.0384
-4.8459 -2.4117 2.0384
-4.6376 -2.7926 2.0384
4.0959 2.8277 2.0384
3.8557 3.1465 2.0384
3.5907 3.4451 2.0384
3.3026 3.7214 2.0384
2.9934 3.9738 2.0384
2.6650 4.2006 2.0384
2.3195 4.4004 2.0384
0.7184 1.6763 0.7474
0.5817 1.7287 0.7476
0.4413 1.7700 0.7477
0.2981 1.7998 0.7477
0.1528 1.8179 0.7478
0.0066 1.8244 0.7478
-0.1397 1.8190 0.7478
-0.2850 1.8019 0.7478
-0.4285 1.7731 0.7477
-0.5692 1.7329 0.7477
-0.7062 1.6814 0.7475
-2.2872 4.4160 2.0384
-2.6339 4.2186 2.0384
-2.9638 3.9941 2.0384
-3.2746 3.7439 2.0384
-3.5645 3.4696 2.0384
-3.8314 3.1730 2.0384
-4.0738 2.8559 2.0384
-4.2900 2.5204 2.0384
-4.4787 2.1686 2.0384
-4.6386 1.8028 2.0384
-4.7687 1.4254 2.0384
-4.8682 1.0387 2.0384
-4.9363 0.6452 2.0384
-4.9728 0.2475 2.0384
-4.9772 -0.1518 2.0384
-4.9497 -0.5503 2.0384
-4.8903 -0.9454 2.0384
-4.7994 -1.3344 2.0384
-4.6776 -1.7150 2.0384
-4.5256 -2.0846 2.0384
-4.3445 -2.4409 2.0384
-4.1354 -2.7815 2.0384
-3.8996 -3.1043 2.0384
-3.6387 -3.4072 2.0384
-3.3543 -3.6882 2.0384
-3.0482 -3.9455 2.0384
-2.7225 -4.1775 2.0384
-2.3792 -4.3826 2.0384
-0.7331 -1.6543 0.7396
-0.5981 -1.7075 0.7395
-0.4593 -1.7498 0.7393
-0.3176 -1.7808 0.7393
-0.1739 -1.8005 0.7392
-0.0291 -1.8086 0.7392
0.1160 -1.8051 0.7392
0.2602 -1.7901 0.7392
0.4029 -1.7636 0.7392
0.5429 -1.7258 0.7393
0.6796 -1.6770 0.7394
2.2377 -4.4579 2.0384
2.5876 -4.2640 2.0384
2.9208 -4.0428 2.0384
3.2352 -3.7955 2.0384
3.5287 -3.5238 2.0384
3.7994 -3.2294 2.0384
4.0456 -2.9144 2.0384
4.2658 -2.5805 2.0384
4.4584 -2.2302 2.0384
4.6223 -1.8655 2.0384
4.7564 -1.4889 2.0384
4.8599 -1.1029 2.0384
4.9320 -0.7098 2.0384
4.9725 -0.3122 2.0384
4.9809 0.0873 2.0384
4.9572 0.4862 2.0384
4.9017 0.8818 2.0384
4.8147 1.2717 2.0384
4.6967 1.6533 2.0384
4.5485 2.0241 2.0384
4.3711 2.3819 2.0384
4.1656 2.7243 2.0384
3.9334 3.0491 2.0384
3.6760 3.3542 2.0384
3.3949 3.6377 2.0384
3.0921 3.8977 2.0384
2.7695 4.1327 2.0384
2.4291 4.3410 2.0384
0.7601 1.6578 0.7474
0.6248 1.7136 0.7475
0.4855 1.7583 0.7476
0.3430 1.7917 0.7477
0.1983 1.8135 0.7478
0.0523 1.8236 0.7478
-0.0941 1.8219 0.7478
-0.2398 1.8085 0.7478
-0.3840 1.7833 0.7478
-0.5257 1.7466 0.7477
-0.6639 1.6987 0.7476
-2.1758 4.4719 2.0384
-2.5274 4.2832 2.0384
-2.8628 4.0670 2.0384
-3.1798 3.8247 2.0384
-3.4764 3.5577 2.0384
-3.7507 3.2679 2.0384
-4.0009 2.9569 2.0384
-4.2254 2.6270 2.0384
-4.4228 2.2800 2.0384
-4.5918 1.9184 2.0384
-4.7313 1.5443 2.0384
-4.8404 1.1602 2.0384
-4.9185 0.7686 2.0384
-4.9648 0.3720 2.0384
-4.9793 -0.0272 2.0384
-4.9617 -0.4262 2.0384
-4.9122 -0.8226 2.0384
-4.8311 -1.2138 2.0384
-4.7189 -1.5973 2.0384
-4.5762 -1.9706 2.0384
-4.4041 -2.3312 2.0384
-4.2036 -2.6770 2.0384
-3.9760 -3.0056 2.0384
-3.7228 -3.3149 2.0384
-3.4455 -3.6030 2.0384
-3.1460 -3.8679 2.0384
-2.8262 -4.1079 2.0384
-2.4881 -4.3215 2.0384
-0.7743 -1.6355 0.7396
-0.6407 -1.6921 0.7395
-0.5030 -1.7378 0.7394
-0.3621 -1.7724 0.7393
-0.2189 -1.7956 0.7392
-0.0743 -1.8073 0.7392
0.0707 -1.8075 0.7392
0.2153 -1.7960 0.7392
0.3586 -1.7731 0.7392
0.4995 -1.7388 0.7393
0.6373 -1.6934 0.7394
0.7711 -1.6371 0.7395
2.4801 -4.3276 2.0384
2.8188 -4.1147 2.0384
3.1392 -3.8754 2.0384
3.4394 -3.6111 2.0384
3.7175 -3.3236 2.0384
3.9715 -3.0148 2.0384
4.2000 -2.6866 2.0384
4.4013 -2.3412 2.0384
4.5743 -1.9808 2.0384
4.7178 -1.6076 2.0384
4.8309 -1.2243 2.0384
4.9129 -0.8331 2.0384
4.9633 -0.4366 2.0384
4.9817 -0.0374 2.0384
4.9680 0.3619 2.0384
4.9224 0.7588 2.0384
4.8452 1.1507 2.0384
4.7368 1.5352 2.0384
4.5979 1.9097 2.0384
4.4295 2.2718 2.0384
4.2327 2.6192 2.0384
4.0087 2.9497 2.0384
3.7589 3.2612 2.0384
3.4851 3.5516 2.0384
3.1889 3.8192 2.0384
2.8722 4.0621 2.0384
2.5371 4.2789 2.0384
2.1858 4.4682 2.0384
0.6675 1.6973 0.7475
0.5294 1.7456 0.7476
0.3878 1.7825 0.7477
0.2437 1.8080 0.7478
0.0979 1.8217 0.7478
-0.0484 1.8237 0.7478
-0.1944 1.8139 0.7478
-0.3392 1.7924 0.7478
-0.4818 1.7593 0.7477
-0.6212 1.7148 0.7476
-0.7565 1.6593 0.7475
-2.4193 4.3451 2.0384
-2.7600 4.1374 2.0384
-3.0829 3.9031 2.0384
-3.3861 3.6436 2.0384
-3.6675 3.3607 2.0384
-3.9255 3.0561 2.0384
-4.1582 2.7319 2.0384
-4.3642 2.3900 2.0384
-4.5422 2.0327 2.0384
-4.6910 1.6623 2.0384
-4.8097 1.2811 2.0384
-4.8975 0.8915 2.0384
-4.9538 0.4962 2.0384
-4.9782 0.0976 2.0384
-4.9706 -0.3018 2.0384
-4.9311 -0.6993 2.0384
-4.8598 -1.0924 2.0384
-4.7572 -1.4786 2.0384
-4.6240 -1.8553 2.0384
-4.4609 -2.2202 2.0384
-4.2692 -2.5708 2.0384
3.7883 2.6152 2.0384
3.5661 2.9101 2.0384
3.3210 3.1863 2.0384
3.0546 3.4419 2.0384
2.7687 3.6754 2.0384
2.4649 3.8852 2.0384
0.7862 1.4914 0.7470
0.6642 1.5498 0.7471
0.5379 1.5983 0.7472
0.4080 1.6364 0.7473
0.2756 1.6639 0.7474
0.1413 1.6807 0.7475
0.0061 1.6867 0.7475
-0.1291 1.6817 0.7475
-0.2635 1.6659 0.7475
-0.3962 1.6393 0.7474
-0.5263 1.6021 0.7473
-0.6529 1.5546 0.7472
-2.1155 4.0844 2.0384
-2.4362 3.9019 2.0384
-2.7413 3.6942 2.0384
-3.0288 3.4628 2.0384
-3.2968 3.2090 2.0384
-3.5437 2.9347 2.0384
-3.7679 2.6414 2.0384
-3.9678 2.3310 2.0384
-4.1423 2.0057 2.0384
-4.2902 1.6673 2.0384
-4.4105 1.3182 2.0384
-4.5025 0.9606 2.0384
-4.5655 0.5967 2.0384
-4.5991 0.2289 2.0384
-4.6032 -0.1405 2.0384
-4.5777 -0.5091 2.0384
-4.5227 -0.8744 2.0384
-4.4386 -1.2342 2.0384
-4.3259 -1.5862 2.0384
-4.1854 -1.9280 2.0384
-4.0179 -2.2575 2.0384
-3.8244 -2.5725 2.0384
-3.6064 -2.8710 2.0384
-3.3651 -3.1511 2.0384
-3.1020 -3.4109 2.0384
-2.8190 -3.6488 2.0384
-2.5177 -3.8633 2.0384
-2.2002 -4.0530 2.0384
-0.6782 -1.5305 0.7399
-0.5533 -1.5797 0.7398
-0.4249 -1.6188 0.7397
-0.2938 -1.6476 0.7396
-0.1609 -1.6658 0.7395
-0.0269 -1.6733 0.7395
0.1073 -1.6701 0.7395
0.2408 -1.6562 0.7395
0.3727 -1.6316 0.7396
0.5023 -1.5967 0.7396
0.6287 -1.5515 0.7397
0.7511 -1.4963 0.7399
2.3930 -3.9433 2.0384
2.7011 -3.7387 2.0384
2.9918 -3.5100 2.0384
3.2633 -3.2588 2.0384
3.5136 -2.9866 2.0384
3.7413 -2.6952 2.0384
3.9449 -2.3865 2.0384
4.1231 -2.0625 2.0384
4.2747 -1.7253 2.0384
4.3988 -1.3771 2.0384
4.4945 -1.0200 2.0384
4.5613 -0.6565 2.0384
4.5987 -0.2888 2.0384
4.6065 0.0807 2.0384
4.5847 0.4496 2.0384
4.5333 0.8155 2.0384
4.4529 1.1760 2.0384
4.3438 1.5290 2.0384
4.2068 1.8720 2.0384
4.0427 2.2029 2.0384
3.8527 2.5196 2.0384
3.6380 2.8200 2.0384
3.3999 3.1022 2.0384
3.1400 3.3644 2.0384
2.8599 3.6050 2.0384
2.5615 3.8223 2.0384
2.2467 4.0150 2.0384
0.7028 1.5327 0.7471
0.5777 1.5842 0.7472
0.4489 1.6256 0.7473
0.3171 1.6565 0.7474
0.1833 1.6766 0.7475
0.0483 1.6860 0.7475
-0.0870 1.6844 0.7475
-0.2217 1.6720 0.7475
-0.3550 1.6487 0.7474
-0.4860 1.6148 0.7474
-0.6138 1.5705 0.7473
-0.7376 1.5160 0.7472
-2.3377 3.9616 2.0384
-2.6478 3.7616 2.0384
-2.9410 3.5375 2.0384
-3.2154 3.2905 2.0384
-3.4690 3.0224 2.0384
-3.7004 2.7348 2.0384
-3.9081 2.4296 2.0384
-4.0907 2.1087 2.0384
-4.2469 1.7742 2.0384
-4.3759 1.4282 2.0384
-4.4768 1.0730 2.0384
-4.5489 0.7108 2.0384
-4.5918 0.3440 2.0384
-4.6051 -0.0252 2.0384
-4.5888 -0.3943 2.0384
-4.5430 -0.7609 2.0384
-4.4680 -1.1226 2.0384
-4.3641 -1.4773 2.0384
-4.2322 -1.8225 2.0384
-4.0730 -2.1561 2.0384
-3.8875 -2.4758 2.0384
-3.6770 -2.7797 2.0384
-3.4428 -3.0657 2.0384
-3.1863 -3.3321 2.0384
-2.9094 -3.5770 2.0384
-2.6136 -3.7990 2.0384
-2.3009 -3.9965 2.0384
-0.7163 -1.5131 0.7399
-0.5927 -1.5654 0.7398
-0.4653 -1.6077 0.7397
-0.3350 -1.6397 0.7396
-0.2025 -1.6612 0.7395
-0.0688 -1.6721 0.7395
0.0654 -1.6722 0.7395
0.1992 -1.6616 0.7395
0.3317 -1.6404 0.7395
0.4622 -1.6087 0.7396
0.5896 -1.5667 0.7397
0.7134 -1.5146 0.7398
2.2935 -4.0020 2.0384
2.6067 -3.8052 2.0384
2.9031 -3.5839 2.0384
3.1807 -3.3395 2.0384
3.4378 -3.0737 2.0384
3.6728 -2.7881 2.0384
3.8841 -2.4846 2.0384
4.0703 -2.1652 2.0384
4.2303 -1.8319 2.0384
4.3631 -1.4868 2.0384
4.4677 -1.1323 2.0384
4.5436 -0.7705 2.0384
4.5902 -0.4039 2.0384
4.6072 -0.0347 2.0384
4.5947 0.3346 2.0384
4.5525 0.7017 2.0384
4.4811 1.0642 2.0384
4.3809 1.4198 2.0384
4.2525 1.7661 2.0384
4.0968 2.1010 2.0384
3.9148 2.4224 2.0384
3.7076 2.7281 2.0384
3.4766 3.0162 2.0384
3.2234 3.2848 2.0384
2.9494 3.5323 2.0384
2.6565 3.7570 2.0384
2.3466 3.9576 2.0384
0.7409 1.5145 0.7470
0.6172 1.5692 0.7472
0.4895 1.6138 0.7473
0.3585 1.6480 0.7474
0.2253 1.6715 0.7474
0.0906 1.6842 0.7475
-0.0447 1.6861 0.7475
-0.1798 1.6770 0.7475
-0.3136 1.6571 0.7475
-0.4454 1.6265 0.7474
-0.5743 1.5854 0.7473
-0.6995 1.5341 0.7472
-2.2377 4.0189 2.0384
-2.5528 3.8267 2.0384
-2.8515 3.6100 2.0384
-3.1319 3.3700 2.0384
-3.3922 3.1083 2.0384
-3.6307 2.8266 2.0384
-3.8459 2.5267 2.0384
-4.0364 2.2105 2.0384
-4.2010 1.8800 2.0384
-4.3387 1.5373 2.0384
-4.4484 1.1848 2.0384
-4.5296 0.8245 2.0384
-4.5816 0.4588 2.0384
-4.6042 0.0901 2.0384
-4.5971 -0.2792 2.0384
-4.5605 -0.6468 2.0384
-4.4945 -1.0104 2.0384
-4.3996 -1.3675 2.0384
-4.2763 -1.7159 2.0384
-4.1256 -2.0533 2.0384
-3.9482 -2.3776 2.0384
3.5174 2.4281 2.0384
3.3112 2.7020 2.0384
3.0836 2.9584 2.0384
2.8363 3.1958 2.0384
2.5708 3.4126 2.0384
2.2888 3.6074 2.0384
0.7297 1.3843 0.7467
0.6165 1.4385 0.7469
0.4992 1.4835 0.7470
0.3787 1.5189 0.7471
0.2558 1.5444 0.7471
0.1311 1.5600 0.7472
0.0057 1.5655 0.7472
-0.1199 1.5609 0.7472
-0.2446 1.5462 0.7472
-0.3677 1.5215 0.7471
-0.4885 1.4870 0.7471
-0.6061 1.4429 0.7470
-0.7197 1.3895 0.7468
-2.2621 3.6230 2.0384
-2.5454 3.4301 2.0384
-2.8123 3.2152 2.0384
-3.0612 2.9796 2.0384
-3.2904 2.7248 2.0384
-3.4985 2.4525 2.0384
-3.6842 2.1643 2.0384
-3.8462 1.8622 2.0384
-3.9834 1.5481 2.0384
-4.0951 1.2239 2.0384
-4.1805 0.8918 2.0384
-4.2390 0.5539 2.0384
-4.2702 0.2124 2.0384
-4.2740 -0.1305 2.0384
-4.2502 -0.4727 2.0384
-4.1991 -0.8119 2.0384
-4.1210 -1.1460 2.0384
-4.0164 -1.4727 2.0384
-3.8859 -1.7901 2.0384
-3.7303 -2.0960 2.0384
-3.5507 -2.3884 2.0384
-3.3482 -2.6656 2.0384
-3.1242 -2.9256 2.0384
-2.8799 -3.1668 2.0384
-2.6171 -3.3877 2.0384
-2.3374 -3.5868 2.0384
-0.7418 -1.3665 0.7403
-0.6299 -1.4214 0.7401
-0.5139 -1.4672 0.7400
-0.3946 -1.5035 0.7399
-0.2729 -1.5302 0.7399
-0.1494 -1.5471 0.7398
-0.0250 -1.5541 0.7398
0.0996 -1.5511 0.7398
0.2236 -1.5382 0.7398
0.3462 -1.5154 0.7398
0.4665 -1.4829 0.7399
0.5839 -1.4409 0.7400
0.6975 -1.3896 0.7401
2.2216 -3.6610 2.0384
2.5077 -3.4710 2.0384
2.7776 -3.2588 2.0384
3.0296 -3.0255 2.0384
3.2621 -2.7728 2.0384
3.4735 -2.5023 2.0384
3.6625 -2.2158 2.0384
3.8280 -1.9150 2.0384
3.9687 -1.6019 2.0384
4.0839 -1.2786 2.0384
4.1728 -0.9471 2.0384
4.2349 -0.6096 2.0384
4.2696 -0.2682 2.0384
4.2769 0.0748 2.0384
4.2567 0.4173 2.0384
4.2091 0.7571 2.0384
4.1344 1.0918 2.0384
4.0331 1.4195 2.0384
3.9059 1.7380 2.0384
3.7536 2.0453 2.0384
3.5773 2.3393 2.0384
3.3779 2.6183 2.0384
3.1568 2.8803 2.0384
2.9155 3.1238 2.0384
2.6555 3.3472 2.0384
2.3785 3.5490 2.0384
0.7642 1.3656 0.7467
0.6523 1.4226 0.7468
0.5362 1.4705 0.7469
0.4167 1.5089 0.7470
0.2944 1.5375 0.7471
0.1702 1.5562 0.7472
0.0449 1.5649 0.7472
-0.0807 1.5634 0.7472
-0.2058 1.5519 0.7472
-0.3295 1.5303 0.7472
-0.4511 1.4988 0.7471
-0.5697 1.4577 0.7470
-0.6847 1.4072 0.7469
-2.1706 3.6784 2.0384
-2.4586 3.4927 2.0384
-2.7308 3.2846 2.0384
-2.9855 3.0553 2.0384
-3.2211 2.8063 2.0384
-3.4359 2.5393 2.0384
-3.6287 2.2559 2.0384
-3.7982 1.9579 2.0384
-3.9433 1.6473 2.0384
-4.0631 1.3260 2.0384
-4.1567 0.9962 2.0384
-4.2236 0.6599 2.0384
-4.2634 0.3193 2.0384
-4.2757 -0.0235 2.0384
-4.2606 -0.3661 2.0384
-4.2180 -0.7065 2.0384
-4.1483 -1.0424 2.0384
-4.0519 -1.3717 2.0384
-3.9293 -1.6922 2.0384
-3.7815 -2.0018 2.0384
-3.6093 -2.2987 2.0384
-3.4138 -2.5808 2.0384
-3.1963 -2.8464 2.0384
-2.9582 -3.0936 2.0384
-2.7010 -3.3210 2.0384
-2.4265 -3.5271 2.0384
-0.7758 -1.3476 0.7403
-0.6653 -1.4052 0.7402
-0.5505 -1.4539 0.7401
-0.4322 -1.4932 0.7400
-0.3111 -1.5229 0.7399
-0.1881 -1.5429 0.7398
-0.0639 -1.5530 0.7398
0.0608 -1.5531 0.7398
0.1850 -1.5433 0.7398
0.3081 -1.5235 0.7398
0.4292 -1.4941 0.7399
0.5476 -1.4550 0.7400
0.6625 -1.4066 0.7401
0.7732 -1.3492 0.7402
2.4200 -3.5328 2.0384
2.6952 -3.3273 2.0384
2.9530 -3.1005 2.0384
3.1917 -2.8537 2.0384
3.4098 -2.5886 2.0384
3.6060 -2.3068 2.0384
3.7789 -2.0103 2.0384
3.9275 -1.7008 2.0384
4.0508 -1.3805 2.0384
4.1480 -1.0513 2.0384
4.2184 -0.7154 2.0384
4.2617 -0.3750 2.0384
4.2776 -0.0323 2.0384
4.2659 0.3106 2.0384
4.2268 0.6514 2.0384
4.1606 0.9880 2.0384
4.0675 1.3181 2.0384
3.9484 1.6397 2.0384
3.8038 1.9507 2.0384
3.6348 2.2491 2.0384
3.4425 2.5329 2.0384
3.2281 2.8005 2.0384
2.9930 3.0499 2.0384
2.7386 3.2797 2.0384
2.4667 3.4884 2.0384
2.1789 3.6746 2.0384
0.6877 1.4058 0.7468
0.5729 1.4565 0.7469
0.4543 1.4979 0.7470
0.3328 1.5296 0.7471
0.2091 1.5514 0.7472
0.0841 1.5632 0.7472
-0.0415 1.5650 0.7472
-0.1668 1.5565 0.7472
-0.2911 1.5381 0.7472
-0.4134 1.5097 0.7471
-0.5331 1.4716 0.7470
-0.6493 1.4239 0.7469
-0.7612 1.3671 0.7468
-2.3703 3.5532 2.0384
-2.6477 3.3519 2.0384
-2.9080 3.1290 2.0384
-3.1497 2.8861 2.0384
-3.3712 2.6245 2.0384
-3.5710 2.3460 2.0384
-3.7479 2.0524 2.0384
-3.9007 1.7455 2.0384
-4.0284 1.4273 2.0384
-4.1303 1.1000 2.0384
-4.2056 0.7654 2.0384
-4.2539 0.4259 2.0384
-4.2748 0.0836 2.0384
-4.2683 -0.2593 2.0384
-4.2342 -0.6006 2.0384
-4.1729 -0.9382 2.0384
-4.0848 -1.2697 2.0384
-3.9703 -1.5932 2.0384
-3.8303 -1.9065 2.0384
-3.6656 -2.2075 2.0384
3.2768 2.2619 2.0384
3.0846 2.5170 2.0384
2.8727 2.7559 2.0384
2.6423 2.9771 2.0384
2.3949 3.1791 2.0384
0.7807 1.2304 0.7463
0.6796 1.2892 0.7465
0.5742 1.3397 0.7466
0.4650 1.3816 0.7467
0.3527 1.4145 0.7468
0.2382 1.4383 0.7469
0.1221 1.4528 0.7469
0.0053 1.4579 0.7470
-0.1116 1.4536 0.7470
-0.2278 1.4400 0.7469
-0.3425 1.4170 0.7469
-0.4549 1.3849 0.7468
-0.5644 1.3438 0.7467
-0.6703 1.2941 0.7466
-0.7717 1.2360 0.7465
-2.3713 3.1955 2.0384
-2.6200 2.9952 2.0384
-2.8518 2.7757 2.0384
-3.0654 2.5384 2.0384
-3.2592 2.2846 2.0384
-3.4321 2.0162 2.0384
-3.5830 1.7347 2.0384
-3.7109 1.4421 2.0384
-3.8149 1.1401 2.0384
-3.8944 0.8307 2.0384
-3.9489 0.5159 2.0384
-3.9779 0.1978 2.0384
-3.9814 -0.1217 2.0384
-3.9593 -0.4405 2.0384
-3.9117 -0.7564 2.0384
-3.8389 -1.0676 2.0384
-3.7414 -1.3720 2.0384
-3.6198 -1.6676 2.0384
-3.4748 -1.9525 2.0384
-3.3075 -2.2249 2.0384
-3.1189 -2.4831 2.0384
-2.9102 -2.7253 2.0384
-2.6826 -2.9500 2.0384
-2.4378 -3.1557 2.0384
-2.1773 -3.3411 2.0384
-0.6912 -1.2733 0.7405
-0.5869 -1.3245 0.7404
-0.4788 -1.3671 0.7403
-0.3677 -1.4010 0.7402
-0.2543 -1.4258 0.7401
-0.1392 -1.4416 0.7401
-0.0232 -1.4481 0.7400
0.0929 -1.4453 0.7400
0.2084 -1.4333 0.7400
0.3226 -1.4120 0.7401
0.4347 -1.3818 0.7402
0.5441 -1.3426 0.7402
0.6500 -1.2949 0.7403
0.7517 -1.2388 0.7405
2.3359 -3.2333 2.0384
2.5873 -3.0356 2.0384
2.8220 -2.8183 2.0384
3.0386 -2.5829 2.0384
3.2356 -2.3310 2.0384
3.4117 -2.0641 2.0384
3.5658 -1.7839 2.0384
3.6969 -1.4923 2.0384
3.8043 -1.1911 2.0384
3.8871 -0.8823 2.0384
3.9449 -0.5679 2.0384
3.9773 -0.2499 2.0384
3.9841 0.0696 2.0384
3.9653 0.3887 2.0384
3.9210 0.7052 2.0384
3.8514 1.0170 2.0384
3.7571 1.3223 2.0384
3.6386 1.6190 2.0384
3.4968 1.9053 2.0384
3.3325 2.1792 2.0384
3.1468 2.4391 2.0384
2.9409 2.6832 2.0384
2.7161 2.9101 2.0384
2.4739 3.1182 2.0384
2.2158 3.3062 2.0384
0.7117 1.2718 0.7465
0.6075 1.3249 0.7466
0.4994 1.3694 0.7467
0.3880 1.4052 0.7468
0.2742 1.4318 0.7469
0.1585 1.4493 0.7469
0.0418 1.4573 0.7469
-0.0752 1.4560 0.7470
-0.1916 1.4452 0.7469
-0.3069 1.4251 0.7469
-0.4201 1.3958 0.7468
-0.5306 1.3576 0.7468
-0.6377 1.3105 0.7467
-0.7406 1.2550 0.7465
-2.2905 3.2538 2.0384
-2.5441 3.0599 2.0384
-2.7813 2.8462 2.0384
-3.0007 2.6143 2.0384
-3.2009 2.3655 2.0384
-3.3805 2.1015 2.0384
-3.5384 1.8239 2.0384
-3.6735 1.5345 2.0384
-3.7850 1.2352 2.0384
-3.8723 0.9280 2.0384
-3.9346 0.6147 2.0384
-3.9716 0.2973 2.0384
-3.9831 -0.0219 2.0384
-3.9689 -0.3411 2.0384
-3.9293 -0.6582 2.0384
-3.8643 -0.9711 2.0384
-3.7744 -1.2778 2.0384
-3.6603 -1.5764 2.0384
-3.5225 -1.8648 2.0384
-3.3621 -2.1414 2.0384
-3.1800 -2.4041 2.0384
-2.9774 -2.6515 2.0384
-2.7556 -2.8818 2.0384
-2.5160 -3.0936 2.0384
-2.2602 -3.2855 2.0384
-0.7229 -1.2557 0.7405
-0.6199 -1.3094 0.7404
-0.5129 -1.3547 0.7403
-0.4027 -1.3913 0.7402
-0.2899 -1.4191 0.7401
-0.1753 -1.4377 0.7401
-0.0595 -1.4471 0.7400
0.0566 -1.4472 0.7400
0.1724 -1.4380 0.7400
0.2871 -1.4196 0.7401
0.3999 -1.3922 0.7401
0.5103 -1.3558 0.7402
0.6173 -1.3107 0.7403
0.7204 -1.2572 0.7404
2.2542 -3.2908 2.0384
2.5105 -3.0994 2.0384
2.7506 -2.8881 2.0384
2.9730 -2.6583 2.0384
3.1763 -2.4113 2.0384
3.3590 -2.1489 2.0384
3.5201 -1.8727 2.0384
3.6585 -1.5844 2.0384
3.7734 -1.2860 2.0384
3.8639 -0.9794 2.0384
3.9296 -0.6665 2.0384
3.9699 -0.3494 2.0384
3.9847 -0.0302 2.0384
3.9739 0.2893 2.0384
3.9375 0.6068 2.0384
3.8758 0.9203 2.0384
3.7892 1.2278 2.0384
3.6782 1.5274 2.0384
3.5435 1.8171 2.0384
3.3861 2.0951 2.0384
3.2070 2.3595 2.0384
3.0073 2.6088 2.0384
2.7882 2.8412 2.0384
2.5513 3.0553 2.0384
2.2980 3.2497 2.0384
0.7433 1.2535 0.7464
0.6405 1.3092 0.7465
0.5335 1.3565 0.7467
0.4231 1.3950 0.7468
0.3099 1.4245 0.7468
0.1947 1.4448 0.7469
0.0783 1.4558 0.7469
-0.0387 1.4574 0.7470
-0.1554 1.4496 0.7469
-0.2711 1.4324 0.7469
-0.3850 1.4060 0.7469
-0.4965 1.3705 0.7468
-0.6047 1.3261 0.7467
-0.7089 1.2732 0.7466
-2.2082 3.3101 2.0384
-2.4666 3.1226 2.0384
-2.7091 2.9150 2.0384
-2.9343 2.6886 2.0384
-3.1406 2.4449 2.0384
-3.3267 2.1854 2.0384
-3.4915 1.9119 2.0384
-3.6338 1.6260 2.0384
-3.7528 1.3296 2.0384
-3.8477 1.0246 2.0384
-3.9178 0.7130 2.0384
-3.9628 0.3967 2.0384
-3.9823 0.0778 2.0384
-3.9761 -0.2416 2.0384
-3.9444 -0.5596 2.0384
-3.8873 -0.8740 2.0384
-3.8051 -1.1829 2.0384
-3.6985 -1.4842 2.0384
-3.5680 -1.7760 2.0384
-3.4146 -2.0564 2.0384
3.0612 2.1130 2.0384
2.8817 2.3514 2.0384
2.6837 2.5746 2.0384
2.4685 2.7812 2.0384
2.2374 2.9699 2.0384
0.7292 1.1492 0.7462
0.6348 1.2041 0.7463
0.5363 1.2512 0.7464
0.4343 1.2903 0.7465
0.3294 1.3211 0.7466
0.2225 1.3433 0.7467
0.1141 1.3568 0.7467
0.0049 1.3616 0.7467
-0.1042 1.3576 0.7467
-0.2127 1.3448 0.7467
-0.3198 1.3234 0.7467
-0.4249 1.2934 0.7466
-0.5272 1.2550 0.7465
-0.6260 1.2086 0.7464
-0.7208 1.1544 0.7463
-2.2153 2.9853 2.0384
-2.4477 2.7982 2.0384
-2.6642 2.5931 2.0384
-2.8637 2.3714 2.0384
-3.0448 2.1343 2.0384
-3.2064 1.8835 2.0384
-3.3473 1.6205 2.0384
-3.4668 1.3471 2.0384
-3.5639 1.0650 2.0384
-3.6382 0.7760 2.0384
-3.6890 0.4819 2.0384
-3.7162 0.1847 2.0384
-3.7194 -0.1138 2.0384
-3.6987 -0.4115 2.0384
-3.6542 -0.7067 2.0384
-3.5862 -0.9974 2.0384
-3.4951 -1.2817 2.0384
-3.3814 -1.5579 2.0384
-3.2460 -1.8240 2.0384
-3.0897 -2.0785 2.0384
-2.9135 -2.3196 2.0384
-2.7185 -2.5459 2.0384
-2.5060 -2.7557 2.0384
-2.2773 -2.9479 2.0384
-0.7392 -1.1343 0.7408
-0.6458 -1.1898 0.7407
-0.5484 -1.2376 0.7406
-0.4474 -1.2774 0.7405
-0.3436 -1.3091 0.7404
-0.2376 -1.3323 0.7403
-0.1301 -1.3470 0.7403
-0.0217 -1.3531 0.7403
0.0868 -1.3505 0.7403
0.1947 -1.3393 0.7403
0.3014 -1.3194 0.7403
0.4062 -1.2911 0.7404
0.5084 -1.2545 0.7404
0.6073 -1.2099 0.7405
0.7024 -1.1575 0.7407
2.1820 -3.0203 2.0384
2.4169 -2.8357 2.0384
2.6362 -2.6327 2.0384
2.8385 -2.4129 2.0384
3.0225 -2.1775 2.0384
3.1870 -1.9282 2.0384
3.3310 -1.6665 2.0384
3.4535 -1.3941 2.0384
3.5538 -1.1127 2.0384
3.6312 -0.8243 2.0384
3.6852 -0.5306 2.0384
3.7155 -0.2335 2.0384
3.7219 0.0650 2.0384
3.7043 0.3630 2.0384
3.6629 0.6587 2.0384
3.5980 0.9500 2.0384
3.5099 1.2352 2.0384
3.3992 1.5124 2.0384
3.2667 1.7798 2.0384
3.1133 2.0357 2.0384
2.9398 2.2785 2.0384
2.7474 2.5066 2.0384
2.5374 2.7186 2.0384
2.3112 2.9130 2.0384
0.7577 1.1305 0.7461
0.6647 1.1878 0.7463
0.5674 1.2374 0.7464
0.4664 1.2790 0.7465
0.3624 1.3124 0.7466
0.2561 1.3373 0.7466
0.1480 1.3535 0.7467
0.0390 1.3611 0.7467
-0.0702 1.3598 0.7467
-0.1790 1.3498 0.7467
-0.2866 1.3310 0.7467
-0.3924 1.3037 0.7466
-0.4956 1.2679 0.7465
-0.5956 1.2240 0.7464
-0.6917 1.1721 0.7463
-2.1398 3.0398 2.0384
-2.3768 2.8586 2.0384
-2.5984 2.6590 2.0384
-2.8034 2.4423 2.0384
-2.9904 2.2099 2.0384
-3.1581 1.9632 2.0384
-3.3056 1.7038 2.0384
-3.4318 1.4335 2.0384
-3.5360 1.1539 2.0384
-3.6175 0.8668 2.0384
-3.6757 0.5741 2.0384
-3.7102 0.2777 2.0384
-3.7210 -0.0206 2.0384
-3.7077 -0.3188 2.0384
-3.6706 -0.6150 2.0384
-3.6099 -0.9073 2.0384
-3.5260 -1.1938 2.0384
-3.4193 -1.4727 2.0384
-3.2906 -1.7421 2.0384
-3.1407 -2.0004 2.0384
-2.9706 -2.2459 2.0384
-2.7813 -2.4769 2.0384
-2.5741 -2.6921 2.0384
-2.3503 -2.8899 2.0384
-0.7674 -1.1155 0.7409
-0.6754 -1.1733 0.7407
-0.5792 -1.2235 0.7406
-0.4793 -1.2659 0.7405
-0.3763 -1.3001 0.7404
-0.2709 -1.3260 0.7403
-0.1637 -1.3434 0.7403
-0.0556 -1.3522 0.7403
0.0529 -1.3523 0.7403
0.1611 -1.3437 0.7403
0.2683 -1.3265 0.7403
0.3737 -1.3009 0.7403
0.4768 -1.2668 0.7404
0.5768 -1.2247 0.7405
0.6732 -1.1747 0.7406
0.7652 -1.1171 0.7408
2.3452 -2.8953 2.0384
2.5695 -2.6980 2.0384
2.7772 -2.4832 2.0384
2.9671 -2.2526 2.0384
3.1378 -2.0074 2.0384
3.2883 -1.7494 2.0384
3.4176 -1.4801 2.0384
3.5249 -1.2014 2.0384
3.6095 -0.9150 2.0384
3.6709 -0.6227 2.0384
3.7086 -0.3265 2.0384
3.7224 -0.0282 2.0384
3.7123 0.2702 2.0384
3.6784 0.5667 2.0384
3.6207 0.8596 2.0384
3.5398 1.1470 2.0384
3.4361 1.4268 2.0384
3.3104 1.6975 2.0384
3.1634 1.9572 2.0384
2.9960 2.2043 2.0384
2.8094 2.4371 2.0384
2.6048 2.6542 2.0384
2.3835 2.8543 2.0384
0.7857 1.1112 0.7461
0.6942 1.1707 0.7462
0.5982 1.2227 0.7463
0.4983 1.2669 0.7465
0.3952 1.3028 0.7466
0.2895 1.3304 0.7466
0.1819 1.3494 0.7467
0.0731 1.3597 0.7467
-0.0361 1.3611 0.7467
-0.1451 1.3538 0.7467
-0.2532 1.3378 0.7467
-0.3596 1.3131 0.7466
-0.4637 1.2799 0.7466
-0.5647 1.2385 0.7465
-0.6621 1.1891 0.7464
-0.7552 1.1321 0.7462
-2.3044 2.9172 2.0384
-2.5309 2.7232 2.0384
-2.7413 2.5117 2.0384
-2.9340 2.2840 2.0384
-3.1079 2.0416 2.0384
-3.2618 1.7861 2.0384
-3.3948 1.5190 2.0384
-3.5059 1.2421 2.0384
-3.5945 0.9571 2.0384
-3.6600 0.6660 2.0384
-3.7020 0.3705 2.0384
-3.7202 0.0726 2.0384
-3.7144 -0.2258 2.0384
-3.6847 -0.5228 2.0384
-3.6314 -0.8166 2.0384
-3.5546 -1.1051 2.0384
-3.4550 -1.3865 2.0384
-3.3331 -1.6591 2.0384
-3.1897 -1.9211 2.0384
2.8667 1.9787 2.0384
2.6986 2.2019 2.0384
2.5132 2.4110 2.0384
2.3117 2.6044 2.0384
0.7667 1.0176 0.7458
0.6827 1.0759 0.7460
0.5943 1.1273 0.7461
0.5021 1.1714 0.7462
0.4066 1.2080 0.7463
0.3084 1.2368 0.7464
0.2083 1.2576 0.7465
0.1068 1.2703 0.7465
0.0046 1.2748 0.7465
-0.0976 1.2710 0.7465
-0.1992 1.2591 0.7465
-0.2995 1.2390 0.7465
-0.3978 1.2109 0.7464
-0.4936 1.1750 0.7463
-0.5861 1.1315 0.7462
-0.6749 1.0808 0.7461
-0.7592 1.0231 0.7460
-2.2922 2.6204 2.0384
-2.4950 2.4283 2.0384
-2.6818 2.2207 2.0384
-2.8514 1.9987 2.0384
-3.0027 1.7638 2.0384
-3.1347 1.5175 2.0384
-3.2465 1.2615 2.0384
-3.3375 0.9973 2.0384
-3.4070 0.7266 2.0384
-3.4546 0.4512 2.0384
-3.4800 0.1729 2.0384
-3.4830 -0.1066 2.0384
-3.4636 -0.3854 2.0384
-3.4219 -0.6619 2.0384
-3.3582 -0.9341 2.0384
-3.2728 -1.2003 2.0384
-3.1664 -1.4589 2.0384
-3.0396 -1.7081 2.0384
-2.8932 -1.9464 2.0384
-2.7282 -2.1722 2.0384
-2.5456 -2.3840 2.0384
-2.3466 -2.5805 2.0384
-0.7753 -1.0037 0.7411
-0.6923 -1.0625 0.7410
-0.6049 -1.1144 0.7409
-0.5136 -1.1592 0.7408
-0.4190 -1.1965 0.7407
-0.3218 -1.2261 0.7406
-0.2225 -1.2479 0.7405
-0.1218 -1.2617 0.7405
-0.0203 -1.2674 0.7405
0.0813 -1.2650 0.7405
0.1824 -1.2544 0.7405
0.2823 -1.2358 0.7405
0.3804 -1.2093 0.7406
0.4761 -1.1751 0.7406
0.5688 -1.1332 0.7407
0.6579 -1.0841 0.7408
0.7427 -1.0281 0.7410
2.2631 -2.6553 2.0384
2.4685 -2.4653 2.0384
2.6579 -2.2595 2.0384
2.8302 -2.0391 2.0384
2.9843 -1.8056 2.0384
3.1191 -1.5606 2.0384
3.2339 -1.3055 2.0384
3.3278 -1.0421 2.0384
3.4003 -0.7720 2.0384
3.4509 -0.4969 2.0384
3.4793 -0.2188 2.0384
3.4853 0.0608 2.0384
3.4688 0.3399 2.0384
3.4301 0.6167 2.0384
3.3693 0.8896 2.0384
3.2868 1.1566 2.0384
3.1832 1.4162 2.0384
3.0592 1.6667 2.0384
2.9155 1.9063 2.0384
2.7530 2.1337 2.0384
2.5729 2.3473 2.0384
2.3763 2.5458 2.0384
0.7919 0.9980 0.7458
0.7094 1.0585 0.7459
0.6223 1.1120 0.7461
0.5313 1.1585 0.7462
0.4367 1.1974 0.7463
0.3393 1.2287 0.7464
0.2397 1.2520 0.7464
0.1386 1.2672 0.7465
0.0366 1.2742 0.7465
-0.0657 1.2731 0.7465
-0.1676 1.2637 0.7465
-0.2683 1.2461 0.7465
-0.3673 1.2205 0.7464
-0.4640 1.1870 0.7463
-0.5576 1.1459 0.7463
-0.6476 1.0974 0.7461
-0.7334 1.0418 0.7460
-2.2258 2.6770 2.0384
-2.4334 2.4900 2.0384
-2.6253 2.2871 2.0384
-2.8004 2.0694 2.0384
-2.9575 1.8384 2.0384
-3.0956 1.5955 2.0384
-3.2138 1.3424 2.0384
-3.3113 1.0805 2.0384
-3.3876 0.8117 2.0384
-3.4421 0.5376 2.0384
-3.4744 0.2600 2.0384
-3.4845 -0.0193 2.0384
-3.4720 -0.2986 2.0384
-3.4373 -0.5759 2.0384
-3.3804 -0.8497 2.0384
-3.3018 -1.1180 2.0384
-3.2018 -1.3790 2.0384
-3.0814 -1.6314 2.0384
-2.9410 -1.8733 2.0384
-2.7817 -2.1031 2.0384
-2.6044 -2.3195 2.0384
-2.4104 -2.5209 2.0384
-2.2008 -2.7062 2.0384
-0.7187 -1.0448 0.7410
-0.6326 -1.0989 0.7409
-0.5425 -1.1460 0.7408
-0.4489 -1.1856 0.7407
-0.3524 -1.2177 0.7406
-0.2537 -1.2420 0.7405
-0.1534 -1.2583 0.7405
-0.0521 -1.2665 0.7405
0.0496 -1.2666 0.7405
0.1509 -1.2586 0.7405
0.2513 -1.2425 0.7405
0.3500 -1.2185 0.7405
0.4466 -1.1866 0.7406
0.5403 -1.1471 0.7407
0.6305 -1.1002 0.7408
0.7167 -1.0463 0.7409
2.1960 -2.7112 2.0384
2.4060 -2.5264 2.0384
2.6006 -2.3254 2.0384
2.7783 -2.1094 2.0384
2.9382 -1.8798 2.0384
3.0792 -1.6382 2.0384
3.2003 -1.3861 2.0384
3.3008 -1.1251 2.0384
3.3800 -0.8569 2.0384
3.4375 -0.5832 2.0384
3.4728 -0.3058 2.0384
3.4858 -0.0265 2.0384
3.4764 0.2529 2.0384
3.4446 0.5307 2.0384
3.3906 0.8049 2.0384
3.3149 1.0740 2.0384
3.2178 1.3361 2.0384
3.1000 1.5896 2.0384
2.9624 1.8328 2.0384
2.8057 2.0641 2.0384
2.6310 2.2822 2.0384
2.4393 2.4855 2.0384
2.2321 2.6729 2.0384
0.7357 1.0403 0.7459
0.6500 1.0961 0.7460
0.5601 1.1448 0.7462
0.4666 1.1861 0.7463
0.3700 1.2198 0.7464
0.2710 1.2456 0.7464
0.1703 1.2633 0.7465
0.0685 1.2729 0.7465
-0.0338 1.2743 0.7465
-0.1359 1.2675 0.7465
-0.2370 1.2525 0.7465
-0.3367 1.2294 0.7464
-0.4341 1.1983 0.7464
-0.5287 1.1596 0.7463
-0.6199 1.1133 0.7462
-0.7071 1.0599 0.7461
-2.1580 2.7318 2.0384
-2.3702 2.5502 2.0384
-2.5671 2.3521 2.0384
-2.7476 2.1389 2.0384
-2.9104 1.9118 2.0384
-3.0546 1.6725 2.0384
-3.1791 1.4224 2.0384
-3.2831 1.1631 2.0384
-3.3661 0.8963 2.0384
-3.4274 0.6236 2.0384
-3.4667 0.3469 2.0384
-3.4837 0.0679 2.0384
-3.4783 -0.2115 2.0384
-3.4505 -0.4897 2.0384
