ply
format ascii 1.0
element vertex 2173
property float32 x
property float32 y
property float32 z
end_header
0.8576 -6.4501 2.0385
1.3738 -6.3602 2.0385
1.8811 -6.2290 2.0385
2.3761 -6.0573 2.0385
2.8557 -5.8463 2.0385
3.3167 -5.5974 2.0385
3.7561 -5.3121 2.0385
4.1711 -4.9923 2.0385
4.5589 -4.6403 2.0385
4.9171 -4.2581 2.0385
5.2434 -3.8483 2.0385
5.5355 -3.4136 2.0385
4.3780 3.9623 2.0385
4.0446 4.3014 2.0385
3.6850 4.6126 2.0385
3.3016 4.8938 2.0385
2.8968 5.1432 2.0385
2.4733 5.3593 2.0385
2.0339 5.5407 2.0385
1.5813 5.6861 2.0385
1.1185 5.7947 2.0385
0.6485 5.8657 2.0385
0.1743 5.8987 2.0385
-0.3010 5.8935 2.0385
-0.7744 5.8502 2.0385
-1.2427 5.7689 2.0385
-1.7029 5.6502 2.0385
-2.1522 5.4949 2.0385
-2.5875 5.3040 2.0385
-3.0061 5.0788 2.0385
-3.4053 4.8206 2.0385
-3.7824 4.5312 2.0385
-4.1350 4.2123 2.0385
-4.4609 3.8661 2.0385
-4.7580 3.4948 2.0385
-5.0242 3.1009 2.0385
-5.2579 2.6867 2.0385
-5.4576 2.2551 2.0385
-5.6219 1.8087 2.0385
-5.7498 1.3506 2.0385
-5.8405 0.8836 2.0385
-5.8933 0.4108 2.0385
-5.9079 -0.0648 2.0385
-5.8842 -0.5401 2.0385
-5.8223 -1.0119 2.0385
-5.5043 -1.4210 1.9607
-5.1682 -1.7887 1.8861
-5.0080 -2.1990 1.8861
-4.8154 -2.5952 1.8861
-4.5914 -2.9745 1.8861
-4.3376 -3.3346 1.8861
-4.1363 -3.7463 1.9236
-4.0501 -4.3102 2.0385
-3.6904 -4.6225 2.0385
-3.3068 -4.9049 2.0385
-2.9016 -5.1554 2.0385
-2.4776 -5.3725 2.0385
-0.7386 -2.0136 0.7390
-1.5839 -5.7010 2.0385
-1.1202 -5.8102 2.0385
-0.6491 -5.8816 2.0385
-0.1738 -5.9149 2.0385
0.3027 -5.9098 2.0385
0.7772 -5.8664 2.0385
1.2467 -5.7848 2.0385
1.7081 -5.6657 2.0385
2.1583 -5.5098 2.0385
2.5946 -5.3181 2.0385
3.0139 -5.0919 2.0385
3.4137 -4.8327 2.0385
3.7913 -4.5421 2.0385
4.1442 -4.2221 2.0385
4.4701 -3.8747 2.0385
4.7670 -3.5022 2.0385
5.0329 -3.1070 2.0385
5.2662 -2.6917 2.0385
5.4651 -2.2591 2.0385
5.6286 -1.8118 2.0385
5.7556 -1.3529 2.0385
5.8452 -0.8853 2.0385
5.8968 -0.4120 2.0385
5.9102 0.0638 2.0385
5.8852 0.5391 2.0385
5.8221 1.0108 2.0385
5.7213 1.4759 2.0385
5.5833 1.9313 2.0385
5.4092 2.3741 2.0385
5.2000 2.8014 2.0385
4.9572 3.2104 2.0385
4.6823 3.5986 2.0385
4.3771 3.9633 2.0385
4.0436 4.3024 2.0385
3.6839 4.6134 2.0385
3.3004 4.8945 2.0385
2.8956 5.1439 2.0385
2.4721 5.3599 2.0385
2.0326 5.5412 2.0385
1.5800 5.6865 2.0385
1.1171 5.7950 2.0385
0.6471 5.8659 2.0385
0.1729 5.8988 2.0385
-0.3024 5.8935 2.0385
-0.7757 5.8500 2.0385
-1.2440 5.7686 2.0385
-1.7043 5.6498 2.0385
-2.1535 5.4944 2.0385
-2.5888 5.3034 2.0385
-3.0073 5.0781 2.0385
-3.4064 4.8198 2.0385
-3.7834 4.5303 2.0385
-4.1360 4.2114 2.0385
-4.4618 3.8651 2.0385
-4.7588 3.4937 2.0385
-5.0249 3.0997 2.0385
-5.2586 2.6855 2.0385
-5.4581 2.2538 2.0385
-5.6224 1.8074 2.0385
-5.7502 1.3492 2.0385
-5.8407 0.8822 2.0385
-5.8934 0.4094 2.0385
-5.9079 -0.0662 2.0385
-5.8840 -0.5415 2.0385
-5.8220 -1.0133 2.0385
-5.5015 -1.4216 1.9599
-5.1678 -1.7899 1.8861
-5.0075 -2.2002 1.8861
-4.8148 -2.5963 1.8861
-4.5907 -2.9756 1.8861
-4.3369 -3.3357 1.8861
-4.1363 -3.7480 1.9240
-4.0491 -4.3112 2.0385
-3.6894 -4.6234 2.0385
-3.3056 -4.9056 2.0385
-2.9004 -5.1561 2.0385
-2.4763 -5.3731 2.0385
-0.7381 -2.0138 0.7390
-1.5826 -5.7013 2.0385
-1.1188 -5.8104 2.0385
-0.6477 -5.8818 2.0385
-0.1724 -5.9150 2.0385
0.3041 -5.9098 2.0385
0.7786 -5.8662 2.0385
1.2480 -5.7845 2.0385
1.7094 -5.6653 2.0385
2.1596 -5.5093 2.0385
2.5958 -5.3175 2.0385
3.0151 -5.0912 2.0385
3.4148 -4.8319 2.0385
3.7923 -4.5412 2.0385
4.1451 -4.2211 2.0385
4.4710 -3.8736 2.0385
4.7678 -3.5011 2.0385
5.0337 -3.1058 2.0385
5.2668 -2.6905 2.0385
5.4657 -2.2578 2.0385
5.6291 -1.8105 2.0385
5.7559 -1.3515 2.0385
5.8454 -0.8839 2.0385
5.8969 -0.4107 2.0385
5.9102 0.0652 2.0385
5.8851 0.5405 2.0385
5.8219 1.0122 2.0385
5.7209 1.4772 2.0385
5.5829 1.9326 2.0385
5.4086 2.3753 2.0385
5.1994 2.8026 2.0385
4.9565 3.2116 2.0385
4.6815 3.5997 2.0385
4.3762 3.9644 2.0385
4.0426 4.3033 2.0385
3.6828 4.6143 2.0385
3.2993 4.8953 2.0385
2.8944 5.1446 2.0385
2.4708 5.3605 2.0385
2.0313 5.5416 2.0385
1.5786 5.6869 2.0385
1.1158 5.7952 2.0385
0.6457 5.8660 2.0385
0.1715 5.8988 2.0385
-0.3038 5.8934 2.0385
-0.7771 5.8498 2.0385
-1.2453 5.7683 2.0385
-1.7056 5.6494 2.0385
-2.1548 5.4939 2.0385
-2.5900 5.3028 2.0385
-3.0085 5.0774 2.0385
-3.4075 4.8190 2.0385
-3.7845 4.5294 2.0385
-4.1370 4.2104 2.0385
-4.4627 3.8641 2.0385
-4.7596 3.4926 2.0385
-5.0257 3.0985 2.0385
-5.2592 2.6843 2.0385
-5.4587 2.2525 2.0385
-5.6228 1.8061 2.0385
-5.7505 1.3479 2.0385
-5.8409 0.8809 2.0385
-5.8935 0.4080 2.0385
-5.9079 -0.0676 2.0385
-5.8839 -0.5428 2.0385
-5.8218 -1.0146 2.0385
-5.4988 -1.4223 1.9590
-5.1674 -1.7911 1.8861
-5.0070 -2.2014 1.8861
-4.8142 -2.5974 1.8861
-4.5900 -2.9766 1.8861
-4.3361 -3.3367 1.8861
-4.1363 -3.7498 1.9244
-4.0481 -4.3121 2.0385
-3.6883 -4.6242 2.0385
-3.3045 -4.9064 2.0385
-2.8992 -5.1567 2.0385
-2.4751 -5.3737 2.0385
-0.7376 -2.0140 0.7390
-1.5813 -5.7017 2.0385
-1.1175 -5.8107 2.0385
-0.6464 -5.8819 2.0385
-0.1710 -5.9150 2.0385
0.3055 -5.9097 2.0385
0.7799 -5.8660 2.0385
1.2494 -5.7842 2.0385
1.7107 -5.6649 2.0385
2.1609 -5.5088 2.0385
2.5970 -5.3169 2.0385
3.0163 -5.0905 2.0385
3.4159 -4.8311 2.0385
3.7934 -4.5403 2.0385
4.1461 -4.2201 2.0385
4.4719 -3.8726 2.0385
4.7686 -3.5000 2.0385
5.0344 -3.1047 2.0385
4.0086 3.6279 2.0385
3.7033 3.9384 2.0385
3.3741 4.2233 2.0385
3.0230 4.4808 2.0385
2.6524 4.7092 2.0385
2.2647 4.9071 2.0385
0.6830 1.8607 0.7477
0.5311 1.9098 0.7478
0.3757 1.9466 0.7479
0.2179 1.9706 0.7479
0.1596 5.4011 2.0385
-0.2756 5.3963 2.0385
-0.2602 1.9654 0.7479
-0.4175 1.9380 0.7479
-0.5720 1.8979 0.7478
-0.7228 1.8455 0.7477
-2.3692 4.8565 2.0385
-2.7525 4.6503 2.0385
-3.1180 4.4139 2.0385
-3.4633 4.1488 2.0385
-3.7862 3.8568 2.0385
-4.0845 3.5399 2.0385
-4.3565 3.1999 2.0385
-4.6002 2.8391 2.0385
-4.8142 2.4599 2.0385
-4.9970 2.0647 2.0385
-5.1474 1.6560 2.0385
-5.2645 1.2365 2.0385
-5.3474 0.8089 2.0385
-5.3957 0.3760 2.0385
-5.4091 -0.0594 2.0385
-5.3873 -0.4946 2.0385
-5.3306 -0.9266 2.0385
-5.2393 -1.3526 2.0385
-4.8807 -1.6893 1.9455
-4.5850 -2.0133 1.8861
-4.4086 -2.3760 1.8861
-4.2035 -2.7233 1.8861
-4.1061 -3.1567 1.9502
-4.0129 -3.6346 2.0385
-3.7078 -3.9461 2.0385
-3.3785 -4.2319 2.0385
-3.0273 -4.4904 2.0385
-2.6564 -4.7197 2.0385
-2.2681 -4.9184 2.0385
-0.6765 -1.8444 0.7393
-0.5258 -1.8926 0.7392
-0.3718 -1.9286 0.7391
-0.2154 -1.9522 0.7391
-0.0577 -1.9631 0.7390
0.1005 -1.9614 0.7390
0.2580 -1.9471 0.7391
0.4138 -1.9201 0.7391
0.5670 -1.8808 0.7392
0.7166 -1.8293 0.7393
2.3752 -4.8686 2.0385
2.7592 -4.6615 2.0385
3.1251 -4.4242 2.0385
3.4708 -4.1582 2.0385
3.7939 -3.8653 2.0385
4.0923 -3.5473 2.0385
4.3641 -3.2063 2.0385
4.6076 -2.8445 2.0385
4.8212 -2.4643 2.0385
5.0034 -2.0682 2.0385
5.1531 -1.6588 2.0385
5.2694 -1.2387 2.0385
5.3514 -0.8106 2.0385
5.3987 -0.3773 2.0385
5.4110 0.0584 2.0385
5.3882 0.4935 2.0385
5.3305 0.9254 2.0385
5.2382 1.3512 2.0385
5.1119 1.7682 2.0385
4.9525 2.1736 2.0385
4.7611 2.5648 2.0385
4.5388 2.9394 2.0385
4.2871 3.2948 2.0385
4.0077 3.6288 2.0385
3.7024 3.9392 2.0385
3.3731 4.2241 2.0385
3.0220 4.4815 2.0385
2.6513 4.7098 2.0385
2.2635 4.9076 2.0385
0.6826 1.8608 0.7477
0.5307 1.9100 0.7478
0.3753 1.9466 0.7479
0.2174 1.9706 0.7479
0.1583 5.4011 2.0385
-0.2769 5.3963 2.0385
-0.2606 1.9653 0.7479
-0.4179 1.9379 0.7479
-0.5725 1.8978 0.7478
-0.7232 1.8453 0.7477
-2.3704 4.8560 2.0385
-2.7536 4.6496 2.0385
-3.1190 4.4131 2.0385
-3.4642 4.1480 2.0385
-3.7871 3.8560 2.0385
-4.0854 3.5389 2.0385
-4.3572 3.1989 2.0385
-4.6009 2.8381 2.0385
-4.8148 2.4588 2.0385
-4.9975 2.0635 2.0385
-5.1478 1.6548 2.0385
-5.2648 1.2353 2.0385
-5.3476 0.8077 2.0385
-5.3958 0.3748 2.0385
-5.4090 -0.0607 2.0385
-5.3872 -0.4958 2.0385
-5.3304 -0.9278 2.0385
-5.2390 -1.3539 2.0385
-4.8795 -1.6901 1.9452
-4.5845 -2.0144 1.8861
-4.4080 -2.3770 1.8861
-4.2029 -2.7243 1.8861
-4.1060 -3.1582 1.9505
-4.0121 -3.6356 2.0385
-3.7069 -3.9469 2.0385
-3.3776 -4.2327 2.0385
-3.0262 -4.4911 2.0385
-2.6553 -4.7203 2.0385
-2.2670 -4.9190 2.0385
-0.6760 -1.8445 0.7393
-0.5254 -1.8927 0.7392
-0.3714 -1.9287 0.7391
-0.2150 -1.9522 0.7391
-0.0572 -1.9632 0.7390
0.1009 -1.9614 0.7390
0.2584 -1.9470 0.7391
0.4143 -1.9200 0.7391
0.5674 -1.8807 0.7392
0.7170 -1.8291 0.7393
2.3764 -4.8680 2.0385
2.7602 -4.6609 2.0385
3.1262 -4.4235 2.0385
3.4718 -4.1574 2.0385
3.7948 -3.8644 2.0385
4.0931 -3.5463 2.0385
4.3649 -3.2052 2.0385
4.6083 -2.8434 2.0385
4.8217 -2.4632 2.0385
5.0038 -2.0671 2.0385
5.1535 -1.6576 2.0385
5.2696 -1.2374 2.0385
5.3516 -0.8093 2.0385
5.3988 -0.3760 2.0385
5.4110 0.0596 2.0385
5.3881 0.4948 2.0385
5.3303 0.9266 2.0385
5.2379 1.3524 2.0385
5.1115 1.7694 2.0385
4.9520 2.1747 2.0385
4.7605 2.5659 2.0385
4.5381 2.9404 2.0385
4.2864 3.2958 2.0385
4.0069 3.6297 2.0385
3.7015 3.9401 2.0385
3.3721 4.2248 2.0385
3.0209 4.4822 2.0385
2.6502 4.7105 2.0385
2.2624 4.9082 2.0385
0.6822 1.8610 0.7477
0.5302 1.9101 0.7478
0.3748 1.9467 0.7479
0.2169 1.9707 0.7479
0.1571 5.4012 2.0385
-0.2781 5.3962 2.0385
-0.2611 1.9653 0.7479
-0.4184 1.9378 0.7479
-0.5729 1.8976 0.7478
-0.7237 1.8451 0.7477
-2.3715 4.8555 2.0385
-2.7547 4.6490 2.0385
-3.1200 4.4124 2.0385
-3.4652 4.1472 2.0385
-3.7880 3.8551 2.0385
-4.0862 3.5380 2.0385
-4.3580 3.1979 2.0385
-4.6016 2.8370 2.0385
-4.8153 2.4577 2.0385
-4.9979 2.0624 2.0385
-5.1482 1.6536 2.0385
-5.2651 1.2341 2.0385
-5.3478 0.8064 2.0385
-5.3959 0.3735 2.0385
-5.4090 -0.0619 2.0385
-5.3871 -0.4971 2.0385
-5.3302 -0.9290 2.0385
-5.2387 -1.3551 2.0385
-4.8783 -1.6910 1.9449
-4.5841 -2.0155 1.8861
-4.4075 -2.3780 1.8861
-4.2022 -2.7252 1.8861
-4.1060 -3.1597 1.9508
-4.0112 -3.6365 2.0385
-3.7060 -3.9478 2.0385
-3.3766 -4.2335 2.0385
-3.0252 -4.4918 2.0385
-2.6542 -4.7209 2.0385
-2.2659 -4.9195 2.0385
-0.6756 -1.8447 0.7393
-0.5250 -1.8929 0.7392
-0.3709 -1.9288 0.7391
-0.2145 -1.9523 0.7391
-0.0568 -1.9632 0.7390
0.1014 -1.9614 0.7390
0.2589 -1.9469 0.7391
0.4147 -1.9199 0.7391
0.5679 -1.8805 0.7392
0.7174 -1.8290 0.7393
2.3775 -4.8675 2.0385
2.7613 -4.6602 2.0385
3.1272 -4.4228 2.0385
3.4727 -4.1566 2.0385
3.7957 -3.8635 2.0385
4.0940 -3.5454 2.0385
4.3656 -3.2042 2.0385
4.6089 -2.8424 2.0385
3.6905 3.3399 2.0385
3.4094 3.6258 2.0385
3.1063 3.8881 2.0385
2.7831 4.1252 2.0385
2.4420 4.3355 2.0385
0.7642 1.6559 0.7472
0.6286 1.7123 0.7473
0.4888 1.7575 0.7474
0.3458 1.7913 0.7475
0.2005 1.8134 0.7476
0.0539 1.8237 0.7476
-0.0931 1.8221 0.7476
-0.2394 1.8086 0.7476
-0.3842 1.7834 0.7475
-0.5264 1.7465 0.7475
-0.6652 1.6983 0.7474
-2.1813 4.4712 2.0385
-2.5342 4.2813 2.0385
-2.8706 4.0636 2.0385
-3.1885 3.8196 2.0385
-3.4858 3.5508 2.0385
-3.7604 3.2589 2.0385
-4.0108 2.9459 2.0385
-4.2352 2.6138 2.0385
-4.4321 2.2646 2.0385
-4.6004 1.9007 2.0385
-4.7388 1.5245 2.0385
-4.8466 1.1383 2.0385
-4.9229 0.7446 2.0385
-4.9674 0.3461 2.0385
-4.9796 -0.0548 2.0385
-4.9595 -0.4554 2.0385
-4.9073 -0.8531 2.0385
-4.8232 -1.2453 2.0385
-4.7078 -1.6295 2.0385
-4.5256 -1.9873 2.0223
-4.3005 -2.3178 1.9986
-4.1514 -2.6896 2.0235
-3.9510 -3.0376 2.0385
-3.6941 -3.3459 2.0385
-3.4132 -3.6326 2.0385
-3.1100 -3.8957 2.0385
-2.7867 -4.1336 2.0385
-2.4452 -4.3447 2.0385
-0.7577 -1.6431 0.7398
-0.6230 -1.6986 0.7397
-0.4843 -1.7430 0.7396
-0.3424 -1.7762 0.7395
-0.1984 -1.7979 0.7394
-0.0531 -1.8080 0.7394
0.0925 -1.8064 0.7394
0.2376 -1.7932 0.7394
0.3811 -1.7683 0.7395
0.5222 -1.7321 0.7395
0.6599 -1.6847 0.7396
2.1864 -4.4816 2.0385
2.5399 -4.2911 2.0385
2.8767 -4.0726 2.0385
3.1949 -3.8278 2.0385
3.4924 -3.5581 2.0385
3.7671 -3.2654 2.0385
4.0173 -2.9515 2.0385
4.2415 -2.6185 2.0385
4.4381 -2.2686 2.0385
4.6059 -1.9040 2.0385
4.7437 -1.5271 2.0385
4.8508 -1.1403 2.0385
4.9263 -0.7462 2.0385
4.9699 -0.3474 2.0385
4.9813 0.0537 2.0385
4.9603 0.4543 2.0385
4.9072 0.8519 2.0385
4.8223 1.2439 2.0385
4.7061 1.6277 2.0385
4.5594 2.0010 2.0385
4.3832 2.3612 2.0385
4.1786 2.7060 2.0385
3.9469 3.0332 2.0385
3.6897 3.3407 2.0385
3.4086 3.6266 2.0385
3.1054 3.8888 2.0385
2.7822 4.1258 2.0385
2.4410 4.3361 2.0385
0.7639 1.6561 0.7472
0.6282 1.7124 0.7473
0.4884 1.7576 0.7474
0.3453 1.7914 0.7475
0.2001 1.8134 0.7476
0.0535 1.8237 0.7476
-0.0935 1.8221 0.7476
-0.2398 1.8086 0.7476
-0.3846 1.7833 0.7475
-0.5268 1.7464 0.7475
-0.6656 1.6981 0.7474
-2.1823 4.4707 2.0385
-2.5351 4.2807 2.0385
-2.8716 4.0630 2.0385
-3.1894 3.8188 2.0385
-3.4866 3.5500 2.0385
-3.7612 3.2580 2.0385
-4.0115 2.9450 2.0385
-4.2358 2.6128 2.0385
-4.4327 2.2636 2.0385
-4.6008 1.8997 2.0385
-4.7392 1.5234 2.0385
-4.8469 1.1372 2.0385
-4.9231 0.7435 2.0385
-4.9674 0.3449 2.0385
-4.9796 -0.0559 2.0385
-4.9594 -0.4565 2.0385
-4.9071 -0.8542 2.0385
-4.8229 -1.2464 2.0385
-4.7074 -1.6306 2.0385
-4.5248 -1.9882 2.0222
-4.2999 -2.3188 1.9986
-4.1511 -2.6908 2.0236
-3.9503 -3.0385 2.0385
-3.6933 -3.3468 2.0385
-3.4123 -3.6334 2.0385
-3.1091 -3.8964 2.0385
-2.7857 -4.1343 2.0385
-2.4442 -4.3453 2.0385
-0.7573 -1.6433 0.7398
-0.6226 -1.6987 0.7397
-0.4838 -1.7431 0.7396
-0.3420 -1.7763 0.7395
-0.1980 -1.7979 0.7394
-0.0527 -1.8080 0.7394
0.0930 -1.8064 0.7394
0.2380 -1.7931 0.7394
0.3815 -1.7683 0.7395
0.5226 -1.7320 0.7395
0.6603 -1.6845 0.7396
2.1875 -4.4811 2.0385
2.5408 -4.2905 2.0385
2.8777 -4.0720 2.0385
3.1958 -3.8271 2.0385
3.4932 -3.5573 2.0385
3.7679 -3.2645 2.0385
4.0180 -2.9506 2.0385
4.2421 -2.6175 2.0385
4.4386 -2.2676 2.0385
4.6063 -1.9029 2.0385
4.7441 -1.5260 2.0385
4.8510 -1.1392 2.0385
4.9265 -0.7451 2.0385
4.9700 -0.3462 2.0385
4.9813 0.0548 2.0385
4.9602 0.4554 2.0385
4.9070 0.8530 2.0385
4.8220 1.2450 2.0385
4.7057 1.6288 2.0385
4.5589 2.0020 2.0385
4.3826 2.3622 2.0385
4.1779 2.7070 2.0385
3.9462 3.0341 2.0385
3.6889 3.3416 2.0385
3.4077 3.6273 2.0385
3.1045 3.8895 2.0385
2.7812 4.1265 2.0385
2.4400 4.3366 2.0385
0.7635 1.6563 0.7472
0.6278 1.7126 0.7473
0.4880 1.7577 0.7474
0.3449 1.7914 0.7475
0.1996 1.8135 0.7476
0.0530 1.8237 0.7476
-0.0939 1.8220 0.7476
-0.2402 1.8085 0.7476
-0.3850 1.7832 0.7475
-0.5272 1.7463 0.7475
-0.6660 1.6980 0.7474
-2.1834 4.4702 2.0385
-2.5361 4.2801 2.0385
-2.8725 4.0623 2.0385
-3.1903 3.8181 2.0385
-3.4874 3.5492 2.0385
-3.7620 3.2572 2.0385
-4.0122 2.9440 2.0385
-4.2364 2.6118 2.0385
-4.4332 2.2626 2.0385
-4.6013 1.8986 2.0385
-4.7395 1.5223 2.0385
-4.8471 1.1360 2.0385
-4.9233 0.7423 2.0385
-4.9675 0.3438 2.0385
-4.9796 -0.0571 2.0385
-4.9593 -0.4576 2.0385
-4.9069 -0.8553 2.0385
-4.8226 -1.2475 2.0385
-4.7070 -1.6317 2.0385
-4.5241 -1.9892 2.0220
-4.2993 -2.3198 1.9986
-4.1507 -2.6919 2.0238
-3.9496 -3.0394 2.0385
-3.6925 -3.3476 2.0385
-3.4115 -3.6342 2.0385
-3.1082 -3.8972 2.0385
-2.7848 -4.1349 2.0385
-2.4432 -4.3458 2.0385
-0.7570 -1.6435 0.7398
-0.6222 -1.6988 0.7397
-0.4834 -1.7432 0.7396
-0.3416 -1.7763 0.7395
-0.1976 -1.7980 0.7394
-0.0523 -1.8080 0.7394
0.0934 -1.8064 0.7394
0.2384 -1.7931 0.7394
0.3819 -1.7682 0.7395
0.5230 -1.7319 0.7395
0.6607 -1.6844 0.7396
2.1885 -4.4806 2.0385
2.5418 -4.2899 2.0385
2.8786 -4.0713 2.0385
3.1967 -3.8263 2.0385
3.4940 -3.5565 2.0385
3.7686 -3.2637 2.0385
4.0187 -2.9497 2.0385
4.2427 -2.6166 2.0385
3.4133 3.0890 2.0385
3.1534 3.3534 2.0385
2.8730 3.5960 2.0385
2.5741 3.8153 2.0385
2.2586 4.0099 2.0385
0.7066 1.5310 0.7469
0.5811 1.5831 0.7470
0.4519 1.6249 0.7471
0.3197 1.6561 0.7472
0.1854 1.6765 0.7473
0.0498 1.6860 0.7473
-0.0860 1.6845 0.7473
-0.2213 1.6721 0.7473
-0.3552 1.6488 0.7472
-0.4867 1.6147 0.7472
-0.6150 1.5701 0.7471
-0.7393 1.5153 0.7470
-2.3439 3.9598 2.0385
-2.6551 3.7584 2.0385
-2.9491 3.5327 2.0385
-3.2240 3.2841 2.0385
-3.4780 3.0141 2.0385
-3.7096 2.7246 2.0385
-3.9171 2.4174 2.0385
-4.0992 2.0945 2.0385
-4.2548 1.7579 2.0385
-4.3828 1.4099 2.0385
-4.4825 1.0527 2.0385
-4.5530 0.6886 2.0385
-4.5941 0.3200 2.0385
-4.6054 -0.0507 2.0385
-4.5868 -0.4212 2.0385
-4.5385 -0.7890 2.0385
-4.4607 -1.1518 2.0385
-4.3539 -1.5071 2.0385
-4.2189 -1.8527 2.0385
-4.0565 -2.1864 2.0385
-3.8678 -2.5059 2.0385
-3.6539 -2.8092 2.0385
-3.4163 -3.0944 2.0385
-3.1565 -3.3595 2.0385
-2.8761 -3.6028 2.0385
-2.5771 -3.8228 2.0385
-2.2613 -4.0180 2.0385
-0.7010 -1.5201 0.7401
-0.5763 -1.5714 0.7400
-0.4480 -1.6126 0.7399
-0.3168 -1.6433 0.7398
-0.1835 -1.6633 0.7397
-0.0491 -1.6727 0.7397
0.0856 -1.6712 0.7397
0.2198 -1.6590 0.7397
0.3526 -1.6360 0.7398
0.4831 -1.6025 0.7398
0.6105 -1.5586 0.7399
0.7340 -1.5046 0.7400
2.3488 -3.9683 2.0385
2.6604 -3.7664 2.0385
2.9546 -3.5400 2.0385
3.2297 -3.2906 2.0385
3.4838 -3.0199 2.0385
3.7152 -2.7296 2.0385
3.9225 -2.4217 2.0385
4.1044 -2.0981 2.0385
4.2595 -1.7609 2.0385
4.3871 -1.4123 2.0385
4.4861 -1.0547 2.0385
4.5560 -0.6902 2.0385
4.5964 -0.3213 2.0385
4.6069 0.0496 2.0385
4.5875 0.4201 2.0385
4.5384 0.7878 2.0385
4.4599 1.1503 2.0385
4.3525 1.5054 2.0385
4.2168 1.8506 2.0385
4.0539 2.1837 2.0385
3.8647 2.5026 2.0385
3.6504 2.8053 2.0385
3.4125 3.0897 2.0385
3.1526 3.3541 2.0385
2.8722 3.5967 2.0385
2.5733 3.8159 2.0385
2.2577 4.0104 2.0385
0.7062 1.5311 0.7469
0.5808 1.5832 0.7470
0.4515 1.6250 0.7471
0.3193 1.6561 0.7472
0.1850 1.6765 0.7473
0.0494 1.6860 0.7473
-0.0864 1.6845 0.7473
-0.2217 1.6721 0.7473
-0.3555 1.6487 0.7472
-0.4870 1.6146 0.7472
-0.6154 1.5700 0.7471
-0.7396 1.5152 0.7470
-2.3448 3.9592 2.0385
-2.6559 3.7578 2.0385
-2.9499 3.5320 2.0385
-3.2247 3.2833 2.0385
-3.4787 3.0133 2.0385
-3.7102 2.7237 2.0385
-3.9176 2.4165 2.0385
-4.0997 2.0935 2.0385
-4.2552 1.7569 2.0385
-4.3832 1.4089 2.0385
-4.4827 1.0517 2.0385
-4.5532 0.6876 2.0385
-4.5942 0.3189 2.0385
-4.6054 -0.0518 2.0385
-4.5867 -0.4223 2.0385
-4.5383 -0.7901 2.0385
-4.4604 -1.1528 2.0385
-4.3536 -1.5081 2.0385
-4.2185 -1.8537 2.0385
-4.0560 -2.1873 2.0385
-3.8672 -2.5068 2.0385
-3.6533 -2.8101 2.0385
-3.4156 -3.0952 2.0385
-3.1557 -3.3602 2.0385
-2.8753 -3.6035 2.0385
-2.5762 -3.8234 2.0385
-2.2604 -4.0185 2.0385
-0.7006 -1.5203 0.7401
-0.5760 -1.5716 0.7400
-0.4476 -1.6127 0.7399
-0.3164 -1.6433 0.7398
-0.1832 -1.6634 0.7397
-0.0487 -1.6727 0.7397
0.0860 -1.6712 0.7397
0.2202 -1.6589 0.7397
0.3530 -1.6359 0.7398
0.4835 -1.6024 0.7398
0.6109 -1.5584 0.7399
0.7344 -1.5044 0.7400
2.3497 -3.9678 2.0385
2.6612 -3.7657 2.0385
2.9555 -3.5393 2.0385
3.2305 -3.2898 2.0385
3.4845 -3.0191 2.0385
3.7159 -2.7288 2.0385
3.9231 -2.4208 2.0385
4.1049 -2.0971 2.0385
4.2600 -1.7599 2.0385
4.3874 -1.4113 2.0385
4.4863 -1.0536 2.0385
4.5562 -0.6892 2.0385
4.5964 -0.3203 2.0385
4.6069 0.0506 2.0385
4.5874 0.4211 2.0385
4.5383 0.7888 2.0385
4.4596 1.1514 2.0385
4.3521 1.5064 2.0385
4.2164 1.8515 2.0385
4.0534 2.1846 2.0385
3.8641 2.5035 2.0385
3.6498 2.8061 2.0385
3.4118 3.0905 2.0385
3.1518 3.3548 2.0385
2.8714 3.5973 2.0385
2.5724 3.8165 2.0385
2.2567 4.0109 2.0385
0.7059 1.5313 0.7469
0.5804 1.5833 0.7470
0.4511 1.6251 0.7471
0.3189 1.6562 0.7472
0.1846 1.6766 0.7473
0.0490 1.6860 0.7473
-0.0868 1.6845 0.7473
-0.2221 1.6720 0.7473
-0.3559 1.6486 0.7472
-0.4874 1.6145 0.7472
-0.6157 1.5698 0.7471
-0.7400 1.5150 0.7470
-2.3457 3.9587 2.0385
-2.6568 3.7572 2.0385
-2.9507 3.5313 2.0385
-3.2255 3.2826 2.0385
-3.4794 3.0125 2.0385
-3.7108 2.7229 2.0385
-3.9182 2.4156 2.0385
-4.1002 2.0925 2.0385
-4.2556 1.7559 2.0385
-4.3835 1.4079 2.0385
-4.4830 1.0506 2.0385
-4.5534 0.6865 2.0385
-4.5943 0.3179 2.0385
-4.6054 -0.0529 2.0385
-4.5866 -0.4233 2.0385
-4.5381 -0.7911 2.0385
-4.4601 -1.1538 2.0385
-4.3532 -1.5091 2.0385
-4.2181 -1.8547 2.0385
-4.0555 -2.1883 2.0385
-3.8666 -2.5077 2.0385
-3.6526 -2.8109 2.0385
-3.4149 -3.0960 2.0385
-3.1549 -3.3609 2.0385
-2.8745 -3.6041 2.0385
-2.5753 -3.8240 2.0385
-2.2595 -4.0190 2.0385
-0.7003 -1.5205 0.7401
-0.5756 -1.5717 0.7400
-0.4473 -1.6128 0.7399
-0.3160 -1.6434 0.7398
-0.1828 -1.6634 0.7397
-0.0483 -1.6727 0.7397
0.0864 -1.6712 0.7397
0.2206 -1.6589 0.7397
0.3533 -1.6358 0.7398
0.4838 -1.6023 0.7398
0.6112 -1.5583 0.7399
0.7347 -1.5043 0.7400
2.3506 -3.9673 2.0385
2.6621 -3.7651 2.0385
2.9563 -3.5386 2.0385
3.2312 -3.2891 2.0385
3.4852 -3.0183 2.0385
3.7165 -2.7279 2.0385
3.9237 -2.4199 2.0385
3.1692 2.8680 2.0385
2.9279 3.1135 2.0385
2.6676 3.3389 2.0385
2.3901 3.5425 2.0385
0.7680 1.3635 0.7465
0.6559 1.4210 0.7467
0.5394 1.4694 0.7468
0.4194 1.5082 0.7469
0.2967 1.5371 0.7469
0.1721 1.5561 0.7470
0.0463 1.5649 0.7470
-0.0799 1.5635 0.7470
-0.2054 1.5520 0.7470
-0.3297 1.5303 0.7470
-0.4517 1.4987 0.7469
-0.5708 1.4574 0.7468
-0.6862 1.4065 0.7467
-2.1763 3.6767 2.0385
-2.4653 3.4897 2.0385
-2.7383 3.2801 2.0385
-2.9935 3.0492 2.0385
-3.2294 2.7986 2.0385
-3.4444 2.5297 2.0385
-3.6370 2.2445 2.0385
-3.8061 1.9446 2.0385
-3.9506 1.6321 2.0385
-4.0694 1.3090 2.0385
-4.1619 0.9774 2.0385
-4.2274 0.6393 2.0385
-4.2655 0.2971 2.0385
-4.2760 -0.0472 2.0385
-4.2587 -0.3911 2.0385
-4.2138 -0.7326 2.0385
-4.1415 -1.0694 2.0385
-4.0424 -1.3993 2.0385
-3.9170 -1.7202 2.0385
-3.7662 -2.0300 2.0385
-3.5910 -2.3266 2.0385
-3.3924 -2.6082 2.0385
-3.1718 -2.8730 2.0385
-2.9306 -3.1191 2.0385
-2.6703 -3.3450 2.0385
-2.3926 -3.5492 2.0385
-0.7626 -1.3550 0.7405
-0.6510 -1.4118 0.7403
-0.5353 -1.4594 0.7402
-0.4161 -1.4976 0.7401
-0.2942 -1.5262 0.7400
-0.1705 -1.5448 0.7400
-0.0456 -1.5535 0.7400
0.0795 -1.5522 0.7400
0.2041 -1.5408 0.7400
0.3275 -1.5194 0.7400
0.4487 -1.4883 0.7401
0.5670 -1.4475 0.7402
0.6817 -1.3974 0.7403
2.1807 -3.6843 2.0385
2.4699 -3.4968 2.0385
2.7431 -3.2866 2.0385
2.9985 -3.0551 2.0385
3.2344 -2.8038 2.0385
3.4493 -2.5343 2.0385
3.6418 -2.2484 2.0385
3.8106 -1.9480 2.0385
3.9547 -1.6349 2.0385
4.0731 -1.3113 2.0385
4.1651 -0.9793 2.0385
4.2300 -0.6409 2.0385
4.2675 -0.2984 2.0385
4.2773 0.0459 2.0385
4.2593 0.3899 2.0385
4.2138 0.7314 2.0385
4.1409 1.0680 2.0385
4.0412 1.3976 2.0385
3.9152 1.7181 2.0385
3.7640 2.0275 2.0385
3.5883 2.3236 2.0385
3.3894 2.6046 2.0385
3.1685 2.8688 2.0385
2.9272 3.1142 2.0385
2.6669 3.3395 2.0385
2.3893 3.5431 2.0385
0.7677 1.3637 0.7465
0.6555 1.4212 0.7467
0.5391 1.4695 0.7468
0.4191 1.5083 0.7469
0.2964 1.5372 0.7469
0.1717 1.5561 0.7470
0.0459 1.5649 0.7470
-0.0802 1.5635 0.7470
-0.2058 1.5520 0.7470
-0.3300 1.5303 0.7470
-0.4521 1.4986 0.7469
-0.5712 1.4572 0.7468
-0.6865 1.4064 0.7467
-2.1772 3.6762 2.0385
-2.4661 3.4891 2.0385
-2.7390 3.2795 2.0385
-2.9942 3.0486 2.0385
-3.2300 2.7978 2.0385
-3.4449 2.5289 2.0385
-3.6375 2.2436 2.0385
-3.8066 1.9438 2.0385
-3.9509 1.6312 2.0385
-4.0697 1.3081 2.0385
-4.1621 0.9764 2.0385
-4.2276 0.6383 2.0385
-4.2656 0.2961 2.0385
-4.2759 -0.0482 2.0385
-4.2586 -0.3921 2.0385
-4.2136 -0.7336 2.0385
-4.1413 -1.0704 2.0385
-4.0421 -1.4003 2.0385
-3.9166 -1.7211 2.0385
-3.7658 -2.0309 2.0385
-3.5904 -2.3275 2.0385
-3.3918 -2.6090 2.0385
-3.1711 -2.8737 2.0385
-2.9298 -3.1198 2.0385
-2.6695 -3.3456 2.0385
-2.3918 -3.5498 2.0385
-0.7623 -1.3552 0.7405
-0.6507 -1.4119 0.7403
-0.5349 -1.4596 0.7402
-0.4157 -1.4977 0.7401
-0.2939 -1.5262 0.7400
-0.1701 -1.5449 0.7400
-0.0453 -1.5535 0.7400
0.0799 -1.5521 0.7400
0.2045 -1.5407 0.7400
0.3278 -1.5194 0.7400
0.4490 -1.4882 0.7401
0.5673 -1.4474 0.7402
0.6820 -1.3972 0.7403
2.1815 -3.6838 2.0385
2.4707 -3.4962 2.0385
2.7439 -3.2859 2.0385
2.9992 -3.0544 2.0385
3.2351 -2.8030 2.0385
3.4499 -2.5335 2.0385
3.6423 -2.2476 2.0385
3.8111 -1.9471 2.0385
3.9551 -1.6340 2.0385
4.0734 -1.3104 2.0385
4.1653 -0.9783 2.0385
4.2302 -0.6399 2.0385
4.2676 -0.2974 2.0385
4.2773 0.0469 2.0385
4.2593 0.3909 2.0385
4.2136 0.7323 2.0385
4.1406 1.0689 2.0385
4.0408 1.3986 2.0385
3.9148 1.7190 2.0385
3.7635 2.0283 2.0385
3.5878 2.3244 2.0385
3.3888 2.6054 2.0385
3.1679 2.8695 2.0385
2.9265 3.1149 2.0385
2.6661 3.3401 2.0385
2.3885 3.5436 2.0385
0.7674 1.3638 0.7465
0.6552 1.4214 0.7467
0.5387 1.4696 0.7468
0.4187 1.5084 0.7469
0.2960 1.5373 0.7469
0.1713 1.5562 0.7470
0.0455 1.5649 0.7470
-0.0806 1.5635 0.7470
-0.2061 1.5519 0.7470
-0.3304 1.5302 0.7470
-0.4524 1.4985 0.7469
-0.5715 1.4571 0.7468
-0.6868 1.4062 0.7467
-2.1780 3.6757 2.0385
-2.4669 3.4886 2.0385
-2.7398 3.2788 2.0385
-2.9949 3.0478 2.0385
-3.2307 2.7971 2.0385
-3.4455 2.5281 2.0385
-3.6381 2.2428 2.0385
-3.8070 1.9429 2.0385
-3.9513 1.6303 2.0385
-4.0700 1.3071 2.0385
-4.1624 0.9754 2.0385
-4.2277 0.6374 2.0385
-4.2657 0.2951 2.0385
-4.2759 -0.0491 2.0385
-4.2585 -0.3931 2.0385
-4.2134 -0.7346 2.0385
-4.1410 -1.0713 2.0385
-4.0417 -1.4012 2.0385
-3.9162 -1.7220 2.0385
-3.7653 -2.0317 2.0385
-3.5899 -2.3283 2.0385
-3.3912 -2.6098 2.0385
-3.1704 -2.8744 2.0385
-2.9291 -3.1204 2.0385
-2.6687 -3.3462 2.0385
-2.3910 -3.5503 2.0385
-0.7620 -1.3554 0.7405
-0.6504 -1.4121 0.7403
-0.5346 -1.4597 0.7402
-0.4154 -1.4978 0.7401
-0.2935 -1.5263 0.7400
-0.1697 -1.5449 0.7400
-0.0449 -1.5535 0.7400
0.0802 -1.5521 0.7400
0.2049 -1.5407 0.7400
0.3282 -1.5193 0.7400
0.4494 -1.4881 0.7401
0.5677 -1.4472 0.7402
0.6824 -1.3970 0.7403
2.1824 -3.6833 2.0385
2.4715 -3.4956 2.0385
2.7446 -3.2853 2.0385
2.9999 -3.0537 2.0385
3.2357 -2.8023 2.0385
3.4505 -2.5327 2.0385
3.6428 -2.2467 2.0385
2.9524 2.6717 2.0385
2.7276 2.9005 2.0385
2.4851 3.1104 2.0385
2.2266 3.3001 2.0385
0.7153 1.2698 0.7463
0.6108 1.3234 0.7464
0.5024 1.3684 0.7466
0.3906 1.4045 0.7466
0.2763 1.4315 0.7467
0.1602 1.4492 0.7468
0.0431 1.4574 0.7468
-0.0744 1.4561 0.7468
-0.1913 1.4454 0.7468
-0.3070 1.4252 0.7467
-0.4207 1.3958 0.7467
-0.5316 1.3573 0.7466
-0.6391 1.3099 0.7465
-0.7423 1.2541 0.7464
-2.2966 3.2509 2.0385
-2.5509 3.0557 2.0385
-2.7887 2.8406 2.0385
-3.0085 2.6071 2.0385
-3.2087 2.3566 2.0385
-3.3882 2.0909 2.0385
-3.5457 1.8115 2.0385
-3.6802 1.5204 2.0385
-3.7909 1.2194 2.0385
-3.8771 0.9104 2.0385
-3.9381 0.5955 2.0385
-3.9736 0.2767 2.0385
-3.9833 -0.0440 2.0385
-3.9672 -0.3644 2.0385
-3.9253 -0.6825 2.0385
-3.8580 -0.9963 2.0385
-3.7656 -1.3036 2.0385
-3.6488 -1.6025 2.0385
-3.5083 -1.8911 2.0385
-3.3450 -2.1674 2.0385
-3.1601 -2.4297 2.0385
-2.9545 -2.6763 2.0385
-2.7298 -2.9055 2.0385
-2.4874 -3.1159 2.0385
-2.2287 -3.3061 2.0385
-0.7105 -1.2626 0.7407
-0.6066 -1.3155 0.7405
-0.4987 -1.3599 0.7404
-0.3877 -1.3955 0.7403
-0.2741 -1.4221 0.7403
-0.1588 -1.4395 0.7402
-0.0425 -1.4476 0.7402
0.0741 -1.4463 0.7402
0.1902 -1.4357 0.7402
0.3051 -1.4158 0.7403
0.4181 -1.3868 0.7403
0.5283 -1.3488 0.7404
0.6352 -1.3020 0.7405
0.7380 -1.2469 0.7406
2.3007 -3.2573 2.0385
2.5552 -3.0615 2.0385
2.7931 -2.8459 2.0385
3.0129 -2.6118 2.0385
3.2130 -2.3608 2.0385
3.3924 -2.0945 2.0385
3.5496 -1.8146 2.0385
3.6839 -1.5230 2.0385
3.7942 -1.2216 2.0385
3.8799 -0.9123 2.0385
3.9404 -0.5971 2.0385
3.9753 -0.2780 2.0385
3.9845 0.0427 2.0385
3.9678 0.3632 2.0385
3.9253 0.6812 2.0385
3.8575 0.9948 2.0385
3.7646 1.3019 2.0385
3.6473 1.6005 2.0385
3.5064 1.8887 2.0385
3.3428 2.1645 2.0385
3.1575 2.4264 2.0385
2.9518 2.6724 2.0385
2.7269 2.9011 2.0385
2.4844 3.1109 2.0385
2.2259 3.3006 2.0385
0.7150 1.2700 0.7463
0.6105 1.3236 0.7464
0.5021 1.3686 0.7466
0.3903 1.4046 0.7466
0.2760 1.4316 0.7467
0.1599 1.4492 0.7468
0.0427 1.4574 0.7468
-0.0747 1.4561 0.7468
-0.1916 1.4453 0.7468
-0.3073 1.4251 0.7467
-0.4210 1.3957 0.7467
-0.5319 1.3571 0.7466
-0.6394 1.3098 0.7465
-0.7426 1.2539 0.7464
-2.2974 3.2504 2.0385
-2.5516 3.0551 2.0385
-2.7894 2.8399 2.0385
-3.0091 2.6064 2.0385
-3.2092 2.3559 2.0385
-3.3887 2.0901 2.0385
-3.5461 1.8107 2.0385
-3.6806 1.5195 2.0385
-3.7912 1.2185 2.0385
-3.8773 0.9095 2.0385
-3.9382 0.5946 2.0385
-3.9736 0.2758 2.0385
-3.9833 -0.0449 2.0385
-3.9671 -0.3653 2.0385
-3.9251 -0.6834 2.0385
-3.8577 -0.9972 2.0385
-3.7653 -1.3045 2.0385
-3.6484 -1.6033 2.0385
-3.5079 -1.8919 2.0385
-3.3445 -2.1682 2.0385
-3.1595 -2.4304 2.0385
-2.9539 -2.6769 2.0385
-2.7291 -2.9061 2.0385
-2.4867 -3.1165 2.0385
-2.2280 -3.3067 2.0385
-0.7103 -1.2627 0.7407
-0.6063 -1.3156 0.7405
-0.4984 -1.3600 0.7404
-0.3874 -1.3956 0.7403
-0.2738 -1.4221 0.7403
-0.1585 -1.4395 0.7402
-0.0422 -1.4476 0.7402
0.0744 -1.4463 0.7402
0.1905 -1.4356 0.7402
0.3054 -1.4157 0.7403
0.4184 -1.3867 0.7403
0.5286 -1.3486 0.7404
0.6355 -1.3019 0.7405
0.7383 -1.2467 0.7406
2.3015 -3.2568 2.0385
2.5559 -3.0609 2.0385
2.7938 -2.8452 2.0385
3.0135 -2.6111 2.0385
3.2136 -2.3600 2.0385
3.3928 -2.0937 2.0385
3.5501 -1.8138 2.0385
3.6842 -1.5222 2.0385
3.7945 -1.2207 2.0385
3.8801 -0.9114 2.0385
3.9405 -0.5961 2.0385
3.9754 -0.2771 2.0385
3.9845 0.0437 2.0385
3.9677 0.3641 2.0385
3.9252 0.6821 2.0385
3.8572 0.9957 2.0385
3.7643 1.3028 2.0385
3.6469 1.6013 2.0385
3.5060 1.8895 2.0385
3.3423 2.1653 2.0385
3.1569 2.4271 2.0385
2.9511 2.6731 2.0385
2.7262 2.9017 2.0385
2.4837 3.1115 2.0385
2.2251 3.3011 2.0385
0.7147 1.2702 0.7463
0.6102 1.3237 0.7464
0.5017 1.3687 0.7466
0.3900 1.4047 0.7466
0.2757 1.4316 0.7467
0.1596 1.4492 0.7468
0.0424 1.4574 0.7468
-0.0750 1.4561 0.7468
-0.1920 1.4453 0.7468
-0.3077 1.4251 0.7467
-0.4213 1.3956 0.7467
-0.5323 1.3570 0.7466
-0.6397 1.3096 0.7465
-0.7429 1.2537 0.7464
-2.2981 3.2499 2.0385
-2.5524 3.0545 2.0385
-2.7900 2.8393 2.0385
-3.0097 2.6057 2.0385
-3.2098 2.3551 2.0385
-3.3891 2.0893 2.0385
-3.5465 1.8099 2.0385
-3.6809 1.5187 2.0385
-3.7915 1.2176 2.0385
-3.8775 0.9086 2.0385
-3.9384 0.5937 2.0385
-3.9737 0.2748 2.0385
-3.9833 -0.0458 2.0385
-3.9670 -0.3663 2.0385
-3.9250 -0.6844 2.0385
-3.8575 -0.9980 2.0385
-3.7650 -1.3053 2.0385
-3.6481 -1.6042 2.0385
-3.5075 -1.8927 2.0385
-3.3441 -2.1689 2.0385
-3.1589 -2.4312 2.0385
-2.9533 -2.6776 2.0385
-2.7285 -2.9068 2.0385
-2.4859 -3.1171 2.0385
-2.2272 -3.3072 2.0385
-0.7100 -1.2629 0.7407
-0.6060 -1.3158 0.7405
-0.4981 -1.3601 0.7404
-0.3870 -1.3957 0.7403
-0.2735 -1.4222 0.7403
-0.1582 -1.4395 0.7402
-0.0418 -1.4476 0.7402
0.0748 -1.4463 0.7402
0.1909 -1.4356 0.7402
0.3058 -1.4157 0.7403
0.4187 -1.3866 0.7403
0.5290 -1.3485 0.7404
0.6358 -1.3017 0.7405
0.7386 -1.2465 0.7406
2.3022 -3.2562 2.0385
2.5566 -3.0603 2.0385
2.7944 -2.8446 2.0385
3.0141 -2.6104 2.0385
3.2141 -2.3593 2.0385
3.3933 -2.0929 2.0385
2.7581 2.4959 2.0385
2.5482 2.7096 2.0385
2.3217 2.9057 2.0385
0.7612 1.1282 0.7460
0.6681 1.1860 0.7461
0.5705 1.2360 0.7462
0.4692 1.2781 0.7463
0.3648 1.3118 0.7464
0.2581 1.3370 0.7465
0.1497 1.3534 0.7465
0.0402 1.3611 0.7466
-0.0694 1.3599 0.7466
-0.1787 1.3499 0.7465
-0.2867 1.3311 0.7465
-0.3929 1.3036 0.7465
-0.4965 1.2676 0.7464
-0.5969 1.2234 0.7463
-0.6933 1.1713 0.7462
-2.1456 3.0371 2.0385
-2.3831 2.8546 2.0385
-2.6053 2.6537 2.0385
-2.8106 2.4355 2.0385
-2.9976 2.2015 2.0385
-3.1653 1.9533 2.0385
-3.3124 1.6923 2.0385
-3.4381 1.4203 2.0385
-3.5415 1.1391 2.0385
-3.6220 0.8504 2.0385
-3.6789 0.5563 2.0385
-3.7121 0.2584 2.0385
-3.7211 -0.0412 2.0385
-3.7060 -0.3405 2.0385
-3.6669 -0.6377 2.0385
-3.6040 -0.9307 2.0385
-3.5177 -1.2178 2.0385
-3.4086 -1.4971 2.0385
-3.2773 -1.7666 2.0385
-3.1248 -2.0247 2.0385
-2.9520 -2.2698 2.0385
-2.7600 -2.5001 2.0385
-2.5501 -2.7142 2.0385
-2.3235 -2.9108 2.0385
-0.7568 -1.1226 0.7410
-0.6639 -1.1797 0.7408
-0.5668 -1.2292 0.7407
-0.4660 -1.2707 0.7406
-0.3622 -1.3040 0.7405
-0.2561 -1.3288 0.7405
-0.1484 -1.3451 0.7404
-0.0397 -1.3526 0.7404
0.0692 -1.3514 0.7404
0.1777 -1.3415 0.7404
0.2851 -1.3229 0.7405
0.3906 -1.2958 0.7405
0.4937 -1.2603 0.7406
0.5935 -1.2166 0.7407
0.6896 -1.1651 0.7408
0.7812 -1.1060 0.7409
2.3869 -2.8599 2.0385
2.6092 -2.6585 2.0385
2.8145 -2.4398 2.0385
3.0015 -2.2054 2.0385
3.1690 -1.9566 2.0385
3.3159 -1.6952 2.0385
3.4413 -1.4228 2.0385
3.5444 -1.1412 2.0385
3.6244 -0.8523 2.0385
3.6810 -0.5578 2.0385
3.7136 -0.2598 2.0385
3.7222 0.0399 2.0385
3.7066 0.3392 2.0385
3.6670 0.6363 2.0385
3.6036 0.9293 2.0385
3.5169 1.2162 2.0385
3.4073 1.4951 2.0385
3.2757 1.7643 2.0385
3.1228 2.0221 2.0385
2.9497 2.2667 2.0385
2.7576 2.4965 2.0385
2.5475 2.7102 2.0385
2.3210 2.9062 2.0385
0.7610 1.1284 0.7460
0.6678 1.1861 0.7461
0.5702 1.2362 0.7462
0.4689 1.2782 0.7463
0.3645 1.3119 0.7464
0.2578 1.3370 0.7465
0.1493 1.3535 0.7465
0.0399 1.3611 0.7466
-0.0698 1.3599 0.7466
-0.1790 1.3498 0.7465
-0.2870 1.3310 0.7465
-0.3932 1.3035 0.7465
-0.4968 1.2675 0.7464
-0.5972 1.2233 0.7463
-0.6936 1.1711 0.7462
-2.1463 3.0366 2.0385
-2.3838 2.8541 2.0385
-2.6059 2.6531 2.0385
-2.8111 2.4349 2.0385
-2.9981 2.2008 2.0385
-3.1657 1.9525 2.0385
-3.3128 1.6915 2.0385
-3.4384 1.4195 2.0385
-3.5418 1.1383 2.0385
-3.6222 0.8496 2.0385
-3.6791 0.5554 2.0385
-3.7121 0.2575 2.0385
-3.7211 -0.0420 2.0385
-3.7060 -0.3414 2.0385
-3.6668 -0.6385 2.0385
-3.6038 -0.9316 2.0385
-3.5174 -1.2186 2.0385
-3.4083 -1.4978 2.0385
-3.2769 -1.7674 2.0385
-3.1243 -2.0255 2.0385
-2.9515 -2.2704 2.0385
-2.7594 -2.5007 2.0385
-2.5494 -2.7148 2.0385
-2.3229 -2.9113 2.0385
-0.7565 -1.1228 0.7410
-0.6636 -1.1799 0.7408
-0.5665 -1.2293 0.7407
-0.4657 -1.2708 0.7406
-0.3619 -1.3041 0.7405
-0.2558 -1.3289 0.7405
-0.1481 -1.3451 0.7404
-0.0394 -1.3526 0.7404
0.0695 -1.3514 0.7404
0.1781 -1.3415 0.7404
0.2854 -1.3229 0.7405
0.3909 -1.2957 0.7405
0.4940 -1.2602 0.7406
0.5938 -1.2165 0.7407
0.6898 -1.1649 0.7408
0.7814 -1.1058 0.7409
2.3876 -2.8594 2.0385
2.6098 -2.6579 2.0385
2.8150 -2.4392 2.0385
3.0020 -2.2046 2.0385
3.1694 -1.9559 2.0385
3.3163 -1.6944 2.0385
3.4416 -1.4220 2.0385
3.5446 -1.1404 2.0385
3.6246 -0.8514 2.0385
3.6811 -0.5570 2.0385
3.7137 -0.2589 2.0385
3.7222 0.0407 2.0385
3.7065 0.3401 2.0385
3.6669 0.6372 2.0385
3.6034 0.9301 2.0385
3.5166 1.2170 2.0385
3.4070 1.4959 2.0385
3.2753 1.7651 2.0385
3.1224 2.0228 2.0385
2.9492 2.2674 2.0385
2.7570 2.4972 2.0385
2.5469 2.7108 2.0385
2.3203 2.9068 2.0385
0.7607 1.1286 0.7460
0.6675 1.1863 0.7461
0.5699 1.2363 0.7462
0.4686 1.2783 0.7463
0.3642 1.3119 0.7464
0.2575 1.3371 0.7465
0.1490 1.3535 0.7465
0.0396 1.3611 0.7466
-0.0701 1.3599 0.7466
-0.1793 1.3498 0.7465
-0.2873 1.3309 0.7465
-0.3935 1.3034 0.7465
-0.4971 1.2674 0.7464
-0.5974 1.2231 0.7463
-0.6939 1.1709 0.7462
-2.1470 3.0361 2.0385
-2.3845 2.8535 2.0385
-2.6065 2.6525 2.0385
-2.8117 2.4342 2.0385
-2.9986 2.2002 2.0385
-3.1662 1.9518 2.0385
-3.3132 1.6908 2.0385
-3.4388 1.4187 2.0385
-3.5420 1.1375 2.0385
-3.6224 0.8488 2.0385
-3.6792 0.5546 2.0385
-3.7122 0.2567 2.0385
-3.7211 -0.0429 2.0385
-3.7059 -0.3422 2.0385
-3.6666 -0.6394 2.0385
-3.6036 -0.9324 2.0385
-3.5172 -1.2195 2.0385
-3.4079 -1.4986 2.0385
-3.2765 -1.7681 2.0385
-3.1239 -2.0262 2.0385
-2.9509 -2.2711 2.0385
-2.7588 -2.5014 2.0385
-2.5488 -2.7154 2.0385
-2.3222 -2.9119 2.0385
-0.7563 -1.1230 0.7410
-0.6634 -1.1800 0.7408
-0.5662 -1.2295 0.7407
-0.4654 -1.2709 0.7406
-0.3616 -1.3041 0.7405
-0.2555 -1.3289 0.7405
-0.1478 -1.3451 0.7404
-0.0391 -1.3526 0.7404
0.0699 -1.3514 0.7404
0.1784 -1.3415 0.7404
0.2857 -1.3228 0.7405
0.3912 -1.2956 0.7405
0.4942 -1.2601 0.7406
0.5941 -1.2163 0.7407
0.6901 -1.1647 0.7408
0.7817 -1.1056 0.7409
2.3883 -2.8588 2.0385
2.6104 -2.6573 2.0385
2.8156 -2.4385 2.0385
3.0025 -2.2040 2.0385
3.1699 -1.9551 2.0385
2.5829 2.3373 2.0385
2.3863 2.5374 2.0385
2.1742 2.7210 2.0385
0.7127 1.0563 0.7458
0.6255 1.1104 0.7460
0.5341 1.1572 0.7461
0.4393 1.1966 0.7462
0.3416 1.2281 0.7462
0.2416 1.2517 0.7463
0.1401 1.2671 0.7463
0.0377 1.2743 0.7464
-0.0650 1.2732 0.7464
-0.1673 1.2638 0.7464
-0.2684 1.2462 0.7463
-0.3679 1.2204 0.7463
-0.4649 1.1868 0.7462
-0.5588 1.1454 0.7461
-0.6491 1.0966 0.7460
-0.7352 1.0406 0.7459
-2.2317 2.6732 2.0385
-2.4398 2.4851 2.0385
-2.6320 2.2807 2.0385
-2.8072 2.0616 2.0385
-2.9642 1.8291 2.0385
-3.1019 1.5847 2.0385
-3.2196 1.3300 2.0385
-3.3165 1.0667 2.0385
-3.3918 0.7964 2.0385
-3.4451 0.5209 2.0385
-3.4761 0.2419 2.0385
-3.4846 -0.0386 2.0385
-3.4705 -0.3189 2.0385
-3.4338 -0.5972 2.0385
-3.3749 -0.8716 2.0385
-3.2941 -1.1405 2.0385
-3.1919 -1.4019 2.0385
-3.0690 -1.6543 2.0385
-2.9261 -1.8961 2.0385
-2.7643 -2.1255 2.0385
-2.5845 -2.3412 2.0385
-2.3879 -2.5417 2.0385
-2.1758 -2.7257 2.0385
-0.7088 -1.0515 0.7411
-0.6218 -1.1050 0.7410
-0.5309 -1.1513 0.7409
-0.4365 -1.1902 0.7408
-0.3393 -1.2214 0.7407
-0.2399 -1.2446 0.7407
-0.1390 -1.2599 0.7406
-0.0372 -1.2669 0.7406
0.0649 -1.2658 0.7406
0.1665 -1.2565 0.7406
0.2670 -1.2391 0.7407
0.3659 -1.2137 0.7407
0.4624 -1.1804 0.7408
0.5559 -1.1395 0.7409
0.6458 -1.0912 0.7410
0.7316 -1.0359 0.7411
2.2351 -2.6781 2.0385
2.4432 -2.4895 2.0385
2.6355 -2.2847 2.0385
2.8106 -2.0652 2.0385
2.9675 -1.8322 2.0385
3.1051 -1.5874 2.0385
3.2225 -1.3324 2.0385
3.3190 -1.0687 2.0385
3.3940 -0.7981 2.0385
3.4470 -0.5224 2.0385
3.4776 -0.2433 2.0385
3.4856 0.0373 2.0385
3.4710 0.3176 2.0385
3.4339 0.5958 2.0385
3.3746 0.8702 2.0385
3.2933 1.1388 2.0385
3.1908 1.4000 2.0385
3.0675 1.6522 2.0385
2.9244 1.8935 2.0385
2.7623 2.1226 2.0385
2.5824 2.3378 2.0385
2.3857 2.5379 2.0385
2.1735 2.7215 2.0385
0.7125 1.0565 0.7458
0.6252 1.1105 0.7460
0.5339 1.1573 0.7461
0.4390 1.1967 0.7462
0.3413 1.2282 0.7462
0.2414 1.2517 0.7463
0.1398 1.2672 0.7463
0.0374 1.2743 0.7464
-0.0653 1.2732 0.7464
-0.1676 1.2638 0.7464
-0.2687 1.2461 0.7463
-0.3681 1.2204 0.7463
-0.4651 1.1867 0.7462
-0.5591 1.1453 0.7461
-0.6494 1.0964 0.7460
-0.7354 1.0405 0.7459
-2.2324 2.6727 2.0385
-2.4403 2.4845 2.0385
-2.6325 2.2801 2.0385
-2.8076 2.0610 2.0385
-2.9646 1.8284 2.0385
-3.1023 1.5840 2.0385
-3.2199 1.3293 2.0385
-3.3167 1.0659 2.0385
-3.3920 0.7956 2.0385
-3.4453 0.5201 2.0385
-3.4762 0.2411 2.0385
-3.4846 -0.0394 2.0385
-3.4704 -0.3197 2.0385
-3.4337 -0.5980 2.0385
-3.3747 -0.8724 2.0385
-3.2938 -1.1412 2.0385
-3.1916 -1.4027 2.0385
-3.0686 -1.6551 2.0385
-2.9257 -1.8967 2.0385
-2.7638 -2.1261 2.0385
-2.5839 -2.3418 2.0385
-2.3873 -2.5422 2.0385
-2.1751 -2.7262 2.0385
-0.7085 -1.0517 0.7411
-0.6216 -1.1051 0.7410
-0.5306 -1.1514 0.7409
-0.4362 -1.1903 0.7408
-0.3390 -1.2214 0.7407
-0.2396 -1.2447 0.7407
-0.1387 -1.2599 0.7406
-0.0369 -1.2669 0.7406
0.0651 -1.2658 0.7406
0.1668 -1.2565 0.7406
0.2673 -1.2391 0.7407
0.3662 -1.2136 0.7407
0.4627 -1.1803 0.7408
0.5562 -1.1394 0.7409
0.6461 -1.0911 0.7410
0.7319 -1.0357 0.7411
2.2357 -2.6775 2.0385
2.4438 -2.4889 2.0385
2.6360 -2.2841 2.0385
2.8111 -2.0645 2.0385
2.9679 -1.8315 2.0385
3.1054 -1.5867 2.0385
3.2228 -1.3316 2.0385
3.3193 -1.0679 2.0385
3.3942 -0.7973 2.0385
3.4471 -0.5216 2.0385
3.4776 -0.2425 2.0385
3.4856 0.0381 2.0385
3.4709 0.3184 2.0385
3.4338 0.5966 2.0385
3.3744 0.8710 2.0385
3.2931 1.1396 2.0385
3.1904 1.4008 2.0385
3.0671 1.6529 2.0385
2.9240 1.8942 2.0385
2.7618 2.1232 2.0385
2.5818 2.3384 2.0385
2.3851 2.5385 2.0385
2.1729 2.7221 2.0385
0.7122 1.0566 0.7458
0.6250 1.1107 0.7460
0.5336 1.1575 0.7461
0.4387 1.1968 0.7462
0.3410 1.2283 0.7462
0.2411 1.2518 0.7463
0.1395 1.2672 0.7463
0.0371 1.2743 0.7464
-0.0656 1.2732 0.7464
-0.1679 1.2637 0.7464
-0.2690 1.2461 0.7463
-0.3684 1.2203 0.7463
-0.4654 1.1866 0.7462
-0.5594 1.1451 0.7461
-0.6496 1.0963 0.7460
-0.7357 1.0403 0.7459
-2.2330 2.6722 2.0385
-2.4409 2.4839 2.0385
-2.6330 2.2795 2.0385
-2.8081 2.0603 2.0385
-2.9650 1.8277 2.0385
-3.1027 1.5833 2.0385
-3.2203 1.3285 2.0385
-3.3170 1.0651 2.0385
-3.3922 0.7948 2.0385
-3.4454 0.5193 2.0385
-3.4763 0.2403 2.0385
-3.4846 -0.0402 2.0385
-3.4703 -0.3205 2.0385
-3.4336 -0.5988 2.0385
-3.3745 -0.8732 2.0385
-3.2936 -1.1420 2.0385
-3.1912 -1.4034 2.0385
-3.0682 -1.6558 2.0385
-2.9252 -1.8974 2.0385
-2.7633 -2.1268 2.0385
-2.5834 -2.3424 2.0385
-2.3867 -2.5428 2.0385
-2.1745 -2.7267 2.0385
-0.7083 -1.0518 0.7411
-0.6213 -1.1053 0.7410
-0.5303 -1.1515 0.7409
-0.4359 -1.1904 0.7408
-0.3387 -1.2215 0.7407
-0.2393 -1.2447 0.7407
-0.1384 -1.2599 0.7406
-0.0366 -1.2670 0.7406
0.0654 -1.2658 0.7406
0.1671 -1.2565 0.7406
0.2676 -1.2390 0.7407
0.3664 -1.2135 0.7407
0.4629 -1.1802 0.7408
0.5564 -1.1393 0.7409
0.6464 -1.0909 0.7410
0.7321 -1.0355 0.7411
2.2364 -2.6770 2.0385
2.4444 -2.4883 2.0385
2.6365 -2.2835 2.0385
2.8115 -2.0639 2.0385
2.9683 -1.8308 2.0385
2.4238 2.1932 2.0385
2.2392 2.3810 2.0385
0.7462 0.9338 0.7456
0.6687 0.9910 0.7457
0.5868 1.0417 0.7458
0.5011 1.0857 0.7459
0.4121 1.1226 0.7460
0.3205 1.1522 0.7461
0.2267 1.1743 0.7461
0.1315 1.1888 0.7462
0.0353 1.1955 0.7462
-0.0610 1.1945 0.7462
-0.1569 1.1856 0.7462
-0.2518 1.1691 0.7461
-0.3451 1.1450 0.7461
-0.4361 1.1134 0.7460
-0.5243 1.0746 0.7459
-0.6090 1.0288 0.7458
-0.6898 0.9763 0.7457
-0.7660 0.9175 0.7456
-2.2894 2.3319 2.0385
-2.4698 2.1402 2.0385
-2.6342 1.9345 2.0385
-2.7815 1.7163 2.0385
-2.9108 1.4870 2.0385
-3.0212 1.2480 2.0385
-3.1121 1.0009 2.0385
-3.1828 0.7472 2.0385
-3.2328 0.4887 2.0385
-3.2619 0.2270 2.0385
-3.2698 -0.0363 2.0385
-3.2565 -0.2993 2.0385
-3.2221 -0.5604 2.0385
-3.1668 -0.8179 2.0385
-3.0910 -1.0702 2.0385
-2.9951 -1.3155 2.0385
-2.8797 -1.5524 2.0385
-2.7457 -1.7792 2.0385
-2.5938 -1.9945 2.0385
-2.4251 -2.1968 2.0385
-2.2406 -2.3850 2.0385
-0.7425 -0.9302 0.7414
-0.6652 -0.9869 0.7413
-0.5836 -1.0371 0.7412
-0.4982 -1.0805 0.7411
-0.4096 -1.1170 0.7410
-0.3184 -1.1463 0.7409
-0.2252 -1.1681 0.7408
-0.1305 -1.1824 0.7408
-0.0349 -1.1891 0.7408
0.0609 -1.1881 0.7408
0.1563 -1.1793 0.7408
0.2506 -1.1630 0.7408
0.3434 -1.1391 0.7409
0.4340 -1.1079 0.7409
0.5217 -1.0695 0.7410
0.6061 -1.0242 0.7411
0.6867 -0.9722 0.7412
0.7627 -0.9139 0.7414
2.2925 -2.3360 2.0385
2.4729 -2.1438 2.0385
2.6373 -1.9378 2.0385
2.7845 -1.7193 2.0385
2.9136 -1.4896 2.0385
3.0238 -1.2502 2.0385
3.1144 -1.0028 2.0385
3.1847 -0.7490 2.0385
3.2344 -0.4902 2.0385
3.2632 -0.2284 2.0385
3.2707 0.0349 2.0385
3.2570 0.2980 2.0385
3.2222 0.5591 2.0385
3.1666 0.8165 2.0385
3.0904 1.0686 2.0385
2.9941 1.3137 2.0385
2.8785 1.5503 2.0385
2.7442 1.7768 2.0385
2.5921 1.9917 2.0385
2.4232 2.1937 2.0385
2.2387 2.3815 2.0385
0.7460 0.9340 0.7456
0.6685 0.9912 0.7457
0.5866 1.0419 0.7458
0.5009 1.0858 0.7459
0.4119 1.1227 0.7460
0.3202 1.1523 0.7461
0.2264 1.1743 0.7461
0.1312 1.1888 0.7462
0.0351 1.1955 0.7462
-0.0613 1.1944 0.7462
-0.1572 1.1856 0.7462
-0.2521 1.1691 0.7461
-0.3454 1.1449 0.7461
-0.4364 1.1133 0.7460
-0.5245 1.0745 0.7459
-0.6092 1.0287 0.7458
-0.6900 0.9762 0.7457
-0.7662 0.9173 0.7456
-2.2900 2.3314 2.0385
-2.4703 2.1396 2.0385
-2.6346 1.9339 2.0385
-2.7819 1.7157 2.0385
-2.9111 1.4863 2.0385
-3.0215 1.2473 2.0385
-3.1123 1.0001 2.0385
-3.1829 0.7465 2.0385
-3.2329 0.4879 2.0385
-3.2619 0.2262 2.0385
-3.2698 -0.0370 2.0385
-3.2565 -0.3001 2.0385
-3.2220 -0.5612 2.0385
-3.1667 -0.8187 2.0385
-3.0907 -1.0709 2.0385
-2.9948 -1.3162 2.0385
-2.8794 -1.5531 2.0385
-2.7453 -1.7798 2.0385
-2.5933 -1.9951 2.0385
-2.4246 -2.1974 2.0385
-2.2400 -2.3855 2.0385
-0.7423 -0.9304 0.7414
-0.6650 -0.9870 0.7413
-0.5833 -1.0372 0.7412
-0.4980 -1.0807 0.7411
-0.4094 -1.1171 0.7410
-0.3182 -1.1464 0.7409
-0.2249 -1.1682 0.7408
-0.1302 -1.1825 0.7408
-0.0346 -1.1891 0.7408
0.0611 -1.1880 0.7408
0.1565 -1.1793 0.7408
0.2509 -1.1629 0.7408
0.3437 -1.1390 0.7409
0.4342 -1.1078 0.7409
0.5220 -1.0694 0.7410
0.6064 -1.0240 0.7411
0.6869 -0.9720 0.7412
0.7630 -0.9137 0.7414
2.2931 -2.3354 2.0385
2.4734 -2.1433 2.0385
2.6377 -1.9372 2.0385
2.7849 -1.7186 2.0385
2.9139 -1.4889 2.0385
3.0241 -1.2496 2.0385
3.1146 -1.0021 2.0385
3.1849 -0.7482 2.0385
3.2346 -0.4895 2.0385
3.2632 -0.2276 2.0385
3.2707 0.0357 2.0385
3.2570 0.2987 2.0385
3.2221 0.5598 2.0385
3.1664 0.8172 2.0385
3.0901 1.0693 2.0385
2.9938 1.3144 2.0385
2.8781 1.5509 2.0385
2.7438 1.7774 2.0385
2.5916 1.9923 2.0385
2.4227 2.1943 2.0385
2.2381 2.3820 2.0385
0.7458 0.9342 0.7456
0.6682 0.9913 0.7457
0.5863 1.0420 0.7458
0.5006 1.0859 0.7459
0.4116 1.1228 0.7460
0.3199 1.1523 0.7461
0.2262 1.1744 0.7461
0.1309 1.1888 0.7462
0.0348 1.1955 0.7462
-0.0615 1.1944 0.7462
-0.1575 1.1856 0.7462
-0.2524 1.1690 0.7461
-0.3456 1.1448 0.7461
-0.4366 1.1132 0.7460
-0.5248 1.0743 0.7459
-0.6095 1.0285 0.7458
-0.6902 0.9760 0.7457
-0.7664 0.9172 0.7456
-2.2905 2.3308 2.0385
-2.4708 2.1390 2.0385
-2.6351 1.9333 2.0385
-2.7823 1.7151 2.0385
-2.9115 1.4857 2.0385
-3.0218 1.2466 2.0385
-3.1125 0.9994 2.0385
-3.1831 0.7457 2.0385
-3.2330 0.4872 2.0385
-3.2620 0.2255 2.0385
-3.2698 -0.0378 2.0385
-3.2564 -0.3008 2.0385
-3.2219 -0.5619 2.0385
-3.1665 -0.8194 2.0385
-3.0905 -1.0716 2.0385
-2.9945 -1.3169 2.0385
-2.8790 -1.5537 2.0385
-2.7449 -1.7805 2.0385
-2.5929 -1.9957 2.0385
-2.4241 -2.1980 2.0385
-2.2395 -2.3860 2.0385
-0.7421 -0.9306 0.7414
-0.6647 -0.9872 0.7413
-0.5831 -1.0373 0.7412
-0.4977 -1.0808 0.7411
-0.4091 -1.1172 0.7410
-0.3179 -1.1464 0.7409
-0.2246 -1.1682 0.7408
-0.1299 -1.1825 0.7408
-0.0344 -1.1891 0.7408
0.0614 -1.1880 0.7408
0.1568 -1.1793 0.7408
0.2512 -1.1629 0.7408
0.3439 -1.1390 0.7409
0.4345 -1.1077 0.7409
0.5222 -1.0692 0.7410
0.6066 -1.0239 0.7411
0.6871 -0.9719 0.7412
0.7632 -0.9136 0.7414
2.2936 -2.3349 2.0385
2.4739 -2.1427 2.0385
2.6381 -1.9366 2.0385
2.7852 -1.7180 2.0385
2.2783 2.0615 2.0385
0.7696 0.8183 0.7453
0.7013 0.8777 0.7454
0.6285 0.9314 0.7456
0.5515 0.9790 0.7457
0.4710 1.0203 0.7458
0.3873 1.0550 0.7458
0.3012 1.0828 0.7459
0.2131 1.1036 0.7460
0.1235 1.1172 0.7460
0.0332 1.1235 0.7460
-0.0573 1.1226 0.7460
-0.1475 1.1143 0.7460
-0.2367 1.0987 0.7460
-0.3243 1.0761 0.7459
-0.4099 1.0464 0.7459
-0.4927 1.0099 0.7458
-0.5724 0.9669 0.7457
-0.6483 0.9176 0.7456
-0.7199 0.8623 0.7455
-2.1521 2.1920 2.0385
-2.3217 2.0117 2.0385
-2.4762 1.8184 2.0385
-2.6146 1.6133 2.0385
-2.7362 1.3977 2.0385
-2.8400 1.1731 2.0385
-2.9253 0.9408 2.0385
-2.9918 0.7023 2.0385
-3.0388 0.4593 2.0385
-3.0661 0.2133 2.0385
-3.0736 -0.0341 2.0385
-3.0611 -0.2814 2.0385
-3.0288 -0.5268 2.0385
-2.9768 -0.7689 2.0385
-2.9055 -1.0060 2.0385
-2.8153 -1.2366 2.0385
-2.7069 -1.4593 2.0385
-2.5808 -1.6724 2.0385
-2.4381 -1.8748 2.0385
-2.2795 -2.0650 2.0385
-0.7663 -0.8157 0.7417
-0.6981 -0.8746 0.7415
-0.6254 -0.9278 0.7414
-0.5486 -0.9750 0.7413
-0.4684 -1.0159 0.7412
-0.3851 -1.0502 0.7411
-0.2994 -1.0777 0.7411
-0.2117 -1.0982 0.7410
-0.1226 -1.1117 0.7410
-0.0328 -1.1179 0.7409
0.0572 -1.1170 0.7409
0.1469 -1.1088 0.7410
0.2356 -1.0934 0.7410
0.3228 -1.0710 0.7410
0.4080 -1.0416 0.7411
0.4905 -1.0055 0.7412
0.5699 -0.9629 0.7413
0.6455 -0.9140 0.7414
0.7171 -0.8592 0.7415
0.7840 -0.7988 0.7416
2.3244 -2.0152 2.0385
2.4789 -1.8215 2.0385
2.6173 -1.6161 2.0385
2.7387 -1.4002 2.0385
2.8423 -1.1752 2.0385
2.9274 -0.9427 2.0385
2.9936 -0.7041 2.0385
3.0403 -0.4609 2.0385
3.0673 -0.2147 2.0385
3.0744 0.0328 2.0385
3.0616 0.2800 2.0385
3.0289 0.5255 2.0385
2.9765 0.7674 2.0385
2.9049 1.0044 2.0385
2.8145 1.2348 2.0385
2.7058 1.4572 2.0385
2.5795 1.6701 2.0385
2.4366 1.8722 2.0385
2.2779 2.0621 2.0385
0.7694 0.8184 0.7453
0.7011 0.8778 0.7454
0.6283 0.9315 0.7456
0.5513 0.9792 0.7457
0.4707 1.0204 0.7458
0.3871 1.0551 0.7458
0.3009 1.0829 0.7459
0.2128 1.1037 0.7460
0.1233 1.1172 0.7460
0.0330 1.1235 0.7460
-0.0576 1.1225 0.7460
-0.1477 1.1142 0.7460
-0.2369 1.0987 0.7460
-0.3246 1.0760 0.7459
-0.4101 1.0463 0.7459
-0.4930 1.0098 0.7458
-0.5726 0.9668 0.7457
-0.6485 0.9174 0.7456
-0.7201 0.8621 0.7455
-2.1526 2.1915 2.0385
-2.3221 2.0112 2.0385
-2.4766 1.8179 2.0385
-2.6150 1.6127 2.0385
-2.7365 1.3971 2.0385
-2.8402 1.1724 2.0385
-2.9256 0.9401 2.0385
-2.9919 0.7016 2.0385
-3.0389 0.4586 2.0385
-3.0662 0.2126 2.0385
-3.0736 -0.0349 2.0385
-3.0610 -0.2821 2.0385
-3.0286 -0.5275 2.0385
-2.9766 -0.7696 2.0385
-2.9052 -1.0067 2.0385
-2.8150 -1.2373 2.0385
-2.7065 -1.4599 2.0385
-2.5805 -1.6730 2.0385
-2.4376 -1.8754 2.0385
-2.2790 -2.0655 2.0385
-0.7661 -0.8158 0.7417
-0.6979 -0.8747 0.7415
-0.6252 -0.9279 0.7414
-0.5484 -0.9751 0.7413
-0.4682 -1.0160 0.7412
-0.3849 -1.0503 0.7411
-0.2991 -1.0778 0.7411
-0.2114 -1.0983 0.7410
-0.1224 -1.1117 0.7410
-0.0326 -1.1180 0.7409
0.0575 -1.1170 0.7409
0.1472 -1.1087 0.7410
0.2359 -1.0933 0.7410
0.3231 -1.0709 0.7410
0.4082 -1.0415 0.7411
0.4907 -1.0054 0.7412
0.5701 -0.9627 0.7413
0.6457 -0.9138 0.7414
0.7173 -0.8590 0.7415
0.7842 -0.7987 0.7416
2.3249 -2.0146 2.0385
2.4793 -1.8210 2.0385
2.6177 -1.6155 2.0385
2.7390 -1.3996 2.0385
2.8425 -1.1746 2.0385
2.9276 -0.9420 2.0385
2.9937 -0.7033 2.0385
3.0404 -0.4602 2.0385
3.0673 -0.2140 2.0385
3.0744 0.0335 2.0385
3.0615 0.2808 2.0385
3.0288 0.5262 2.0385
2.9764 0.7681 2.0385
2.9047 1.0051 2.0385
2.8142 1.2355 2.0385
2.7054 1.4578 2.0385
2.5791 1.6707 2.0385
2.4362 1.8727 2.0385
2.2774 2.0626 2.0385
0.7692 0.8186 0.7453
0.7009 0.8780 0.7454
0.6280 0.9317 0.7456
0.5511 0.9793 0.7457
0.4705 1.0206 0.7458
0.3869 1.0552 0.7458
0.3007 1.0830 0.7459
0.2126 1.1037 0.7460
0.1230 1.1173 0.7460
0.0327 1.1235 0.7460
-0.0578 1.1225 0.7460
-0.1480 1.1142 0.7460
-0.2372 1.0986 0.7460
-0.3248 1.0759 0.7459
-0.4104 1.0462 0.7459
-0.4932 1.0097 0.7458
-0.5728 0.9666 0.7457
-0.6487 0.9173 0.7456
-0.7203 0.8620 0.7455
-2.1531 2.1910 2.0385
-2.3226 2.0107 2.0385
-2.4770 1.8173 2.0385
-2.6154 1.6121 2.0385
-2.7368 1.3965 2.0385
-2.8405 1.1718 2.0385
-2.9258 0.9394 2.0385
-2.9921 0.7010 2.0385
-3.0390 0.4579 2.0385
-3.0662 0.2119 2.0385
-3.0736 -0.0356 2.0385
-3.0610 -0.2828 2.0385
-3.0285 -0.5282 2.0385
-2.9764 -0.7703 2.0385
