ply
format ascii 1.0
element vertex 2181
property float32 x
property float32 y
property float32 z
end_header
7.6405 -1.1184 1.8894
7.7108 -0.5025 1.8905
7.7277 0.1175 1.8911
7.6888 0.7363 1.8906
7.5979 1.3492 1.8898
7.4553 1.9515 1.8888
7.2627 2.5389 1.8874
7.0214 3.1069 1.8858
6.7410 3.6553 1.8859
6.4162 4.1778 1.8859
6.0501 4.6711 1.8859
5.6453 5.1318 1.8859
5.6255 6.0062 2.0383
5.1145 6.4244 2.0383
4.5721 6.7988 2.0383
4.0022 7.1270 2.0383
3.4088 7.4071 2.0383
2.7960 7.6377 2.0383
2.1681 7.8174 2.0383
1.5293 7.9455 2.0383
0.8838 8.0215 2.0383
0.2359 8.0454 2.0383
-0.4102 8.0174 2.0383
-1.0505 7.9379 2.0383
-1.6808 7.8080 2.0383
-2.2973 7.6287 2.0383
-2.8963 7.4015 2.0383
-3.4741 7.1282 2.0383
-3.8574 6.5236 1.9524
-4.2122 5.9691 1.8859
-4.6696 5.6000 1.8859
-5.5077 5.6168 2.0383
-5.9321 5.1470 2.0383
-6.3177 4.6462 2.0383
-6.6626 4.1174 2.0383
-6.9646 3.5638 2.0383
-7.2223 2.9890 2.0383
-7.4341 2.3962 2.0383
-7.5989 1.7891 2.0383
-7.7158 1.1712 2.0383
-7.7842 0.5462 2.0383
-7.8037 -0.0822 2.0383
-7.7741 -0.7103 2.0383
-7.6956 -1.3345 2.0383
-7.5685 -1.9509 2.0383
-7.3936 -2.5561 2.0383
-7.1718 -3.1463 2.0383
-6.9041 -3.7180 2.0383
-6.4973 -4.2064 2.0090
-6.0504 -4.6484 1.9772
-5.6295 -5.0953 1.9641
-5.2247 -5.5565 1.9692
-4.8252 -6.0393 1.9917
-4.4260 -6.5592 2.0343
-3.9010 -6.9235 2.0383
-3.3396 -7.2320 2.0383
-2.7543 -7.4956 2.0383
-2.1483 -7.7122 2.0383
-1.5256 -7.8803 2.0383
-0.8895 -7.9981 2.0383
-0.2450 -8.0651 2.0383
0.4047 -8.0799 2.0383
1.0550 -8.0423 2.0383
1.7018 -7.9520 2.0383
2.3407 -7.8094 2.0383
2.9673 -7.6149 2.0383
3.5774 -7.3696 2.0383
4.1667 -7.0747 2.0383
4.7311 -6.7320 2.0383
5.0524 -6.0855 1.9554
5.3380 -5.4696 1.8859
5.7694 -5.0323 1.8859
6.1640 -4.5604 1.8859
6.5187 -4.0568 1.8859
6.8311 -3.5251 1.8859
7.0987 -2.9688 1.8859
7.3209 -2.3923 1.8863
7.4998 -1.8001 1.8879
7.6282 -1.1942 1.8893
7.7049 -0.5791 1.8904
7.7289 0.0406 1.8911
7.6965 0.6598 1.8907
7.6119 1.2737 1.8899
7.4758 1.8776 1.8889
7.2892 2.4670 1.8876
7.0540 3.0377 1.8860
6.7782 3.5887 1.8859
6.4588 4.1146 1.8859
6.0976 4.6117 1.8859
5.6975 5.0766 1.8859
5.6865 5.9514 2.0383
5.1796 6.3749 2.0383
4.6409 6.7549 2.0383
4.0742 7.0889 2.0383
3.4835 7.3751 2.0383
2.8729 7.6118 2.0383
2.2466 7.7979 2.0383
1.6089 7.9324 2.0383
0.9640 8.0150 2.0383
0.3162 8.0453 2.0383
-0.3304 8.0236 2.0383
-0.9716 7.9505 2.0383
5.2634 4.3192 1.8859
5.2868 5.1006 2.0383
4.8515 5.4981 2.0383
4.3860 5.8580 2.0383
3.8937 6.1783 2.0383
3.3779 6.4568 2.0383
2.8423 6.6921 2.0383
2.2906 6.8829 2.0383
1.7264 7.0281 2.0383
1.1537 7.1271 2.0383
0.5761 7.1796 2.0383
-0.0026 7.1855 2.0383
-0.5786 7.1451 2.0383
-1.1483 7.0590 2.0383
-1.7081 6.9280 2.0383
-2.2546 6.7533 2.0383
-2.7843 6.5360 2.0383
-3.2942 6.2780 2.0383
-3.7811 5.9810 2.0383
-4.2233 5.6218 2.0292
-4.6748 5.2783 2.0383
-5.0764 4.8774 2.0383
-5.4446 4.4466 2.0383
-5.7775 3.9889 2.0383
-6.0731 3.5070 2.0383
-6.3297 3.0039 2.0383
-6.5460 2.4826 2.0383
-6.7207 1.9464 2.0383
-6.8528 1.3984 2.0383
-6.9416 0.8419 2.0383
-6.9867 0.2802 2.0383
-6.9877 -0.2833 2.0383
-6.9446 -0.8453 2.0383
-6.8576 -1.4024 2.0383
-6.7272 -1.9514 2.0383
-6.5541 -2.4888 2.0383
-6.3392 -3.0115 2.0383
-6.0836 -3.5163 2.0383
-5.7889 -4.0000 2.0383
-5.4566 -4.4597 2.0383
-5.0885 -4.8925 2.0383
-4.6869 -5.2955 2.0383
-4.2538 -5.6662 2.0383
-3.7920 -6.0022 2.0383
-3.3041 -6.3010 2.0383
-2.7929 -6.5607 2.0383
-2.2616 -6.7793 2.0383
-1.7133 -6.9553 2.0383
-1.1516 -7.0871 2.0383
-0.5798 -7.1738 2.0383
-0.0017 -7.2144 2.0383
0.5792 -7.2083 2.0383
1.1589 -7.1554 2.0383
1.7337 -7.0556 2.0383
2.2997 -6.9092 2.0383
2.8531 -6.7171 2.0383
3.3901 -6.4801 2.0383
3.9069 -6.1996 2.0383
4.4001 -5.8774 2.0383
4.8660 -5.5152 2.0383
4.9050 -4.7331 1.8859
5.2767 -4.3309 1.8859
5.6145 -3.8990 1.8859
5.9160 -3.4403 1.8859
6.1789 -2.9578 1.8859
6.4014 -2.4549 1.8859
6.5817 -1.9350 1.8859
6.7185 -1.4017 1.8859
6.8109 -0.8588 1.8859
6.8591 -0.3101 1.8862
6.8632 0.2408 1.8869
6.8190 0.7899 1.8867
6.7275 1.3328 1.8860
6.5939 1.8665 1.8859
6.4172 2.3870 1.8859
6.1983 2.8907 1.8859
5.9391 3.3741 1.8859
5.6413 3.8341 1.8859
5.3072 4.2675 1.8859
5.3385 5.0489 2.0383
4.9072 5.4508 2.0383
4.4453 5.8155 2.0383
3.9560 6.1408 2.0383
3.4430 6.4246 2.0383
2.9097 6.6653 2.0383
2.3597 6.8617 2.0383
1.7969 7.0126 2.0383
1.2250 7.1173 2.0383
0.6478 7.1756 2.0383
0.0691 7.1873 2.0383
-0.5075 7.1526 2.0383
-1.0782 7.0722 2.0383
-1.6394 6.9467 2.0383
-2.1877 6.7772 2.0383
-2.7197 6.5652 2.0383
-3.2322 6.3122 2.0383
-3.7221 6.0199 2.0383
-4.1636 5.6592 2.0272
-4.6228 5.3259 2.0383
-5.0283 4.9287 2.0383
-5.4009 4.5016 2.0383
-5.7382 4.0470 2.0383
-6.0385 3.5679 2.0383
-6.3001 3.0673 2.0383
-6.5214 2.5481 2.0383
-6.7013 2.0135 2.0383
-6.8388 1.4668 2.0383
-6.9330 0.9112 2.0383
-6.9835 0.3500 2.0383
-6.9899 -0.2135 2.0383
-6.9523 -0.7758 2.0383
-6.8707 -1.3337 2.0383
-6.7457 -1.8839 2.0383
-6.5778 -2.4229 2.0383
-6.3680 -2.9476 2.0383
-6.1175 -3.4548 2.0383
-5.8275 -3.9413 2.0383
-5.4997 -4.4041 2.0383
-5.1360 -4.8404 2.0383
-4.7384 -5.2473 2.0383
-4.3091 -5.6221 2.0383
-3.8507 -5.9625 2.0383
-3.3659 -6.2660 2.0383
-2.8574 -6.5307 2.0383
-2.3284 -6.7545 2.0383
-1.7821 -6.9358 2.0383
-1.2218 -7.0732 2.0383
-0.6511 -7.1655 2.0383
-0.0735 -7.2119 2.0383
0.5071 -7.2116 2.0383
1.0872 -7.1645 2.0383
1.6628 -7.0705 2.0383
2.2301 -6.9299 2.0383
2.7853 -6.7433 2.0383
3.3245 -6.5119 2.0383
3.8441 -6.2367 2.0383
4.3404 -5.9195 2.0383
4.8099 -5.5622 2.0383
4.8567 -4.7807 1.8859
5.2324 -4.3824 1.8859
5.5746 -3.9541 1.8859
5.8807 -3.4985 1.8859
6.1485 -3.0188 1.8859
6.3760 -2.5182 1.8859
6.5617 -2.0002 1.8859
6.7040 -1.4684 1.8859
6.8019 -0.9265 1.8859
6.8554 -0.3783 1.8861
6.8652 0.1725 1.8868
6.8271 0.7221 1.8868
6.7413 1.2660 1.8861
6.6128 1.8009 1.8859
6.4414 2.3233 1.8859
6.2277 2.8292 1.8859
5.9733 3.3154 1.8859
5.6802 3.7785 1.8859
5.3505 4.2153 1.8859
5.3897 4.9966 2.0383
4.9623 5.4030 2.0383
4.5041 5.7724 2.0383
4.0180 6.1027 2.0383
3.5078 6.3917 2.0383
2.9768 6.6379 2.0383
2.4287 6.8398 2.0383
1.8673 6.9964 2.0383
1.2963 7.1069 2.0383
0.7195 7.1709 2.0383
0.1408 7.1884 2.0383
-0.4363 7.1594 2.0383
-1.0079 7.0846 2.0383
-1.5704 6.9646 2.0383
-2.1205 6.8006 2.0383
-2.6547 6.5938 2.0383
-3.1698 6.3457 2.0383
-3.6627 6.0582 2.0383
-4.1111 5.7063 2.0288
-4.5703 5.3729 2.0383
-4.9798 4.9796 2.0383
-5.3566 4.5560 2.0383
-5.6984 4.1047 2.0383
-6.0034 3.6285 2.0383
-6.2698 3.1304 2.0383
-6.4962 2.6134 2.0383
-6.6813 2.0805 2.0383
-6.8241 1.5351 2.0383
-6.9237 0.9804 2.0383
-6.9796 0.4198 2.0383
-6.9915 -0.1436 2.0383
-6.9593 -0.7063 2.0383
-6.8832 -1.2649 2.0383
-6.7635 -1.8162 2.0383
-6.6009 -2.3568 2.0383
-6.3963 -2.8835 2.0383
-6.1507 -3.3930 2.0383
-5.8655 -3.8822 2.0383
-5.5424 -4.3481 2.0383
-5.1830 -4.7878 2.0383
-4.7894 -5.1985 2.0383
-4.3640 -5.5775 2.0383
-3.9090 -5.9222 2.0383
-3.4273 -6.2305 2.0383
-2.9216 -6.5000 2.0383
-2.3950 -6.7290 2.0383
-1.8506 -6.9157 2.0383
-1.2919 -7.0586 2.0383
-0.7223 -7.1566 2.0383
-0.1454 -7.2087 2.0383
0.4351 -7.2142 2.0383
1.0155 -7.1729 2.0383
1.5918 -7.0847 2.0383
2.1604 -6.9498 2.0383
2.7173 -6.7689 2.0383
3.2587 -6.5430 2.0383
3.7809 -6.2731 2.0383
4.2802 -5.9611 2.0383
4.7532 -5.6086 2.0383
4.8080 -4.8279 1.8859
5.1876 -4.4335 1.8859
5.5341 -4.0087 1.8859
5.8448 -3.5563 1.8859
6.1174 -3.0794 1.8859
6.3501 -2.5812 1.8859
6.5410 -2.0652 1.8859
6.6887 -1.5349 1.8859
6.7922 -0.9941 1.8859
6.8509 -0.4464 1.8860
6.8666 0.1042 1.8867
6.8346 0.6542 1.8869
6.7544 1.1990 1.8862
6.6311 1.7352 1.8859
6.4650 2.2594 1.8859
6.2564 2.7675 1.8859
6.0070 3.2563 1.8859
5.7186 3.7224 1.8859
5.3933 4.1627 1.8859
5.4403 4.9438 2.0383
5.0171 5.3545 2.0383
4.5624 5.7287 2.0383
4.0797 6.0640 2.0383
3.5722 6.3582 2.0383
3.0436 6.6098 2.0383
2.4974 6.8172 2.0383
1.9374 6.9794 2.0383
1.3674 7.0957 2.0383
0.7912 7.1655 2.0383
0.2125 7.1887 2.0383
-0.3650 7.1655 2.0383
-0.9374 7.0963 2.0383
-1.5013 6.9819 2.0383
-2.0531 6.8233 2.0383
-2.5895 6.6217 2.0383
-3.1071 6.3786 2.0383
-3.6029 6.0959 2.0383
-4.0642 5.7616 2.0335
-4.5174 5.4193 2.0383
-4.9308 5.0301 2.0383
-5.3117 4.6101 2.0383
-5.6580 4.1621 2.0383
-5.9676 3.6888 2.0383
-6.2389 3.1932 2.0383
-6.4704 2.6784 2.0383
-6.6606 2.1473 2.0383
-6.8087 1.6033 2.0383
-6.9137 1.0496 2.0383
-6.9751 0.4895 2.0383
-6.9925 -0.0738 2.0383
-6.9657 -0.6367 2.0383
-6.8950 -1.1960 2.0383
-6.7807 -1.7484 2.0383
-6.6234 -2.2905 2.0383
-6.4239 -2.8191 2.0383
-6.1833 -3.3309 2.0383
-5.9030 -3.8228 2.0383
-5.5844 -4.2918 2.0383
-5.2294 -4.7349 2.0383
-4.8400 -5.1493 2.0383
-4.4184 -5.5323 2.0383
-3.9669 -5.8815 2.0383
-3.4884 -6.1943 2.0383
-2.9855 -6.4688 2.0383
-2.4613 -6.7029 2.0383
-1.9190 -6.8949 2.0383
-1.3618 -7.0433 2.0383
-0.7934 -7.1469 2.0383
-0.2172 -7.2047 2.0383
0.3631 -7.2161 2.0383
0.9437 -7.1805 2.0383
1.5208 -7.0981 2.0383
2.0905 -6.9690 2.0383
2.6490 -6.7938 2.0383
3.1925 -6.5734 2.0383
3.7173 -6.3089 2.0383
4.2197 -6.0020 2.0383
4.6962 -5.6544 2.0383
4.7910 -4.9075 1.8987
5.1423 -4.4841 1.8859
5.4930 -4.0629 1.8859
5.8083 -3.6138 1.8859
6.0858 -3.1398 1.8859
6.3235 -2.6440 1.8859
6.5196 -2.1300 1.8859
6.6728 -1.6013 1.8859
6.7818 -1.0616 1.8859
6.8458 -0.5145 1.8859
6.8671 0.0359 1.8866
6.8413 0.5863 1.8869
6.7669 1.1319 1.8863
6.6486 1.6694 1.8859
6.4879 2.1952 1.8859
6.2845 2.7055 1.8859
6.0401 3.1969 1.8859
5.7564 3.6660 1.8859
5.4355 4.1096 1.8859
5.4589 4.8623 2.0266
5.0713 5.3056 2.0383
4.6204 5.6844 2.0383
4.1409 6.0246 2.0383
3.6363 6.3240 2.0383
3.1101 6.5810 2.0383
2.5659 6.7939 2.0383
2.0075 6.9618 2.0383
1.4385 7.0838 2.0383
0.8628 7.1594 2.0383
0.2842 7.1884 2.0383
-0.2936 7.1709 2.0383
-0.8669 7.1074 2.0383
5.1242 4.2036 2.0383
4.7630 4.5937 2.0383
4.3717 4.9525 2.0383
3.9532 5.2777 2.0383
3.5103 5.5673 2.0383
3.0461 5.8194 2.0383
2.5639 6.0327 2.0383
2.0669 6.2060 2.0383
1.5586 6.3383 2.0383
1.0422 6.4290 2.0383
0.5213 6.4777 2.0383
-0.0008 6.4845 2.0383
-0.5207 6.4494 2.0383
-1.0352 6.3730 2.0383
-1.5409 6.2560 2.0383
-2.0348 6.0994 2.0383
-2.5138 5.9044 2.0383
-2.9749 5.6723 2.0383
-3.4154 5.4049 2.0383
-3.8328 5.1039 2.0383
-4.2244 4.7714 2.0383
-4.5881 4.4096 2.0383
-4.9216 4.0206 2.0383
-5.2232 3.6071 2.0383
-5.4911 3.1716 2.0383
-5.7236 2.7169 2.0383
-5.9197 2.2455 2.0383
-6.0780 1.7606 2.0383
-6.1977 1.2649 2.0383
-6.2782 0.7615 2.0383
-6.3190 0.2534 2.0383
-6.3198 -0.2564 2.0383
-6.2806 -0.7648 2.0383
-6.2016 -1.2687 2.0383
-6.0833 -1.7651 2.0383
-5.9262 -2.2511 2.0383
-5.7313 -2.7236 2.0383
-5.4996 -3.1797 2.0383
-5.2325 -3.6167 2.0383
-4.9313 -4.0318 2.0383
-4.5979 -4.4223 2.0383
-4.2342 -4.7859 2.0383
-3.8422 -5.1200 2.0383
-3.4243 -5.4226 2.0383
-2.9829 -5.6915 2.0383
-2.5207 -5.9249 2.0383
-2.0404 -6.1211 2.0383
-1.5451 -6.2786 2.0383
-1.0378 -6.3963 2.0383
-0.5216 -6.4732 2.0383
0.0000 -6.5084 2.0383
0.5239 -6.5015 2.0383
1.0466 -6.4524 2.0383
1.5645 -6.3610 2.0383
2.0744 -6.2278 2.0383
2.5727 -6.0534 2.0383
3.0560 -5.8387 2.0383
3.5211 -5.5850 2.0383
3.9647 -5.2937 2.0383
4.3836 -4.9668 2.0383
4.6962 -4.5302 2.0047
4.7519 -3.8991 1.8859
5.0554 -3.5098 1.8859
5.3262 -3.0966 1.8859
5.5624 -2.6620 1.8859
5.7621 -2.2093 1.8859
5.9241 -1.7413 1.8859
6.0470 -1.2614 1.8859
6.1299 -0.7728 1.8859
6.1724 -0.2791 1.8859
6.1741 0.2165 1.8859
6.1349 0.7104 1.8859
6.0552 1.1992 1.8859
5.9356 1.6796 1.8859
5.7771 2.1482 1.8859
5.5807 2.6018 1.8859
5.3479 3.0374 1.8859
5.0834 3.4538 1.8870
5.1385 4.1305 2.0272
4.8095 4.5470 2.0383
4.4218 4.9098 2.0383
4.0064 5.2393 2.0383
3.5664 5.5334 2.0383
3.1047 5.7903 2.0383
2.6245 6.0085 2.0383
2.1292 6.1867 2.0383
1.6221 6.3241 2.0383
1.1066 6.4200 2.0383
0.5860 6.4740 2.0383
0.0639 6.4859 2.0383
-0.4565 6.4560 2.0383
-0.9718 6.3847 2.0383
-1.4788 6.2727 2.0383
-1.9743 6.1210 2.0383
-2.4553 5.9306 2.0383
-2.9188 5.7030 2.0383
-3.3620 5.4399 2.0383
-3.7824 5.1430 2.0383
-4.1773 4.8143 2.0383
-4.5446 4.4559 2.0383
-4.8820 4.0702 2.0383
-5.1876 3.6596 2.0383
-5.4597 3.2267 2.0383
-5.6968 2.7742 2.0383
-5.8974 2.3048 2.0383
-6.0604 1.8213 2.0383
-6.1850 1.3268 2.0383
-6.2704 0.8242 2.0383
-6.3161 0.3165 2.0383
-6.3218 -0.1932 2.0383
-6.2876 -0.7019 2.0383
-6.2135 -1.2066 2.0383
-6.1001 -1.7041 2.0383
-5.9478 -2.1915 2.0383
-5.7575 -2.6658 2.0383
-5.5303 -3.1241 2.0383
-5.2675 -3.5637 2.0383
-4.9705 -3.9816 2.0383
-4.6410 -4.3754 2.0383
-4.2809 -4.7424 2.0383
-3.8923 -5.0803 2.0383
-3.4774 -5.3869 2.0383
-3.0388 -5.6601 2.0383
-2.5790 -5.8980 2.0383
-2.1008 -6.0988 2.0383
-1.6072 -6.2613 2.0383
-1.1012 -6.3839 2.0383
-0.5860 -6.4659 2.0383
-0.0648 -6.5063 2.0383
0.4590 -6.5047 2.0383
0.9820 -6.4608 2.0383
1.5007 -6.3746 2.0383
2.0117 -6.2466 2.0383
2.5117 -6.0772 2.0383
2.9970 -5.8675 2.0383
3.4645 -5.6185 2.0383
3.9109 -5.3318 2.0383
4.3331 -5.0092 2.0383
4.7117 -4.6365 2.0313
4.7121 -3.9455 1.8859
5.0195 -3.5594 1.8859
5.2945 -3.1490 1.8859
5.5350 -2.7170 1.8859
5.7394 -2.2663 1.8859
5.9061 -1.8000 1.8859
6.0339 -1.3214 1.8859
6.1218 -0.8338 1.8859
6.1694 -0.3405 1.8859
6.1761 0.1551 1.8859
6.1420 0.6494 1.8859
6.0673 1.1390 1.8859
5.9526 1.6207 1.8859
5.7988 2.0909 1.8859
5.6070 2.5465 1.8859
5.3787 2.9845 1.8859
5.1155 3.4017 1.8859
5.0979 4.0149 1.9949
4.8555 4.4998 2.0383
4.4714 4.8666 2.0383
4.0593 5.2003 2.0383
3.6221 5.4989 2.0383
3.1630 5.7605 2.0383
2.6849 5.9836 2.0383
2.1913 6.1668 2.0383
1.6855 6.3094 2.0383
1.1708 6.4104 2.0383
0.6507 6.4696 2.0383
0.1286 6.4867 2.0383
-0.3922 6.4620 2.0383
-0.9083 6.3958 2.0383
-1.4165 6.2888 2.0383
-1.9136 6.1419 2.0383
-2.3966 5.9562 2.0383
-2.8624 5.7332 2.0383
-3.3083 5.4744 2.0383
-3.7316 5.1816 2.0383
-4.1298 4.8567 2.0383
-4.5006 4.5019 2.0383
-4.8418 4.1194 2.0383
-5.1515 3.7118 2.0383
-5.4279 3.2815 2.0383
-5.6693 2.8313 2.0383
-5.8745 2.3638 2.0383
-6.0423 1.8819 2.0383
-6.1717 1.3886 2.0383
-6.2619 0.8869 2.0383
-6.3126 0.3796 2.0383
-6.3233 -0.1300 2.0383
-6.2940 -0.6390 2.0383
-6.2249 -1.1443 2.0383
-6.1162 -1.6429 2.0383
-5.9687 -2.1317 2.0383
-5.7831 -2.6078 2.0383
-5.5604 -3.0683 2.0383
-5.3019 -3.5103 2.0383
-5.0091 -3.9311 2.0383
-4.6835 -4.3279 2.0383
-4.3271 -4.6984 2.0383
-3.9419 -5.0401 2.0383
-3.5302 -5.3507 2.0383
-3.0943 -5.6281 2.0383
-2.6371 -5.8704 2.0383
-2.1610 -6.0760 2.0383
-1.6691 -6.2433 2.0383
-1.1645 -6.3709 2.0383
-0.6502 -6.4580 2.0383
-0.1296 -6.5036 2.0383
0.3940 -6.5072 2.0383
0.9173 -6.4685 2.0383
1.4367 -6.3876 2.0383
1.9489 -6.2647 2.0383
2.4504 -6.1004 2.0383
2.9378 -5.8956 2.0383
3.4077 -5.6514 2.0383
3.8569 -5.3693 2.0383
4.2822 -5.0510 2.0383
4.6807 -4.6985 2.0383
4.6719 -3.9916 1.8859
4.9831 -3.6087 1.8859
5.2622 -3.2011 1.8859
5.5071 -2.7716 1.8859
5.7161 -2.3230 1.8859
5.8875 -1.8585 1.8859
6.0202 -1.3813 1.8859
6.1131 -0.8946 1.8859
6.1657 -0.4018 1.8859
6.1775 0.0937 1.8859
6.1484 0.5883 1.8859
6.0787 1.0787 1.8859
5.9690 1.5615 1.8859
5.8200 2.0333 1.8859
5.6328 2.4909 1.8859
5.4089 2.9312 1.8859
5.1500 3.3512 1.8859
5.0585 3.9030 1.9638
4.9010 4.4522 2.0383
4.5206 4.8229 2.0383
4.1118 5.1608 2.0383
3.6776 5.4639 2.0383
3.2210 5.7301 2.0383
2.7451 5.9581 2.0383
2.2532 6.1463 2.0383
1.7487 6.2939 2.0383
1.2350 6.4001 2.0383
0.7154 6.4645 2.0383
0.1933 6.4869 2.0383
-0.3279 6.4673 2.0383
-0.8447 6.4062 2.0383
-1.3541 6.3042 2.0383
-1.8527 6.1622 2.0383
-2.3376 5.9813 2.0383
-2.8057 5.7628 2.0383
-3.2542 5.5084 2.0383
-3.6804 5.2196 2.0383
-4.0819 4.8986 2.0383
-4.4562 4.5474 2.0383
-4.8012 4.1683 2.0383
-5.1149 3.7636 2.0383
-5.3955 3.3360 2.0383
-5.6414 2.8880 2.0383
-5.8511 2.4226 2.0383
-6.0236 1.9423 2.0383
-6.1577 1.4503 2.0383
-6.2529 0.9494 2.0383
-6.3085 0.4427 2.0383
-6.3241 -0.0668 2.0383
-6.2998 -0.5761 2.0383
-6.2356 -1.0820 2.0383
-6.1318 -1.5816 2.0383
-5.9891 -2.0718 2.0383
-5.8082 -2.5496 2.0383
-5.5900 -3.0122 2.0383
-5.3359 -3.4566 2.0383
-5.0472 -3.8802 2.0383
-4.7256 -4.2802 2.0383
-4.3728 -4.6540 2.0383
-3.9911 -4.9994 2.0383
-3.5826 -5.3139 2.0383
-3.1496 -5.5956 2.0383
-2.6948 -5.8424 2.0383
-2.2209 -6.0526 2.0383
-1.7309 -6.2247 2.0383
-1.2276 -6.3573 2.0383
-0.7144 -6.4494 2.0383
-0.1943 -6.5002 2.0383
0.3291 -6.5090 2.0383
0.8526 -6.4756 2.0383
1.3727 -6.3999 2.0383
1.8860 -6.2822 2.0383
2.3890 -6.1230 2.0383
2.8782 -5.9232 2.0383
3.3505 -5.6838 2.0383
3.8024 -5.4063 2.0383
4.2309 -5.0924 2.0383
4.6328 -4.7440 2.0383
4.6444 -4.0488 1.8913
4.9463 -3.6575 1.8859
5.2295 -3.2529 1.8859
5.4787 -2.8259 1.8859
5.6922 -2.3796 1.8859
5.8683 -1.9169 1.8859
6.0059 -1.4410 1.8859
6.1038 -0.9553 1.8859
6.1614 -0.4631 1.8859
6.1782 0.0322 1.8859
6.1542 0.5272 1.8859
6.0895 1.0183 1.8859
5.9847 1.5022 1.8859
5.8405 1.9756 1.8859
5.6580 2.4351 1.8859
5.4386 2.8777 1.8859
5.1839 3.3004 1.8859
5.0250 3.7980 1.9357
4.9460 4.4040 2.0383
4.5693 4.7787 2.0383
4.1639 5.1208 2.0383
3.7327 5.4283 2.0383
3.2787 5.6992 2.0383
2.8050 5.9319 2.0383
2.3150 6.1252 2.0383
1.8118 6.2779 2.0383
1.2990 6.3892 2.0383
0.7800 6.4588 2.0383
0.2580 6.4864 2.0383
-0.2634 6.4720 2.0383
-0.7810 6.4160 2.0383
4.6544 3.8169 2.0383
4.3270 4.1717 2.0383
3.9722 4.4982 2.0383
3.5926 4.7943 2.0383
3.1907 5.0581 2.0383
2.7695 5.2881 2.0383
2.3317 5.4829 2.0383
1.8803 5.6413 2.0383
1.4185 5.7626 2.0383
0.9492 5.8461 2.0383
0.4756 5.8915 2.0383
0.0007 5.8987 2.0383
-0.4724 5.8679 2.0383
-0.9406 5.7994 2.0383
-1.4016 5.6941 2.0383
-1.8509 5.5523 2.0383
-2.2872 5.3756 2.0383
-2.7075 5.1651 2.0383
-3.1091 4.9223 2.0383
-3.4897 4.6488 2.0383
-3.8469 4.3465 2.0383
-4.1787 4.0173 2.0383
-4.4831 3.6634 2.0383
-4.7583 3.2869 2.0383
-5.0028 2.8903 2.0383
-5.2151 2.4760 2.0383
-5.3941 2.0466 2.0383
-5.5386 1.6047 2.0383
-5.6479 1.1529 2.0383
-5.7214 0.6940 2.0383
-5.7585 0.2309 2.0383
-5.7592 -0.2338 2.0383
-5.7233 -0.6972 2.0383
-5.6511 -1.1565 2.0383
-5.5430 -1.6088 2.0383
-5.3995 -2.0516 2.0383
-5.2215 -2.4820 2.0383
-5.0099 -2.8974 2.0383
-4.7659 -3.2953 2.0383
-4.4911 -3.6731 2.0383
-4.1868 -4.0284 2.0383
-3.8550 -4.3589 2.0383
-3.4975 -4.6626 2.0383
-3.1164 -4.9374 2.0383
-2.7141 -5.1814 2.0383
-2.2929 -5.3930 2.0383
-0.6772 -2.0331 0.7439
-1.4044 -5.7130 2.0383
-0.9427 -5.8191 2.0383
-0.4730 -5.8879 2.0383
0.0015 -5.9189 2.0383
0.4778 -5.9115 2.0383
0.9529 -5.8658 2.0383
1.4235 -5.7817 2.0383
0.6788 -2.0364 0.7334
2.3390 -5.5003 2.0383
2.7777 -5.3043 2.0383
3.1997 -5.0731 2.0383
3.6021 -4.8078 2.0383
3.9820 -4.5102 2.0383
4.3369 -4.1822 2.0383
4.5753 -3.7531 1.9995
4.5904 -3.1862 1.8859
4.8358 -2.8107 1.8859
5.0498 -2.4162 1.8859
5.2307 -2.0051 1.8859
5.3774 -1.5803 1.8859
5.4888 -1.1448 1.8859
5.5640 -0.7014 1.8859
5.6025 -0.2533 1.8859
5.6041 0.1964 1.8859
5.5687 0.6446 1.8859
5.4966 1.0883 1.8859
5.3884 1.5243 1.8859
5.2448 1.9497 1.8859
5.0670 2.3616 1.8859
4.8562 2.7572 1.8859
4.8363 3.2849 1.9768
4.6930 3.7710 2.0383
4.3691 4.1292 2.0383
4.0176 4.4593 2.0383
3.6409 4.7593 2.0383
3.2416 5.0272 2.0383
2.8226 5.2615 2.0383
2.3867 5.4607 2.0383
1.9369 5.6237 2.0383
1.4762 5.7496 2.0383
1.0077 5.8378 2.0383
0.5344 5.8880 2.0383
0.0595 5.8999 2.0383
-0.4139 5.8737 2.0383
-0.8829 5.8099 2.0383
-1.3445 5.7090 2.0383
-1.7958 5.5718 2.0383
-2.2340 5.3993 2.0383
-2.6564 5.1930 2.0383
-3.0604 4.9541 2.0383
-3.4437 4.6843 2.0383
-3.8040 4.3855 2.0383
-4.1390 4.0595 2.0383
-4.4469 3.7085 2.0383
-4.7258 3.3348 2.0383
-4.9742 2.9405 2.0383
-5.1906 2.5283 2.0383
-5.3737 2.1006 2.0383
-5.5226 1.6600 2.0383
-5.6363 1.2093 2.0383
-5.7142 0.7512 2.0383
-5.7559 0.2884 2.0383
-5.7611 -0.1762 2.0383
-5.7298 -0.6399 2.0383
-5.6620 -1.0998 2.0383
-5.5583 -1.5532 2.0383
-5.4192 -1.9973 2.0383
-5.2454 -2.4294 2.0383
-5.0379 -2.8469 2.0383
-4.7979 -3.2470 2.0383
-4.5268 -3.6274 2.0383
-4.2261 -3.9856 2.0383
-3.8975 -4.3194 2.0383
-3.5431 -4.6265 2.0383
-3.1648 -4.9050 2.0383
-2.7650 -5.1529 2.0383
-2.3460 -5.3686 2.0383
-0.6974 -2.0263 0.7441
-1.4610 -5.6973 2.0383
-1.0004 -5.8079 2.0383
-0.5316 -5.8814 2.0383
-0.0575 -5.9171 2.0383
0.4188 -5.9145 2.0383
0.8941 -5.8736 2.0383
1.3655 -5.7942 2.0383
1.8297 -5.6769 2.0383
2.2836 -5.5220 2.0383
2.7242 -5.3306 2.0383
3.1484 -5.1036 2.0383
3.5534 -4.8425 2.0383
3.9363 -4.5488 2.0383
4.2943 -4.2245 2.0383
4.5827 -3.8361 2.0196
4.5579 -3.2312 1.8859
4.8071 -2.8584 1.8859
5.0250 -2.4660 1.8859
5.2102 -2.0568 1.8859
5.3612 -1.6336 1.8859
5.4769 -1.1992 1.8859
5.5567 -0.7567 1.8859
5.5997 -0.3090 1.8859
5.6059 0.1406 1.8859
5.5751 0.5892 1.8859
5.5075 1.0336 1.8859
5.4037 1.4708 1.8859
5.2645 1.8977 1.8859
5.0909 2.3114 1.8859
4.8884 2.7116 1.8876
4.8133 3.1997 1.9540
4.7311 3.7248 2.0383
4.4108 4.0863 2.0383
4.0626 4.4200 2.0383
3.6889 4.7238 2.0383
3.2923 4.9958 2.0383
2.8756 5.2343 2.0383
2.4416 5.4379 2.0383
1.9933 5.6055 2.0383
1.5338 5.7361 2.0383
1.0661 5.8290 2.0383
0.5932 5.8838 2.0383
0.1184 5.9005 2.0383
-0.3554 5.8790 2.0383
-0.8251 5.8198 2.0383
-1.2878 5.7235 2.0383
-1.7405 5.5907 2.0383
-2.1805 5.4226 2.0383
-2.6050 5.2204 2.0383
-3.0114 4.9854 2.0383
-3.3974 4.7194 2.0383
-3.7606 4.4241 2.0383
-4.0989 4.1013 2.0383
-4.4102 3.7533 2.0383
-4.6929 3.3822 2.0383
-4.9451 2.9904 2.0383
-5.1655 2.5803 2.0383
-5.3529 2.1543 2.0383
-5.5060 1.7152 2.0383
-5.6241 1.2656 2.0383
-5.7065 0.8083 2.0383
-5.7527 0.3459 2.0383
-5.7624 -0.1186 2.0383
-5.7356 -0.5826 2.0383
-5.6724 -1.0431 2.0383
-5.5731 -1.4975 2.0383
-5.4383 -1.9429 2.0383
-5.2688 -2.3766 2.0383
-5.0654 -2.7960 2.0383
-4.8294 -3.1984 2.0383
-4.5620 -3.5814 2.0383
-4.2649 -3.9425 2.0383
-3.9397 -4.2794 2.0383
-3.5884 -4.5900 2.0383
-3.2129 -4.8721 2.0383
-2.8157 -5.1239 2.0383
-2.3989 -5.3436 2.0383
-0.7176 -2.0192 0.7443
-1.5174 -5.6810 2.0383
-1.0580 -5.7962 2.0383
-0.5900 -5.8743 2.0383
-0.1164 -5.9147 2.0383
0.3597 -5.9169 2.0383
0.8354 -5.8807 2.0383
1.3074 -5.8061 2.0383
1.7726 -5.6935 2.0383
2.2280 -5.5432 2.0383
2.6704 -5.3563 2.0383
3.0968 -5.1336 2.0383
3.5043 -4.8767 2.0383
3.8901 -4.5869 2.0383
4.2514 -4.2663 2.0383
4.5857 -3.9168 2.0383
4.5399 -3.2868 1.8922
4.7779 -2.9057 1.8859
4.9997 -2.5156 1.8859
5.1890 -2.1084 1.8859
5.3443 -1.6867 1.8859
5.4645 -1.2536 1.8859
5.5488 -0.8119 1.8859
5.5964 -0.3647 1.8859
5.6071 0.0849 1.8859
5.5809 0.5338 1.8859
5.5179 0.9789 1.8859
5.4186 1.4171 1.8859
5.2837 1.8454 1.8859
5.1142 2.2609 1.8859
4.9115 2.6608 1.8859
4.7907 3.1165 1.9318
4.7687 3.6782 2.0383
4.4521 4.0429 2.0383
4.1072 4.3802 2.0383
3.7365 4.6878 2.0383
3.3426 4.9639 2.0383
2.9282 5.2066 2.0383
2.4962 5.4146 2.0383
2.0496 5.5867 2.0383
1.5913 5.7219 2.0383
1.1244 5.8195 2.0383
0.6520 5.8791 2.0383
0.1772 5.9005 2.0383
-0.2969 5.8838 2.0383
-0.7672 5.8292 2.0383
-1.2309 5.7374 2.0383
-1.6850 5.6091 2.0383
-2.1267 5.4453 2.0383
-2.5533 5.2472 2.0383
-2.9621 5.0163 2.0383
-3.3508 4.7540 2.0383
-3.7169 4.4622 2.0383
-4.0584 4.1428 2.0383
-4.3732 3.7978 2.0383
-4.6594 3.4294 2.0383
-4.9155 3.0400 2.0383
-5.1400 2.6320 2.0383
-5.3315 2.2079 2.0383
-5.4889 1.7703 2.0383
-5.6114 1.3219 2.0383
-5.6983 0.8653 2.0383
-5.7490 0.4034 2.0383
-5.7632 -0.0610 2.0383
-5.7409 -0.5252 2.0383
-5.6822 -0.9863 2.0383
-5.5874 -1.4416 2.0383
-5.4569 -1.8883 2.0383
-5.2916 -2.3236 2.0383
-5.0924 -2.7449 2.0383
-4.8603 -3.1496 2.0383
-4.5968 -3.5351 2.0383
-4.3033 -3.8990 2.0383
-3.9815 -4.2390 2.0383
-3.6333 -4.5530 2.0383
-3.2607 -4.8387 2.0383
-2.8660 -5.0944 2.0383
-2.4516 -5.3182 2.0383
-0.7377 -2.0119 0.7445
-1.5736 -5.6642 2.0383
-1.1155 -5.7839 2.0383
-0.6484 -5.8667 2.0383
-0.1753 -5.9118 2.0383
0.3007 -5.9187 2.0383
0.7765 -5.8873 2.0383
1.2492 -5.8175 2.0383
1.7154 -5.7095 2.0383
0.7808 -2.0000 0.7327
2.6164 -5.3814 2.0383
3.0449 -5.1631 2.0383
3.4550 -4.9103 2.0383
3.8436 -4.6246 2.0383
4.2080 -4.3076 2.0383
4.5458 -3.9616 2.0383
4.5392 -3.3556 1.9060
4.7481 -2.9527 1.8859
4.9740 -2.5650 1.8859
5.1674 -2.1597 1.8859
5.3270 -1.7397 1.8859
5.4516 -1.3078 1.8859
5.5403 -0.8670 1.8859
5.5925 -0.4203 1.8859
5.6078 0.0291 1.8859
5.5861 0.4783 1.8859
5.5277 0.9240 1.8859
5.4328 1.3632 1.8859
5.3023 1.7929 1.8859
5.1371 2.2102 1.8859
4.9384 2.6122 1.8859
4.7720 3.0372 1.9117
4.8059 3.6312 2.0383
4.4929 3.9992 2.0383
4.1514 4.3400 2.0383
3.7837 4.6514 2.0383
3.3926 4.9314 2.0383
2.9806 5.1784 2.0383
2.5506 5.3908 2.0383
2.1056 5.5674 2.0383
1.6486 5.7072 2.0383
1.1826 5.8095 2.0383
0.7108 5.8738 2.0383
0.2361 5.8999 2.0383
-0.2382 5.8879 2.0383
-0.7093 5.8380 2.0383
4.2567 3.4895 2.0383
3.9578 3.8144 2.0383
3.6339 4.1134 2.0383
3.2871 4.3847 2.0383
2.9200 4.6267 2.0383
2.5350 4.8377 2.0383
0.7769 1.8257 0.7418
0.6278 1.8820 0.7431
0.4746 1.9261 0.7444
0.3183 1.9577 0.7457
0.4367 5.3938 2.0383
0.0020 5.4012 2.0383
-0.4313 5.3738 2.0383
-0.3168 1.9560 0.7506
-0.4729 1.9236 0.7517
-0.6258 1.8787 0.7528
-2.0946 4.9258 2.0383
-2.4800 4.7335 2.0383
-2.8484 4.5116 2.0383
-3.1976 4.2614 2.0383
-3.5254 3.9847 2.0383
-3.8300 3.6833 2.0383
-4.1094 3.3591 2.0383
-4.3622 3.0141 2.0383
-4.5867 2.6505 2.0383
-4.7817 2.2708 2.0383
-4.9461 1.8770 2.0383
-5.0788 1.4717 2.0383
-5.1792 1.0574 2.0383
-5.2467 0.6365 2.0383
-5.2808 0.2117 2.0383
-5.2813 -0.2145 2.0383
-5.2483 -0.6396 2.0383
-5.1819 -1.0608 2.0383
-5.0825 -1.4757 2.0383
-4.9506 -1.8816 2.0383
-4.7870 -2.2762 2.0383
-4.5926 -2.6570 2.0383
-4.3686 -3.0215 2.0383
-4.1161 -3.3676 2.0383
-3.8368 -3.6929 2.0383
-3.5322 -3.9955 2.0383
-3.2041 -4.2734 2.0383
-2.8545 -4.5246 2.0383
-2.4854 -4.7476 2.0383
-0.7675 -1.8062 0.7452
-0.6198 -1.8623 0.7439
-0.4681 -1.9063 0.7426
-0.3135 -1.9381 0.7413
-0.1568 -1.9574 0.7401
0.0010 -1.9641 0.7388
0.1587 -1.9581 0.7376
0.3155 -1.9396 0.7365
0.4704 -1.9086 0.7353
0.6222 -1.8653 0.7343
0.7702 -1.8100 0.7332
2.5420 -4.8516 2.0383
2.9276 -4.6395 2.0383
3.2951 -4.3964 2.0383
3.6421 -4.1238 2.0383
3.9661 -3.8235 2.0383
4.2649 -3.4974 2.0383
4.4906 -3.1160 2.0178
4.4624 -2.5931 1.9036
4.6163 -2.2082 1.8859
4.7814 -1.8324 1.8859
4.9153 -1.4442 1.8859
5.0169 -1.0462 1.8859
5.0855 -0.6410 1.8859
5.1207 -0.2316 1.8859
5.1222 0.1793 1.8859
5.0899 0.5889 1.8859
5.0243 0.9944 1.8859
4.9256 1.3929 1.8859
4.7947 1.7818 1.8859
4.6442 2.1639 1.8907
4.6951 2.6649 1.9942
4.5601 3.0963 2.0383
4.2919 3.4476 2.0383
3.9963 3.7755 2.0383
3.6753 4.0778 2.0383
3.3312 4.3526 2.0383
2.9665 4.5983 2.0383
2.5836 4.8133 2.0383
0.7950 1.8179 0.7416
0.6465 1.8757 0.7429
0.4938 1.9213 0.7442
0.3379 1.9544 0.7455
0.4906 5.3904 2.0383
0.0558 5.4022 2.0383
-0.3777 5.3791 2.0383
-0.2972 1.9591 0.7504
-0.4537 1.9283 0.7516
-0.6071 1.8850 0.7527
-0.7564 1.8294 0.7537
-2.4331 4.7590 2.0383
-2.8037 4.5406 2.0383
-3.1554 4.2939 2.0383
-3.4860 4.0204 2.0383
-3.7935 3.7219 2.0383
-4.0762 3.4004 2.0383
-4.3323 3.0579 2.0383
-4.5604 2.6966 2.0383
-4.7592 2.3187 2.0383
-4.9274 1.9265 2.0383
-5.0641 1.5225 2.0383
-5.1686 1.1091 2.0383
-5.2401 0.6890 2.0383
-5.2784 0.2645 2.0383
-5.2831 -0.1617 2.0383
-5.2542 -0.5870 2.0383
-5.1919 -1.0089 2.0383
-5.0966 -1.4247 2.0383
-4.9687 -1.8319 2.0383
-4.8090 -2.2280 2.0383
-4.6184 -2.6106 2.0383
-4.3979 -2.9773 2.0383
-4.1489 -3.3258 2.0383
-3.8728 -3.6538 2.0383
-3.5712 -3.9593 2.0383
-3.2460 -4.2403 2.0383
-2.8989 -4.4950 2.0383
-2.5322 -4.7215 2.0383
-2.1480 -4.9185 2.0383
-0.6383 -1.8560 0.7441
-0.4871 -1.9015 0.7428
-0.3328 -1.9348 0.7415
-0.1763 -1.9556 0.7402
-0.0186 -1.9639 0.7390
0.1392 -1.9595 0.7378
0.2962 -1.9426 0.7366
0.4513 -1.9131 0.7355
0.6036 -1.8713 0.7344
0.7521 -1.8175 0.7334
2.4930 -4.8757 2.0383
2.8807 -4.6675 2.0383
3.2506 -4.4281 2.0383
3.6003 -4.1591 2.0383
3.9273 -3.8622 2.0383
4.2293 -3.5392 2.0383
4.4942 -3.1852 2.0338
4.4658 -2.6548 1.9164
4.6024 -2.2581 1.8895
4.7626 -1.8798 1.8859
4.9004 -1.4929 1.8859
5.0061 -1.0959 1.8859
5.0788 -0.6915 1.8859
5.1182 -0.2825 1.8859
5.1238 0.1284 1.8859
5.0958 0.5383 1.8859
5.0342 0.9445 1.8859
4.9396 1.3440 1.8859
4.8126 1.7342 1.8859
4.6543 2.1125 1.8859
4.6870 2.5990 1.9794
4.5914 3.0512 2.0383
4.3267 3.4053 2.0383
4.0343 3.7362 2.0383
3.7164 4.0418 2.0383
3.3751 4.3201 2.0383
3.0127 4.5695 2.0383
2.6319 4.7883 2.0383
2.2353 4.9753 2.0383
0.6652 1.8691 0.7428
0.5129 1.9163 0.7441
0.3573 1.9510 0.7453
0.1994 1.9730 0.7466
0.1097 5.4026 2.0383
-0.3242 5.3838 2.0383
-0.2777 1.9621 0.7503
-0.4344 1.9328 0.7514
-0.5882 1.8910 0.7525
-0.7382 1.8369 0.7536
-2.3859 4.7840 2.0383
-2.7588 4.5693 2.0383
-3.1129 4.3260 2.0383
-3.4462 4.0557 2.0383
-3.7567 3.7602 2.0383
-4.0426 3.4415 2.0383
-4.3021 3.1015 2.0383
-4.5337 2.7423 2.0383
-4.7362 2.3663 2.0383
-4.9082 1.9758 2.0383
-5.0489 1.5732 2.0383
-5.1574 1.1608 2.0383
-5.2330 0.7413 2.0383
-5.2754 0.3172 2.0383
-5.2843 -0.1089 2.0383
-5.2596 -0.5344 2.0383
-5.2015 -0.9569 2.0383
-5.1102 -1.3735 2.0383
-4.9863 -1.7820 2.0383
-4.8305 -2.1796 2.0383
-4.6436 -2.5640 2.0383
-4.4268 -2.9328 2.0383
-4.1813 -3.2836 2.0383
-3.9085 -3.6143 2.0383
-3.6099 -3.9228 2.0383
-3.2875 -4.2069 2.0383
-2.9430 -4.4649 2.0383
-2.5786 -4.6950 2.0383
-2.1965 -4.8957 2.0383
-0.6568 -1.8495 0.7442
-0.5061 -1.8965 0.7429
-0.3520 -1.9313 0.7417
-0.1957 -1.9537 0.7404
-0.0382 -1.9636 0.7392
0.1197 -1.9608 0.7379
0.2768 -1.9454 0.7368
0.4322 -1.9174 0.7356
0.5849 -1.8772 0.7345
0.7339 -1.8248 0.7335
2.4439 -4.8993 2.0383
2.8336 -4.6950 2.0383
3.2058 -4.4595 2.0383
3.5582 -4.1940 2.0383
3.8881 -3.9004 2.0383
4.1933 -3.5805 2.0383
4.4716 -3.2365 2.0383
4.4693 -2.7174 1.9296
4.5706 -2.2992 1.8859
4.7433 -1.9269 1.8859
4.8850 -1.5415 1.8859
4.9947 -1.1456 1.8859
5.0716 -0.7420 1.8859
5.1151 -0.3333 1.8859
5.1249 0.0775 1.8859
5.1011 0.4877 1.8859
5.0436 0.8944 1.8859
4.9531 1.2949 1.8859
4.8301 1.6865 1.8859
4.6756 2.0664 1.8859
4.6790 2.5341 1.9650
4.6222 3.0058 2.0383
4.3610 3.3626 2.0383
4.0720 3.6965 2.0383
3.7571 4.0053 2.0383
3.4186 4.2872 2.0383
3.0587 4.5402 2.0383
2.6801 4.7629 2.0383
2.2852 4.9539 2.0383
0.6838 1.8625 0.7426
0.5320 1.9111 0.7439
0.3767 1.9474 0.7452
0.2191 1.9710 0.7465
0.1636 5.4025 2.0383
-0.2705 5.3880 2.0383
-0.2581 1.9648 0.7502
-0.4151 1.9371 0.7513
-0.5694 1.8969 0.7524
-0.7198 1.8443 0.7534
-2.3385 4.8085 2.0383
-2.7135 4.5975 2.0383
-3.0701 4.3576 2.0383
-3.4061 4.0906 2.0383
-3.7196 3.7981 2.0383
-4.0085 3.4822 2.0383
-4.2714 3.1447 2.0383
-4.5066 2.7878 2.0383
-4.7127 2.4138 2.0383
-4.8886 2.0249 2.0383
-5.0332 1.6236 2.0383
-5.1457 1.2124 2.0383
-5.2255 0.7936 2.0383
-5.2720 0.3700 2.0383
-5.2850 -0.0560 2.0383
-5.2645 -0.4818 2.0383
-5.2105 -0.9048 2.0383
-5.1233 -1.3223 2.0383
-5.0034 -1.7319 2.0383
-4.8515 -2.1310 2.0383
-4.6684 -2.5172 2.0383
-4.4553 -2.8880 2.0383
-4.2132 -3.2412 2.0383
-3.9437 -3.5745 2.0383
-3.6483 -3.8858 2.0383
-3.3287 -4.1731 2.0383
-2.9869 -4.4344 2.0383
-2.6248 -4.6681 2.0383
-2.2447 -4.8725 2.0383
-0.6752 -1.8428 0.7444
-0.5249 -1.8913 0.7431
-0.3713 -1.9277 0.7418
-0.2152 -1.9516 0.7406
-0.0577 -1.9630 0.7393
0.1001 -1.9618 0.7381
0.2574 -1.9479 0.7369
0.4131 -1.9216 0.7358
0.5662 -1.8828 0.7347
0.7157 -1.8319 0.7336
2.3945 -4.9224 2.0383
2.7861 -4.7221 2.0383
3.1607 -4.4903 2.0383
3.5157 -4.2285 2.0383
3.8485 -3.9383 2.0383
4.1569 -3.6216 2.0383
4.4386 -3.2803 2.0383
4.4728 -2.7808 1.9432
4.5471 -2.3443 1.8859
4.7236 -1.9738 1.8859
4.8692 -1.5899 1.8859
4.9829 -1.1951 1.8859
5.0639 -0.7923 1.8859
5.1115 -0.3842 1.8859
5.1256 0.0265 1.8859
5.1059 0.4370 1.8859
5.0526 0.8443 1.8859
4.9661 1.2457 1.8859
4.8471 1.6385 1.8859
4.6964 2.0200 1.8859
4.6710 2.4700 1.9510
4.6525 2.9601 2.0383
4.3950 3.3196 2.0383
4.1093 3.6564 2.0383
3.7975 3.9685 2.0383
3.4617 4.2538 2.0383
3.1044 4.5105 2.0383
2.7279 4.7370 2.0383
2.3349 4.9320 2.0383
0.7023 1.8556 0.7424
0.5510 1.9058 0.7437
0.3961 1.9436 0.7450
0.2387 1.9688 0.7463
0.2175 5.4019 2.0383
-0.2168 5.3917 2.0383
-0.2385 1.9674 0.7500
3.9152 3.2085 2.0383
3.6408 3.5075 2.0383
3.3432 3.7828 2.0383
3.0239 4.0321 2.0383
2.6873 4.2558 2.0383
2.3334 4.4505 2.0383
0.7154 1.6801 0.7419
0.5782 1.7319 0.7431
0.4372 1.7724 0.7443
0.2934 1.8015 0.7455
0.1477 1.8188 0.7467
0.0011 1.8244 0.7478
-0.1455 1.8181 0.7489
-0.2910 1.8000 0.7500
-0.4347 1.7702 0.7511
-0.5754 1.7289 0.7521
-0.7124 1.6764 0.7530
-2.2838 4.3613 2.0383
-2.6235 4.1572 2.0383
-2.9455 3.9271 2.0383
-3.2480 3.6724 2.0383
-3.5290 3.3949 2.0383
-3.7869 3.0963 2.0383
-4.0201 2.7785 2.0383
-4.2273 2.4436 2.0383
-4.4074 2.0935 2.0383
-4.5591 1.7306 2.0383
-4.6816 1.3569 2.0383
-4.7743 0.9749 2.0383
-4.8366 0.5868 2.0383
-4.8680 0.1951 2.0383
-4.8685 -0.1979 2.0383
-4.8380 -0.5898 2.0383
-4.7766 -0.9782 2.0383
-4.6847 -1.3606 2.0383
-4.5629 -1.7348 2.0383
-4.4118 -2.0985 2.0383
-4.2324 -2.4494 2.0383
-4.0255 -2.7852 2.0383
-3.7925 -3.1039 2.0383
-3.5347 -3.4035 2.0383
-3.2537 -3.6820 2.0383
-2.9510 -3.9376 2.0383
-2.6286 -4.1686 2.0383
-2.2883 -4.3735 2.0383
-0.7063 -1.6634 0.7450
-0.5703 -1.7150 0.7439
-0.4307 -1.7556 0.7427
-0.2882 -1.7849 0.7415
-0.1439 -1.8026 0.7404
0.0014 -1.8088 0.7392
0.1467 -1.8034 0.7381
0.2911 -1.7863 0.7370
0.4336 -1.7577 0.7360
0.5735 -1.7178 0.7350
0.7097 -1.6669 0.7341
2.3394 -4.4626 2.0383
2.6937 -4.2670 2.0383
3.0315 -4.0430 2.0383
3.3502 -3.7919 2.0383
3.6478 -3.5155 2.0383
3.9222 -3.2154 2.0383
4.1713 -2.8937 2.0383
4.3935 -2.5524 2.0383
4.4186 -2.1132 1.9634
4.4144 -1.6914 1.8939
4.5187 -1.3274 1.8859
4.6120 -0.9616 1.8859
4.6751 -0.5892 1.8859
4.7074 -0.2129 1.8859
4.7088 0.1648 1.8859
4.6792 0.5412 1.8859
4.6190 0.9139 1.8859
4.5313 1.2810 1.8871
4.5565 1.6927 1.9493
4.6038 2.1444 2.0383
4.4131 2.5040 2.0383
4.1938 2.8466 2.0383
3.9476 3.1699 2.0383
3.6761 3.4717 2.0383
3.3813 3.7501 2.0383
3.0652 4.0033 2.0383
2.7300 4.2297 2.0383
2.3781 4.4280 2.0383
0.7321 1.6729 0.7418
0.5954 1.7260 0.7430
0.4549 1.7680 0.7442
0.3114 1.7985 0.7453
0.1659 1.8173 0.7465
0.0193 1.8243 0.7477
-0.1273 1.8195 0.7488
-0.2731 1.8028 0.7499
-0.4170 1.7745 0.7509
-0.5582 1.7346 0.7519
-0.6957 1.6835 0.7529
-2.2405 4.3847 2.0383
-2.5823 4.1839 2.0383
-2.9067 3.9570 2.0383
-3.2116 3.7053 2.0383
-3.4954 3.4305 2.0383
-3.7562 3.1344 2.0383
-3.9926 2.8189 2.0383
-4.2031 2.4860 2.0383
-4.3866 2.1377 2.0383
-4.5418 1.7762 2.0383
-4.6681 1.4037 2.0383
-4.7645 1.0226 2.0383
-4.8305 0.6352 2.0383
-4.8658 0.2438 2.0383
-4.8701 -0.1492 2.0383
-4.8434 -0.5413 2.0383
-4.7859 -0.9303 2.0383
-4.6978 -1.3136 2.0383
-4.5796 -1.6890 2.0383
-4.4321 -2.0541 2.0383
-4.2561 -2.4066 2.0383
-4.0526 -2.7445 2.0383
-3.8228 -3.0654 2.0383
-3.5680 -3.3675 2.0383
-3.2897 -3.6487 2.0383
-2.9896 -3.9072 2.0383
-2.6696 -4.1414 2.0383
-2.3314 -4.3496 2.0383
-0.7229 -1.6563 0.7452
-0.5874 -1.7092 0.7440
-0.4482 -1.7512 0.7428
-0.3060 -1.7819 0.7417
-0.1619 -1.8011 0.7405
-0.0167 -1.8087 0.7393
0.1287 -1.8047 0.7382
0.2732 -1.7890 0.7371
0.4161 -1.7619 0.7361
0.5563 -1.7234 0.7351
0.6931 -1.6738 0.7342
2.2944 -4.4848 2.0383
2.6507 -4.2928 2.0383
2.9906 -4.0722 2.0383
3.3118 -3.8245 2.0383
3.6122 -3.5511 2.0383
3.8895 -3.2538 2.0383
4.1419 -2.9346 2.0383
4.3675 -2.5957 2.0383
4.4197 -2.1679 1.9735
4.4111 -1.7406 1.8999
4.5051 -1.3722 1.8859
4.6021 -1.0073 1.8859
4.6689 -0.6356 1.8859
4.7050 -0.2597 1.8859
4.7103 0.1180 1.8859
4.6846 0.4947 1.8859
4.6385 0.8699 1.8901
4.5414 1.2352 1.8859
4.5506 1.6393 1.9395
4.5990 2.0868 2.0267
4.4383 2.4603 2.0383
4.2225 2.8051 2.0383
3.9795 3.1309 2.0383
3.7110 3.4355 2.0383
3.4190 3.7169 2.0383
3.1054 3.9733 2.0383
2.7725 4.2032 2.0383
2.4225 4.4050 2.0383
0.7487 1.6655 0.7416
0.6126 1.7201 0.7428
0.4725 1.7634 0.7440
0.3293 1.7954 0.7452
0.1840 1.8156 0.7464
0.0375 1.8241 0.7475
-0.1092 1.8207 0.7487
-0.2551 1.8056 0.7498
-0.3993 1.7786 0.7508
-0.5409 1.7402 0.7518
-0.6788 1.6904 0.7528
-2.1970 4.4077 2.0383
-2.5408 4.2103 2.0383
-2.8675 3.9865 2.0383
-3.1749 3.7378 2.0383
-3.4614 3.4658 2.0383
-3.7252 3.1722 2.0383
-3.9647 2.8590 2.0383
-4.1785 2.5281 2.0383
-4.3653 2.1816 2.0383
-4.5242 1.8216 2.0383
-4.6540 1.4504 2.0383
-4.7542 1.0703 2.0383
-4.8240 0.6835 2.0383
-4.8631 0.2924 2.0383
-4.8713 -0.1005 2.0383
-4.8484 -0.4929 2.0383
-4.7947 -0.8823 2.0383
-4.7103 -1.2665 2.0383
-4.5959 -1.6430 2.0383
-4.4520 -2.0095 2.0383
-4.2795 -2.3637 2.0383
-4.0793 -2.7035 2.0383
-3.8526 -3.0266 2.0383
-3.6009 -3.3311 2.0383
-3.3254 -3.6150 2.0383
-3.0280 -3.8764 2.0383
-2.7103 -4.1137 2.0383
-2.3742 -4.3253 2.0383
-0.7393 -1.6490 0.7453
-0.6044 -1.7033 0.7442
-0.4656 -1.7466 0.7430
-0.3238 -1.7787 0.7418
-0.1798 -1.7993 0.7406
-0.0347 -1.8084 0.7395
0.1107 -1.8058 0.7384
0.2554 -1.7916 0.7373
0.3985 -1.7659 0.7362
0.5391 -1.7288 0.7352
0.6763 -1.6805 0.7343
2.2492 -4.5066 2.0383
2.6073 -4.3182 2.0383
2.9494 -4.1011 2.0383
3.2731 -3.8566 2.0383
3.5761 -3.5863 2.0383
3.8564 -3.2919 2.0383
4.1120 -2.9753 2.0383
4.3410 -2.6387 2.0383
4.4208 -2.2233 1.9840
4.4114 -1.7916 1.9077
4.4910 -1.4168 1.8859
4.5917 -1.0530 1.8859
4.6623 -0.6820 1.8859
4.7022 -0.3064 1.8859
4.7113 0.0711 1.8859
4.6894 0.4481 1.8859
4.6368 0.8220 1.8859
4.5537 1.1901 1.8859
4.5447 1.5863 1.9300
4.5929 2.0292 2.0148
4.4631 2.4164 2.0383
4.2507 2.7634 2.0383
4.0110 3.0916 2.0383
3.7456 3.3989 2.0383
3.4564 3.6833 2.0383
3.1454 3.9429 2.0383
2.8148 4.1762 2.0383
2.4668 4.3815 2.0383
0.7653 1.6580 0.7415
0.6297 1.7139 0.7427
0.4900 1.7587 0.7439
0.3472 1.7920 0.7451
0.2021 1.8138 0.7462
0.0557 1.8237 0.7474
-0.0910 1.8218 0.7485
-0.2371 1.8081 0.7496
-0.3816 1.7826 0.7507
-0.5235 1.7456 0.7517
-0.6620 1.6972 0.7527
-2.1533 4.4302 2.0383
-2.4991 4.2362 2.0383
-2.8280 4.0156 2.0383
-3.1379 3.7699 2.0383
-3.4271 3.5007 2.0383
-3.6938 3.2097 2.0383
-3.9363 2.8988 2.0383
-4.1534 2.5700 2.0383
-4.3437 2.2253 2.0383
-4.5060 1.8669 2.0383
-4.6395 1.4970 2.0383
-4.7434 1.1178 2.0383
-4.8170 0.7317 2.0383
-4.8599 0.3411 2.0383
-4.8719 -0.0518 2.0383
-4.8529 -0.4443 2.0383
-4.8030 -0.8343 2.0383
-4.7224 -1.2192 2.0383
-4.6117 -1.5968 2.0383
-4.4714 -1.9647 2.0383
-4.3024 -2.3205 2.0383
-4.1056 -2.6622 2.0383
-3.8821 -2.9875 2.0383
-3.6334 -3.2944 2.0383
-3.3608 -3.5810 2.0383
-3.0660 -3.8453 2.0383
-2.7507 -4.0857 2.0383
-2.4168 -4.3005 2.0383
-0.7558 -1.6415 0.7455
-0.6214 -1.6971 0.7443
-0.4830 -1.7418 0.7431
-0.3415 -1.7753 0.7419
-0.1977 -1.7974 0.7408
-0.0527 -1.8079 0.7396
0.0927 -1.8067 0.7385
0.2375 -1.7940 0.7374
0.3809 -1.7697 0.7364
0.5219 -1.7340 0.7354
0.6595 -1.6871 0.7344
2.2038 -4.5279 2.0383
2.5638 -4.3431 2.0383
2.9080 -4.1295 2.0383
3.2341 -3.8883 2.0383
3.5398 -3.6212 2.0383
3.8230 -3.3296 2.0383
4.0817 -3.0157 2.0383
4.3141 -2.6814 2.0383
4.4219 -2.2792 1.9947
4.4126 -1.8434 1.9162
4.4765 -1.4613 1.8859
4.5808 -1.0985 1.8859
4.6552 -0.7283 1.8859
4.6990 -0.3531 1.8859
4.7119 0.0243 1.8859
4.6938 0.4015 1.8859
4.6450 0.7759 1.8859
4.5657 1.1449 1.8859
4.5398 1.5342 1.9212
4.5868 1.9722 2.0032
4.4874 2.3722 2.0383
4.2786 2.7213 2.0383
4.0422 3.0520 2.0383
3.7799 3.3621 2.0383
3.4935 3.6494 2.0383
3.1851 3.9122 2.0383
2.8567 4.1487 2.0383
2.5108 4.3576 2.0383
0.7818 1.6503 0.7413
0.6467 1.7076 0.7425
0.5075 1.7537 0.7437
0.3650 1.7885 0.7449
0.2201 1.8117 0.7461
0.0739 1.8231 0.7472
-0.0728 1.8227 0.7484
-0.2190 1.8104 0.7495
3.6184 2.9641 2.0383
3.3651 3.2407 2.0383
3.0904 3.4954 2.0383
2.7963 3.7267 2.0383
2.4848 3.9332 2.0383
0.7845 1.4953 0.7410
0.6619 1.5533 0.7420
0.5350 1.6012 0.7431
0.4047 1.6387 0.7442
0.2717 1.6655 0.7453
0.1370 1.6815 0.7464
0.0015 1.6867 0.7475
-0.1340 1.6808 0.7485
-0.2686 1.6641 0.7495
-0.4014 1.6366 0.7505
-0.5316 1.5984 0.7514
-0.6582 1.5499 0.7523
-2.1125 4.0364 2.0383
-2.4272 3.8479 2.0383
-2.7255 3.6352 2.0383
-3.0057 3.3998 2.0383
-3.2661 3.1431 2.0383
-3.5051 2.8668 2.0383
-3.7213 2.5728 2.0383
-3.9134 2.2627 2.0383
-4.0803 1.9386 2.0383
-4.2210 1.6026 2.0383
-4.3346 1.2566 2.0383
-4.4205 0.9028 2.0383
-4.4782 0.5434 2.0383
-4.5073 0.1806 2.0383
-4.5077 -0.1834 2.0383
-4.4794 -0.5463 2.0383
-4.4224 -0.9059 2.0383
-4.3372 -1.2601 2.0383
-4.2242 -1.6066 2.0383
-4.0841 -1.9433 2.0383
-3.9177 -2.2680 2.0383
-3.7259 -2.5788 2.0383
-3.5099 -2.8737 2.0383
-3.2710 -3.1508 2.0383
-3.0106 -3.4083 2.0383
-2.7302 -3.6446 2.0383
-2.4315 -3.8580 2.0383
-0.7746 -1.4812 0.7460
-0.6530 -1.5389 0.7449
-0.5272 -1.5867 0.7438
-0.3980 -1.6242 0.7427
-0.2662 -1.6513 0.7417
-0.1327 -1.6678 0.7406
0.0017 -1.6735 0.7395
0.1361 -1.6684 0.7385
0.2697 -1.6526 0.7375
0.4016 -1.6262 0.7365
0.5310 -1.5893 0.7356
0.6570 -1.5421 0.7348
0.7789 -1.4850 0.7339
2.4904 -3.9430 2.0383
2.8022 -3.7357 2.0383
3.0965 -3.5034 2.0383
3.3711 -3.2478 2.0383
3.6243 -2.9703 2.0383
3.8542 -2.6729 2.0383
4.0593 -2.3576 2.0383
4.2380 -2.0263 2.0383
4.3816 -1.6785 2.0348
4.3840 -1.2876 1.9807
4.3857 -0.9142 1.9414
4.3954 -0.5539 1.9195
4.4058 -0.1993 1.9108
4.4209 0.1546 1.9168
4.4403 0.5134 1.9373
4.4623 0.8826 1.9722
4.4928 1.2697 2.0253
4.4020 1.6348 2.0383
4.2536 1.9806 2.0383
4.0777 2.3130 2.0383
3.8754 2.6296 2.0383
3.6482 2.9284 2.0383
3.3977 3.2075 2.0383
3.1256 3.4651 2.0383
2.8338 3.6994 2.0383
2.5243 3.9090 2.0383
0.7993 1.4875 0.7408
0.6773 1.5466 0.7419
0.5509 1.5958 0.7430
0.4210 1.6346 0.7441
0.2883 1.6628 0.7452
0.1538 1.6802 0.7463
0.0183 1.6866 0.7474
-0.1173 1.6822 0.7484
-0.2520 1.6668 0.7494
-0.3851 1.6406 0.7504
-0.5156 1.6037 0.7513
-0.6427 1.5564 0.7522
-0.7656 1.4991 0.7530
-2.3890 3.8726 2.0383
-2.6895 3.6629 2.0383
-2.9720 3.4301 2.0383
-3.2350 3.1760 2.0383
-3.4767 2.9021 2.0383
-3.6958 2.6101 2.0383
-3.8909 2.3019 2.0383
-4.0610 1.9795 2.0383
-4.2050 1.6448 2.0383
-4.3220 1.2999 2.0383
-4.4114 0.9470 2.0383
-4.4726 0.5882 2.0383
-4.5053 0.2257 2.0383
-4.5092 -0.1383 2.0383
-4.4844 -0.5014 2.0383
-4.4310 -0.8616 2.0383
-4.3493 -1.2166 2.0383
-4.2397 -1.5641 2.0383
-4.1029 -1.9021 2.0383
-3.9397 -2.2285 2.0383
-3.7510 -2.5411 2.0383
-3.5380 -2.8381 2.0383
-3.3018 -3.1175 2.0383
-3.0440 -3.3775 2.0383
-2.7660 -3.6165 2.0383
-2.4695 -3.8329 2.0383
-2.1563 -4.0252 2.0383
-0.6683 -1.5323 0.7451
-0.5430 -1.5813 0.7440
-0.4142 -1.6201 0.7429
-0.2827 -1.6485 0.7418
-0.1493 -1.6663 0.7407
-0.0150 -1.6734 0.7397
0.1195 -1.6696 0.7386
0.2532 -1.6552 0.7376
0.3854 -1.6300 0.7367
0.5151 -1.5944 0.7357
0.6416 -1.5485 0.7349
0.7640 -1.4926 0.7340
2.4506 -3.9670 2.0383
2.7645 -3.7628 2.0383
3.0610 -3.5335 2.0383
3.3382 -3.2807 2.0383
3.5942 -3.0058 2.0383
3.8271 -2.7108 2.0383
4.0353 -2.3976 2.0383
4.2173 -2.0682 2.0383
4.3719 -1.7248 2.0383
4.3836 -1.3349 1.9865
4.3856 -0.9598 1.9455
4.3940 -0.5981 1.9214
4.4047 -0.2431 1.9113
4.4184 0.1105 1.9151
4.4380 0.4685 1.9341
4.4584 0.8359 1.9667
4.4891 1.2206 2.0179
4.4184 1.5911 2.0383
4.2735 1.9385 2.0383
4.1010 2.2726 2.0383
3.9019 2.5913 2.0383
3.6777 2.8924 2.0383
3.4299 3.1741 2.0383
3.1604 3.4344 2.0383
2.8709 3.6717 2.0383
2.5635 3.8844 2.0383
2.2403 4.0714 2.0383
0.6927 1.5398 0.7418
0.5668 1.5902 0.7429
0.4372 1.6303 0.7440
0.3049 1.6599 0.7451
0.1705 1.6786 0.7462
0.0351 1.6864 0.7472
-0.1005 1.6833 0.7483
-0.2354 1.6693 0.7493
-0.3687 1.6444 0.7503
-0.4996 1.6088 0.7512
-0.6272 1.5629 0.7521
-0.7506 1.5067 0.7529
-2.3506 3.8970 2.0383
-2.6532 3.6901 2.0383
-2.9380 3.4602 2.0383
-3.2035 3.2086 2.0383
-3.4479 2.9371 2.0383
-3.6699 2.6472 2.0383
-3.8681 2.3410 2.0383
-4.0413 2.0202 2.0383
-4.1886 1.6869 2.0383
-4.3090 1.3432 2.0383
-4.4018 0.9911 2.0383
-4.4665 0.6329 2.0383
-4.5028 0.2708 2.0383
-4.5103 -0.0931 2.0383
-4.4891 -0.4565 2.0383
-4.4392 -0.8172 2.0383
-4.3610 -1.1729 2.0383
-4.2548 -1.5215 2.0383
-4.1213 -1.8608 2.0383
-3.9614 -2.1887 2.0383
-3.7758 -2.5032 2.0383
-3.5657 -2.8022 2.0383
-3.3323 -3.0838 2.0383
-3.0771 -3.3464 2.0383
-2.8015 -3.5881 2.0383
-2.5072 -3.8073 2.0383
-2.1959 -4.0027 2.0383
-0.6836 -1.5255 0.7452
-0.5587 -1.5758 0.7441
-0.4303 -1.6159 0.7430
-0.2991 -1.6456 0.7419
-0.1659 -1.6647 0.7408
-0.0317 -1.6731 0.7398
0.1028 -1.6707 0.7387
0.2367 -1.6575 0.7377
0.3691 -1.6337 0.7368
0.4992 -1.5994 0.7358
0.6261 -1.5547 0.7350
0.7491 -1.5001 0.7341
2.4106 -3.9904 2.0383
2.7265 -3.7895 2.0383
3.0253 -3.5633 2.0383
3.3050 -3.3132 2.0383
3.5637 -3.0411 2.0383
3.7995 -2.7484 2.0383
4.0108 -2.4373 2.0383
4.1962 -2.1098 2.0383
4.3543 -1.7680 2.0383
4.3832 -1.3825 1.9925
4.3855 -1.0055 1.9499
4.3925 -0.6424 1.9235
4.4035 -0.2870 1.9119
4.4159 0.0666 1.9136
4.4356 0.4237 1.9311
4.4546 0.7894 1.9613
4.4853 1.1719 2.0108
4.4344 1.5473 2.0383
4.2930 1.8961 2.0383
4.1238 2.2320 2.0383
3.9279 2.5527 2.0383
3.7068 2.8561 2.0383
3.4619 3.1403 2.0383
3.1949 3.4033 2.0383
2.9078 3.6435 2.0383
2.6026 3.8594 2.0383
2.2812 4.0497 2.0383
0.7080 1.5329 0.7416
0.5826 1.5846 0.7427
0.4535 1.6259 0.7438
0.3214 1.6568 0.7449
0.1873 1.6769 0.7460
0.0519 1.6860 0.7471
-0.0837 1.6843 0.7481
-0.2188 1.6716 0.7492
-0.3523 1.6481 0.7501
-0.4836 1.6138 0.7511
-0.6116 1.5691 0.7520
-0.7356 1.5142 0.7528
-2.3120 3.9209 2.0383
-2.6166 3.7171 2.0383
-2.9038 3.4899 2.0383
-3.1717 3.2409 2.0383
-3.4188 2.9717 2.0383
-3.6437 2.6841 2.0383
-3.8449 2.3797 2.0383
-4.0212 2.0607 2.0383
-4.1718 1.7288 2.0383
-4.2955 1.3862 2.0383
-4.3918 1.0351 2.0383
-4.4601 0.6776 2.0383
-4.4998 0.3158 2.0383
-4.5109 -0.0480 2.0383
-4.4933 -0.4116 2.0383
-4.4469 -0.7727 2.0383
-4.3722 -1.1292 2.0383
-4.2695 -1.4788 2.0383
-4.1393 -1.8193 2.0383
-3.9826 -2.1488 2.0383
-3.8001 -2.4650 2.0383
-3.5930 -2.7660 2.0383
-3.3624 -3.0499 2.0383
-3.1098 -3.3149 2.0383
-2.8367 -3.5593 2.0383
-2.5446 -3.7814 2.0383
-2.2354 -3.9798 2.0383
-0.6987 -1.5186 0.7453
-0.5744 -1.5701 0.7442
-0.4464 -1.6115 0.7431
-0.3155 -1.6425 0.7421
-0.1825 -1.6629 0.7410
-0.0483 -1.6726 0.7399
0.0862 -1.6716 0.7389
0.2202 -1.6597 0.7379
0.3528 -1.6372 0.7369
0.4832 -1.6042 0.7360
0.6106 -1.5608 0.7351
0.7341 -1.5074 0.7342
2.3704 -4.0135 2.0383
2.6882 -3.8158 2.0383
2.9892 -3.5926 2.0383
3.2714 -3.3455 2.0383
3.5328 -3.0759 2.0383
3.7716 -2.7857 2.0383
3.9860 -2.4768 2.0383
4.1747 -2.1512 2.0383
4.3362 -1.8111 2.0383
4.3828 -1.4304 1.9988
4.3853 -1.0514 1.9544
4.3910 -0.6868 1.9257
4.4022 -0.3308 1.9127
4.4133 0.0227 1.9122
4.4333 0.3791 1.9283
4.4515 0.7433 1.9565
4.4815 1.1234 2.0038
4.4499 1.5033 2.0383
4.3121 1.8535 2.0383
4.1463 2.1911 2.0383
3.9536 2.5138 2.0383
3.7355 2.8195 2.0383
3.4935 3.1062 2.0383
3.2292 3.3719 2.0383
2.9445 3.6151 2.0383
2.6413 3.8341 2.0383
2.3218 4.0275 2.0383
0.7232 1.5258 0.7415
0.5984 1.5787 0.7426
0.4697 1.6214 0.7437
0.3379 1.6535 0.7448
0.2040 1.6750 0.7459
0.0687 1.6855 0.7470
-0.0669 1.6851 0.7480
-0.2021 1.6738 0.7490
3.3576 2.7495 2.0383
3.1228 3.0062 2.0383
2.8683 3.2428 2.0383
2.5956 3.4577 2.0383
2.3068 3.6496 2.0383
0.7286 1.3880 0.7411
0.6148 1.4417 0.7421
0.4970 1.4862 0.7432
0.3760 1.5210 0.7442
0.2526 1.5459 0.7452
0.1276 1.5608 0.7462
0.0018 1.5655 0.7472
-0.1240 1.5601 0.7482
-0.2489 1.5446 0.7491
-0.3722 1.5190 0.7500
-0.4930 1.4836 0.7508
-0.6105 1.4386 0.7516
-0.7241 1.3842 0.7524
-2.2541 3.5752 2.0383
-2.5315 3.3778 2.0383
-2.7921 3.1593 2.0383
-3.0342 2.9210 2.0383
-3.2565 2.6644 2.0383
-3.4577 2.3912 2.0383
-3.6364 2.1031 2.0383
-3.7916 1.8020 2.0383
-3.9225 1.4896 2.0383
-4.0282 1.1680 2.0383
-4.1082 0.8392 2.0383
-4.1618 0.5051 2.0383
-4.1889 0.1678 2.0383
-4.1893 -0.1705 2.0383
-4.1629 -0.5079 2.0383
-4.1098 -0.8422 2.0383
-4.0305 -1.1714 2.0383
-3.9253 -1.4934 2.0383
-3.7949 -1.8063 2.0383
-3.6401 -2.1080 2.0383
-3.4616 -2.3967 2.0383
-3.2607 -2.6706 2.0383
-3.0384 -2.9279 2.0383
-2.7962 -3.1670 2.0383
-2.5355 -3.3862 2.0383
-2.2578 -3.5842 2.0383
-0.7189 -1.3757 0.7458
-0.6060 -1.4293 0.7448
-0.4892 -1.4736 0.7438
-0.3692 -1.5085 0.7428
-0.2468 -1.5337 0.7418
-0.1228 -1.5489 0.7408
0.0020 -1.5542 0.7398
0.1268 -1.5495 0.7389
0.2509 -1.5349 0.7379
0.3734 -1.5103 0.7370
0.4936 -1.4760 0.7362
0.6106 -1.4322 0.7354
0.7238 -1.3792 0.7346
2.3116 -3.6583 2.0383
2.6007 -3.4657 2.0383
2.8735 -3.2500 2.0383
3.1281 -3.0126 2.0383
3.3627 -2.7551 2.0383
3.5757 -2.4791 2.0383
3.7657 -2.1865 2.0383
3.9313 -1.8792 2.0383
4.0713 -1.5593 2.0383
4.1848 -1.2288 2.0383
4.2710 -0.8901 2.0383
4.3292 -0.5455 2.0383
4.3591 -0.1972 2.0383
4.3605 0.1523 2.0383
4.3333 0.5008 2.0383
4.2778 0.8458 2.0383
4.1943 1.1849 2.0383
4.0835 1.5160 2.0383
3.9461 1.8368 2.0383
3.7831 2.1451 2.0383
3.5957 2.4390 2.0383
3.3852 2.7163 2.0383
3.1530 2.9754 2.0383
2.9009 3.2146 2.0383
2.6304 3.4323 2.0383
2.3434 3.6271 2.0383
0.7423 1.3807 0.7410
0.6291 1.4356 0.7420
0.5118 1.4812 0.7430
0.3912 1.5172 0.7441
0.2680 1.5433 0.7451
0.1432 1.5595 0.7461
0.0174 1.5655 0.7471
-0.1084 1.5613 0.7480
-0.2335 1.5470 0.7490
-0.3570 1.5227 0.7499
-0.4782 1.4885 0.7507
-0.5962 1.4447 0.7515
-0.7102 1.3915 0.7523
-2.2186 3.5981 2.0383
-2.4980 3.4035 2.0383
-2.7607 3.1875 2.0383
-3.0053 2.9515 2.0383
-3.2301 2.6971 2.0383
-3.4339 2.4259 2.0383
-3.6155 2.1396 2.0383
-3.7737 1.8399 2.0383
-3.9077 1.5289 2.0383
-4.0165 1.2083 2.0383
-4.0997 0.8803 2.0383
-4.1566 0.5467 2.0383
-4.1870 0.2097 2.0383
-4.1907 -0.1286 2.0383
-4.1676 -0.4662 2.0383
-4.1179 -0.8010 2.0383
-4.0418 -1.1309 2.0383
-3.9398 -1.4540 2.0383
-3.8124 -1.7681 2.0383
-3.6606 -2.0713 2.0383
-3.4850 -2.3617 2.0383
-3.2868 -2.6375 2.0383
-3.0671 -2.8970 2.0383
-2.8273 -3.1384 2.0383
-2.5687 -3.3602 2.0383
-2.2931 -3.5609 2.0383
-0.7326 -1.3684 0.7459
