ply
format ascii 1.0
element vertex 2173
property float32 x
property float32 y
property float32 z
end_header
-10.4031 0.8159 2.0383
-10.4380 -0.0224 2.0383
-10.4058 -0.8612 2.0383
-10.3069 -1.6949 2.0383
-10.1417 -2.5185 2.0383
-9.9112 -3.3266 2.0383
-9.6167 -4.1141 2.0383
-9.2602 -4.8759 2.0383
-8.8436 -5.6071 2.0383
-8.3696 -6.3031 2.0383
-7.8412 -6.9594 2.0383
-7.2616 -7.5716 2.0383
-6.6344 -8.1357 2.0383
-5.9635 -8.6481 2.0383
-5.2532 -9.1053 2.0383
-4.5081 -9.5043 2.0383
-3.7328 -9.8424 2.0383
-2.9323 -10.1173 2.0383
-2.1118 -10.3270 2.0383
-1.2765 -10.4701 2.0383
-0.4318 -10.5455 2.0383
0.4166 -10.5527 2.0383
1.2634 -10.4913 2.0383
2.1029 -10.3618 2.0383
2.9297 -10.1649 2.0383
3.7383 -9.9017 2.0383
4.5233 -9.5738 2.0383
5.2795 -9.1835 2.0383
6.0020 -8.7331 2.0383
6.6859 -8.2256 2.0383
6.9548 -7.2753 1.9349
7.2104 -6.4208 1.8557
7.8293 -5.9169 1.8859
8.2799 -5.2697 1.8859
8.6767 -4.5881 1.8859
9.0170 -3.8767 1.8859
9.2985 -3.1400 1.8859
9.5194 -2.3830 1.8859
9.6783 -1.6107 1.8859
9.7742 -0.8283 1.8859
9.8064 -0.0408 1.8859
9.7748 0.7464 1.8859
9.6797 1.5283 1.8859
9.5217 2.2996 1.8859
9.3020 3.0553 1.8859
9.0221 3.7904 1.8859
5.5317 2.8666 1.2013
4.7716 2.9816 1.0855
4.1421 3.0768 0.9961
3.9430 3.4532 1.0124
4.0509 4.1682 1.1235
4.1863 5.0645 1.2709
4.3635 6.2386 1.4735
4.6095 7.8680 1.7661
4.5702 9.4719 2.0383
3.7921 9.8016 2.0383
2.9906 10.0677 2.0383
2.1709 10.2685 2.0383
1.3383 10.4029 2.0383
0.4981 10.4701 2.0383
-0.3443 10.4698 2.0383
-1.1835 10.4022 2.0383
-2.0141 10.2678 2.0383
-2.8309 10.0675 2.0383
-3.6287 9.8028 2.0383
-4.4025 9.4754 2.0383
-5.1473 9.0874 2.0383
-5.8586 8.6414 2.0383
-6.5319 8.1403 2.0383
-7.1628 7.5873 2.0383
-7.7476 6.9859 2.0383
-8.2824 6.3399 2.0383
-8.7641 5.6534 2.0383
-9.1895 4.9310 2.0383
-9.5560 4.1766 2.0383
-9.8612 3.3956 2.0383
-10.1033 2.5927 2.0383
-10.2806 1.7730 2.0383
-10.3921 0.9416 2.0383
-10.4370 0.1037 2.0383
-10.4149 -0.7353 2.0383
-10.3260 -1.5702 2.0383
-10.1707 -2.3956 2.0383
-9.9499 -3.2063 2.0383
-9.6650 -3.9972 2.0383
-9.3176 -4.7632 2.0383
-8.9099 -5.4994 2.0383
-8.4444 -6.2010 2.0383
-7.9240 -6.8634 2.0383
-7.3518 -7.4825 2.0383
-6.7315 -8.0541 2.0383
-6.0669 -8.5745 2.0383
-5.3623 -9.0402 2.0383
-4.6221 -9.4482 2.0383
-3.8510 -9.7956 2.0383
-3.0540 -10.0801 2.0383
-2.2361 -10.2997 2.0383
-1.4027 -10.4529 2.0383
-0.5592 -10.5386 2.0383
0.2891 -10.5560 2.0383
1.1365 -10.5049 2.0383
1.9774 -10.3856 2.0383
2.8065 -10.1987 2.0383
3.6181 -9.9454 2.0383
4.4070 -9.6271 2.0383
5.1679 -9.2460 2.0383
8.4718 0.7497 1.8859
8.3814 1.4270 1.8859
8.4061 2.1376 1.9247
8.5108 2.9094 1.9967
8.4179 3.6564 2.0383
5.4069 2.8851 1.3617
4.6696 2.9967 1.2335
4.0562 3.0895 1.1341
3.9578 3.5513 1.1834
4.0692 4.2891 1.3165
4.2097 5.2196 1.4941
4.3951 6.4476 1.7396
4.5236 7.9390 2.0383
3.8691 8.2716 2.0383
3.1903 8.5505 2.0383
2.4918 8.7739 2.0383
1.7780 8.9404 2.0383
1.0535 9.0492 2.0383
0.3231 9.0995 2.0383
-0.4086 9.0911 2.0383
-1.1370 9.0243 2.0383
-1.8573 8.8995 2.0383
-2.5651 8.7175 2.0383
-3.2557 8.4797 2.0383
-3.9249 8.1876 2.0383
-4.5683 7.8431 2.0383
-5.1820 7.4484 2.0383
-5.7621 7.0061 2.0383
-6.3050 6.5191 2.0383
-6.8071 5.9904 2.0383
-7.2654 5.4235 2.0383
-7.6770 4.8218 2.0383
-8.0393 4.1893 2.0383
-8.3500 3.5299 2.0383
-8.6071 2.8479 2.0383
-8.8090 2.1474 2.0383
-8.9544 1.4329 2.0383
-9.0424 0.7091 2.0383
-9.0724 -0.0197 2.0383
-9.0441 -0.7487 2.0383
-8.9577 -1.4733 2.0383
-8.8136 -2.1890 2.0383
-8.6128 -2.8911 2.0383
-8.3564 -3.5752 2.0383
-8.0460 -4.2369 2.0383
-7.6835 -4.8720 2.0383
-7.2711 -5.4763 2.0383
-6.8115 -6.0460 2.0383
-6.3074 -6.5772 2.0383
-5.7621 -7.0667 2.0383
-5.1790 -7.5111 2.0383
-4.5617 -7.9075 2.0383
-3.9142 -8.2533 2.0383
-3.2407 -8.5462 2.0383
-2.5455 -8.7841 2.0383
-1.8329 -8.9654 2.0383
-1.1077 -9.0889 2.0383
-0.3744 -9.1536 2.0383
0.3620 -9.1591 2.0383
1.0968 -9.1052 2.0383
1.8253 -8.9921 2.0383
2.5426 -8.8206 2.0383
3.2440 -8.5917 2.0383
3.9249 -8.3067 2.0383
4.5808 -7.9676 2.0383
5.2074 -7.5765 2.0383
5.8005 -7.1359 2.0383
6.3561 -6.6487 2.0383
6.8706 -6.1181 2.0383
7.2274 -5.4619 2.0069
7.3604 -4.6844 1.9326
7.5267 -3.9801 1.8859
7.8219 -3.3629 1.8859
8.0662 -2.7239 1.8859
8.2580 -2.0673 1.8859
8.3960 -1.3974 1.8859
8.4794 -0.7187 1.8859
8.5076 -0.0356 1.8859
8.4806 0.6474 1.8859
8.3985 1.3257 1.8859
8.3908 2.0262 1.9153
8.4947 2.7898 1.9847
8.4620 3.5547 2.0383
5.5315 2.8662 1.3842
4.7715 2.9812 1.2507
4.1420 3.0765 1.1475
3.9430 3.4529 1.1663
4.0509 4.1678 1.2941
4.1862 5.0640 1.4638
4.3634 6.2379 1.6970
4.6196 7.8845 2.0383
3.9691 8.2250 2.0383
3.2937 8.5121 2.0383
2.5978 8.7439 2.0383
1.8861 8.9191 2.0383
1.1629 9.0365 2.0383
0.4331 9.0957 2.0383
-0.2988 9.0961 2.0383
-1.0279 9.0381 2.0383
-1.7498 8.9219 2.0383
-2.4597 8.7485 2.0383
-3.1532 8.5190 2.0383
-3.8258 8.2349 2.0383
-4.4734 7.8981 2.0383
-5.0918 7.5108 2.0383
-5.6772 7.0755 2.0383
-6.2259 6.5950 2.0383
-6.7344 6.0724 2.0383
-7.1995 5.5110 2.0383
-7.6182 4.9143 2.0383
-7.9881 4.2862 2.0383
-8.3067 3.6306 2.0383
-8.5719 2.9516 2.0383
-8.7822 2.2537 2.0383
-8.9362 1.5410 2.0383
-9.0329 0.8183 2.0383
-9.0716 0.0900 2.0383
-9.0521 -0.6393 2.0383
-8.9744 -1.3649 2.0383
-8.8389 -2.0822 2.0383
-8.6465 -2.7866 2.0383
-8.3984 -3.4737 2.0383
-8.0960 -4.1391 2.0383
-7.7412 -4.7784 2.0383
-7.3362 -5.3876 2.0383
-6.8834 -5.9627 2.0383
-6.3859 -6.5000 2.0383
-5.8465 -6.9959 2.0383
-5.2689 -7.4473 2.0383
-4.6565 -7.8511 2.0383
-4.0133 -8.2047 2.0383
-3.3434 -8.5056 2.0383
-2.6512 -8.7519 2.0383
-1.9409 -8.9418 2.0383
-1.2173 -9.0740 2.0383
-0.4850 -9.1476 2.0383
0.2513 -9.1620 2.0383
0.9867 -9.1170 2.0383
1.7164 -9.0129 2.0383
2.4357 -8.8501 2.0383
3.1398 -8.6297 2.0383
3.8241 -8.3531 2.0383
4.4840 -8.0220 2.0383
8.0739 0.7143 2.0383
7.9881 1.3598 2.0383
7.8505 1.9961 2.0383
7.6621 2.6190 2.0383
7.4241 3.2245 2.0383
5.4067 2.8847 1.5439
4.6695 2.9963 1.3984
4.0561 3.0892 1.2857
3.9578 3.5509 1.3415
4.0691 4.2887 1.4923
4.2096 5.2190 1.6934
4.5438 6.6651 2.0383
3.9917 7.0047 2.0383
3.4144 7.2987 2.0383
2.8157 7.5453 2.0383
2.1994 7.7430 2.0383
1.5695 7.8905 2.0383
0.9302 7.9869 2.0383
0.2855 8.0318 2.0383
-0.3604 8.0250 2.0383
-1.0034 7.9664 2.0383
-1.6394 7.8567 2.0383
-2.2643 7.6964 2.0383
-2.8742 7.4868 2.0383
-3.4652 7.2292 2.0383
-4.0335 6.9253 2.0383
-4.5756 6.5770 2.0383
-5.0879 6.1866 2.0383
-5.5674 5.7567 2.0383
-6.0110 5.2900 2.0383
-6.4158 4.7893 2.0383
-6.7794 4.2581 2.0383
-7.0993 3.6995 2.0383
-7.3737 3.1172 2.0383
-7.6007 2.5148 2.0383
-7.7789 1.8962 2.0383
-7.9072 1.2652 2.0383
-7.9847 0.6260 2.0383
-8.0110 -0.0176 2.0383
-7.9857 -0.6613 2.0383
-7.9091 -1.3011 2.0383
-7.7816 -1.9329 2.0383
-7.6039 -2.5527 2.0383
-7.3772 -3.1566 2.0383
-7.1028 -3.7406 2.0383
-6.7824 -4.3010 2.0383
-6.4180 -4.8342 2.0383
-6.0119 -5.3367 2.0383
-5.5666 -5.8053 2.0383
-5.0850 -6.2369 2.0383
-4.5700 -6.6287 2.0383
-4.0250 -6.9780 2.0383
-3.4535 -7.2827 2.0383
-2.8590 -7.5406 2.0383
-2.2454 -7.7499 2.0383
-1.6166 -7.9094 2.0383
-0.9768 -8.0178 2.0383
-0.3299 -8.0744 2.0383
0.3196 -8.0787 2.0383
0.9677 -8.0307 2.0383
1.6101 -7.9306 2.0383
2.2426 -7.7789 2.0383
2.8610 -7.5766 2.0383
3.4613 -7.3251 2.0383
4.0395 -7.0258 2.0383
4.5919 -6.6807 2.0383
5.1146 -6.2920 2.0383
5.6044 -5.8623 2.0383
6.0580 -5.3943 2.0383
6.4722 -4.8911 2.0383
6.8446 -4.3561 2.0383
7.1724 -3.7927 2.0383
7.4537 -3.2046 2.0383
7.6627 -2.5877 2.0320
7.7651 -1.9440 2.0113
7.8638 -1.3090 2.0033
7.9600 -0.6748 2.0079
8.0549 -0.0339 2.0250
8.0823 0.6168 2.0383
8.0044 1.2633 2.0383
7.8745 1.9012 2.0383
7.6936 2.5264 2.0383
7.4630 3.1347 2.0383
5.5312 2.8658 1.5693
4.7713 2.9809 1.4179
4.1420 3.0762 1.3009
3.9429 3.4525 1.3221
4.0078 4.1231 1.4513
4.1861 5.0634 1.6591
4.6243 6.6102 2.0383
4.0764 6.9565 2.0383
3.5026 7.2575 2.0383
2.9069 7.5114 2.0383
2.2930 7.7164 2.0383
1.6649 7.8715 2.0383
1.0267 7.9757 2.0383
0.3826 8.0284 2.0383
-0.2634 8.0293 2.0383
-0.9071 7.9785 2.0383
-1.5444 7.8764 2.0383
-2.1713 7.7237 2.0383
-2.7837 7.5214 2.0383
-3.3777 7.2709 2.0383
-3.9497 6.9738 2.0383
-4.4959 6.6321 2.0383
-5.0130 6.2479 2.0383
-5.4976 5.8238 2.0383
-5.9467 5.3624 2.0383
-6.3575 4.8666 2.0383
-6.7274 4.3397 2.0383
-7.0541 3.7851 2.0383
-7.3354 3.2061 2.0383
-7.5697 2.6065 2.0383
-7.7553 1.9900 2.0383
-7.8912 1.3607 2.0383
-7.9764 0.7224 2.0383
-8.0103 0.0793 2.0383
-7.9928 -0.5647 2.0383
-7.9239 -1.2054 2.0383
-7.8040 -1.8386 2.0383
-7.6338 -2.4605 2.0383
-7.4143 -3.0670 2.0383
-7.1470 -3.6542 2.0383
-6.8334 -4.2184 2.0383
-6.4755 -4.7559 2.0383
-6.0755 -5.2633 2.0383
-5.6359 -5.7372 2.0383
-5.1596 -6.1745 2.0383
-4.6494 -6.5724 2.0383
-4.1087 -6.9283 2.0383
-3.5409 -7.2398 2.0383
-2.9496 -7.5049 2.0383
-2.3387 -7.7216 2.0383
-1.7119 -7.8887 2.0383
-1.0735 -8.0048 2.0383
-0.4274 -8.0692 2.0383
0.2220 -8.0814 2.0383
0.8706 -8.0413 2.0383
1.5141 -7.9489 2.0383
2.1484 -7.8050 2.0383
2.7692 -7.6102 2.0383
3.3724 -7.3660 2.0383
3.9542 -7.0737 2.0383
7.2095 0.6377 2.0383
7.1331 1.2141 2.0383
7.0105 1.7823 2.0383
6.8425 2.3386 2.0383
6.6302 2.8794 2.0383
5.4065 2.8843 1.7286
4.6694 2.9960 1.5657
4.0561 3.0888 1.4394
3.9577 3.5506 1.5018
3.9531 4.1660 1.6229
4.5266 5.6115 2.0383
4.0594 5.9540 2.0383
3.5664 6.2577 2.0383
3.0508 6.5207 2.0383
2.5160 6.7414 2.0383
1.9655 6.9184 2.0383
1.4028 7.0505 2.0383
0.8316 7.1371 2.0383
0.2555 7.1776 2.0383
-0.3218 7.1718 2.0383
-0.8965 7.1198 2.0383
-1.4649 7.0220 2.0383
-2.0236 6.8791 2.0383
-2.5688 6.6919 2.0383
-3.0971 6.4619 2.0383
-3.6053 6.1904 2.0383
-4.0899 5.8793 2.0383
-4.5481 5.5304 2.0383
-4.9768 5.1462 2.0383
-5.3734 4.7290 2.0383
-5.7354 4.2815 2.0383
-6.0605 3.8066 2.0383
-6.3466 3.3072 2.0383
-6.5918 2.7866 2.0383
-6.7947 2.2481 2.0383
-6.9540 1.6950 2.0383
-7.0686 1.1309 2.0383
-7.1378 0.5595 2.0383
-7.1611 -0.0158 2.0383
-7.1383 -0.5913 2.0383
-7.0696 -1.1632 2.0383
-6.9554 -1.7279 2.0383
-6.7964 -2.2819 2.0383
-6.5934 -2.8215 2.0383
-6.3479 -3.3434 2.0383
-6.0613 -3.8441 2.0383
-5.7353 -4.3204 2.0383
-5.3721 -4.7692 2.0383
-4.9740 -5.1877 2.0383
-4.5434 -5.5731 2.0383
-4.0830 -5.9229 2.0383
-3.5959 -6.2347 2.0383
-3.0850 -6.5065 2.0383
-2.5538 -6.7365 2.0383
-2.0055 -6.9232 2.0383
-1.4438 -7.0653 2.0383
-0.8722 -7.1618 2.0383
-0.2944 -7.2120 2.0383
0.2858 -7.2155 2.0383
0.8646 -7.1722 2.0383
1.4382 -7.0825 2.0383
2.0030 -6.9468 2.0383
2.5551 -6.7659 2.0383
3.0911 -6.5410 2.0383
3.6073 -6.2735 2.0383
4.1003 -5.9652 2.0383
4.5670 -5.6180 2.0383
5.0042 -5.2342 2.0383
5.4090 -4.8163 2.0383
5.7789 -4.3671 2.0383
6.1112 -3.8893 2.0383
6.4039 -3.3863 2.0383
6.6551 -2.8613 2.0383
6.8630 -2.3177 2.0383
7.0263 -1.7591 2.0383
7.1439 -1.1893 2.0383
7.2152 -0.6118 2.0383
7.2396 -0.0306 2.0383
7.2170 0.5506 2.0383
7.1476 1.1279 2.0383
7.0318 1.6976 2.0383
6.8706 2.2559 2.0383
6.6649 2.7992 2.0383
5.5310 2.8655 1.7571
4.7712 2.9805 1.5875
4.1419 3.0758 1.4565
3.9429 3.4522 1.4801
3.9265 4.0390 1.5917
4.5944 5.5568 2.0383
4.1313 5.9049 2.0383
3.6420 6.2146 2.0383
3.1296 6.4839 2.0383
2.5975 6.7110 2.0383
2.0491 6.8946 2.0383
1.4880 7.0336 2.0383
0.9178 7.1270 2.0383
0.3422 7.1744 2.0383
-0.2351 7.1756 2.0383
-0.8104 7.1305 2.0383
-1.3801 7.0396 2.0383
-1.9404 6.9034 2.0383
-2.4879 6.7228 2.0383
-3.0190 6.4991 2.0383
-3.5303 6.2338 2.0383
-4.0187 5.9285 2.0383
-4.4811 5.5852 2.0383
-4.9144 5.2061 2.0383
-5.3160 4.7937 2.0383
-5.6833 4.3506 2.0383
-6.0141 3.8796 2.0383
-6.3061 3.3837 2.0383
-6.5576 2.8661 2.0383
-6.7670 2.3300 2.0383
-6.9329 1.7789 2.0383
-7.0543 1.2163 2.0383
-7.1303 0.6457 2.0383
-7.1605 0.0707 2.0383
-7.1447 -0.5049 2.0383
-7.0829 -1.0776 2.0383
-6.9755 -1.6437 2.0383
-6.8231 -2.1995 2.0383
-6.6267 -2.7415 2.0383
-6.3875 -3.2662 2.0383
-6.1069 -3.7703 2.0383
-5.7867 -4.2505 2.0383
-5.4290 -4.7036 2.0383
-5.0359 -5.1269 2.0383
-4.6100 -5.5174 2.0383
-4.1540 -5.8727 2.0383
-3.6707 -6.1903 2.0383
-3.1632 -6.4683 2.0383
-2.6348 -6.7047 2.0383
-2.0889 -6.8980 2.0383
-1.5289 -7.0468 2.0383
-0.9585 -7.1502 2.0383
-0.3815 -7.2074 2.0383
0.1986 -7.2179 2.0383
0.7778 -7.1817 2.0383
1.3525 -7.0989 2.0383
1.9188 -6.9701 2.0383
2.4731 -6.7959 2.0383
3.0117 -6.5775 2.0383
3.5311 -6.3164 2.0383
6.5023 0.5749 2.0383
6.4335 1.0948 2.0383
6.3231 1.6073 2.0383
6.1717 2.1091 2.0383
5.9805 2.5969 2.0383
5.7507 3.0676 2.0383
4.6693 2.9956 1.7356
4.0560 3.0885 1.5956
3.9577 3.5502 1.6647
4.4794 4.7201 2.0383
4.0841 5.0624 2.0383
3.6627 5.3716 2.0383
3.2181 5.6459 2.0383
2.7530 5.8835 2.0383
2.2706 6.0829 2.0383
1.7739 6.2428 2.0383
1.2662 6.3623 2.0383
0.7507 6.4407 2.0383
0.2308 6.4775 2.0383
-0.2901 6.4725 2.0383
-0.8088 6.4259 2.0383
-1.3220 6.3378 2.0383
-1.8262 6.2090 2.0383
-2.3184 6.0403 2.0383
-2.7954 5.8328 2.0383
-3.2542 5.5879 2.0383
-3.6918 5.3072 2.0383
-4.1054 4.9924 2.0383
-4.4925 4.6456 2.0383
-4.8506 4.2690 2.0383
-5.1775 3.8651 2.0383
-5.4710 3.4364 2.0383
-5.7292 2.9856 2.0383
-5.9507 2.5156 2.0383
-6.1338 2.0294 2.0383
-6.2776 1.5301 2.0383
-6.3809 1.0208 2.0383
-6.4433 0.5049 2.0383
-6.4642 -0.0144 2.0383
-6.4435 -0.5339 2.0383
-6.3814 -1.0501 2.0383
-6.2781 -1.5599 2.0383
-6.1343 -2.0598 2.0383
-5.9510 -2.5469 2.0383
-5.7291 -3.0178 2.0383
-5.4702 -3.4696 2.0383
-5.1759 -3.8993 2.0383
-4.8479 -4.3042 2.0383
-4.4884 -4.6817 2.0383
-4.0996 -5.0293 2.0383
-3.6840 -5.3447 2.0383
-3.2443 -5.6258 2.0383
-2.7833 -5.8708 2.0383
-2.3038 -6.0781 2.0383
-1.8091 -6.2462 2.0383
-1.3022 -6.3741 2.0383
-0.7865 -6.4609 2.0383
-0.2653 -6.5059 2.0383
0.2581 -6.5088 2.0383
0.7801 -6.4696 2.0383
1.2975 -6.3884 2.0383
1.8069 -6.2658 2.0383
2.3048 -6.1024 2.0383
2.7881 -5.8994 2.0383
3.2536 -5.6580 2.0383
3.6982 -5.3799 2.0383
4.1189 -5.0666 2.0383
4.5131 -4.7205 2.0383
4.8782 -4.3435 2.0383
5.2116 -3.9383 2.0383
5.5113 -3.5075 2.0383
5.7753 -3.0539 2.0383
6.0017 -2.5804 2.0383
6.1892 -2.0902 2.0383
6.3365 -1.5865 2.0383
6.4427 -1.0726 2.0383
6.5071 -0.5519 2.0383
6.5292 -0.0277 2.0383
6.5089 0.4964 2.0383
6.4465 1.0171 2.0383
6.3423 1.5309 2.0383
6.1971 2.0345 2.0383
6.0117 2.5246 2.0383
5.7876 2.9981 2.0383
4.7711 2.9802 1.7598
4.1418 3.0755 1.6145
3.9428 3.4519 1.6407
3.9303 4.0426 1.7660
4.1452 5.0130 2.0383
3.7276 5.3273 2.0383
3.2863 5.6070 2.0383
2.8241 5.8502 2.0383
2.3441 6.0554 2.0383
1.8493 6.2213 2.0383
1.3431 6.3470 2.0383
0.8286 6.4316 2.0383
0.3091 6.4747 2.0383
-0.2119 6.4760 2.0383
-0.7311 6.4355 2.0383
-1.2453 6.3537 2.0383
-1.7511 6.2309 2.0383
-2.2454 6.0682 2.0383
-2.7248 5.8664 2.0383
-3.1865 5.6271 2.0383
-3.6275 5.3516 2.0383
-4.0449 5.0418 2.0383
-4.4362 4.6997 2.0383
-4.7988 4.3274 2.0383
-5.1304 3.9274 2.0383
-5.4291 3.5023 2.0383
-5.6927 3.0546 2.0383
-5.9198 2.5873 2.0383
-6.1088 2.1034 2.0383
-6.2585 1.6058 2.0383
-6.3680 1.0979 2.0383
-6.4366 0.5827 2.0383
-6.4637 0.0637 2.0383
-6.4493 -0.4560 2.0383
-6.3934 -0.9729 2.0383
-6.2962 -1.4838 2.0383
-6.1585 -1.9855 2.0383
-5.9810 -2.4746 2.0383
-5.7649 -2.9481 2.0383
-5.5115 -3.4030 2.0383
-5.2223 -3.8362 2.0383
-4.8993 -4.2451 2.0383
-4.5443 -4.6268 2.0383
-4.1598 -4.9790 2.0383
-3.7481 -5.2994 2.0383
-3.3118 -5.5858 2.0383
-2.8538 -5.8364 2.0383
-2.3769 -6.0494 2.0383
-1.8843 -6.2235 2.0383
-1.3790 -6.3575 2.0383
-0.8644 -6.4505 2.0383
-0.3438 -6.5018 2.0383
0.1794 -6.5111 2.0383
0.7019 -6.4782 2.0383
1.2202 -6.4033 2.0383
1.7310 -6.2868 2.0383
2.2308 -6.1295 2.0383
2.7165 -5.9324 2.0383
3.1849 -5.6967 2.0383
5.9120 0.5226 2.0383
5.8496 0.9953 2.0383
5.7493 1.4613 2.0383
5.6119 1.9176 2.0383
5.4381 2.3612 2.0383
5.2293 2.7892 2.0383
4.9867 3.1990 2.0383
4.0559 3.0881 1.7545
3.9576 3.5498 1.8304
4.0739 4.2924 2.0383
3.7145 4.6038 2.0383
3.3315 4.8853 2.0383
2.9272 5.1349 2.0383
2.5043 5.3512 2.0383
2.0656 5.5327 2.0383
1.6138 5.6784 2.0383
1.1521 5.7874 2.0383
0.6832 5.8589 2.0383
0.2103 5.8925 2.0383
-0.2637 5.8882 2.0383
-0.7356 5.8459 2.0383
-1.2025 5.7660 2.0383
-1.6613 5.6490 2.0383
-2.1092 5.4956 2.0383
-2.5432 5.3070 2.0383
-2.9607 5.0842 2.0383
-3.3589 4.8289 2.0383
-3.7353 4.5425 2.0383
-4.0876 4.2270 2.0383
-4.4135 3.8844 2.0383
-4.7110 3.5169 2.0383
-4.9781 3.1268 2.0383
-5.2131 2.7166 2.0383
-5.4146 2.2889 2.0383
-5.5812 1.8465 2.0383
-5.7120 1.3921 2.0383
-5.8060 0.9288 2.0383
-5.8626 0.4593 2.0383
-5.8816 -0.0133 2.0383
-5.8627 -0.4859 2.0383
-5.8060 -0.9556 2.0383
-5.7119 -1.4194 2.0383
-5.5810 -1.8742 2.0383
-5.4140 -2.3173 2.0383
-5.2120 -2.7456 2.0383
-4.9763 -3.1566 2.0383
-4.7084 -3.5474 2.0383
-4.4099 -3.9157 2.0383
-4.0827 -4.2589 2.0383
-3.7289 -4.5749 2.0383
-3.3507 -4.8616 2.0383
-2.9507 -5.1171 2.0383
-2.5312 -5.3398 2.0383
-0.7600 -2.0055 0.7394
-1.6450 -5.6809 2.0383
-1.1840 -5.7970 2.0383
-0.7150 -5.8757 2.0383
-0.2410 -5.9164 2.0383
0.2349 -5.9188 2.0383
0.7097 -5.8830 2.0383
1.1801 -5.8090 2.0383
1.6432 -5.6973 2.0383
0.7581 -2.0070 0.7373
2.5352 -5.3639 2.0383
2.9584 -5.1444 2.0383
3.3625 -4.8913 2.0383
3.7450 -4.6065 2.0383
4.1034 -4.2917 2.0383
4.4352 -3.9490 2.0383
4.7383 -3.5806 2.0383
5.0107 -3.1889 2.0383
5.2507 -2.7765 2.0383
5.4565 -2.3460 2.0383
5.6270 -1.9004 2.0383
5.7610 -1.4425 2.0383
5.8576 -0.9753 2.0383
5.9162 -0.5019 2.0383
5.9363 -0.0253 2.0383
5.9181 0.4512 2.0383
5.8614 0.9246 2.0383
5.7668 1.3918 2.0383
5.6349 1.8497 2.0383
5.4665 2.2954 2.0383
5.2629 2.7260 2.0383
5.0253 3.1387 2.0383
4.1417 3.0751 1.7753
3.9428 3.4515 1.8040
4.1257 4.2431 2.0383
3.7701 4.5589 2.0383
3.3904 4.8450 2.0383
2.9892 5.0995 2.0383
2.5689 5.3209 2.0383
2.1324 5.5077 2.0383
1.6824 5.6588 2.0383
1.2220 5.7734 2.0383
0.7540 5.8505 2.0383
0.2815 5.8899 2.0383
-0.1925 5.8913 2.0383
-0.6649 5.8547 2.0383
-1.1327 5.7804 2.0383
-1.5930 5.6689 2.0383
-2.0427 5.5209 2.0383
-2.4790 5.3375 2.0383
-2.8991 5.1198 2.0383
-3.3004 4.8693 2.0383
-3.6803 4.5875 2.0383
-4.0363 4.2762 2.0383
-4.3663 3.9376 2.0383
-4.6682 3.5736 2.0383
-4.9399 3.1868 2.0383
-5.1799 2.7794 2.0383
-5.3865 2.3542 2.0383
-5.5584 1.9138 2.0383
-5.6946 1.4611 2.0383
-5.7942 0.9989 2.0383
-5.8565 0.5301 2.0383
-5.8812 0.0578 2.0383
-5.8679 -0.4150 2.0383
-5.8169 -0.8853 2.0383
-5.7284 -1.3502 2.0383
-5.6030 -1.8066 2.0383
-5.4413 -2.2516 2.0383
-5.2446 -2.6823 2.0383
-5.0138 -3.0960 2.0383
-4.7506 -3.4901 2.0383
-4.4566 -3.8619 2.0383
-4.1336 -4.2090 2.0383
-3.7837 -4.5292 2.0383
-3.4090 -4.8205 2.0383
-3.0121 -5.0808 2.0383
-2.5954 -5.3085 2.0383
-0.7842 -1.9962 0.7395
-1.7134 -5.6602 2.0383
-1.2539 -5.7819 2.0383
-0.7859 -5.8662 2.0383
-0.3124 -5.9127 2.0383
0.1634 -5.9209 2.0383
0.6385 -5.8908 2.0383
1.1098 -5.8225 2.0383
1.5742 -5.7165 2.0383
0.7338 -2.0160 0.7373
2.4702 -5.3939 2.0383
2.8959 -5.1795 2.0383
5.4112 0.4782 2.0383
5.3542 0.9108 2.0383
5.2625 1.3373 2.0383
5.1368 1.7550 2.0383
4.9779 2.1611 2.0383
4.7869 2.5530 2.0383
4.5650 2.9281 2.0383
4.3136 3.2841 2.0383
4.0346 3.6185 2.0383
3.7297 3.9294 2.0383
3.4008 4.2146 2.0383
3.0502 4.4724 2.0383
2.6802 4.7010 2.0383
2.2931 4.8992 2.0383
0.6934 1.8570 0.7472
0.5420 1.9068 0.7476
0.3871 1.9443 0.7479
0.2297 1.9691 0.7482
0.1928 5.3957 2.0383
-0.2412 5.3919 2.0383
-0.2474 1.9667 0.7488
-0.4045 1.9403 0.7490
-0.5591 1.9012 0.7491
-0.7099 1.8499 0.7492
-2.3289 4.8602 2.0383
-2.7113 4.6563 2.0383
-3.0760 4.4225 2.0383
-3.4209 4.1603 2.0383
-3.7436 3.8714 2.0383
-4.0421 3.5576 2.0383
-4.3146 3.2210 2.0383
-4.5592 2.8637 2.0383
-4.7745 2.4880 2.0383
-4.9590 2.0963 2.0383
-5.1116 1.6911 2.0383
-5.2313 1.2750 2.0383
-5.3174 0.8505 2.0383
-5.3693 0.4205 2.0383
-5.3865 -0.0123 2.0383
-5.3691 -0.4452 2.0383
-5.3171 -0.8753 2.0383
-5.2309 -1.3000 2.0383
-5.1108 -1.7166 2.0383
-4.9578 -2.1223 2.0383
-4.7727 -2.5145 2.0383
-4.5568 -2.8907 2.0383
-4.3113 -3.2485 2.0383
-4.0378 -3.5856 2.0383
-3.7381 -3.8998 2.0383
-3.4140 -4.1890 2.0383
-3.0677 -4.4514 2.0383
-2.7013 -4.6853 2.0383
-2.3172 -4.8890 2.0383
-0.6961 -1.8369 0.7398
-0.5463 -1.8868 0.7394
-0.3930 -1.9244 0.7391
-0.2372 -1.9498 0.7388
-0.0798 -1.9625 0.7386
0.0780 -1.9627 0.7384
0.2353 -1.9502 0.7382
0.3912 -1.9252 0.7380
0.5446 -1.8879 0.7379
0.6945 -1.8384 0.7378
2.3207 -4.9096 2.0383
2.7079 -4.7085 2.0383
3.0778 -4.4769 2.0383
3.4278 -4.2161 2.0383
3.7557 -3.9280 2.0383
4.0593 -3.6143 2.0383
4.3367 -3.2771 2.0383
4.5860 -2.9186 2.0383
4.8056 -2.5411 2.0383
4.9940 -2.1472 2.0383
5.1501 -1.7394 2.0383
5.2727 -1.3203 2.0383
5.3612 -0.8927 2.0383
5.4148 -0.4594 2.0383
5.4334 -0.0233 2.0383
5.4167 0.4128 2.0383
5.3650 0.8461 2.0383
5.2785 1.2737 2.0383
5.1578 1.6929 2.0383
5.0039 2.1009 2.0383
4.8176 2.4951 2.0383
4.6002 2.8729 2.0383
4.3532 3.2319 2.0383
4.0782 3.5697 2.0383
3.7771 3.8842 2.0383
3.4517 4.1734 2.0383
3.1042 4.4354 2.0383
2.7369 4.6686 2.0383
2.3522 4.8714 2.0383
0.7158 1.8485 0.7472
0.5650 1.9001 0.7475
0.4106 1.9395 0.7478
0.2535 1.9662 0.7481
0.2580 5.3932 2.0383
-0.1760 5.3947 2.0383
-0.2236 1.9696 0.7488
-0.3811 1.9451 0.7490
-0.5360 1.9079 0.7491
-0.6875 1.8584 0.7492
-2.2701 4.8881 2.0383
-2.6549 4.6889 2.0383
-3.0224 4.4595 2.0383
-3.3704 4.2014 2.0383
-3.6966 3.9164 2.0383
-3.9989 3.6063 2.0383
-4.2753 3.2730 2.0383
-4.5243 2.9187 2.0383
-4.7440 2.5456 2.0383
-4.9333 2.1561 2.0383
-5.0908 1.7528 2.0383
-5.2155 1.3381 2.0383
-5.3066 0.9147 2.0383
-5.3637 0.4854 2.0383
-5.3862 0.0528 2.0383
-5.3740 -0.3802 2.0383
-5.3271 -0.8110 2.0383
-5.2460 -1.2367 2.0383
-5.1310 -1.6546 2.0383
-4.9829 -2.0621 2.0383
-4.8025 -2.4565 2.0383
-4.5911 -2.8353 2.0383
-4.3500 -3.1960 2.0383
-4.0806 -3.5364 2.0383
-3.7847 -3.8542 2.0383
-3.4642 -4.1473 2.0383
-3.1211 -4.4138 2.0383
-2.7576 -4.6520 2.0383
-2.3760 -4.8603 2.0383
-0.7182 -1.8284 0.7398
-0.5690 -1.8800 0.7395
-0.4162 -1.9196 0.7392
-0.2607 -1.9468 0.7389
-0.1035 -1.9614 0.7386
0.0543 -1.9635 0.7384
0.2118 -1.9529 0.7382
0.3679 -1.9298 0.7380
0.5217 -1.8943 0.7379
0.6722 -1.8466 0.7378
2.2611 -4.9371 2.0383
2.6508 -4.7407 2.0383
4.9803 0.4400 2.0383
4.9279 0.8381 2.0383
4.8436 1.2307 2.0383
4.7280 1.6152 2.0383
4.5818 1.9890 2.0383
4.4061 2.3497 2.0383
4.2020 2.6950 2.0383
3.9707 3.0227 2.0383
3.7140 3.3306 2.0383
3.4334 3.6169 2.0383
3.1308 3.8795 2.0383
2.8081 4.1169 2.0383
2.4675 4.3275 2.0383
0.7733 1.6520 0.7466
0.6382 1.7089 0.7469
0.4989 1.7547 0.7472
0.3563 1.7892 0.7475
0.2115 1.8120 0.7478
0.0652 1.8231 0.7480
-0.0814 1.8224 0.7482
-0.2276 1.8098 0.7484
-0.3722 1.7855 0.7486
-0.5144 1.7496 0.7487
-0.6532 1.7023 0.7487
-2.1443 4.4753 2.0383
-2.4964 4.2876 2.0383
-2.8324 4.0724 2.0383
-3.1500 3.8310 2.0383
-3.4472 3.5650 2.0383
-3.7221 3.2761 2.0383
-3.9730 2.9661 2.0383
-4.1983 2.6371 2.0383
-4.3966 2.2911 2.0383
-4.5665 1.9304 2.0383
-4.7070 1.5572 2.0383
-4.8173 1.1740 2.0383
-4.8965 0.7831 2.0383
-4.9442 0.3871 2.0383
-4.9601 -0.0114 2.0383
-4.9440 -0.4100 2.0383
-4.8960 -0.8062 2.0383
-4.8165 -1.1972 2.0383
-4.7059 -1.5807 2.0383
-4.5649 -1.9543 2.0383
-4.3944 -2.3154 2.0383
-4.1954 -2.6617 2.0383
-3.9693 -2.9911 2.0383
-3.7174 -3.3014 2.0383
-3.4414 -3.5906 2.0383
-3.1429 -3.8568 2.0383
-2.8240 -4.0983 2.0383
-2.4866 -4.3134 2.0383
-0.7748 -1.6349 0.7404
-0.6409 -1.6917 0.7401
-0.5030 -1.7376 0.7398
-0.3618 -1.7723 0.7395
-0.2183 -1.7957 0.7392
-0.0734 -1.8074 0.7390
0.0719 -1.8076 0.7388
0.2168 -1.7961 0.7386
0.3603 -1.7731 0.7384
0.5016 -1.7387 0.7383
0.6396 -1.6930 0.7383
0.7736 -1.6365 0.7382
2.4924 -4.3335 2.0383
2.8328 -4.1203 2.0383
3.1549 -3.8802 2.0383
3.4566 -3.6150 2.0383
3.7360 -3.3263 2.0383
3.9913 -3.0159 2.0383
4.2207 -2.6860 2.0383
4.4227 -2.3387 2.0383
4.5962 -1.9761 2.0383
4.7398 -1.6008 2.0383
4.8527 -1.2152 2.0383
4.9341 -0.8217 2.0383
4.9835 -0.4229 2.0383
5.0006 -0.0216 2.0383
4.9854 0.3798 2.0383
4.9378 0.7786 2.0383
4.8583 1.1722 2.0383
4.7473 1.5580 2.0383
4.6057 1.9336 2.0383
4.4344 2.2964 2.0383
4.2344 2.6442 2.0383
4.0072 2.9747 2.0383
3.7541 3.2857 2.0383
3.4770 3.5753 2.0383
3.1776 3.8416 2.0383
2.8578 4.0829 2.0383
2.5198 4.2977 2.0383
0.7932 1.6425 0.7465
0.6588 1.7010 0.7469
0.5201 1.7486 0.7472
0.3779 1.7847 0.7475
0.2334 1.8093 0.7478
0.0873 1.8222 0.7480
-0.0594 1.8232 0.7482
-0.2057 1.8124 0.7484
-0.3506 1.7899 0.7485
-0.4932 1.7557 0.7487
-0.6326 1.7101 0.7487
-0.7678 1.6535 0.7488
-2.4445 4.3176 2.0383
-2.7830 4.1064 2.0383
-3.1035 3.8689 2.0383
-3.4039 3.6064 2.0383
-3.6823 3.3209 2.0383
-3.9369 3.0139 2.0383
-4.1662 2.6877 2.0383
-4.3685 2.3441 2.0383
-4.5428 1.9855 2.0383
-4.6878 1.6140 2.0383
-4.8027 1.2321 2.0383
-4.8866 0.8423 2.0383
-4.9391 0.4469 2.0383
-4.9597 0.0486 2.0383
-4.9484 -0.3502 2.0383
-4.9052 -0.7469 2.0383
-4.8304 -1.1389 2.0383
-4.7245 -1.5237 2.0383
-4.5880 -1.8989 2.0383
-4.4218 -2.2620 2.0383
-4.2271 -2.6107 2.0383
-4.0049 -2.9428 2.0383
-3.7568 -3.2561 2.0383
-3.4843 -3.5486 2.0383
-3.1891 -3.8184 2.0383
-2.8732 -4.0636 2.0383
-2.5384 -4.2828 2.0383
-2.1870 -4.4745 2.0383
-0.6613 -1.6839 0.7401
-0.5239 -1.7314 0.7398
-0.3832 -1.7678 0.7395
-0.2400 -1.7929 0.7393
-0.0953 -1.8064 0.7390
0.0501 -1.8083 0.7388
0.1951 -1.7986 0.7386
0.3389 -1.7773 0.7385
0.4805 -1.7445 0.7384
0.6191 -1.7006 0.7383
0.7538 -1.6457 0.7382
2.4398 -4.3632 2.0383
4.6051 0.4067 2.0383
4.5567 0.7749 2.0383
4.4788 1.1379 2.0383
4.3720 1.4934 2.0383
4.2369 1.8390 2.0383
4.0745 2.1726 2.0383
3.8858 2.4920 2.0383
3.6721 2.7951 2.0383
3.4347 3.0799 2.0383
3.1753 3.3447 2.0383
2.8955 3.5876 2.0383
2.5972 3.8072 2.0383
2.2823 4.0021 2.0383
0.7150 1.5273 0.7464
0.5901 1.5799 0.7467
0.4613 1.6223 0.7470
0.3295 1.6541 0.7472
0.1956 1.6752 0.7475
0.0604 1.6855 0.7477
-0.0752 1.6848 0.7479
-0.2103 1.6732 0.7480
-0.3440 1.6507 0.7482
-0.4755 1.6175 0.7483
-0.6038 1.5739 0.7483
-0.7282 1.5200 0.7484
-2.3092 3.9662 2.0383
-2.6200 3.7672 2.0383
-2.9138 3.5439 2.0383
-3.1888 3.2978 2.0383
-3.4431 3.0306 2.0383
-3.6753 2.7439 2.0383
-3.8837 2.4395 2.0383
-4.0671 2.1194 2.0383
-4.2243 1.7857 2.0383
-4.3543 1.4405 2.0383
-4.4563 1.0859 2.0383
-4.5296 0.7244 2.0383
-4.5736 0.3580 2.0383
-4.5883 -0.0107 2.0383
-4.5733 -0.3794 2.0383
-4.5289 -0.7458 2.0383
-4.4553 -1.1076 2.0383
-4.3529 -1.4624 2.0383
-4.2224 -1.8078 2.0383
-4.0646 -2.1418 2.0383
-3.8805 -2.4622 2.0383
-3.6712 -2.7668 2.0383
-3.4382 -3.0538 2.0383
-3.1828 -3.3212 2.0383
-2.9067 -3.5673 2.0383
-2.6117 -3.7905 2.0383
-2.2996 -3.9894 2.0383
-0.7167 -1.5126 0.7406
-0.5929 -1.5651 0.7403
-0.4652 -1.6076 0.7400
-0.3347 -1.6397 0.7398
-0.2019 -1.6613 0.7395
-0.0679 -1.6722 0.7393
0.0666 -1.6723 0.7391
0.2007 -1.6617 0.7390
0.3335 -1.6404 0.7388
0.4641 -1.6085 0.7387
0.5918 -1.5663 0.7386
0.7158 -1.5140 0.7386
2.3048 -4.0070 2.0383
2.6194 -3.8098 2.0383
2.9172 -3.5878 2.0383
3.1962 -3.3425 2.0383
3.4545 -3.0755 2.0383
3.6905 -2.7886 2.0383
3.9026 -2.4835 2.0383
4.0894 -2.1624 2.0383
4.2497 -1.8272 2.0383
4.3825 -1.4802 2.0383
4.4869 -1.1236 2.0383
4.5622 -0.7598 2.0383
4.6079 -0.3912 2.0383
4.6238 -0.0201 2.0383
4.6098 0.3511 2.0383
4.5658 0.7198 2.0383
4.4924 1.0837 2.0383
4.3899 1.4405 2.0383
4.2590 1.7878 2.0383
4.1006 2.1233 2.0383
3.9158 2.4450 2.0383
3.7057 2.7506 2.0383
3.4718 3.0383 2.0383
3.2156 3.3062 2.0383
2.9388 3.5526 2.0383
2.6431 3.7758 2.0383
2.3306 3.9745 2.0383
0.7334 1.5185 0.7463
0.6092 1.5726 0.7466
0.4809 1.6166 0.7469
0.3495 1.6500 0.7472
0.2158 1.6728 0.7474
0.0808 1.6847 0.7477
-0.0548 1.6856 0.7479
-0.1901 1.6756 0.7480
-0.3241 1.6548 0.7482
-0.4559 1.6232 0.7483
-0.5848 1.5811 0.7483
-0.7098 1.5287 0.7484
-2.2611 3.9940 2.0383
-2.5743 3.7987 2.0383
-2.8708 3.5789 2.0383
-3.1487 3.3362 2.0383
-3.4063 3.0720 2.0383
-3.6419 2.7881 2.0383
-3.8540 2.4863 2.0383
-4.0412 2.1685 2.0383
-4.2024 1.8367 2.0383
-4.3366 1.4930 2.0383
-4.4428 1.1397 2.0383
-4.5204 0.7791 2.0383
-4.5689 0.4133 2.0383
-4.5880 0.0448 2.0383
-4.5775 -0.3241 2.0383
-4.5375 -0.6910 2.0383
-4.4682 -1.0536 2.0383
-4.3701 -1.4096 2.0383
-4.2438 -1.7566 2.0383
-4.0900 -2.0925 2.0383
-3.9098 -2.4150 2.0383
-3.7042 -2.7221 2.0383
-3.4747 -3.0119 2.0383
-3.2225 -3.2823 2.0383
-2.9494 -3.5317 2.0383
-2.6571 -3.7585 2.0383
-2.3475 -3.9611 2.0383
-0.7349 -1.5038 0.7407
-0.6117 -1.5579 0.7404
-0.4846 -1.6019 0.7401
-0.3544 -1.6356 0.7398
-0.2220 -1.6587 0.7396
-0.0881 -1.6712 0.7393
0.0464 -1.6730 0.7392
0.1806 -1.6640 0.7390
0.3136 -1.6443 0.7388
0.4447 -1.6140 0.7387
0.5729 -1.5733 0.7387
0.6974 -1.5225 0.7386
2.2561 -4.0344 2.0383
4.2749 0.3774 2.0383
4.2300 0.7192 2.0383
4.1578 1.0561 2.0383
4.0587 1.3862 2.0383
3.9334 1.7071 2.0383
3.7827 2.0168 2.0383
3.6075 2.3133 2.0383
3.4092 2.5947 2.0383
3.1889 2.8592 2.0383
2.9481 3.1050 2.0383
2.6884 3.3307 2.0383
2.4115 3.5347 2.0383
0.7754 1.3596 0.7458
0.6638 1.4176 0.7462
0.5478 1.4664 0.7464
0.4283 1.5058 0.7467
0.3059 1.5353 0.7470
0.1816 1.5549 0.7472
0.0561 1.5644 0.7474
-0.0697 1.5638 0.7476
-0.1951 1.5530 0.7477
-0.3193 1.5321 0.7478
-0.4413 1.5013 0.7479
-0.5604 1.4608 0.7480
-0.6759 1.4108 0.7480
-2.1442 3.6832 2.0383
-2.4329 3.4984 2.0383
-2.7058 3.2910 2.0383
-2.9611 3.0626 2.0383
-3.1974 2.8144 2.0383
-3.4130 2.5481 2.0383
-3.6066 2.2655 2.0383
-3.7769 1.9682 2.0383
-3.9229 1.6583 2.0383
-4.0436 1.3377 2.0383
-4.1383 1.0084 2.0383
-4.2063 0.6726 2.0383
-4.2473 0.3324 2.0383
-4.2608 -0.0100 2.0383
-4.2469 -0.3525 2.0383
-4.2056 -0.6927 2.0383
-4.1372 -1.0287 2.0383
-4.0420 -1.3581 2.0383
-3.9208 -1.6789 2.0383
-3.7742 -1.9890 2.0383
-3.6032 -2.2865 2.0383
-3.4088 -2.5693 2.0383
-3.1923 -2.8357 2.0383
-2.9551 -3.0839 2.0383
-2.6987 -3.3124 2.0383
-2.4247 -3.5196 2.0383
-0.7763 -1.3469 0.7412
-0.6655 -1.4048 0.7408
-0.5505 -1.4536 0.7406
-0.4320 -1.4931 0.7403
-0.3107 -1.5229 0.7400
-0.1874 -1.5429 0.7398
-0.0630 -1.5531 0.7396
0.0619 -1.5532 0.7394
0.1864 -1.5433 0.7393
0.3098 -1.5235 0.7392
0.4311 -1.4939 0.7391
0.5497 -1.4547 0.7390
0.6648 -1.4061 0.7390
0.7757 -1.3485 0.7389
2.4317 -3.5365 2.0383
2.7081 -3.3304 2.0383
2.9670 -3.1027 2.0383
3.2068 -2.8549 2.0383
3.4258 -2.5885 2.0383
3.6227 -2.3054 2.0383
3.7961 -2.0073 2.0383
3.9449 -1.6961 2.0383
4.0682 -1.3740 2.0383
4.1651 -1.0431 2.0383
4.2350 -0.7054 2.0383
4.2775 -0.3632 2.0383
4.2923 -0.0187 2.0383
4.2792 0.3258 2.0383
4.2385 0.6681 2.0383
4.1704 1.0059 2.0383
4.0753 1.3371 2.0383
3.9539 1.6595 2.0383
3.8069 1.9710 2.0383
3.6354 2.2697 2.0383
3.4404 2.5535 2.0383
3.2234 2.8206 2.0383
2.9856 3.0693 2.0383
2.7286 3.2981 2.0383
2.4541 3.5054 2.0383
0.7918 1.3501 0.7458
0.6809 1.4095 0.7461
0.5655 1.4597 0.7464
0.4464 1.5005 0.7467
0.3245 1.5315 0.7469
0.2004 1.5526 0.7472
0.0750 1.5636 0.7474
-0.0508 1.5645 0.7475
-0.1764 1.5553 0.7477
-0.3007 1.5359 0.7478
-0.4231 1.5066 0.7479
-0.5427 1.4675 0.7480
-0.6588 1.4189 0.7480
-0.7705 1.3612 0.7480
-2.3905 3.5276 2.0383
-2.6658 3.3236 2.0383
-2.9240 3.0982 2.0383
-3.1632 2.8529 2.0383
-3.3820 2.5892 2.0383
-3.5790 2.3089 2.0383
-3.7529 2.0137 2.0383
-3.9026 1.7056 2.0383
-4.0272 1.3865 2.0383
-4.1258 1.0584 2.0383
-4.1978 0.7234 2.0383
-4.2429 0.3837 2.0383
-4.2605 0.0415 2.0383
-4.2507 -0.3011 2.0383
-4.2135 -0.6418 2.0383
-4.1492 -0.9785 2.0383
-4.0580 -1.3091 2.0383
-3.9406 -1.6313 2.0383
-3.7978 -1.9432 2.0383
-3.6304 -2.2426 2.0383
-3.4394 -2.5278 2.0383
-3.2262 -2.7968 2.0383
-2.9920 -3.0478 2.0383
-2.7384 -3.2794 2.0383
-2.4669 -3.4899 2.0383
-2.1794 -3.6779 2.0383
-0.6825 -1.3966 0.7409
-0.5681 -1.4468 0.7406
-0.4500 -1.4877 0.7403
-0.3291 -1.5190 0.7401
-0.2061 -1.5406 0.7398
-0.0817 -1.5522 0.7396
0.0432 -1.5538 0.7395
0.1678 -1.5454 0.7393
0.2913 -1.5271 0.7392
0.4130 -1.4990 0.7391
0.5321 -1.4612 0.7390
0.6478 -1.4140 0.7390
0.7593 -1.3577 0.7389
3.9817 0.3514 2.0383
3.9399 0.6697 2.0383
3.8727 0.9836 2.0383
3.7805 1.2910 2.0383
3.6638 1.5899 2.0383
3.5235 1.8784 2.0383
3.3604 2.1546 2.0383
3.1757 2.4168 2.0383
2.9706 2.6631 2.0383
2.7463 2.8922 2.0383
2.5045 3.1024 2.0383
2.2466 3.2925 2.0383
0.7223 1.2662 0.7457
0.6183 1.3202 0.7460
0.5103 1.3657 0.7462
0.3989 1.4023 0.7465
0.2850 1.4298 0.7467
0.1692 1.4480 0.7469
0.0523 1.4569 0.7471
-0.0649 1.4563 0.7473
-0.1817 1.4463 0.7474
-0.2972 1.4268 0.7475
-0.4109 1.3982 0.7476
-0.5218 1.3605 0.7477
-0.6294 1.3139 0.7477
-0.7328 1.2589 0.7477
-2.2666 3.2594 2.0383
-2.5209 3.0663 2.0383
-2.7588 2.8534 2.0383
-2.9790 2.6222 2.0383
-3.1799 2.3741 2.0383
-3.3603 2.1108 2.0383
-3.5190 1.8338 2.0383
-3.6550 1.5450 2.0383
-3.7675 1.2463 2.0383
-3.8557 0.9395 2.0383
-3.9191 0.6266 2.0383
-3.9572 0.3096 2.0383
-3.9698 -0.0094 2.0383
-3.9568 -0.3285 2.0383
-3.9182 -0.6455 2.0383
-3.8544 -0.9585 2.0383
-3.7657 -1.2654 2.0383
-3.6527 -1.5643 2.0383
-3.5161 -1.8532 2.0383
-3.3567 -2.1303 2.0383
-3.1756 -2.3937 2.0383
-2.9739 -2.6419 2.0383
-2.7528 -2.8731 2.0383
-2.5139 -3.0859 2.0383
-2.2586 -3.2789 2.0383
-0.7232 -1.2550 0.7413
-0.6201 -1.3090 0.7410
-0.5129 -1.3545 0.7408
-0.4025 -1.3912 0.7405
-0.2895 -1.4191 0.7403
-0.1746 -1.4377 0.7401
-0.0586 -1.4472 0.7399
0.0578 -1.4473 0.7397
0.1738 -1.4381 0.7396
0.2887 -1.4196 0.7395
0.4018 -1.3921 0.7394
0.5123 -1.3555 0.7393
0.6195 -1.3102 0.7393
0.7228 -1.2565 0.7393
2.2650 -3.2939 2.0383
2.5224 -3.1019 2.0383
2.7635 -2.8898 2.0383
2.9868 -2.6590 2.0383
3.1908 -2.4109 2.0383
3.3741 -2.1472 2.0383
3.5356 -1.8695 2.0383
3.6742 -1.5798 2.0383
3.7890 -1.2798 2.0383
3.8793 -0.9715 2.0383
3.9444 -0.6571 2.0383
3.9840 -0.3384 2.0383
3.9978 -0.0175 2.0383
3.9857 0.3033 2.0383
3.9478 0.6221 2.0383
3.8844 0.9368 2.0383
3.7959 1.2453 2.0383
3.6828 1.5456 2.0383
3.5460 1.8358 2.0383
3.3863 2.1140 2.0383
3.2048 2.3783 2.0383
3.0026 2.6272 2.0383
2.7812 2.8589 2.0383
2.5419 3.0721 2.0383
2.2863 3.2653 2.0383
0.7375 1.2574 0.7456
0.6342 1.3126 0.7459
0.5267 1.3594 0.7462
0.4158 1.3974 0.7465
0.3023 1.4262 0.7467
0.1867 1.4459 0.7469
0.0699 1.4562 0.7471
-0.0473 1.4570 0.7473
-0.1642 1.4484 0.7474
-0.2800 1.4304 0.7475
-0.3940 1.4031 0.7476
-0.5054 1.3667 0.7477
-0.6135 1.3215 0.7477
-0.7176 1.2677 0.7477
-2.2271 3.2867 2.0383
-2.4837 3.0966 2.0383
-2.7242 2.8866 2.0383
-2.9471 2.6581 2.0383
-3.1510 2.4124 2.0383
-3.3345 2.1512 2.0383
-3.4966 1.8762 2.0383
-3.6361 1.5891 2.0383
-3.7521 1.2918 2.0383
-3.8440 0.9860 2.0383
-3.9111 0.6739 2.0383
-3.9531 0.3574 2.0383
-3.9695 0.0386 2.0383
-3.9603 -0.2806 2.0383
-3.9256 -0.5981 2.0383
-3.8656 -0.9118 2.0383
-3.7806 -1.2198 2.0383
-3.6712 -1.5200 2.0383
-3.5381 -1.8105 2.0383
-3.3821 -2.0895 2.0383
-3.2041 -2.3551 2.0383
-3.0054 -2.6057 2.0383
-2.7872 -2.8395 2.0383
-2.5509 -3.0552 2.0383
-2.2979 -3.2512 2.0383
-0.7383 -1.2462 0.7414
-0.6358 -1.3014 0.7411
-0.5292 -1.3482 0.7408
-0.4193 -1.3863 0.7405
-0.3066 -1.4155 0.7403
-0.1919 -1.4355 0.7401
-0.0761 -1.4463 0.7399
0.0403 -1.4479 0.7397
0.1564 -1.4401 0.7396
0.2715 -1.4230 0.7395
0.3849 -1.3968 0.7394
0.4959 -1.3616 0.7393
0.6037 -1.3176 0.7393
0.7076 -1.2651 0.7393
3.7191 0.3281 2.0383
3.6802 0.6254 2.0383
3.6174 0.9186 2.0383
3.5313 1.2057 2.0383
3.4224 1.4850 2.0383
3.2913 1.7544 2.0383
3.1391 2.0125 2.0383
2.9666 2.2574 2.0383
2.7750 2.4876 2.0383
2.5656 2.7016 2.0383
2.3397 2.8980 2.0383
0.7674 1.1245 0.7453
0.6746 1.1826 0.7455
0.5775 1.2330 0.7458
0.4766 1.2755 0.7461
0.3727 1.3096 0.7463
0.2663 1.3353 0.7465
0.1581 1.3524 0.7467
0.0490 1.3607 0.7469
-0.0605 1.3601 0.7470
-0.1696 1.3507 0.7472
-0.2775 1.3326 0.7473
-0.3837 1.3058 0.7474
-0.4873 1.2706 0.7474
-0.5878 1.2271 0.7474
-0.6844 1.1757 0.7474
-2.1176 3.0454 2.0383
-2.3552 2.8649 2.0383
-2.5776 2.6660 2.0383
-2.7833 2.4500 2.0383
-2.9710 2.2182 2.0383
-3.1395 1.9721 2.0383
-3.2879 1.7134 2.0383
-3.4150 1.4435 2.0383
-3.5200 1.1644 2.0383
-3.6025 0.8777 2.0383
-3.6616 0.5854 2.0383
-3.6972 0.2892 2.0383
-3.7090 -0.0089 2.0383
-3.6968 -0.3070 2.0383
-3.6608 -0.6032 2.0383
-3.6011 -0.8957 2.0383
-3.5182 -1.1824 2.0383
-3.4126 -1.4616 2.0383
-3.2849 -1.7315 2.0383
-3.1359 -1.9904 2.0383
-2.9666 -2.2365 2.0383
-2.7781 -2.4683 2.0383
-2.5716 -2.6843 2.0383
-2.3484 -2.8830 2.0383
-0.7678 -1.1147 0.7417
-0.6757 -1.1727 0.7415
-0.5793 -1.2231 0.7412
-0.4792 -1.2656 0.7409
-0.3760 -1.3000 0.7407
-0.2704 -1.3260 0.7405
-0.1631 -1.3435 0.7403
-0.0547 -1.3523 0.7401
0.0541 -1.3524 0.7400
0.1625 -1.3438 0.7398
0.2698 -1.3265 0.7397
0.3755 -1.3008 0.7396
0.4787 -1.2666 0.7396
0.5789 -1.2243 0.7395
0.6754 -1.1741 0.7395
0.7676 -1.1163 0.7395
2.3561 -2.8973 2.0383
2.5813 -2.6992 2.0383
2.7898 -2.4836 2.0383
2.9803 -2.2519 2.0383
3.1516 -2.0055 2.0383
3.3024 -1.7462 2.0383
3.4319 -1.4756 2.0383
3.5391 -1.1954 2.0383
3.6234 -0.9075 2.0383
3.6843 -0.6138 2.0383
3.7213 -0.3161 2.0383
3.7342 -0.0165 2.0383
3.7229 0.2832 2.0383
3.6876 0.5810 2.0383
3.6284 0.8749 2.0383
3.5457 1.1630 2.0383
3.4402 1.4436 2.0383
3.3124 1.7146 2.0383
3.1633 1.9745 2.0383
2.9938 2.2215 2.0383
2.8050 2.4540 2.0383
2.5982 2.6705 2.0383
2.3747 2.8697 2.0383
0.7809 1.1152 0.7452
0.6889 1.1744 0.7455
0.5924 1.2260 0.7458
0.4920 1.2696 0.7460
0.3885 1.3051 0.7463
0.2824 1.3320 0.7465
0.1745 1.3504 0.7467
0.0654 1.3600 0.7469
-0.0441 1.3607 0.7470
-0.1533 1.3527 0.7471
-0.2614 1.3359 0.7473
-0.3679 1.3104 0.7473
-0.4719 1.2764 0.7474
-0.5729 1.2342 0.7474
-0.6701 1.1839 0.7475
-0.7630 1.1261 0.7474
-2.3204 2.8932 2.0383
-2.5452 2.6971 2.0383
-2.7535 2.4835 2.0383
-2.9440 2.2540 2.0383
-3.1155 2.0100 2.0383
-3.2669 1.7530 2.0383
-3.3972 1.4847 2.0383
-3.5057 1.2069 2.0383
-3.5915 0.9212 2.0383
-3.6542 0.6296 2.0383
-3.6934 0.3339 2.0383
-3.7087 0.0359 2.0383
-3.7001 -0.2623 2.0383
-3.6677 -0.5589 2.0383
-3.6116 -0.8520 2.0383
-3.5321 -1.1398 2.0383
-3.4299 -1.4202 2.0383
-3.3054 -1.6916 2.0383
-3.1596 -1.9523 2.0383
-2.9933 -2.2004 2.0383
-2.8077 -2.4344 2.0383
-2.6037 -2.6529 2.0383
-2.3829 -2.8543 2.0383
-0.7812 -1.1054 0.7418
-0.6898 -1.1644 0.7415
-0.5940 -1.2160 0.7412
-0.4944 -1.2597 0.7410
-0.3917 -1.2954 0.7407
-0.2864 -1.3226 0.7405
-0.1793 -1.3414 0.7403
-0.0710 -1.3515 0.7401
0.0377 -1.3529 0.7400
0.1462 -1.3456 0.7398
0.2538 -1.3297 0.7397
0.3598 -1.3052 0.7396
0.4634 -1.2723 0.7396
0.5641 -1.2311 0.7395
0.6612 -1.1821 0.7395
3.4824 0.3071 2.0383
3.4459 0.5855 2.0383
3.3872 0.8600 2.0383
3.3066 1.1289 2.0383
3.2046 1.3903 2.0383
3.0820 1.6427 2.0383
2.9395 1.8843 2.0383
2.7780 2.1136 2.0383
2.5986 2.3292 2.0383
2.4026 2.5296 2.0383
2.1911 2.7136 2.0383
0.7185 1.0528 0.7451
0.6317 1.1072 0.7454
0.5408 1.1544 0.7457
0.4463 1.1941 0.7459
0.3490 1.2261 0.7461
0.2493 1.2502 0.7463
0.1481 1.2661 0.7465
0.0459 1.2739 0.7467
-0.0566 1.2733 0.7468
-0.1587 1.2646 0.7469
-0.2598 1.2476 0.7470
-0.3592 1.2225 0.7471
-0.4562 1.1896 0.7472
-0.5502 1.1489 0.7472
-0.6407 1.1007 0.7472
-0.7270 1.0455 0.7472
-2.2057 2.6832 2.0383
-2.4140 2.4969 2.0383
-2.6066 2.2946 2.0383
-2.7825 2.0775 2.0383
-2.9403 1.8470 2.0383
-3.0792 1.6047 2.0383
-3.1983 1.3519 2.0383
-3.2967 1.0905 2.0383
-3.3739 0.8220 2.0383
-3.4293 0.5482 2.0383
-3.4626 0.2708 2.0383
-3.4736 -0.0084 2.0383
-3.4622 -0.2876 2.0383
-3.4284 -0.5651 2.0383
-3.3725 -0.8389 2.0383
-3.2948 -1.1075 2.0383
-3.1959 -1.3690 2.0383
-3.0762 -1.6217 2.0383
-2.9367 -1.8641 2.0383
-2.7781 -2.0946 2.0383
-2.6015 -2.3117 2.0383
-2.4081 -2.5139 2.0383
-2.1990 -2.7000 2.0383
-0.7190 -1.0441 0.7418
-0.6328 -1.0984 0.7416
-0.5425 -1.1456 0.7413
-0.4487 -1.1854 0.7411
-0.3521 -1.2176 0.7409
-0.2532 -1.2420 0.7407
-0.1527 -1.2584 0.7405
-0.0511 -1.2666 0.7403
0.0507 -1.2667 0.7402
0.1522 -1.2587 0.7401
0.2528 -1.2425 0.7400
0.3518 -1.2184 0.7399
0.4485 -1.1864 0.7398
0.5423 -1.1467 0.7398
0.6327 -1.0997 0.7398
0.7190 -1.0455 0.7398
2.2062 -2.7128 2.0383
2.4170 -2.5273 2.0383
2.6122 -2.3254 2.0383
2.7906 -2.1084 2.0383
2.9509 -1.8778 2.0383
3.0921 -1.6350 2.0383
3.2133 -1.3816 2.0383
3.3137 -1.1193 2.0383
3.3927 -0.8498 2.0383
3.4497 -0.5748 2.0383
3.4843 -0.2961 2.0383
3.4964 -0.0155 2.0383
3.4859 0.2651 2.0383
3.4528 0.5439 2.0383
3.3974 0.8191 2.0383
3.3201 1.0889 2.0383
3.2213 1.3516 2.0383
3.1017 1.6054 2.0383
2.9621 1.8487 2.0383
2.8034 2.0800 2.0383
2.6267 2.2977 2.0383
2.4331 2.5005 2.0383
2.2238 2.6870 2.0383
0.7312 1.0441 0.7451
0.6450 1.0995 0.7454
0.5547 1.1478 0.7456
0.4607 1.1886 0.7459
0.3638 1.2218 0.7461
0.2644 1.2471 0.7463
0.1634 1.2642 0.7465
0.0613 1.2732 0.7466
-0.0412 1.2739 0.7468
-0.1434 1.2664 0.7469
-0.2447 1.2507 0.7470
-0.3444 1.2268 0.7471
-0.4418 1.1950 0.7472
-0.5363 1.1555 0.7472
-0.6273 1.1084 0.7472
-0.7143 1.0543 0.7472
-2.1731 2.7097 2.0383
-2.3836 2.5260 2.0383
-2.5787 2.3260 2.0383
-2.7572 2.1110 2.0383
-2.9178 1.8825 2.0383
-3.0596 1.6418 2.0383
-3.1817 1.3905 2.0383
-3.2833 1.1303 2.0383
-3.3637 0.8627 2.0383
-3.4224 0.5896 2.0383
-3.4590 0.3126 2.0383
-3.4734 0.0336 2.0383
-3.4653 -0.2458 2.0383
-3.4349 -0.5236 2.0383
-3.3823 -0.7981 2.0383
-3.3079 -1.0675 2.0383
-3.2121 -1.3302 2.0383
-3.0955 -1.5844 2.0383
-2.9589 -1.8284 2.0383
-2.8031 -2.0608 2.0383
-2.6292 -2.2800 2.0383
-2.4382 -2.4845 2.0383
-2.2314 -2.6731 2.0383
-0.7316 -1.0353 0.7419
-0.6460 -1.0907 0.7416
-0.5563 -1.1390 0.7414
-0.4630 -1.1799 0.7411
-0.3668 -1.2133 0.7409
-0.2682 -1.2388 0.7407
-0.1679 -1.2564 0.7405
-0.0664 -1.2659 0.7403
0.0354 -1.2672 0.7402
0.1370 -1.2604 0.7401
0.2378 -1.2455 0.7400
0.3370 -1.2225 0.7399
0.4341 -1.1917 0.7398
0.5284 -1.1531 0.7398
0.6194 -1.1072 0.7398
3.2674 0.2881 2.0383
3.2332 0.5492 2.0383
3.1782 0.8068 2.0383
3.1026 1.0590 2.0383
3.0069 1.3044 2.0383
2.8919 1.5412 2.0383
2.7582 1.7679 2.0383
2.6067 1.9831 2.0383
2.4385 2.1854 2.0383
2.2545 2.3735 2.0383
0.7513 0.9303 0.7448
0.6742 0.9877 0.7450
0.5927 1.0387 0.7453
0.5074 1.0830 0.7455
0.4188 1.1203 0.7457
0.3275 1.1503 0.7459
0.2340 1.1728 0.7461
0.1390 1.1878 0.7463
0.0431 1.1951 0.7465
-0.0530 1.1946 0.7466
-0.1488 1.1863 0.7467
-0.2437 1.1704 0.7468
-0.3369 1.1469 0.7469
-0.4279 1.1160 0.7469
-0.5162 1.0778 0.7470
-0.6010 1.0327 0.7470
-0.6820 0.9809 0.7469
-0.7585 0.9227 0.7469
-2.2653 2.3433 2.0383
-2.4462 2.1534 2.0383
-2.6112 1.9497 2.0383
-2.7594 1.7334 2.0383
-2.8897 1.5059 2.0383
-3.0015 1.2687 2.0383
-3.0938 1.0234 2.0383
-3.1662 0.7714 2.0383
-3.2182 0.5144 2.0383
-3.2495 0.2540 2.0383
-3.2598 -0.0080 2.0383
-3.2490 -0.2700 2.0383
-3.2173 -0.5304 2.0383
-3.1648 -0.7874 2.0383
-3.0919 -1.0394 2.0383
-2.9990 -1.2848 2.0383
-2.8867 -1.5220 2.0383
-2.7557 -1.7495 2.0383
-2.6069 -1.9657 2.0383
-2.4411 -2.1694 2.0383
-2.2596 -2.3591 2.0383
-0.7513 -0.9226 0.7422
-0.6747 -0.9799 0.7419
-0.5938 -1.0309 0.7417
-0.5091 -1.0752 0.7415
-0.4211 -1.1126 0.7412
-0.3304 -1.1428 0.7410
-0.2376 -1.1657 0.7408
-0.1432 -1.1811 0.7407
-0.0479 -1.1888 0.7405
0.0477 -1.1889 0.7404
0.1429 -1.1813 0.7403
0.2373 -1.1662 0.7402
0.3302 -1.1435 0.7401
0.4210 -1.1135 0.7400
0.5090 -1.0762 0.7400
0.5939 -1.0321 0.7400
0.6749 -0.9813 0.7400
0.7516 -0.9241 0.7401
2.2678 -2.3712 2.0383
2.4510 -2.1818 2.0383
2.6183 -1.9782 2.0383
2.7687 -1.7618 2.0383
2.9012 -1.5340 2.0383
3.0149 -1.2963 2.0383
3.1091 -1.0502 2.0383
3.1832 -0.7973 2.0383
3.2367 -0.5393 2.0383
3.2692 -0.2779 2.0383
3.2806 -0.0146 2.0383
3.2707 0.2486 2.0383
3.2397 0.5102 2.0383
3.1878 0.7684 2.0383
3.1152 1.0215 2.0383
3.0226 1.2680 2.0383
2.9104 1.5062 2.0383
2.7794 1.7345 2.0383
2.6306 1.9516 2.0383
2.4648 2.1559 2.0383
2.2831 2.3462 2.0383
0.7625 0.9212 0.7447
0.6861 0.9795 0.7450
0.6052 1.0315 0.7452
0.5205 1.0768 0.7455
0.4323 1.1151 0.7457
0.3413 1.1462 0.7459
0.2482 1.1699 0.7461
0.1534 1.1860 0.7463
0.0576 1.1945 0.7464
-0.0386 1.1951 0.7466
-0.1345 1.1881 0.7467
-0.2295 1.1733 0.7468
-0.3230 1.1509 0.7469
-0.4144 1.1211 0.7469
-0.5031 1.0840 0.7470
-0.5885 1.0399 0.7470
-0.6701 0.9891 0.7470
-0.7473 0.9318 0.7469
-2.2369 2.3705 2.0383
-2.4200 2.1829 2.0383
-2.5874 1.9811 2.0383
-2.7382 1.7666 2.0383
-2.8713 1.5407 2.0383
-2.9859 1.3049 2.0383
-3.0812 1.0607 2.0383
-3.1567 0.8096 2.0383
-3.2117 0.5533 2.0383
-3.2461 0.2933 2.0383
-3.2596 0.0314 2.0383
-3.2520 -0.2307 2.0383
-3.2234 -0.4914 2.0383
-3.1740 -0.7491 2.0383
-3.1041 -1.0019 2.0383
-3.0142 -1.2484 2.0383
-2.9048 -1.4869 2.0383
-2.7766 -1.7160 2.0383
-2.6303 -1.9340 2.0383
-2.4671 -2.1396 2.0383
-2.2878 -2.3315 2.0383
-0.7624 -0.9135 0.7422
-0.6865 -0.9717 0.7420
-0.6062 -1.0236 0.7417
-0.5220 -1.0690 0.7415
-0.4345 -1.1074 0.7413
-0.3442 -1.1388 0.7411
-0.2516 -1.1627 0.7409
-0.1575 -1.1792 0.7407
-0.0623 -1.1881 0.7405
0.0333 -1.1894 0.7404
0.1287 -1.1830 0.7403
0.2232 -1.1689 0.7402
0.3164 -1.1474 0.7401
0.4075 -1.1184 0.7401
0.4960 -1.0823 0.7400
0.5813 -1.0392 0.7400
3.0711 0.2707 2.0383
3.0390 0.5161 2.0383
2.9873 0.7582 2.0383
2.9162 0.9953 2.0383
2.8264 1.2259 2.0383
2.7183 1.4485 2.0383
2.5926 1.6616 2.0383
2.4503 1.8639 2.0383
2.2922 2.0540 2.0383
0.7740 0.8148 0.7445
0.7062 0.8744 0.7447
0.6337 0.9283 0.7449
0.5571 0.9762 0.7452
0.4770 1.0178 0.7454
0.3937 1.0528 0.7456
0.3078 1.0810 0.7458
0.2200 1.1022 0.7460
0.1307 1.1163 0.7461
0.0406 1.1231 0.7463
-0.0498 1.1227 0.7464
-0.1398 1.1149 0.7465
-0.2289 1.1000 0.7466
-0.3166 1.0779 0.7467
-0.4021 1.0488 0.7467
-0.4850 1.0129 0.7468
-0.5648 0.9705 0.7468
-0.6409 0.9218 0.7467
-0.7128 0.8672 0.7467
-2.1295 2.2029 2.0383
-2.2995 2.0244 2.0383
-2.4547 1.8329 2.0383
-2.5940 1.6295 2.0383
-2.7165 1.4157 2.0383
-2.8216 1.1927 2.0383
-2.9084 0.9620 2.0383
-2.9765 0.7251 2.0383
-3.0254 0.4835 2.0383
-3.0547 0.2387 2.0383
-3.0644 -0.0076 2.0383
-3.0543 -0.2539 2.0383
-3.0244 -0.4987 2.0383
-2.9751 -0.7403 2.0383
-2.9065 -0.9772 2.0383
-2.8191 -1.2079 2.0383
-2.7135 -1.4309 2.0383
-2.5904 -1.6447 2.0383
-2.4504 -1.8480 2.0383
-2.2946 -2.0394 2.0383
-0.7737 -0.8079 0.7425
-0.7063 -0.8674 0.7423
-0.6343 -0.9213 0.7420
-0.5582 -0.9692 0.7418
-0.4786 -1.0109 0.7416
-0.3958 -1.0460 0.7414
-0.3106 -1.0745 0.7412
-0.2233 -1.0960 0.7410
-0.1346 -1.1104 0.7408
-0.0450 -1.1177 0.7407
0.0449 -1.1178 0.7406
0.1345 -1.1107 0.7405
0.2232 -1.0964 0.7404
0.3105 -1.0751 0.7403
0.3958 -1.0468 0.7402
0.4786 -1.0118 0.7402
0.5584 -0.9703 0.7402
0.6345 -0.9225 0.7402
0.7066 -0.8688 0.7403
0.7742 -0.8095 0.7403
2.3037 -2.0506 2.0383
2.4610 -1.8593 2.0383
2.6023 -1.6559 2.0383
2.7268 -1.4419 2.0383
2.8337 -1.2184 2.0383
2.9222 -0.9871 2.0383
2.9919 -0.7495 2.0383
3.0421 -0.5070 2.0383
3.0727 -0.2612 2.0383
3.0834 -0.0139 2.0383
3.0742 0.2336 2.0383
3.0451 0.4794 2.0383
2.9963 0.7221 2.0383
2.9281 0.9601 2.0383
2.8411 1.1917 2.0383
2.7357 1.4156 2.0383
2.6126 1.6302 2.0383
2.4727 1.8342 2.0383
2.3169 2.0263 2.0383
0.7838 0.8054 0.7444
0.7167 0.8658 0.7447
0.6449 0.9206 0.7449
0.5689 0.9694 0.7451
0.4892 1.0120 0.7454
0.4064 1.0480 0.7456
0.3209 1.0772 0.7458
0.2333 1.0995 0.7460
0.1442 1.1146 0.7461
0.0542 1.1226 0.7463
-0.0362 1.1232 0.7464
-0.1263 1.1165 0.7465
-0.2156 1.1027 0.7466
-0.3035 1.0816 0.7467
-0.3894 1.0536 0.7467
-0.4728 1.0188 0.7467
-0.5530 0.9773 0.7468
-0.6297 0.9295 0.7467
-0.7023 0.8758 0.7467
-0.7703 0.8163 0.7467
-2.2749 2.0521 2.0383
-2.4323 1.8624 2.0383
-2.5741 1.6608 2.0383
-2.6992 1.4484 2.0383
-2.8069 1.2267 2.0383
-2.8966 0.9971 2.0383
-2.9675 0.7610 2.0383
-3.0193 0.5200 2.0383
-3.0516 0.2757 2.0383
-3.0642 0.0295 2.0383
-3.0570 -0.2170 2.0383
-3.0302 -0.4621 2.0383
-2.9837 -0.7043 2.0383
-2.9180 -0.9420 2.0383
-2.8334 -1.1737 2.0383
-2.7305 -1.3979 2.0383
-2.6100 -1.6132 2.0383
-2.4725 -1.8181 2.0383
-2.3190 -2.0114 2.0383
-2.1505 -2.1918 2.0383
-0.7167 -0.8588 0.7423
-0.6454 -0.9135 0.7421
-0.5699 -0.9624 0.7418
-0.4907 -1.0050 0.7416
-0.4084 -1.0412 0.7414
-0.3235 -1.0706 0.7412
-0.2365 -1.0932 0.7410
-0.1480 -1.1087 0.7409
-0.0585 -1.1171 0.7407
0.0314 -1.1182 0.7406
0.1210 -1.1122 0.7405
0.2099 -1.0990 0.7404
0.2975 -1.0787 0.7403
0.3832 -1.0515 0.7403
0.4664 -1.0175 0.7402
0.5466 -0.9770 0.7402
2.8908 0.2547 2.0383
2.8606 0.4857 2.0383
2.8120 0.7136 2.0383
2.7451 0.9367 2.0383
2.6605 1.1538 2.0383
2.5588 1.3633 2.0383
2.4406 1.5639 2.0383
2.3066 1.7544 2.0383
0.7878 0.7059 0.7442
0.7286 0.7669 0.7444
0.6647 0.8229 0.7446
0.5965 0.8737 0.7449
0.5245 0.9188 0.7451
0.4490 0.9579 0.7453
0.3706 0.9909 0.7455
0.2898 1.0174 0.7457
0.2071 1.0374 0.7458
0.1231 1.0506 0.7460
0.0383 1.0570 0.7461
-0.0468 1.0566 0.7462
-0.1315 1.0493 0.7463
-0.2154 1.0353 0.7464
-0.2979 1.0145 0.7465
-0.3784 0.9871 0.7465
-0.4565 0.9534 0.7466
-0.5315 0.9135 0.7466
-0.6032 0.8676 0.7465
-0.6708 0.8162 0.7465
-0.7342 0.7595 0.7465
-2.1648 1.9058 2.0383
-2.3109 1.7255 2.0383
-2.4420 1.5341 2.0383
-2.5574 1.3327 2.0383
-2.6563 1.1228 2.0383
-2.7381 0.9056 2.0383
-2.8021 0.6826 2.0383
-2.8482 0.4551 2.0383
-2.8758 0.2247 2.0383
-2.8849 -0.0072 2.0383
-2.8753 -0.2392 2.0383
-2.8472 -0.4696 2.0383
-2.8007 -0.6971 2.0383
-2.7361 -0.9201 2.0383
-2.6539 -1.1373 2.0383
-2.5544 -1.3472 2.0383
-2.4385 -1.5484 2.0383
-2.3067 -1.7398 2.0383
-2.1600 -1.9200 2.0383
-0.7284 -0.7606 0.7426
-0.6649 -0.8166 0.7423
-0.5971 -0.8674 0.7421
-0.5255 -0.9125 0.7419
-0.4505 -0.9518 0.7417
-0.3726 -0.9849 0.7415
-0.2923 -1.0116 0.7413
-0.2102 -1.0319 0.7411
-0.1266 -1.0455 0.7410
-0.0423 -1.0523 0.7409
0.0423 -1.0524 0.7407
0.1267 -1.0457 0.7406
0.2102 -1.0323 0.7406
0.2924 -1.0122 0.7405
0.3727 -0.9856 0.7404
0.4507 -0.9527 0.7404
0.5258 -0.9136 0.7404
