ply
format ascii 1.0
element vertex 2174
property float32 x
property float32 y
property float32 z
end_header
-3.5836 1.3006 1.9647
-3.5640 0.9770 1.9046
-3.5955 0.6803 1.8860
-3.6387 0.3887 1.8860
-3.6584 0.0946 1.8860
-3.6547 -0.2002 1.8861
-3.6272 -0.4937 1.8860
-3.5764 -0.7842 1.8860
-3.5026 -1.0697 1.8860
-3.4347 -1.3598 1.9018
-3.4302 -1.6889 1.9678
-3.4023 -2.0305 2.0384
-3.2293 -2.2986 2.0384
-3.0352 -2.5520 2.0384
-2.8214 -2.7892 2.0384
-2.5892 -3.0086 2.0384
-2.3401 -3.2087 2.0384
-0.7563 -1.2346 0.7427
-0.6546 -1.2914 0.7423
-0.5486 -1.3398 0.7419
-0.4392 -1.3796 0.7415
-0.3269 -1.4105 0.7411
-0.2125 -1.4323 0.7407
-0.0967 -1.4449 0.7403
0.0197 -1.4482 0.7400
0.1360 -1.4421 0.7396
0.2514 -1.4267 0.7393
0.3653 -1.4022 0.7391
0.4768 -1.3686 0.7388
0.5853 -1.3262 0.7386
0.6900 -1.2752 0.7384
2.1821 -3.3572 2.0384
2.4456 -3.1725 2.0384
2.6934 -2.9671 2.0384
2.9238 -2.7422 2.0384
3.1354 -2.4995 2.0384
3.3267 -2.2403 2.0384
3.4965 -1.9666 2.0384
3.6437 -1.6799 2.0384
3.7672 -1.3823 2.0384
3.8662 -1.0756 2.0384
3.9402 -0.7619 2.0384
3.9885 -0.4433 2.0384
4.0110 -0.1218 2.0384
4.0074 0.2004 2.0384
3.9777 0.5213 2.0384
3.9223 0.8387 2.0384
3.8413 1.1504 2.0384
3.7355 1.4546 2.0384
3.6055 1.7491 2.0384
3.4522 2.0322 2.0384
3.2766 2.3018 2.0384
3.0799 2.5563 2.0384
2.8634 2.7940 2.0384
2.6285 3.0134 2.0384
2.3768 3.2131 2.0384
0.7703 1.2383 0.7442
0.6684 1.2962 0.7446
0.5621 1.3457 0.7451
0.4521 1.3865 0.7455
0.3392 1.4183 0.7459
0.2241 1.4409 0.7463
0.1076 1.4541 0.7466
-0.0096 1.4579 0.7470
-0.1268 1.4522 0.7473
-0.2431 1.4371 0.7476
-0.3578 1.4126 0.7479
-0.4701 1.3790 0.7481
-0.5794 1.3365 0.7484
-0.6849 1.2852 0.7485
-2.1396 3.3371 2.0384
-2.4001 3.1528 2.0384
-2.6450 2.9484 2.0384
-2.8727 2.7251 2.0384
-3.0818 2.4843 2.0384
-3.2708 2.2277 2.0384
-3.4388 1.9568 2.0384
-3.5845 1.6735 2.0384
-3.5855 1.3341 1.9715
-3.5660 1.0086 1.9100
-3.5899 0.7093 1.8860
-3.6354 0.4181 1.8860
-3.6575 0.1241 1.8860
-3.6561 -0.1707 1.8860
-3.6311 -0.4644 1.8860
-3.5826 -0.7553 1.8860
-3.5110 -1.0414 1.8860
-3.4381 -1.3292 1.8978
-3.4308 -1.6549 1.9604
-3.4185 -2.0029 2.0384
-3.2476 -2.2724 2.0384
-3.0556 -2.5273 2.0384
-2.8437 -2.7662 2.0384
-2.6133 -2.9874 2.0384
-2.3658 -3.1896 2.0384
-0.7662 -1.2285 0.7428
-0.6650 -1.2861 0.7423
-0.5594 -1.3354 0.7419
-0.4503 -1.3760 0.7415
-0.3382 -1.4078 0.7411
-0.2240 -1.4306 0.7407
-0.1083 -1.4441 0.7404
0.0080 -1.4483 0.7400
0.1244 -1.4431 0.7397
0.2399 -1.4287 0.7394
0.3540 -1.4051 0.7391
0.4657 -1.3724 0.7389
0.5746 -1.3308 0.7386
0.6797 -1.2807 0.7385
0.7805 -1.2222 0.7383
2.4199 -3.1920 2.0384
2.6693 -2.9885 2.0384
2.9016 -2.7656 2.0384
3.1151 -2.5245 2.0384
3.3085 -2.2670 2.0384
3.4805 -1.9946 2.0384
3.6300 -1.7091 2.0384
3.7559 -1.4125 2.0384
3.8574 -1.1067 2.0384
3.9339 -0.7936 2.0384
3.9849 -0.4754 2.0384
4.0099 -0.1541 2.0384
4.0089 0.1682 2.0384
3.9819 0.4893 2.0384
3.9290 0.8071 2.0384
3.8506 1.1195 2.0384
3.7472 1.4245 2.0384
3.6196 1.7201 2.0384
3.4686 2.0044 2.0384
3.2952 2.2755 2.0384
3.1005 2.5315 2.0384
2.8859 2.7710 2.0384
2.6528 2.9923 2.0384
2.4027 3.1941 2.0384
0.7802 1.2321 0.7442
0.6788 1.2908 0.7446
0.5729 1.3412 0.7450
0.4633 1.3828 0.7454
0.3507 1.4155 0.7458
0.2358 1.4390 0.7462
0.1193 1.4532 0.7466
0.0021 1.4579 0.7470
-0.1151 1.4532 0.7473
-0.2315 1.4390 0.7476
-0.3464 1.4155 0.7479
-0.4590 1.3828 0.7481
-0.5686 1.3411 0.7483
-0.6745 1.2907 0.7485
-2.1127 3.3544 2.0384
-2.3747 3.1722 2.0384
-2.6212 2.9697 2.0384
-2.8507 2.7483 2.0384
-3.0617 2.5092 2.0384
-3.2528 2.2541 2.0384
-3.4229 1.9846 2.0384
-3.5709 1.7023 2.0384
-3.5874 1.3679 1.9785
-3.5680 1.0404 1.9155
-3.5841 0.7383 1.8860
-3.6319 0.4474 1.8860
-3.6581 0.1537 1.8869
-3.6573 -0.1412 1.8860
-3.6346 -0.4351 1.8860
-3.5885 -0.7263 1.8860
-3.5192 -1.0130 1.8860
-3.4419 -1.2988 1.8941
-3.4313 -1.6212 1.9533
-3.4292 -1.9722 2.0353
-3.2657 -2.2460 2.0384
-3.0757 -2.5025 2.0384
-2.8658 -2.7431 2.0384
-2.6371 -2.9661 2.0384
-2.3913 -3.1702 2.0384
-0.7761 -1.2223 0.7428
-0.6753 -1.2807 0.7424
-0.5702 -1.3308 0.7420
-0.4613 -1.3724 0.7415
-0.3496 -1.4051 0.7411
-0.2355 -1.4287 0.7408
-0.1200 -1.4431 0.7404
-0.0036 -1.4483 0.7400
0.1127 -1.4441 0.7397
0.2284 -1.4306 0.7394
0.3426 -1.4078 0.7391
0.4547 -1.3760 0.7389
0.5638 -1.3354 0.7387
0.6694 -1.2861 0.7385
0.7706 -1.2285 0.7383
2.3940 -3.2112 2.0384
2.6451 -3.0098 2.0384
2.8791 -2.7888 2.0384
3.0946 -2.5495 2.0384
3.2901 -2.2935 2.0384
3.4643 -2.0225 2.0384
3.6161 -1.7383 2.0384
3.7444 -1.4427 2.0384
3.8484 -1.1377 2.0384
3.9274 -0.8252 2.0384
3.9809 -0.5074 2.0384
4.0086 -0.1863 2.0384
4.0102 0.1359 2.0384
3.9857 0.4572 2.0384
3.9354 0.7754 2.0384
3.8596 1.0885 2.0384
3.7587 1.3944 2.0384
3.6335 1.6910 2.0384
3.4848 1.9765 2.0384
3.3135 2.2489 2.0384
3.1210 2.5066 2.0384
2.9083 2.7478 2.0384
2.6769 2.9710 2.0384
2.4285 3.1748 2.0384
0.7901 1.2257 0.7441
0.6892 1.2853 0.7445
0.5837 1.3365 0.7450
0.4744 1.3791 0.7454
0.3621 1.4127 0.7458
0.2473 1.4371 0.7462
0.1310 1.4522 0.7466
0.0139 1.4579 0.7469
-0.1033 1.4541 0.7472
-0.2199 1.4409 0.7476
-0.3350 1.4183 0.7478
-0.4479 1.3865 0.7481
-0.5578 1.3457 0.7483
-0.6641 1.2962 0.7485
-0.7660 1.2383 0.7487
-2.3491 3.1914 2.0384
-2.5973 2.9909 2.0384
-2.8285 2.7713 2.0384
-3.0414 2.5339 2.0384
-3.2346 2.2803 2.0384
-3.4069 2.0122 2.0384
-3.5571 1.7311 2.0384
-3.5893 1.4019 1.9857
-3.5700 1.0723 1.9211
-3.5780 0.7672 1.8860
-3.6282 0.4767 1.8860
-3.6591 0.1834 1.8881
-3.6583 -0.1116 1.8860
-3.6380 -0.4057 1.8860
-3.5941 -0.6973 1.8860
-3.5272 -0.9845 1.8860
-3.4456 -1.2685 1.8905
-3.4318 -1.5877 1.9463
-3.4291 -1.9355 2.0260
-3.2835 -2.2195 2.0384
-3.0957 -2.4775 2.0384
-2.8877 -2.7197 2.0384
-2.6609 -2.9446 2.0384
-2.4167 -3.1507 2.0384
-2.1566 -3.3366 2.0384
-0.6856 -1.2752 0.7424
-0.5809 -1.3262 0.7420
-0.4724 -1.3686 0.7416
-0.3609 -1.4022 0.7412
-0.2470 -1.4267 0.7408
-0.1316 -1.4421 0.7404
-0.0153 -1.4482 0.7401
0.1011 -1.4449 0.7397
0.2169 -1.4323 0.7394
0.3313 -1.4105 0.7392
0.4436 -1.3796 0.7389
0.5530 -1.3398 0.7387
0.6590 -1.2914 0.7385
0.7607 -1.2346 0.7383
2.3680 -3.2302 2.0384
2.6206 -3.0309 2.0384
2.8565 -2.8118 2.0384
0.2847 1.3319 0.7458
0.1767 1.3504 0.7462
0.0676 1.3600 0.7465
-0.0420 1.3609 0.7468
-0.1512 1.3529 0.7471
-0.2595 1.3362 0.7474
-0.3660 1.3107 0.7477
-0.4701 1.2768 0.7479
-0.5712 1.2346 0.7481
-0.6685 1.1843 0.7482
-0.7614 1.1265 0.7484
-2.3132 2.8902 2.0384
-2.5374 2.6938 2.0384
-2.7451 2.4801 2.0384
-2.9350 2.2505 2.0384
-3.1058 2.0065 2.0384
-3.2566 1.7497 2.0384
-3.3864 1.4817 2.0384
-3.4943 1.2042 2.0384
-3.5371 0.9080 2.0142
-3.5170 0.6063 1.9684
-3.4966 0.3160 1.9364
-3.4786 0.0332 1.9185
-3.4588 -0.2461 1.9121
-3.4460 -0.5265 1.9220
-3.4317 -0.8114 1.9438
-3.4206 -1.1061 1.9812
-3.4114 -1.4155 2.0348
-3.2933 -1.6889 2.0384
-3.1478 -1.9492 2.0384
-2.9820 -2.1970 2.0384
-2.7968 -2.4308 2.0384
-2.5934 -2.6491 2.0384
-2.3730 -2.8505 2.0384
-0.7791 -1.1059 0.7431
-0.6877 -1.1650 0.7427
-0.5918 -1.2165 0.7423
-0.4921 -1.2601 0.7419
-0.3892 -1.2957 0.7415
-0.2838 -1.3228 0.7412
-0.1766 -1.3415 0.7408
-0.0683 -1.3515 0.7405
0.0406 -1.3528 0.7401
0.1491 -1.3453 0.7398
0.2567 -1.3292 0.7396
0.3627 -1.3045 0.7393
0.4664 -1.2715 0.7391
0.5671 -1.2302 0.7389
0.6642 -1.1809 0.7387
0.7570 -1.1241 0.7386
2.3324 -2.9256 2.0384
2.5606 -2.7300 2.0384
2.7723 -2.5164 2.0384
2.9661 -2.2865 2.0384
3.1408 -2.0416 2.0384
3.2951 -1.7833 2.0384
3.4281 -1.5134 2.0384
3.5389 -1.2336 2.0384
3.6267 -0.9457 2.0384
3.6909 -0.6517 2.0384
3.7312 -0.3535 2.0384
3.7473 -0.0529 2.0384
3.7390 0.2479 2.0384
3.7064 0.5470 2.0384
3.6498 0.8425 2.0384
3.5696 1.1323 2.0384
3.4662 1.4148 2.0384
3.3404 1.6878 2.0384
3.1930 1.9498 2.0384
3.0250 2.1989 2.0384
2.8375 2.4336 2.0384
2.6317 2.6524 2.0384
2.4091 2.8537 2.0384
0.7922 1.1080 0.7438
0.7007 1.1681 0.7442
0.6046 1.2206 0.7446
0.5046 1.2652 0.7450
0.4013 1.3016 0.7454
0.2954 1.3296 0.7458
0.1876 1.3489 0.7462
0.0785 1.3595 0.7465
-0.0310 1.3612 0.7468
-0.1403 1.3541 0.7471
-0.2487 1.3382 0.7474
-0.3554 1.3137 0.7476
-0.4598 1.2806 0.7479
-0.5612 1.2392 0.7481
-0.6589 1.1897 0.7482
-0.7523 1.1326 0.7484
-2.2899 2.9089 2.0384
-2.5157 2.7143 2.0384
-2.7251 2.5022 2.0384
-2.9168 2.2742 2.0384
-3.0896 2.0316 2.0384
-3.2425 1.7760 2.0384
-3.3744 1.5090 2.0384
-3.4845 1.2324 2.0384
-3.5391 0.9390 2.0195
-3.5191 0.6359 1.9724
-3.4983 0.3446 1.9388
-3.4805 0.0613 1.9198
-3.4609 -0.2182 1.9123
-3.4473 -0.4983 1.9204
-3.4333 -0.7826 1.9411
-3.4215 -1.0760 1.9767
-3.4118 -1.3835 2.0284
-3.3067 -1.6623 2.0384
-3.1633 -1.9236 2.0384
-2.9995 -2.1727 2.0384
-2.8162 -2.4080 2.0384
-2.6145 -2.6280 2.0384
-2.3958 -2.8311 2.0384
-2.1615 -3.0161 2.0384
-0.6970 -1.1594 0.7427
-0.6015 -1.2117 0.7423
-0.5022 -1.2561 0.7419
-0.3996 -1.2925 0.7416
-0.2945 -1.3205 0.7412
-0.1874 -1.3400 0.7408
-0.0791 -1.3509 0.7405
0.0297 -1.3530 0.7402
0.1383 -1.3465 0.7399
0.2460 -1.3312 0.7396
0.3522 -1.3074 0.7393
0.4561 -1.2751 0.7391
0.5572 -1.2347 0.7389
0.6546 -1.1862 0.7388
0.7479 -1.1301 0.7386
2.3087 -2.9442 2.0384
2.5384 -2.7504 2.0384
2.7519 -2.5386 2.0384
2.9475 -2.3102 2.0384
3.1242 -2.0667 2.0384
3.2806 -1.8097 2.0384
3.4158 -1.5409 2.0384
3.5288 -1.2620 2.0384
3.6189 -0.9749 2.0384
3.6855 -0.6814 2.0384
3.7283 -0.3835 2.0384
3.7467 -0.0831 2.0384
3.7409 0.2178 2.0384
3.7108 0.5171 2.0384
3.6566 0.8131 2.0384
3.5787 1.1036 2.0384
3.4776 1.3869 2.0384
3.3540 1.6609 2.0384
3.2087 1.9241 2.0384
3.0427 2.1746 2.0384
2.8571 2.4108 2.0384
2.6531 2.6312 2.0384
2.4321 2.8344 2.0384
2.1955 3.0190 2.0384
0.7101 1.1624 0.7442
0.6144 1.2157 0.7446
0.5148 1.2611 0.7450
0.4118 1.2984 0.7454
0.3061 1.3272 0.7458
0.1984 1.3474 0.7461
0.0895 1.3588 0.7465
-0.0200 1.3614 0.7468
-0.1294 1.3552 0.7471
-0.2379 1.3402 0.7474
-0.3448 1.3165 0.7476
-0.4495 1.2843 0.7478
-0.5512 1.2437 0.7480
-0.6493 1.1950 0.7482
-0.7432 1.1387 0.7484
-2.2664 2.9274 2.0384
-2.4938 2.7346 2.0384
-2.7049 2.5242 2.0384
-2.8984 2.2977 2.0384
-3.0732 2.0565 2.0384
-3.2281 1.8021 2.0384
-3.3621 1.5362 2.0384
-3.4745 1.2605 2.0384
-3.5410 0.9702 2.0250
-3.5211 0.6657 1.9765
-3.4999 0.3733 1.9413
-3.4823 0.0895 1.9212
-3.4629 -0.1903 1.9125
-3.4486 -0.4700 1.9190
-3.4348 -0.7538 1.9385
-3.4224 -1.0460 1.9723
-3.4123 -1.3517 2.0222
-3.3199 -1.6355 2.0384
-3.1786 -1.8980 2.0384
-3.0168 -2.1484 2.0384
-2.8354 -2.3851 2.0384
-2.6355 -2.6067 2.0384
-2.4185 -2.8115 2.0384
-2.1856 -2.9984 2.0384
-0.7064 -1.1537 0.7428
-0.6113 -1.2068 0.7424
-0.5123 -1.2520 0.7420
-0.4100 -1.2892 0.7416
-0.3051 -1.3181 0.7412
-0.1982 -1.3384 0.7409
-0.0900 -1.3502 0.7405
0.0187 -1.3532 0.7402
0.1274 -1.3475 0.7399
0.2353 -1.3331 0.7396
0.3416 -1.3102 0.7394
0.4458 -1.2788 0.7391
0.5472 -1.2391 0.7389
0.6450 -1.1914 0.7388
0.7388 -1.1361 0.7386
2.2848 -2.9626 2.0384
2.5161 -2.7706 2.0384
2.7313 -2.5606 2.0384
2.9288 -2.3338 2.0384
3.1074 -2.0918 2.0384
3.2659 -1.8361 2.0384
3.4032 -1.5683 2.0384
3.5185 -1.2904 2.0384
3.6109 -1.0040 2.0384
3.6799 -0.7110 2.0384
3.7251 -0.4135 2.0384
3.7460 -0.1133 2.0384
3.7426 0.1877 2.0384
3.7149 0.4873 2.0384
3.6631 0.7836 2.0384
3.5875 1.0748 2.0384
3.4887 1.3589 2.0384
3.3673 1.6340 2.0384
3.2242 1.8983 2.0384
3.0602 2.1501 2.0384
2.8765 2.3878 2.0384
2.6743 2.6099 2.0384
2.4550 2.8149 2.0384
2.2199 3.0014 2.0384
0.7194 1.1567 0.7442
0.6242 1.2107 0.7446
0.5249 1.2569 0.7450
0.4222 1.2950 0.7453
0.3168 1.3247 0.7457
0.2093 1.3457 0.7461
0.1004 1.3581 0.7464
-0.0090 1.3616 0.7468
-0.1185 1.3562 0.7471
-0.2271 1.3421 0.7473
-0.3342 1.3193 0.7476
-0.4391 1.2879 0.7478
-0.5412 1.2481 0.7480
-0.6397 1.2003 0.7482
-0.7340 1.1446 0.7483
-2.2428 2.9457 2.0384
-2.4717 2.7547 2.0384
-2.6845 2.5461 2.0384
-2.8798 2.3211 2.0384
-3.0565 2.0813 2.0384
-3.2135 1.8281 2.0384
-3.3497 1.5633 2.0384
-3.4642 1.2885 2.0384
-3.5429 1.0016 2.0307
-3.5232 0.6956 1.9807
-3.5021 0.4022 1.9443
-3.4842 0.1177 1.9227
-3.4649 -0.1623 1.9129
-3.4499 -0.4419 1.9177
-3.4363 -0.7251 1.9360
-3.4233 -1.0161 1.9681
-3.4134 -1.3204 2.0165
-3.3328 -1.6086 2.0384
-3.1937 -1.8722 2.0384
-3.0339 -2.1239 2.0384
-2.8544 -2.3621 2.0384
-2.6563 -2.5852 2.0384
-2.4409 -2.7918 2.0384
-2.2096 -2.9806 2.0384
-0.7156 -1.1480 0.7428
-0.6210 -1.2018 0.7424
-0.5224 -1.2479 0.7420
-0.4204 -1.2859 0.7416
-0.3157 -1.3156 0.7413
-0.2090 -1.3368 0.7409
-0.1009 -1.3494 0.7406
0.0078 -1.3533 0.7402
0.1165 -1.3485 0.7399
0.2245 -1.3350 0.7396
0.3311 -1.3129 0.7394
0.4355 -1.2823 0.7392
0.5372 -1.2434 0.7390
0.6354 -1.1965 0.7388
0.7296 -1.1419 0.7386
2.2608 -2.9808 2.0384
2.4937 -2.7907 2.0384
2.7105 -2.5824 2.0384
2.9098 -2.3572 2.0384
3.0904 -2.1167 2.0384
3.2509 -1.8622 2.0384
3.3904 -1.5956 2.0384
3.5080 -1.3186 2.0384
3.6027 -1.0330 2.0384
3.6741 -0.7406 2.0384
3.7216 -0.4434 2.0384
3.7450 -0.1434 2.0384
3.7440 0.1575 2.0384
3.7188 0.4574 2.0384
3.6693 0.7542 2.0384
3.5962 1.0459 2.0384
3.4997 1.3308 2.0384
3.3805 1.6068 2.0384
3.2395 1.8723 2.0384
3.0776 2.1255 2.0384
2.8958 2.3647 2.0384
2.6954 2.5884 2.0384
2.4777 2.7951 2.0384
2.2441 2.9836 2.0384
0.7287 1.1508 0.7441
0.6339 1.2057 0.7445
0.5350 1.2527 0.7449
0.4326 1.2916 0.7453
0.3275 1.3221 0.7457
0.2201 1.3440 0.7460
0.1114 1.3572 0.7464
0.0019 1.3616 0.7467
-0.1075 1.3572 0.7470
-0.2163 1.3439 0.7473
-0.3236 1.3220 0.7476
-0.4288 1.2914 0.7478
-0.5311 1.2525 0.7480
-0.6300 1.2054 0.7482
-0.7248 1.1506 0.7483
-2.2191 2.9638 2.0384
-2.4495 2.7747 2.0384
-2.6639 2.5677 2.0384
-2.8611 2.3443 2.0384
-3.0397 2.1059 2.0384
-3.1987 1.8541 2.0384
-3.3370 1.5903 2.0384
-3.4537 1.3164 2.0384
-3.5448 1.0331 2.0365
-3.5252 0.7256 1.9851
-3.5043 0.4311 1.9474
-3.4860 0.1459 1.9243
-3.4670 -0.1344 1.9133
-3.4511 -0.4138 1.9165
-3.4377 -0.6965 1.9337
-3.4241 -0.9864 1.9640
-3.4145 -1.2892 2.0110
-3.3456 -1.5816 2.0384
-3.2086 -1.8463 2.0384
-3.0508 -2.0993 2.0384
-2.8732 -2.3389 2.0384
-2.6770 -2.5636 2.0384
-2.4633 -2.7719 2.0384
-2.2335 -2.9625 2.0384
-0.7249 -1.1422 0.7429
-0.6307 -1.1968 0.7425
-0.5324 -1.2436 0.7421
-0.4308 -1.2824 0.7417
-0.3263 -1.3130 0.7413
-0.2197 -1.3350 0.7409
-0.1118 -1.3485 0.7406
-0.0031 -1.3533 0.7403
0.1057 -1.3494 0.7400
0.2138 -1.3367 0.7397
0.3205 -1.3155 0.7394
0.4252 -1.2857 0.7392
0.5271 -1.2477 0.7390
0.6258 -1.2016 0.7388
0.7204 -1.1478 0.7387
2.2366 -2.9988 2.0384
2.4710 -2.8106 2.0384
2.6895 -2.6041 2.0384
2.8907 -2.3805 2.0384
3.0732 -2.1414 2.0384
3.2358 -1.8883 2.0384
3.3774 -1.6228 2.0384
3.4972 -1.3468 2.0384
3.5943 -1.0619 2.0384
3.6680 -0.7702 2.0384
3.7180 -0.4734 2.0384
3.7437 -0.1735 2.0384
3.7452 0.1274 2.0384
3.7224 0.4274 2.0384
3.6754 0.7246 2.0384
3.6045 1.0170 2.0384
3.5104 1.3026 2.0384
3.3934 1.5796 2.0384
3.2546 1.8463 2.0384
3.0947 2.1007 2.0384
2.9149 2.3414 2.0384
2.7163 2.5667 2.0384
2.5002 2.7752 2.0384
2.2682 2.9656 2.0384
0.7380 1.1449 0.7441
0.6436 1.2005 0.7445
0.5451 1.2483 0.7449
0.4430 1.2880 0.7453
0.3381 1.3194 0.7456
0.2310 1.3422 0.7460
0.1223 1.3563 0.7464
0.0129 1.3616 0.7467
-0.0966 1.3580 0.7470
-0.2054 1.3456 0.7473
-0.3129 1.3245 0.7475
-0.4183 1.2948 0.7478
-0.5210 1.2567 0.7480
-0.6203 1.2105 0.7482
-0.7155 1.1564 0.7483
-2.1952 2.9818 2.0384
-2.4271 2.7944 2.0384
-2.6432 2.5892 2.0384
-2.8421 2.3674 2.0384
-3.0227 2.1304 2.0384
-3.1837 1.8799 2.0384
-3.3241 1.6172 2.0384
-3.4430 1.3443 2.0384
-3.5398 1.0627 2.0384
-3.5272 0.7558 1.9896
-3.5064 0.4602 1.9506
-3.4878 0.1742 1.9260
-3.4690 -0.1064 1.9139
-3.4523 -0.3857 1.9154
-3.4392 -0.6679 1.9314
-3.4250 -0.9567 1.9600
-3.4156 -1.2582 2.0057
-3.3582 -1.5544 2.0384
-3.2233 -1.8203 2.0384
-3.0676 -2.0745 2.0384
-2.8919 -2.3155 2.0384
-2.6975 -2.5418 2.0384
-2.4854 -2.7518 2.0384
-2.2572 -2.9442 2.0384
-0.7341 -1.1363 0.7429
-0.6403 -1.1916 0.7425
-0.5424 -1.2393 0.7421
-0.4411 -1.2789 0.7417
-0.3369 -1.3103 0.7413
-0.2305 -1.3332 0.7410
-0.1226 -1.3476 0.7406
-0.0140 -1.3532 0.7403
0.0948 -1.3501 0.7400
0.2030 -1.3384 0.7397
0.3099 -1.3180 0.7394
0.4148 -1.2891 0.7392
0.5171 -1.2519 0.7390
0.6160 -1.2066 0.7388
0.7111 -1.1535 0.7387
2.2123 -3.0165 2.0384
2.4482 -2.8303 2.0384
2.6684 -2.6255 2.0384
2.8714 -2.4036 2.0384
3.0558 -2.1660 2.0384
3.2204 -1.9142 2.0384
3.3642 -1.6500 2.0384
3.4862 -1.3749 2.0384
3.5856 -1.0908 2.0384
3.6617 -0.7996 2.0384
3.7140 -0.5033 2.0384
3.7422 -0.2036 2.0384
3.7462 0.0973 2.0384
3.7258 0.3975 2.0384
3.6812 0.6950 2.0384
3.6127 0.9880 2.0384
3.5208 1.2744 2.0384
3.4061 1.5523 2.0384
3.2694 1.8201 2.0384
3.1116 2.0758 2.0384
2.9337 2.3180 2.0384
2.7370 2.5449 2.0384
2.5226 2.7551 2.0384
2.2921 2.9473 2.0384
0.7472 1.1389 0.7440
0.6533 1.1953 0.7444
0.5551 1.2439 0.7448
0.4534 1.2844 0.7452
0.3487 1.3166 0.7456
0.2418 1.3403 0.7460
0.1333 1.3553 0.7463
0.0239 1.3614 0.7467
-0.0856 1.3588 0.7470
-0.1946 1.3473 0.7473
-0.3022 1.3270 0.7475
-0.4079 1.2982 0.7478
-0.5109 1.2609 0.7480
-0.6105 1.2155 0.7482
-0.7061 1.1622 0.7483
-2.1711 2.9995 2.0384
-2.4045 2.8140 2.0384
-2.6223 2.6105 2.0384
-2.8230 2.3903 2.0384
-3.0055 2.1548 2.0384
-3.1685 1.9055 2.0384
-3.3110 1.6440 2.0384
-3.4321 1.3720 2.0384
-3.5311 1.0912 2.0384
-3.5292 0.7860 1.9943
-3.5086 0.4893 1.9539
-3.4896 0.2025 1.9279
-3.4709 -0.0785 1.9146
-3.4535 -0.3576 1.9144
-3.4406 -0.6394 1.9293
-3.4258 -0.9272 1.9561
-3.4166 -1.2274 2.0005
-3.3705 -1.5272 2.0384
-3.2378 -1.7941 2.0384
-3.0841 -2.0496 2.0384
-2.9104 -2.2920 2.0384
-2.7177 -2.5198 2.0384
-2.5074 -2.7315 2.0384
-2.2807 -2.9258 2.0384
-0.7432 -1.1303 0.7429
-0.6499 -1.1864 0.7425
-0.5524 -1.2348 0.7421
-0.4514 -1.2753 0.7418
-0.3474 -1.3075 0.7414
-0.2412 -1.3313 0.7410
-0.1335 -1.3465 0.7407
-0.0249 -1.3530 0.7403
0.0839 -1.3508 0.7400
0.1922 -1.3399 0.7397
0.2992 -1.3204 0.7395
0.4044 -1.2923 0.7392
0.5070 -1.2560 0.7390
0.6063 -1.2115 0.7388
0.7018 -1.1591 0.7387
2.1879 -3.0341 2.0384
2.4253 -2.8498 2.0384
2.6471 -2.6468 2.0384
2.8518 -2.4266 2.0384
3.0382 -2.1905 2.0384
3.2048 -1.9401 2.0384
3.3508 -1.6770 2.0384
3.4750 -1.4029 2.0384
3.5767 -1.1196 2.0384
3.6551 -0.8291 2.0384
3.7099 -0.5331 2.0384
3.7405 -0.2338 2.0384
3.7469 0.0671 2.0384
3.7289 0.3675 2.0384
3.6867 0.6654 2.0384
3.6206 0.9589 2.0384
3.5311 1.2460 2.0384
3.4186 1.5249 2.0384
3.2841 1.7938 2.0384
3.1284 2.0508 2.0384
2.9524 2.2944 2.0384
2.7575 2.5229 2.0384
2.5449 2.7349 2.0384
2.3159 2.9289 2.0384
0.7563 1.1329 0.7440
0.6629 1.1900 0.7444
0.5651 1.2394 0.7448
0.4637 1.2807 0.7452
0.3593 1.3138 0.7456
0.2526 1.3383 0.7459
0.1442 1.3542 0.7463
0.0349 1.3612 0.7466
-0.0747 1.3594 0.7469
-0.1837 1.3488 0.7472
-0.2915 1.3295 0.7475
-0.3974 1.3015 0.7477
-0.5007 1.2650 0.7480
-0.6007 1.2204 0.7481
-0.6968 1.1678 0.7483
-2.1469 3.0170 2.0384
-2.3818 2.8334 2.0384
-2.6012 2.6317 2.0384
-2.8037 2.4131 2.0384
-2.9880 2.1791 2.0384
-3.1530 1.9311 2.0384
-3.2976 1.6707 2.0384
-3.4209 1.3997 2.0384
-3.5222 1.1197 2.0384
-3.5312 0.8164 1.9991
-3.5107 0.5185 1.9574
-3.4914 0.2310 1.9298
-3.4729 -0.0505 1.9154
-3.4547 -0.3295 1.9136
-3.4420 -0.6110 1.9273
-3.4270 -0.8979 1.9527
-3.4177 -1.1967 1.9954
-3.3826 -1.5000 2.0384
-3.2520 -1.7679 2.0384
-3.1004 -2.0245 2.0384
-2.9286 -2.2684 2.0384
-2.7379 -2.4977 2.0384
-2.5293 -2.7111 2.0384
-2.3041 -2.9071 2.0384
-0.7523 -1.1243 0.7430
-0.6594 -1.1812 0.7426
-0.5623 -1.2304 0.7422
-0.4616 -1.2716 0.7418
-0.3579 -1.3047 0.7414
-0.2519 -1.3293 0.7410
-0.1443 -1.3454 0.7407
-0.0358 -1.3528 0.7404
0.0730 -1.3515 0.7400
0.1814 -1.3414 0.7398
0.2886 -1.3227 0.7395
0.3940 -1.2955 0.7392
0.4968 -1.2600 0.7390
0.5965 -1.2163 0.7388
0.6924 -1.1647 0.7387
0.7838 -1.1057 0.7386
2.4022 -2.8691 2.0384
2.6256 -2.6680 2.0384
2.8321 -2.4494 2.0384
3.0204 -2.2148 2.0384
3.1891 -1.9657 2.0384
3.3371 -1.7038 2.0384
3.4636 -1.4308 2.0384
3.5675 -1.1484 2.0384
3.6483 -0.8585 2.0384
3.7055 -0.5630 2.0384
3.7385 -0.2638 2.0384
3.7473 0.0370 2.0384
3.7318 0.3375 2.0384
3.6920 0.6357 2.0384
3.6283 0.9297 2.0384
3.5411 1.2176 2.0384
3.4309 1.4974 2.0384
3.2986 1.7673 2.0384
3.1449 2.0256 2.0384
2.9709 2.2706 2.0384
2.7779 2.5007 2.0384
2.5669 2.7144 2.0384
2.3395 2.9103 2.0384
0.7654 1.1267 0.7439
0.6724 1.1846 0.7444
0.5751 1.2348 0.7448
0.4740 1.2770 0.7452
0.3699 1.3109 0.7455
0.2634 1.3363 0.7459
0.1551 1.3530 0.7463
0.0458 1.3609 0.7466
-0.0637 1.3600 0.7469
-0.1728 1.3503 0.7472
-0.2808 1.3318 0.7475
-0.3869 1.3047 0.7477
-0.4905 1.2691 0.7479
-0.5908 1.2252 0.7481
-0.6873 1.1735 0.7483
-2.1226 3.0344 2.0384
-2.3590 2.8527 2.0384
-2.5800 2.6527 2.0384
-2.7842 2.4357 2.0384
-2.9704 2.2032 2.0384
-3.1374 1.9565 2.0384
-3.2841 1.6973 2.0384
-3.4096 1.4273 2.0384
-3.5131 1.1481 2.0384
-3.5332 0.8470 2.0040
-3.5128 0.5478 1.9609
-3.4931 0.2594 1.9319
-3.4748 -0.0224 1.9164
-3.4558 -0.3015 1.9128
-3.4434 -0.5826 1.9254
-3.4286 -0.8688 1.9496
-3.4187 -1.1662 1.9905
-3.3945 -1.4725 2.0384
-3.2661 -1.7415 2.0384
-3.1165 -1.9994 2.0384
-2.9467 -2.2445 2.0384
-2.7578 -2.4754 2.0384
-2.5509 -2.6905 2.0384
-2.3274 -2.8883 2.0384
-0.7613 -1.1182 0.7430
-0.6689 -1.1758 0.7426
-0.5722 -1.2258 0.7422
-0.4719 -1.2678 0.7418
-0.3684 -1.3017 0.7414
-0.2627 -1.3272 0.7411
-0.1552 -1.3442 0.7407
-0.0467 -1.3524 0.7404
0.0621 -1.3520 0.7401
0.1706 -1.3428 0.7398
0.2779 -1.3250 0.7395
0.3835 -1.2986 0.7393
0.4866 -1.2639 0.7391
0.5867 -1.2210 0.7389
0.6830 -1.1702 0.7387
0.7749 -1.1119 0.7386
2.3790 -2.8883 2.0384
2.6040 -2.6889 2.0384
2.8122 -2.4721 2.0384
3.0024 -2.2390 2.0384
3.1731 -1.9913 2.0384
3.3232 -1.7306 2.0384
3.4519 -1.4586 2.0384
3.5581 -1.1770 2.0384
3.6413 -0.8878 2.0384
3.7008 -0.5928 2.0384
3.7363 -0.2939 2.0384
3.7475 0.0068 2.0384
3.7344 0.3074 2.0384
3.6971 0.6060 2.0384
3.6358 0.9005 2.0384
3.5509 1.1891 2.0384
3.4430 1.4698 2.0384
3.3128 1.7408 2.0384
3.1612 2.0003 2.0384
2.9893 2.2467 2.0384
2.7980 2.4784 2.0384
2.5888 2.6938 2.0384
2.3630 2.8916 2.0384
0.7744 1.1205 0.7439
0.6820 1.1791 0.7443
0.5850 1.2301 0.7447
0.4843 1.2731 0.7451
0.3805 1.3078 0.7455
0.2741 1.3341 0.7459
0.1660 1.3517 0.7462
0.0568 1.3605 0.7466
-0.0527 1.3605 0.7469
-0.1619 1.3517 0.7472
-0.2700 1.3340 0.7474
-0.3764 1.3078 0.7477
-0.4802 1.2730 0.7479
-0.5810 1.2300 0.7481
-0.6779 1.1790 0.7483
-0.7703 1.1204 0.7484
-2.3360 2.8717 2.0384
-2.5586 2.6735 2.0384
-2.7646 2.4582 2.0384
-2.9526 2.2271 2.0384
-3.1216 1.9818 2.0384
-3.2703 1.7238 2.0384
-3.3980 1.4548 2.0384
-3.5037 1.1764 2.0384
-3.5352 0.8777 2.0090
-3.5149 0.5773 1.9647
-3.4949 0.2879 1.9341
-3.4767 0.0056 1.9174
-3.4569 -0.2735 1.9122
-3.4447 -0.5543 1.9236
-3.4302 -0.8398 1.9466
-3.4196 -1.1358 1.9857
-3.4061 -1.4451 2.0384
-3.2799 -1.7150 2.0384
-3.1324 -1.9741 2.0384
-2.9646 -2.2206 2.0384
-2.7776 -2.4530 2.0384
-2.5724 -2.6697 2.0384
-2.3505 -2.8693 2.0384
-0.7703 -1.1120 0.7431
-0.6784 -1.1704 0.7427
-0.5821 -1.2211 0.7423
-0.4821 -1.2640 0.7419
-0.3789 -1.2987 0.7415
-0.2733 -1.3250 0.7411
-0.1660 -1.3428 0.7408
-0.0576 -1.3520 0.7404
0.0513 -1.3524 0.7401
0.1597 -1.3441 0.7398
0.2672 -1.3272 0.7395
0.3730 -1.3017 0.7393
0.4764 -1.2678 0.7391
0.5768 -1.2257 0.7389
0.6735 -1.1757 0.7387
0.7659 -1.1181 0.7386
2.3555 -2.9072 2.0384
2.5822 -2.7097 2.0384
2.7922 -2.4945 2.0384
2.9842 -2.2630 2.0384
3.1569 -2.0167 2.0384
3.3092 -1.7573 2.0384
3.4400 -1.4863 2.0384
3.5485 -1.2056 2.0384
3.6340 -0.9171 2.0384
3.6959 -0.6225 2.0384
3.7339 -0.3240 2.0384
3.7475 -0.0233 2.0384
3.7369 0.2774 2.0384
3.7019 0.5762 2.0384
3.6430 0.8712 2.0384
3.5604 1.1605 2.0384
3.4548 1.4421 2.0384
3.3268 1.7141 2.0384
3.1773 1.9749 2.0384
3.0074 2.2227 2.0384
2.8180 2.4559 2.0384
2.6105 2.6730 2.0384
2.3863 2.8726 2.0384
0.7834 1.1143 0.7439
0.6914 1.1736 0.7443
0.5949 1.2254 0.7447
0.4946 1.2692 0.7451
0.3910 1.3047 0.7455
0.2849 1.3319 0.7458
0.1769 1.3503 0.7462
0.0678 1.3600 0.7465
-0.0418 1.3609 0.7468
-0.1510 1.3529 0.7471
-0.2593 1.3362 0.7474
-0.3658 1.3108 0.7477
-0.4700 1.2769 0.7479
-0.5710 1.2347 0.7481
-0.6683 1.1844 0.7482
-0.7613 1.1266 0.7484
-2.3128 2.8906 2.0384
-2.5370 2.6942 2.0384
-2.7447 2.4805 2.0384
-2.9346 2.2510 2.0384
-3.1055 2.0070 2.0384
-3.2564 1.7502 2.0384
-3.3862 1.4822 2.0384
-3.4941 1.2047 2.0384
-3.5371 0.9086 2.0143
-3.5170 0.6068 1.9685
-3.4966 0.3165 1.9364
-3.4786 0.0337 1.9186
-3.4588 -0.2456 1.9121
-3.4460 -0.5260 1.9220
-3.4317 -0.8109 1.9438
-3.4206 -1.1055 1.9811
-3.4114 -1.4149 2.0347
-3.2935 -1.6884 2.0384
-3.1481 -1.9487 2.0384
-2.9823 -2.1965 2.0384
-2.7971 -2.4304 2.0384
-2.5938 -2.6487 2.0384
-2.3735 -2.8501 2.0384
-0.7793 -1.1058 0.7431
-0.6878 -1.1649 0.7427
-0.5919 -1.2164 0.7423
-0.4922 -1.2601 0.7419
-0.3894 -1.2956 0.7415
-0.2840 -1.3228 0.7412
-0.1768 -1.3415 0.7408
-0.0685 -1.3515 0.7405
0.0404 -1.3528 0.7401
0.1489 -1.3453 0.7398
0.2565 -1.3293 0.7396
0.3625 -1.3046 0.7393
0.4662 -1.2715 0.7391
0.5669 -1.2302 0.7389
0.6640 -1.1810 0.7387
0.7568 -1.1242 0.7386
2.3320 -2.9260 2.0384
2.5602 -2.7303 2.0384
2.7719 -2.5169 2.0384
2.9658 -2.2869 2.0384
3.1405 -2.0420 2.0384
3.2949 -1.7838 2.0384
3.4279 -1.5139 2.0384
3.5387 -1.2341 2.0384
3.6265 -0.9463 2.0384
3.6908 -0.6523 2.0384
3.7311 -0.3540 2.0384
3.7472 -0.0535 2.0384
3.7390 0.2473 2.0384
3.7065 0.5464 2.0384
3.6500 0.8419 2.0384
3.5697 1.1318 2.0384
3.4664 1.4142 2.0384
3.3406 1.6873 2.0384
3.1933 1.9493 2.0384
3.0253 2.1985 2.0384
2.8378 2.4332 2.0384
2.6321 2.6520 2.0384
2.4095 2.8534 2.0384
0.7924 1.1079 0.7438
0.7009 1.1680 0.7442
0.6048 1.2205 0.7446
0.5048 1.2651 0.7450
0.4015 1.3016 0.7454
0.2956 1.3295 0.7458
0.1878 1.3489 0.7462
0.0787 1.3595 0.7465
-0.0308 1.3612 0.7468
-0.1401 1.3541 0.7471
-0.2485 1.3383 0.7474
-0.3552 1.3137 0.7476
-0.4597 1.2806 0.7479
-0.5611 1.2393 0.7481
-0.6588 1.1898 0.7482
-0.7522 1.1327 0.7484
-2.2895 2.9093 2.0384
-2.5153 2.7147 2.0384
-2.7247 2.5027 2.0384
-2.9164 2.2746 2.0384
-3.0893 2.0321 2.0384
-3.2422 1.7764 2.0384
-3.3741 1.5095 2.0384
-3.4843 1.2329 2.0384
-3.5391 0.9396 2.0196
-3.5191 0.6365 1.9725
-3.4983 0.3452 1.9388
-3.4805 0.0618 1.9198
-3.4609 -0.2177 1.9123
-3.4473 -0.4977 1.9204
-3.4333 -0.7820 1.9410
-3.4215 -1.0754 1.9766
-3.4118 -1.3829 2.0283
-3.3069 -1.6618 2.0384
-3.1636 -1.9231 2.0384
-2.9998 -2.1723 2.0384
-2.8165 -2.4076 2.0384
-2.6149 -2.6276 2.0384
-2.3962 -2.8307 2.0384
-2.1619 -3.0158 2.0384
-0.6972 -1.1593 0.7427
-0.6017 -1.2116 0.7423
-0.5024 -1.2560 0.7419
-0.3998 -1.2924 0.7416
-0.2947 -1.3205 0.7412
-0.1876 -1.3400 0.7408
-0.0793 -1.3509 0.7405
0.0295 -1.3530 0.7402
0.1381 -1.3465 0.7399
0.2458 -1.3313 0.7396
0.3520 -1.3075 0.7393
0.4559 -1.2752 0.7391
0.5570 -1.2347 0.7389
0.6545 -1.1863 0.7388
0.7478 -1.1302 0.7386
2.3082 -2.9445 2.0384
2.5380 -2.7508 2.0384
2.7515 -2.5390 2.0384
2.9472 -2.3106 2.0384
3.1239 -2.0672 2.0384
3.2803 -1.8102 2.0384
3.4155 -1.5414 2.0384
3.5286 -1.2625 2.0384
3.6188 -0.9754 2.0384
3.6855 -0.6819 2.0384
3.7282 -0.3840 2.0384
3.7467 -0.0837 2.0384
3.7409 0.2172 2.0384
3.7109 0.5166 2.0384
3.6567 0.8126 2.0384
3.5788 1.1031 2.0384
3.4778 1.3863 2.0384
3.3542 1.6604 2.0384
3.2090 1.9236 2.0384
3.0430 2.1741 2.0384
2.8574 2.4104 2.0384
2.6535 2.6308 2.0384
2.4325 2.8340 2.0384
2.1960 3.0187 2.0384
0.7103 1.1623 0.7442
0.6146 1.2156 0.7446
0.5150 1.2610 0.7450
0.4120 1.2983 0.7454
0.3063 1.3271 0.7458
0.1986 1.3473 0.7461
0.0897 1.3588 0.7465
-0.0198 1.3614 0.7468
-0.1292 1.3552 0.7471
-0.2377 1.3403 0.7474
-0.3446 1.3166 0.7476
-0.4493 1.2843 0.7478
-0.5511 1.2438 0.7480
-0.6492 1.1951 0.7482
-0.7430 1.1388 0.7484
-2.2660 2.9278 2.0384
-2.4933 2.7350 2.0384
-2.7045 2.5246 2.0384
-2.8981 2.2981 2.0384
-3.0729 2.0569 2.0384
-3.2278 1.8026 2.0384
-3.3619 1.5367 2.0384
-3.4743 1.2610 2.0384
-3.5410 0.9708 2.0251
-3.5211 0.6662 1.9766
-3.5000 0.3739 1.9414
-3.4824 0.0900 1.9212
-3.4629 -0.1898 1.9125
-3.4486 -0.4695 1.9190
-3.4348 -0.7533 1.9384
-3.4224 -1.0454 1.9722
-3.4123 -1.3511 2.0221
-3.3201 -1.6350 2.0384
-3.1789 -1.8975 2.0384
-3.0171 -2.1479 2.0384
-2.8357 -2.3847 2.0384
-2.6359 -2.6063 2.0384
-2.4189 -2.8112 2.0384
-2.1861 -2.9981 2.0384
-0.7065 -1.1536 0.7428
-0.6115 -1.2067 0.7424
-0.5125 -1.2520 0.7420
-0.4102 -1.2891 0.7416
-0.3053 -1.3180 0.7412
-0.1984 -1.3384 0.7409
-0.0902 -1.3502 0.7405
0.0186 -1.3532 0.7402
0.1272 -1.3475 0.7399
0.2351 -1.3332 0.7396
0.3414 -1.3102 0.7394
0.4457 -1.2788 0.7391
0.5470 -1.2392 0.7389
0.6449 -1.1915 0.7388
0.7386 -1.1362 0.7386
2.2844 -2.9629 2.0384
2.5157 -2.7710 2.0384
2.7309 -2.5610 2.0384
2.9284 -2.3342 2.0384
3.1071 -2.0922 2.0384
3.2656 -1.8365 2.0384
3.4030 -1.5688 2.0384
3.5183 -1.2909 2.0384
3.6108 -1.0045 2.0384
3.6798 -0.7116 2.0384
3.7250 -0.4140 2.0384
3.7460 -0.1138 2.0384
3.7426 0.1871 2.0384
3.7150 0.4867 2.0384
3.6632 0.7831 2.0384
3.5877 1.0743 2.0384
3.4889 1.3583 2.0384
3.3676 1.6334 2.0384
3.2245 1.8978 2.0384
3.0605 2.1497 2.0384
2.8769 2.3874 2.0384
2.6747 2.6095 2.0384
2.4554 2.8145 2.0384
2.2204 3.0011 2.0384
0.7196 1.1566 0.7442
0.6244 1.2106 0.7446
0.5251 1.2569 0.7450
0.4224 1.2949 0.7453
0.3170 1.3246 0.7457
0.2095 1.3457 0.7461
0.1006 1.3580 0.7464
-0.0088 1.3616 0.7468
-0.1183 1.3563 0.7471
-0.2269 1.3421 0.7473
-0.3340 1.3193 0.7476
-0.4390 1.2879 0.7478
-0.5410 1.2482 0.7480
-0.6395 1.2004 0.7482
-0.7338 1.1448 0.7483
-2.2424 2.9461 2.0384
-2.4713 2.7551 2.0384
-2.6841 2.5464 2.0384
-2.8795 2.3215 2.0384
-3.0562 2.0817 2.0384
-3.2132 1.8286 2.0384
-3.3494 1.5638 2.0384
-3.4640 1.2890 2.0384
-3.5430 1.0021 2.0308
-3.5232 0.6961 1.9808
-3.5021 0.4027 1.9443
-3.4842 0.1182 1.9227
-3.4650 -0.1618 1.9129
-3.4499 -0.4414 1.9177
-3.4363 -0.7246 1.9360
-3.4233 -1.0155 1.9680
-3.4134 -1.3198 2.0164
-3.3331 -1.6080 2.0384
-3.1940 -1.8717 2.0384
-3.0342 -2.1234 2.0384
-2.8548 -2.3616 2.0384
-2.6567 -2.5848 2.0384
-2.4414 -2.7914 2.0384
-2.2100 -2.9802 2.0384
-0.7158 -1.1479 0.7428
-0.6212 -1.2017 0.7424
-0.5226 -1.2478 0.7420
-0.4206 -1.2858 0.7416
-0.3159 -1.3155 0.7413
-0.2092 -1.3367 0.7409
-0.1011 -1.3494 0.7406
0.0076 -1.3533 0.7402
0.1163 -1.3485 0.7399
0.2243 -1.3350 0.7396
0.3309 -1.3129 0.7394
0.4353 -1.2823 0.7392
0.5370 -1.2435 0.7390
0.6352 -1.1966 0.7388
0.7294 -1.1421 0.7386
2.2603 -2.9811 2.0384
2.4933 -2.7911 2.0384
2.7101 -2.5828 2.0384
2.9095 -2.3577 2.0384
3.0901 -2.1171 2.0384
3.2507 -1.8627 2.0384
3.3902 -1.5961 2.0384
3.5078 -1.3191 2.0384
3.6026 -1.0335 2.0384
3.6740 -0.7412 2.0384
3.7216 -0.4440 2.0384
3.7450 -0.1440 2.0384
3.7440 0.1570 2.0384
3.7188 0.4568 2.0384
3.6695 0.7536 2.0384
3.5963 1.0454 2.0384
3.4999 1.3302 2.0384
3.3807 1.6064 2.0384
3.2398 1.8719 2.0384
3.0779 2.1250 2.0384
2.8961 2.3643 2.0384
2.6958 2.5880 2.0384
2.4781 2.7948 2.0384
2.2445 2.9833 2.0384
0.7289 1.1507 0.7441
0.6341 1.2056 0.7445
0.5352 1.2526 0.7449
0.4328 1.2915 0.7453
0.3276 1.3220 0.7457
0.2203 1.3440 0.7460
0.1116 1.3572 0.7464
0.0021 1.3616 0.7467
-0.1073 1.3572 0.7470
-0.2161 1.3440 0.7473
-0.3234 1.3220 0.7476
-0.4286 1.2915 0.7478
-0.5309 1.2525 0.7480
-0.6298 1.2055 0.7482
-0.7246 1.1507 0.7483
-2.2186 2.9642 2.0384
-2.4491 2.7750 2.0384
-2.6635 2.5681 2.0384
-2.8607 2.3448 2.0384
-3.0394 2.1064 2.0384
-3.1984 1.8545 2.0384
-3.3367 1.5908 2.0384
-3.4535 1.3169 2.0384
-3.5449 1.0337 2.0366
-3.5252 0.7262 1.9852
-3.5043 0.4317 1.9474
-3.4860 0.1464 1.9243
-3.4670 -0.1339 1.9133
-3.4511 -0.4132 1.9165
-3.4378 -0.6960 1.9336
-3.4242 -0.9858 1.9639
-3.4145 -1.2887 2.0109
-3.3458 -1.5811 2.0384
-3.2089 -1.8458 2.0384
-3.0511 -2.0988 2.0384
-2.8736 -2.3384 2.0384
-2.6774 -2.5632 2.0384
-2.4637 -2.7715 2.0384
-2.2339 -2.9621 2.0384
-0.7250 -1.1421 0.7429
-0.6309 -1.1967 0.7425
-0.5326 -1.2435 0.7421
-0.4309 -1.2824 0.7417
-0.3265 -1.3129 0.7413
-0.2199 -1.3350 0.7409
-0.1120 -1.3485 0.7406
-0.0033 -1.3533 0.7403
0.1055 -1.3494 0.7400
0.2136 -1.3367 0.7397
0.3203 -1.3155 0.7394
0.4250 -1.2858 0.7392
0.5270 -1.2478 0.7390
0.6256 -1.2017 0.7388
0.7202 -1.1479 0.7387
2.2362 -2.9991 2.0384
2.4706 -2.8109 2.0384
2.6891 -2.6045 2.0384
2.8903 -2.3809 2.0384
3.0728 -2.1419 2.0384
3.2355 -1.8888 2.0384
3.3772 -1.6233 2.0384
3.4970 -1.3473 2.0384
3.5941 -1.0625 2.0384
3.6679 -0.7707 2.0384
3.7179 -0.4739 2.0384
3.7437 -0.1741 2.0384
3.7452 0.1269 2.0384
3.7224 0.4269 2.0384
3.6755 0.7241 2.0384
3.6047 1.0164 2.0384
3.5105 1.3021 2.0384
3.3937 1.5791 2.0384
3.2548 1.8458 2.0384
3.0950 2.1003 2.0384
2.9152 2.3410 2.0384
2.7166 2.5663 2.0384
2.5006 2.7749 2.0384
2.2686 2.9652 2.0384
0.7381 1.1448 0.7441
0.6438 1.2004 0.7445
0.5453 1.2482 0.7449
0.4432 1.2880 0.7453
0.3383 1.3194 0.7456
0.2312 1.3422 0.7460
0.1225 1.3563 0.7464
0.0131 1.3616 0.7467
-0.0964 1.3580 0.7470
-0.2052 1.3457 0.7473
-0.3127 1.3246 0.7475
-0.4181 1.2949 0.7478
-0.5208 1.2568 0.7480
-0.6201 1.2106 0.7482
-0.7153 1.1565 0.7483
-2.1947 2.9821 2.0384
-2.4267 2.7948 2.0384
-2.6428 2.5896 2.0384
-2.8418 2.3678 2.0384
-3.0224 2.1309 2.0384
-3.1834 1.8803 2.0384
-3.3238 1.6177 2.0384
-3.4428 1.3448 2.0384
-3.5396 1.0632 2.0384
-3.5273 0.7563 1.9897
-3.5065 0.4607 1.9506
-3.4879 0.1747 1.9260
-3.4690 -0.1059 1.9139
-3.4523 -0.3851 1.9154
-3.4392 -0.6674 1.9314
-3.4250 -0.9562 1.9599
-3.4156 -1.2577 2.0056
-3.3584 -1.5540 2.0384
-3.2236 -1.8198 2.0384
-3.0679 -2.0740 2.0384
-2.8922 -2.3151 2.0384
-2.6978 -2.5414 2.0384
-2.4858 -2.7514 2.0384
-2.2576 -2.9439 2.0384
-0.7342 -1.1362 0.7429
-0.6405 -1.1915 0.7425
-0.5426 -1.2392 0.7421
-0.4413 -1.2788 0.7417
-0.3371 -1.3102 0.7413
-0.2307 -1.3332 0.7410
-0.1228 -1.3475 0.7406
-0.0142 -1.3532 0.7403
0.0946 -1.3502 0.7400
0.2028 -1.3384 0.7397
0.3097 -1.3180 0.7394
0.4146 -1.2891 0.7392
0.5169 -1.2519 0.7390
0.6159 -1.2067 0.7388
0.7109 -1.1536 0.7387
2.2119 -3.0169 2.0384
2.4478 -2.8306 2.0384
2.6680 -2.6259 2.0384
0.2666 1.2470 0.7457
0.1656 1.2642 0.7460
0.0634 1.2733 0.7463
-0.0392 1.2741 0.7466
-0.1414 1.2666 0.7469
-0.2428 1.2509 0.7472
-0.3425 1.2271 0.7474
-0.4400 1.1954 0.7476
-0.5347 1.1558 0.7478
-0.6258 1.1088 0.7479
-0.7128 1.0546 0.7481
-2.1664 2.7072 2.0384
-2.3764 2.5232 2.0384
-2.5710 2.3231 2.0384
-2.7489 2.1080 2.0384
-2.9090 1.8795 2.0384
-3.0502 1.6389 2.0384
-3.1718 1.3879 2.0384
-3.2729 1.1279 2.0384
-3.3529 0.8608 2.0384
-3.4113 0.5880 2.0384
-3.4476 0.3115 2.0384
-3.4569 0.0329 2.0355
-3.4372 -0.2447 2.0287
-3.4231 -0.5231 2.0384
-3.3706 -0.7971 2.0384
-3.2963 -1.0661 2.0384
-3.2007 -1.3283 2.0384
-3.0844 -1.5821 2.0384
-2.9481 -1.8258 2.0384
-2.7927 -2.0579 2.0384
-2.6192 -2.2768 2.0384
-2.4286 -2.4812 2.0384
-2.2222 -2.6698 2.0384
-0.7296 -1.0358 0.7431
-0.6439 -1.0911 0.7427
-0.5541 -1.1394 0.7424
-0.4607 -1.1803 0.7420
-0.3644 -1.2136 0.7416
-0.2657 -1.2390 0.7413
-0.1653 -1.2565 0.7410
-0.0638 -1.2659 0.7406
0.0381 -1.2671 0.7403
0.1398 -1.2601 0.7401
0.2406 -1.2450 0.7398
0.3399 -1.2219 0.7396
0.4370 -1.1909 0.7394
0.5313 -1.1522 0.7392
0.6222 -1.1061 0.7390
0.7092 -1.0528 0.7389
2.1839 -2.7390 2.0384
2.3975 -2.5558 2.0384
2.5957 -2.3559 2.0384
2.7771 -2.1406 2.0384
2.9406 -1.9113 2.0384
3.0850 -1.6695 2.0384
3.2095 -1.4168 2.0384
3.3132 -1.1549 2.0384
3.3953 -0.8854 2.0384
3.4555 -0.6101 2.0384
3.4932 -0.3310 2.0384
3.5082 -0.0496 2.0384
3.5005 0.2320 2.0384
3.4701 0.5120 2.0384
3.4171 0.7886 2.0384
3.3420 1.0600 2.0384
3.2453 1.3244 2.0384
3.1276 1.5800 2.0384
2.9896 1.8253 2.0384
2.8324 2.0586 2.0384
2.6569 2.2784 2.0384
2.4643 2.4832 2.0384
2.2559 2.6718 2.0384
0.7419 1.0374 0.7438
0.6562 1.0936 0.7442
0.5662 1.1428 0.7446
0.4726 1.1845 0.7449
0.3758 1.2186 0.7453
0.2767 1.2448 0.7456
0.1757 1.2629 0.7460
0.0737 1.2728 0.7463
-0.0289 1.2744 0.7466
-0.1312 1.2677 0.7469
-0.2327 1.2529 0.7471
-0.3326 1.2299 0.7474
-0.4304 1.1989 0.7476
-0.5253 1.1601 0.7478
-0.6168 1.1139 0.7479
-0.7043 1.0604 0.7481
-2.1445 2.7247 2.0384
-2.3560 2.5424 2.0384
-2.5522 2.3438 2.0384
-2.7318 2.1302 2.0384
-2.8938 1.9030 2.0384
-3.0370 1.6635 2.0384
-3.1605 1.4135 2.0384
-3.2637 1.1543 2.0384
-3.3459 0.8878 2.0384
-3.4064 0.6156 2.0384
-3.4450 0.3393 2.0384
-3.4587 0.0609 2.0368
-3.4393 -0.2169 2.0289
-3.4257 -0.4953 2.0375
-3.3769 -0.7699 2.0384
-3.3047 -1.0394 2.0384
-3.2112 -1.3024 2.0384
-3.0970 -1.5571 2.0384
-2.9626 -1.8019 2.0384
-2.8091 -2.0352 2.0384
-2.6374 -2.2555 2.0384
-2.4484 -2.4615 2.0384
-2.2435 -2.6517 2.0384
-0.7379 -1.0299 0.7432
-0.6527 -1.0859 0.7428
-0.5633 -1.1349 0.7424
-0.4702 -1.1765 0.7420
-0.3742 -1.2106 0.7417
-0.2757 -1.2368 0.7413
-0.1754 -1.2551 0.7410
-0.0740 -1.2653 0.7407
0.0279 -1.2673 0.7404
0.1296 -1.2612 0.7401
0.2306 -1.2469 0.7398
0.3300 -1.2246 0.7396
0.4274 -1.1944 0.7394
0.5220 -1.1564 0.7392
0.6133 -1.1110 0.7391
0.7006 -1.0585 0.7389
0.7835 -0.9991 0.7388
2.3768 -2.5749 2.0384
2.5766 -2.3766 2.0384
2.7597 -2.1628 2.0384
2.9250 -1.9348 2.0384
3.0714 -1.6942 2.0384
3.1980 -1.4426 2.0384
3.3037 -1.1815 2.0384
3.3881 -0.9127 2.0384
3.4505 -0.6379 2.0384
3.4904 -0.3590 2.0384
3.5078 -0.0779 2.0384
3.5023 0.2038 2.0384
3.4741 0.4840 2.0384
3.4234 0.7611 2.0384
3.3505 1.0331 2.0384
3.2559 1.2982 2.0384
3.1403 1.5549 2.0384
3.0043 1.8013 2.0384
2.8490 2.0358 2.0384
2.6753 2.2570 2.0384
2.4844 2.4634 2.0384
2.2775 2.6537 2.0384
0.7502 1.0314 0.7438
0.6650 1.0883 0.7441
0.5754 1.1382 0.7445
0.4821 1.1807 0.7449
0.3857 1.2155 0.7453
0.2867 1.2425 0.7456
0.1859 1.2614 0.7460
0.0839 1.2721 0.7463
-0.0186 1.2746 0.7466
-0.1210 1.2688 0.7469
-0.2226 1.2547 0.7471
-0.3227 1.2325 0.7474
-0.4207 1.2024 0.7476
-0.5160 1.1644 0.7478
-0.6078 1.1188 0.7479
-0.6957 1.0661 0.7480
-2.1225 2.7420 2.0384
-2.3355 2.5614 2.0384
-2.5333 2.3644 2.0384
-2.7146 2.1522 2.0384
-2.8784 1.9263 2.0384
-3.0235 1.6880 2.0384
-3.1491 1.4390 2.0384
-3.2543 1.1807 2.0384
-3.3386 0.9148 2.0384
-3.4013 0.6430 2.0384
-3.4421 0.3671 2.0384
-3.4606 0.0889 2.0383
-3.4413 -0.1892 2.0291
-3.4270 -0.4672 2.0360
-3.3829 -0.7426 2.0384
-3.3129 -1.0127 2.0384
-3.2215 -1.2764 2.0384
-3.1093 -1.5320 2.0384
-2.9770 -1.7778 2.0384
-2.8253 -2.0124 2.0384
-2.6554 -2.2341 2.0384
-2.4681 -2.4415 2.0384
-2.2648 -2.6333 2.0384
-0.7462 -1.0239 0.7432
-0.6614 -1.0806 0.7428
-0.5724 -1.1303 0.7424
-0.4797 -1.1727 0.7421
-0.3839 -1.2075 0.7417
-0.2856 -1.2346 0.7414
-0.1855 -1.2536 0.7410
-0.0842 -1.2646 0.7407
0.0177 -1.2675 0.7404
0.1195 -1.2622 0.7401
0.2205 -1.2487 0.7399
0.3201 -1.2272 0.7396
0.4177 -1.1977 0.7394
0.5126 -1.1606 0.7392
0.6043 -1.1159 0.7391
0.6921 -1.0641 0.7389
0.7754 -1.0053 0.7388
2.3559 -2.5939 2.0384
2.5573 -2.3972 2.0384
2.7422 -2.1849 2.0384
2.9093 -1.9583 2.0384
3.0577 -1.7189 2.0384
3.1862 -1.4682 2.0384
3.2941 -1.2080 2.0384
3.3806 -0.9399 2.0384
3.4452 -0.6657 2.0384
3.4875 -0.3871 2.0384
3.5071 -0.1061 2.0384
3.5039 0.1756 2.0384
3.4780 0.4561 2.0384
3.4295 0.7335 2.0384
3.3588 1.0061 2.0384
3.2664 1.2720 2.0384
3.1528 1.5296 2.0384
3.0188 1.7771 2.0384
2.8654 2.0129 2.0384
2.6935 2.2355 2.0384
2.5042 2.4434 2.0384
2.2989 2.6354 2.0384
0.7585 1.0253 0.7437
0.6737 1.0829 0.7441
0.5845 1.1335 0.7445
0.4916 1.1768 0.7449
0.3954 1.2124 0.7452
0.2967 1.2402 0.7456
0.1961 1.2599 0.7459
0.0942 1.2714 0.7462
-0.0083 1.2747 0.7465
-0.1108 1.2697 0.7468
-0.2125 1.2565 0.7471
-0.3128 1.2351 0.7473
-0.4110 1.2057 0.7476
-0.5066 1.1685 0.7477
-0.5988 1.1237 0.7479
-0.6871 1.0717 0.7480
-0.7709 1.0127 0.7481
-2.3148 2.5802 2.0384
-2.5142 2.3848 2.0384
-2.6972 2.1741 2.0384
-2.8628 1.9495 2.0384
-3.0098 1.7124 2.0384
-3.1374 1.4644 2.0384
-3.2447 1.2069 2.0384
-3.3311 0.9417 2.0384
-3.3960 0.6705 2.0384
-3.4390 0.3949 2.0384
-3.4599 0.1168 2.0384
-3.4434 -0.1614 2.0295
-3.4283 -0.4392 2.0346
-3.3887 -0.7152 2.0384
-3.3209 -0.9859 2.0384
-3.2316 -1.2503 2.0384
-3.1215 -1.5068 2.0384
-2.9911 -1.7537 2.0384
-2.8414 -1.9894 2.0384
-2.6732 -2.2125 2.0384
-2.4876 -2.4214 2.0384
-2.2858 -2.6149 2.0384
-0.7544 -1.0179 0.7432
-0.6701 -1.0752 0.7429
-0.5815 -1.1256 0.7425
-0.4891 -1.1688 0.7421
-0.3936 -1.2044 0.7418
-0.2956 -1.2322 0.7414
-0.1956 -1.2521 0.7411
-0.0944 -1.2639 0.7407
0.0075 -1.2676 0.7404
0.1093 -1.2631 0.7402
0.2104 -1.2504 0.7399
0.3102 -1.2297 0.7396
0.4081 -1.2010 0.7394
0.5033 -1.1646 0.7392
0.5953 -1.1207 0.7391
0.6835 -1.0696 0.7389
0.7673 -1.0115 0.7388
2.3349 -2.6127 2.0384
2.5378 -2.4176 2.0384
2.7244 -2.2068 2.0384
2.8934 -1.9816 2.0384
3.0437 -1.7434 2.0384
3.1742 -1.4938 2.0384
3.2842 -1.2345 2.0384
3.3729 -0.9671 2.0384
3.4398 -0.6934 2.0384
3.4842 -0.4152 2.0384
3.5061 -0.1343 2.0384
3.5052 0.1474 2.0384
3.4816 0.4281 2.0384
3.4354 0.7059 2.0384
3.3669 0.9791 2.0384
3.2766 1.2457 2.0384
3.1651 1.5042 2.0384
3.0332 1.7528 2.0384
2.8816 1.9898 2.0384
2.7115 2.2138 2.0384
2.5239 2.4233 2.0384
2.3202 2.6169 2.0384
0.7667 1.0192 0.7437
0.6824 1.0775 0.7441
0.5937 1.1288 0.7445
0.5011 1.1728 0.7448
0.4052 1.2092 0.7452
0.3067 1.2378 0.7455
0.2062 1.2583 0.7459
0.1044 1.2707 0.7462
0.0019 1.2748 0.7465
-0.1005 1.2706 0.7468
-0.2023 1.2582 0.7471
-0.3028 1.2376 0.7473
-0.4013 1.2090 0.7475
-0.4971 1.1726 0.7477
-0.5897 1.1286 0.7479
-0.6784 1.0772 0.7480
-0.7627 1.0189 0.7481
-2.2940 2.5989 2.0384
-2.4949 2.4051 2.0384
-2.6796 2.1959 2.0384
-2.8470 1.9726 2.0384
-2.9959 1.7367 2.0384
-3.1255 1.4897 2.0384
-3.2349 1.2331 2.0384
-3.3234 0.9686 2.0384
-3.3905 0.6979 2.0384
-3.4357 0.4227 2.0384
-3.4588 0.1447 2.0384
-3.4453 -0.1336 2.0300
-3.4295 -0.4113 2.0334
-3.3943 -0.6878 2.0384
-3.3287 -0.9590 2.0384
-3.2415 -1.2242 2.0384
-3.1334 -1.4815 2.0384
-3.0051 -1.7294 2.0384
-2.8572 -1.9664 2.0384
-2.6908 -2.1908 2.0384
-2.5069 -2.4012 2.0384
-2.3067 -2.5962 2.0384
-0.7626 -1.0118 0.7433
-0.6788 -1.0698 0.7429
-0.5906 -1.1209 0.7425
-0.4985 -1.1648 0.7422
-0.4033 -1.2012 0.7418
-0.3055 -1.2298 0.7414
-0.2057 -1.2505 0.7411
-0.1045 -1.2631 0.7408
-0.0027 -1.2676 0.7405
0.0991 -1.2639 0.7402
0.2004 -1.2520 0.7399
0.3003 -1.2321 0.7397
0.3984 -1.2043 0.7395
0.4939 -1.1686 0.7393
0.5862 -1.1255 0.7391
0.6748 -1.0750 0.7390
0.7591 -1.0176 0.7389
2.3137 -2.6313 2.0384
2.5182 -2.4379 2.0384
2.7065 -2.2286 2.0384
2.8773 -2.0047 2.0384
3.0295 -1.7678 2.0384
3.1621 -1.5193 2.0384
3.2742 -1.2608 2.0384
3.3650 -0.9942 2.0384
3.4341 -0.7210 2.0384
3.4808 -0.4432 2.0384
3.5049 -0.1625 2.0384
3.5063 0.1192 2.0384
3.4850 0.4001 2.0384
3.4410 0.6783 2.0384
3.3748 0.9520 2.0384
3.2866 1.2194 2.0384
3.1772 1.4787 2.0384
3.0473 1.7284 2.0384
2.8976 1.9666 2.0384
2.7293 2.1920 2.0384
2.5435 2.4030 2.0384
2.3413 2.5983 2.0384
0.7749 1.0129 0.7436
0.6911 1.0719 0.7440
0.6027 1.1240 0.7444
0.5105 1.1687 0.7448
0.4149 1.2059 0.7452
0.3167 1.2353 0.7455
0.2164 1.2566 0.7459
0.1147 1.2698 0.7462
0.0122 1.2747 0.7465
-0.0903 1.2714 0.7468
-0.1922 1.2598 0.7470
-0.2928 1.2401 0.7473
-0.3915 1.2123 0.7475
-0.4877 1.1766 0.7477
-0.5806 1.1333 0.7479
-0.6697 1.0827 0.7480
-0.7545 1.0250 0.7481
-2.2730 2.6174 2.0384
-2.4755 2.4253 2.0384
-2.6619 2.2175 2.0384
-2.8311 1.9956 2.0384
-2.9819 1.7609 2.0384
-3.1134 1.5149 2.0384
-3.2249 1.2592 2.0384
-3.3155 0.9954 2.0384
-3.3848 0.7252 2.0384
-3.4322 0.4504 2.0384
-3.4575 0.1726 2.0384
-3.4473 -0.1059 2.0306
-3.4307 -0.3834 2.0322
-3.3997 -0.6604 2.0384
-3.3362 -0.9321 2.0384
-3.2512 -1.1979 2.0384
-3.1452 -1.4561 2.0384
-3.0188 -1.7051 2.0384
-2.8729 -1.9432 2.0384
-2.7083 -2.1689 2.0384
-2.5261 -2.3807 2.0384
-2.3275 -2.5774 2.0384
-0.7708 -1.0056 0.7433
-0.6874 -1.0643 0.7429
-0.5996 -1.1161 0.7426
-0.5079 -1.1607 0.7422
-0.4130 -1.1979 0.7418
-0.3154 -1.2273 0.7415
-0.2158 -1.2488 0.7411
-0.1147 -1.2622 0.7408
-0.0129 -1.2675 0.7405
0.0889 -1.2646 0.7402
0.1903 -1.2536 0.7399
0.2904 -1.2345 0.7397
0.3886 -1.2074 0.7395
0.4844 -1.1725 0.7393
0.5771 -1.1301 0.7391
0.6661 -1.0804 0.7390
0.7509 -1.0237 0.7389
2.2924 -2.6497 2.0384
2.4984 -2.4580 2.0384
2.6884 -2.2502 2.0384
2.8610 -2.0278 2.0384
3.0151 -1.7921 2.0384
3.1497 -1.5446 2.0384
3.2639 -1.2871 2.0384
3.3569 -1.0212 2.0384
3.4281 -0.7486 2.0384
3.4771 -0.4712 2.0384
3.5036 -0.1907 2.0384
3.5072 0.0910 2.0384
3.4882 0.3720 2.0384
3.4464 0.6506 2.0384
3.3824 0.9248 2.0384
3.2964 1.1929 2.0384
3.1891 1.4532 2.0384
3.0612 1.7038 2.0384
2.9135 1.9433 2.0384
2.7470 2.1701 2.0384
2.5629 2.3826 2.0384
2.3622 2.5795 2.0384
0.7830 1.0067 0.7436
0.6997 1.0663 0.7440
0.6118 1.1191 0.7444
0.5199 1.1646 0.7447
0.4246 1.2025 0.7451
0.3266 1.2327 0.7455
0.2265 1.2548 0.7458
0.1249 1.2688 0.7461
0.0225 1.2746 0.7465
-0.0800 1.2721 0.7467
-0.1820 1.2613 0.7470
-0.2828 1.2424 0.7473
-0.3817 1.2154 0.7475
-0.4782 1.1805 0.7477
-0.5714 1.1380 0.7479
-0.6610 1.0881 0.7480
-0.7462 1.0311 0.7481
-2.2519 2.6358 2.0384
-2.4559 2.4452 2.0384
-2.6442 2.2390 2.0384
-2.8149 2.0184 2.0384
-2.9676 1.7849 2.0384
-3.1011 1.5400 2.0384
-3.2146 1.2852 2.0384
-3.3074 1.0221 2.0384
-3.3788 0.7525 2.0384
-3.4284 0.4781 2.0384
-3.4559 0.2005 2.0384
-3.4493 -0.0780 2.0314
-3.4319 -0.3555 2.0312
-3.4048 -0.6329 2.0384
-3.3436 -0.9051 2.0384
-3.2607 -1.1716 2.0384
-3.1567 -1.4306 2.0384
-3.0324 -1.6806 2.0384
-2.8884 -1.9198 2.0384
-2.7256 -2.1469 2.0384
-2.5451 -2.3602 2.0384
-2.3481 -2.5584 2.0384
-0.7789 -0.9993 0.7434
-0.6959 -1.0587 0.7430
-0.6086 -1.1112 0.7426
-0.5173 -1.1566 0.7422
-0.4226 -1.1945 0.7419
-0.3253 -1.2247 0.7415
-0.2258 -1.2470 0.7412
-0.1249 -1.2612 0.7408
-0.0232 -1.2673 0.7405
0.0787 -1.2653 0.7402
0.1801 -1.2551 0.7400
0.2804 -1.2367 0.7397
0.3789 -1.2105 0.7395
0.4750 -1.1764 0.7393
0.5680 -1.1347 0.7391
0.6574 -1.0857 0.7390
0.7426 -1.0297 0.7389
2.2709 -2.6680 2.0384
2.4785 -2.4780 2.0384
2.6701 -2.2717 2.0384
2.8445 -2.0507 2.0384
3.0005 -1.8162 2.0384
3.1371 -1.5699 2.0384
3.2534 -1.3133 2.0384
3.3486 -1.0482 2.0384
3.4220 -0.7762 2.0384
3.4732 -0.4991 2.0384
3.5019 -0.2189 2.0384
3.5079 0.0628 2.0384
3.4911 0.3439 2.0384
3.4516 0.6228 2.0384
3.3898 0.8976 2.0384
3.3060 1.1664 2.0384
3.2008 1.4275 2.0384
3.0749 1.6792 2.0384
2.9292 1.9199 2.0384
2.7645 2.1480 2.0384
2.5821 2.3620 2.0384
2.3830 2.5605 2.0384
0.7911 1.0003 0.7436
0.7082 1.0606 0.7440
0.6208 1.1141 0.7443
0.5293 1.1603 0.7447
0.4343 1.1991 0.7451
0.3366 1.2300 0.7454
0.2366 1.2530 0.7458
0.1351 1.2678 0.7461
0.0328 1.2744 0.7464
-0.0698 1.2727 0.7467
-0.1718 1.2628 0.7470
-0.2728 1.2447 0.7472
-0.3719 1.2185 0.7475
-0.4686 1.1844 0.7477
-0.5623 1.1426 0.7478
-0.6522 1.0934 0.7480
-0.7379 1.0371 0.7481
-2.2306 2.6540 2.0384
-2.4362 2.4650 2.0384
-2.6259 2.2603 2.0384
-2.7986 2.0411 2.0384
-2.9532 1.8088 2.0384
-3.0887 1.5650 2.0384
-3.2042 1.3111 2.0384
-3.2990 1.0488 2.0384
-3.3726 0.7798 2.0384
-3.4244 0.5058 2.0384
-3.4542 0.2284 2.0384
-3.4512 -0.0502 2.0322
-3.4331 -0.3276 2.0303
-3.4097 -0.6054 2.0384
-3.3507 -0.8781 2.0384
-3.2700 -1.1452 2.0384
-3.1681 -1.4051 2.0384
-3.0457 -1.6560 2.0384
-2.9037 -1.8964 2.0384
-2.7427 -2.1247 2.0384
-2.5640 -2.3395 2.0384
-2.3685 -2.5393 2.0384
-2.1576 -2.7229 2.0384
-0.7045 -1.0531 0.7430
-0.6175 -1.1063 0.7426
-0.5266 -1.1524 0.7423
-0.4322 -1.1910 0.7419
-0.3351 -1.2220 0.7415
-0.2358 -1.2451 0.7412
-0.1350 -1.2601 0.7409
-0.0334 -1.2671 0.7406
0.0685 -1.2658 0.7403
0.1700 -1.2564 0.7400
0.2704 -1.2389 0.7397
0.3691 -1.2135 0.7395
0.4655 -1.1801 0.7393
0.5588 -1.1392 0.7391
0.6486 -1.0909 0.7390
0.7343 -1.0356 0.7389
2.2493 -2.6861 2.0384
2.4584 -2.4978 2.0384
2.6517 -2.2931 2.0384
2.8279 -2.0735 2.0384
2.9858 -1.8403 2.0384
3.1243 -1.5951 2.0384
3.2427 -1.3394 2.0384
3.3400 -1.0751 2.0384
3.4156 -0.8037 2.0384
3.4691 -0.5271 2.0384
3.5001 -0.2471 2.0384
3.5083 0.0345 2.0384
3.4938 0.3158 2.0384
3.4566 0.5950 2.0384
3.3970 0.8703 2.0384
3.3154 1.1398 2.0384
3.2123 1.4017 2.0384
3.0884 1.6545 2.0384
2.9446 1.8963 2.0384
2.7818 2.1257 2.0384
2.6011 2.3412 2.0384
2.4037 2.5413 2.0384
2.1908 2.7248 2.0384
0.7168 1.0549 0.7439
0.6297 1.1091 0.7443
0.5386 1.1560 0.7447
0.4440 1.1955 0.7450
0.3465 1.2273 0.7454
0.2467 1.2510 0.7457
0.1453 1.2667 0.7461
0.0431 1.2741 0.7464
-0.0595 1.2733 0.7467
-0.1617 1.2642 0.7470
-0.2627 1.2469 0.7472
-0.3621 1.2215 0.7474
-0.4591 1.1881 0.7476
-0.5530 1.1471 0.7478
-0.6434 1.0986 0.7480
-0.7295 1.0431 0.7481
-2.2092 2.6720 2.0384
-2.4163 2.4847 2.0384
-2.6076 2.2815 2.0384
-2.7821 2.0637 2.0384
-2.9385 1.8327 2.0384
-3.0760 1.5899 2.0384
-3.1935 1.3369 2.0384
-3.2905 1.0754 2.0384
-3.3662 0.8070 2.0384
-3.4202 0.5334 2.0384
-3.4522 0.2563 2.0384
-3.4531 -0.0224 2.0332
-3.4343 -0.2998 2.0295
-3.4145 -0.5778 2.0384
-3.3576 -0.8510 2.0384
-3.2790 -1.1187 2.0384
-3.1792 -1.3794 2.0384
-3.0589 -1.6313 2.0384
-2.9188 -1.8728 2.0384
-2.7597 -2.1024 2.0384
-2.5827 -2.3186 2.0384
-2.3888 -2.5200 2.0384
-2.1794 -2.7052 2.0384
-0.7129 -1.0474 0.7431
-0.6264 -1.1013 0.7427
-0.5358 -1.1481 0.7423
-0.4418 -1.1875 0.7419
-0.3450 -1.2193 0.7416
-0.2459 -1.2431 0.7412
-0.1452 -1.2590 0.7409
-0.0436 -1.2668 0.7406
0.0583 -1.2663 0.7403
0.1599 -1.2578 0.7400
0.2604 -1.2411 0.7398
0.3593 -1.2164 0.7395
0.4559 -1.1838 0.7393
0.5496 -1.1436 0.7392
0.6398 -1.0961 0.7390
0.7259 -1.0414 0.7389
2.2275 -2.7040 2.0384
2.4381 -2.5174 2.0384
2.6331 -2.3143 2.0384
2.8110 -2.0961 2.0384
2.9708 -1.8642 2.0384
3.1114 -1.6201 2.0384
