ply
format ascii 1.0
element vertex 2177
property float32 x
property float32 y
property float32 z
end_header
-7.9434 -0.8609 2.0383
-7.8513 -1.4963 2.0383
-7.7089 -2.1226 2.0383
-7.5170 -2.7358 2.0383
-7.2767 -3.3320 2.0383
-6.9896 -3.9075 2.0383
-6.6572 -4.4585 2.0383
-6.2818 -4.9815 2.0383
-5.8655 -5.4732 2.0383
-5.4110 -5.9303 2.0383
-4.9211 -6.3499 2.0383
-4.3988 -6.7293 2.0383
-3.8475 -7.0658 2.0383
-3.2706 -7.3573 2.0383
-2.6717 -7.6018 2.0383
-2.0548 -7.7976 2.0383
-1.4236 -7.9434 2.0383
-0.7823 -8.0380 2.0383
-0.1350 -8.0808 2.0383
0.5140 -8.0714 2.0383
1.1607 -8.0098 2.0383
1.8006 -7.8962 2.0383
2.4298 -7.7312 2.0383
3.0439 -7.5160 2.0383
3.6390 -7.2517 2.0383
4.2110 -6.9401 2.0383
4.7563 -6.5832 2.0383
5.2712 -6.1831 2.0383
5.7523 -5.7426 2.0383
6.1962 -5.2645 2.0383
6.6002 -4.7518 2.0383
6.9614 -4.2081 2.0383
7.2774 -3.6368 2.0383
7.5463 -3.0418 2.0383
7.7660 -2.4269 2.0383
7.9353 -1.7962 2.0383
8.0529 -1.1539 2.0383
8.1182 -0.5043 2.0383
8.1306 0.1483 2.0383
8.0903 0.7996 2.0383
7.9974 1.4454 2.0383
7.8526 2.0812 2.0383
5.9844 2.1126 1.5930
5.0500 2.2531 1.3888
4.3245 2.3622 1.2382
4.0679 2.6665 1.2229
4.1517 3.2257 1.3227
4.2510 3.8880 1.4503
4.3721 4.6964 1.6164
4.5255 5.7198 1.8387
4.4887 6.7179 2.0383
3.9323 7.0511 2.0383
3.3514 7.3383 2.0383
2.7497 7.5778 2.0383
2.1312 7.7680 2.0383
1.4999 7.9080 2.0383
0.8598 7.9969 2.0383
0.2152 8.0341 2.0383
-6.6902 2.4900 2.0383
-6.8685 1.9448 2.0383
-7.0029 1.3871 2.0383
-7.0925 0.8205 2.0383
-7.1366 0.2485 2.0383
-7.1351 -0.3254 2.0383
-7.0879 -0.8974 2.0383
-6.9952 -1.4640 2.0383
-6.8576 -2.0216 2.0383
-6.6760 -2.5667 2.0383
-6.4513 -3.0957 2.0383
-6.1851 -3.6054 2.0383
-5.8789 -4.0924 2.0383
-5.5345 -4.5537 2.0383
-5.1543 -4.9862 2.0383
-4.7404 -5.3871 2.0383
-4.2956 -5.7539 2.0383
-3.8225 -6.0841 2.0383
-3.3242 -6.3756 2.0383
-2.8038 -6.6263 2.0383
-2.2646 -6.8346 2.0383
-1.7101 -6.9991 2.0383
-1.1438 -7.1187 2.0383
-0.5694 -7.1924 2.0383
0.0094 -7.2197 2.0383
0.5889 -7.2003 2.0383
1.1653 -7.1344 2.0383
1.7349 -7.0221 2.0383
2.2938 -6.8643 2.0383
2.8384 -6.6618 2.0383
3.3653 -6.4159 2.0383
3.8709 -6.1282 2.0383
4.3517 -5.8005 2.0383
4.8046 -5.4348 2.0383
5.2267 -5.0337 2.0383
5.6151 -4.5996 2.0383
5.9672 -4.1355 2.0383
6.2806 -3.6443 2.0383
6.5534 -3.1293 2.0383
6.7836 -2.5939 2.0383
6.9698 -2.0416 2.0383
7.1107 -1.4760 2.0383
7.2054 -0.9010 2.0383
7.2532 -0.3203 2.0383
7.2540 0.2623 2.0383
7.2076 0.8430 2.0383
7.1146 1.4178 2.0383
6.9754 1.9830 2.0383
5.7521 2.1471 1.7264
4.8727 2.2794 1.5134
4.1832 2.3831 1.3551
4.0855 2.7838 1.3922
4.1040 3.3081 1.4853
4.2758 4.0535 1.6611
4.8277 5.3753 2.0383
4.3781 5.7416 2.0383
3.9008 6.0703 2.0383
3.3989 6.3593 2.0383
2.8758 6.6070 2.0383
2.3348 6.8117 2.0383
1.7795 6.9723 2.0383
1.2134 7.0877 2.0383
0.6403 7.1573 2.0383
0.0638 7.1809 2.0383
-0.5123 7.1582 2.0383
-1.0845 7.0895 2.0383
-1.6490 6.9754 2.0383
-2.2023 6.8166 2.0383
-2.7409 6.6143 2.0383
-3.2614 6.3697 2.0383
-3.7604 6.0845 2.0383
-4.2350 5.7606 2.0383
-4.6820 5.4000 2.0383
-5.0987 5.0050 2.0383
-5.4826 4.5783 2.0383
-5.8311 4.1224 2.0383
-6.1422 3.6403 2.0383
-6.4139 3.1350 2.0383
-6.6445 2.6097 2.0383
-6.8325 2.0678 2.0383
-6.9767 1.5126 2.0383
-7.0764 0.9477 2.0383
-7.1307 0.3766 2.0383
-7.1394 -0.1972 2.0383
-7.1024 -0.7699 2.0383
-7.0198 -1.3381 2.0383
-6.8922 -1.8980 2.0383
-6.7203 -2.4462 2.0383
-6.5052 -2.9791 2.0383
-6.2481 -3.4934 2.0383
-5.9507 -3.9857 2.0383
-5.6147 -4.4530 2.0383
-5.2422 -4.8922 2.0383
-4.8357 -5.3004 2.0383
-4.3974 -5.6751 2.0383
-3.9305 -6.0136 2.0383
-3.4375 -6.3139 2.0383
-2.9218 -6.5739 2.0383
-2.3865 -6.7918 2.0383
-1.8352 -6.9662 2.0383
-1.2712 -7.0959 2.0383
-0.6983 -7.1799 2.0383
-0.1201 -7.2176 2.0383
0.4595 -7.2087 2.0383
1.0370 -7.1532 2.0383
1.6084 -7.0512 2.0383
2.1700 -6.9035 2.0383
2.7182 -6.7109 2.0383
3.2494 -6.4746 2.0383
3.7599 -6.1960 2.0383
4.2466 -5.8771 2.0383
4.7060 -5.5197 2.0383
5.1352 -5.1263 2.0383
5.5313 -4.6993 2.0383
5.8918 -4.2416 2.0383
6.2140 -3.7562 2.0383
6.4961 -3.2462 2.0383
6.7359 -2.7151 2.0383
6.9321 -2.1663 2.0383
7.0832 -1.6034 2.0383
7.1882 -1.0301 2.0383
7.2466 -0.4503 2.0383
7.2579 0.1322 2.0383
7.2221 0.7136 2.0383
7.1394 1.2900 2.0383
7.0104 1.8578 2.0383
5.9841 2.1122 1.7842
5.0499 2.2528 1.5554
4.3245 2.3619 1.3867
4.0678 2.6662 1.3695
4.1302 3.2086 1.4735
4.2509 3.8875 1.6239
4.3720 4.6957 1.8098
4.4811 5.6629 2.0383
4.0097 6.0002 2.0383
3.5130 6.2983 2.0383
2.9944 6.5553 2.0383
2.4571 6.7698 2.0383
1.9046 6.9403 2.0383
1.3407 7.0658 2.0383
0.7688 7.1458 2.0383
0.1927 7.1796 2.0383
-6.0407 2.2483 2.0383
-6.2017 1.7560 2.0383
-6.3230 1.2524 2.0383
-6.4038 0.7408 2.0383
-6.4436 0.2242 2.0383
-6.4421 -0.2939 2.0383
-6.3993 -0.8104 2.0383
-6.3155 -1.3220 2.0383
-6.1910 -1.8254 2.0383
-6.0268 -2.3174 2.0383
-5.8237 -2.7949 2.0383
-5.5831 -3.2549 2.0383
-5.3064 -3.6944 2.0383
-4.9954 -4.1105 2.0383
-4.6519 -4.5007 2.0383
-4.2781 -4.8623 2.0383
-3.8763 -5.1931 2.0383
-3.4492 -5.4908 2.0383
-2.9993 -5.7534 2.0383
-2.5295 -5.9793 2.0383
-2.0429 -6.1669 2.0383
-1.5425 -6.3149 2.0383
-1.0315 -6.4224 2.0383
-0.5133 -6.4885 2.0383
0.0089 -6.5127 2.0383
0.5316 -6.4949 2.0383
1.0515 -6.4350 2.0383
1.5651 -6.3335 2.0383
2.0691 -6.1908 2.0383
2.5602 -6.0079 2.0383
3.0352 -5.7859 2.0383
3.4909 -5.5262 2.0383
3.9243 -5.2304 2.0383
4.3326 -4.9006 2.0383
4.7130 -4.5387 2.0383
5.0631 -4.1473 2.0383
5.3804 -3.7287 2.0383
5.6630 -3.2858 2.0383
5.9088 -2.8214 2.0383
6.1164 -2.3387 2.0383
6.2842 -1.8408 2.0383
6.4113 -1.3309 2.0383
6.4967 -0.8125 2.0383
6.5399 -0.2889 2.0383
6.5408 0.2364 2.0383
6.4991 0.7599 2.0383
6.4154 1.2782 2.0383
6.2901 1.7880 2.0383
6.1242 2.2857 2.0383
4.8726 2.2791 1.6780
4.1831 2.3828 1.5025
4.0854 2.7834 1.5436
4.0605 3.2726 1.6292
4.2757 4.0530 1.8415
4.3550 4.8484 2.0383
3.9497 5.1791 2.0383
3.5194 5.4759 2.0383
3.0668 5.7370 2.0383
2.5950 5.9608 2.0383
2.1071 6.1459 2.0383
1.6061 6.2911 2.0383
1.0954 6.3957 2.0383
0.5783 6.4590 2.0383
0.0580 6.4806 2.0383
-0.4620 6.4605 2.0383
-0.9785 6.3989 2.0383
-1.4881 6.2962 2.0383
-1.9876 6.1532 2.0383
-2.4739 5.9709 2.0383
-2.9439 5.7503 2.0383
-3.3946 5.4931 2.0383
-3.8231 5.2008 2.0383
-4.2269 4.8754 2.0383
-4.6033 4.5190 2.0383
-4.9500 4.1337 2.0383
-5.2648 3.7222 2.0383
-5.5458 3.2869 2.0383
-5.7912 2.8307 2.0383
-5.9994 2.3564 2.0383
-6.1692 1.8671 2.0383
-6.2994 1.3657 2.0383
-6.3893 0.8556 2.0383
-6.4383 0.3399 2.0383
-6.4460 -0.1782 2.0383
-6.4125 -0.6953 2.0383
-6.3377 -1.2083 2.0383
-6.2223 -1.7138 2.0383
-6.0669 -2.2086 2.0383
-5.8724 -2.6896 2.0383
-5.6401 -3.1538 2.0383
-5.3713 -3.5981 2.0383
-5.0678 -4.0197 2.0383
-4.7313 -4.4159 2.0383
-4.3641 -4.7841 2.0383
-3.9684 -5.1220 2.0383
-3.5467 -5.4272 2.0383
-3.1016 -5.6979 2.0383
-2.6361 -5.9321 2.0383
-2.1529 -6.1284 2.0383
-1.6553 -6.2853 2.0383
-1.1464 -6.4019 2.0383
-0.6295 -6.4773 2.0383
-0.1079 -6.5110 2.0383
0.4149 -6.5025 2.0383
0.9357 -6.4520 2.0383
1.4511 -6.3598 2.0383
1.9575 -6.2262 2.0383
2.4518 -6.0522 2.0383
2.9307 -5.8388 2.0383
3.3909 -5.5874 2.0383
3.8296 -5.2995 2.0383
4.2437 -4.9771 2.0383
4.6306 -4.6222 2.0383
4.9876 -4.2372 2.0383
5.3125 -3.8244 2.0383
5.6030 -3.3867 2.0383
5.8572 -2.9269 2.0383
6.0734 -2.4480 2.0383
6.2502 -1.9532 2.0383
6.3865 -1.4457 2.0383
6.4812 -0.9289 2.0383
6.5340 -0.4062 2.0383
6.5443 0.1190 2.0383
6.5121 0.6433 2.0383
6.4377 1.1630 2.0383
6.3217 1.6750 2.0383
6.1647 2.1757 2.0383
5.0497 2.2524 1.7247
4.3244 2.3615 1.5376
4.0678 2.6659 1.5184
4.0878 3.1753 1.6169
4.2508 3.8870 1.8003
4.4419 4.7701 2.0383
4.0426 5.1080 2.0383
3.6176 5.4126 2.0383
3.1697 5.6818 2.0383
2.7020 5.9141 2.0383
2.2173 6.1080 2.0383
1.7190 6.2622 2.0383
1.2102 6.3759 2.0383
0.6942 6.4484 2.0383
0.1744 6.4794 2.0383
-5.4974 2.0461 2.0383
-5.6440 1.5980 2.0383
-5.7543 1.1397 2.0383
-5.8278 0.6740 2.0383
-5.8640 0.2039 2.0383
-5.8625 -0.2676 2.0383
-5.8234 -0.7377 2.0383
-5.7470 -1.2032 2.0383
-5.6336 -1.6613 2.0383
-5.4839 -2.1090 2.0383
-5.2990 -2.5434 2.0383
-5.0799 -2.9619 2.0383
-4.8279 -3.3616 2.0383
-4.5447 -3.7401 2.0383
-4.2319 -4.0949 2.0383
-3.8917 -4.4237 2.0383
-3.5260 -4.7244 2.0383
-3.1372 -4.9950 2.0383
-2.7279 -5.2336 2.0383
-2.3004 -5.4388 2.0383
-1.8577 -5.6092 2.0383
-1.4025 -5.7435 2.0383
-0.9377 -5.8409 2.0383
-0.4664 -5.9007 2.0383
0.0085 -5.9225 2.0383
0.4838 -5.9060 2.0383
0.9565 -5.8513 2.0383
1.4234 -5.7587 2.0383
0.6802 -2.0348 0.7368
2.3280 -5.4621 2.0383
2.7597 -5.2601 2.0383
3.1739 -5.0238 2.0383
3.5678 -4.7549 2.0383
3.9389 -4.4549 2.0383
4.2846 -4.1258 2.0383
4.6027 -3.7699 2.0383
4.8910 -3.3894 2.0383
5.1478 -2.9868 2.0383
5.3712 -2.5647 2.0383
5.5598 -2.1259 2.0383
5.7124 -1.6733 2.0383
5.8279 -1.2099 2.0383
5.9056 -0.7386 2.0383
5.9450 -0.2627 2.0383
5.9458 0.2147 2.0383
5.9081 0.6906 2.0383
5.8321 1.1618 2.0383
5.7184 1.6252 2.0383
5.5677 2.0778 2.0383
5.3811 2.5166 2.0383
4.1830 2.3825 1.6525
4.0854 2.7831 1.6976
4.0791 3.2872 1.8000
4.3035 4.0788 2.0383
3.9604 4.4085 2.0383
3.5921 4.7094 2.0383
3.2009 4.9796 2.0383
2.7895 5.2173 2.0383
2.3605 5.4211 2.0383
1.9168 5.5898 2.0383
1.4613 5.7222 2.0383
0.9968 5.8176 2.0383
0.5264 5.8754 2.0383
0.0532 5.8954 2.0383
-0.4199 5.8774 2.0383
-0.8898 5.8216 2.0383
-1.3535 5.7285 2.0383
-1.8081 5.5986 2.0383
-2.2507 5.4329 2.0383
-2.6784 5.2324 2.0383
-3.0886 4.9985 2.0383
-3.4787 4.7327 2.0383
-3.8463 4.4367 2.0383
-4.1889 4.1124 2.0383
-4.5045 3.7619 2.0383
-4.7911 3.3874 2.0383
-5.0469 2.9913 2.0383
-5.2703 2.5761 2.0383
-5.4598 2.1445 2.0383
-5.6143 1.6991 2.0383
-5.7329 1.2429 2.0383
-5.8146 0.7786 2.0383
-5.8592 0.3092 2.0383
-5.8661 -0.1623 2.0383
-5.8354 -0.6329 2.0383
-5.7673 -1.0997 2.0383
-5.6621 -1.5597 2.0383
-5.5205 -2.0100 2.0383
-5.3433 -2.4476 2.0383
-5.1317 -2.8699 2.0383
-4.8870 -3.2741 2.0383
-4.6106 -3.6575 2.0383
-4.3043 -4.0178 2.0383
-3.9700 -4.3526 2.0383
-3.6098 -4.6598 2.0383
-3.2260 -4.9372 2.0383
-2.8210 -5.1831 2.0383
-2.3974 -5.3960 2.0383
-0.7106 -2.0233 0.7398
-1.5051 -5.7167 2.0383
-1.0422 -5.8224 2.0383
-0.5721 -5.8907 2.0383
-0.0978 -5.9210 2.0383
0.3777 -5.9130 2.0383
0.8512 -5.8668 2.0383
1.3197 -5.7826 2.0383
1.7802 -5.6609 2.0383
2.2295 -5.5025 2.0383
2.6647 -5.3083 2.0383
3.0830 -5.0795 2.0383
3.4817 -4.8177 2.0383
3.8581 -4.5245 2.0383
4.2096 -4.2018 2.0383
4.5341 -3.8517 2.0383
4.8293 -3.4764 2.0383
5.0932 -3.0785 2.0383
5.3242 -2.6605 2.0383
5.5208 -2.2252 2.0383
5.6815 -1.7755 2.0383
5.8053 -1.3142 2.0383
5.8915 -0.8444 2.0383
5.9395 -0.3693 2.0383
5.9490 0.1081 2.0383
5.9199 0.5846 2.0383
5.8524 1.0571 2.0383
5.7470 1.5225 2.0383
5.6045 1.9777 2.0383
5.4258 2.4199 2.0383
4.3243 2.3612 1.6911
4.0678 2.6655 1.6700
4.0984 3.1832 1.7828
4.3765 4.0014 2.0383
4.0394 4.3373 2.0383
3.6764 4.6448 2.0383
3.2901 4.9220 2.0383
2.8830 5.1671 2.0383
2.4578 5.3786 2.0383
2.0171 5.5552 2.0383
1.5639 5.6958 2.0383
1.1012 5.7995 2.0383
0.6319 5.8658 2.0383
0.1590 5.8942 2.0383
-5.0356 1.8742 2.0383
-5.1698 1.4638 2.0383
-5.2709 1.0439 2.0383
-5.3382 0.6173 2.0383
-5.3712 0.1867 2.0383
-5.3698 -0.2453 2.0383
-5.3339 -0.6758 2.0383
-5.2638 -1.1022 2.0383
-5.1598 -1.5218 2.0383
-5.0226 -1.9318 2.0383
-4.8531 -2.3297 2.0383
-4.6522 -2.7129 2.0383
-4.4213 -3.0789 2.0383
-4.1617 -3.4254 2.0383
-3.8752 -3.7502 2.0383
-3.5634 -4.0512 2.0383
-3.2284 -4.3263 2.0383
-2.8723 -4.5739 2.0383
-2.4974 -4.7922 2.0383
-0.7651 -1.8092 0.7405
-0.6174 -1.8646 0.7400
-0.4658 -1.9080 0.7396
-0.3112 -1.9392 0.7392
-0.1546 -1.9580 0.7388
0.0029 -1.9642 0.7385
0.1605 -1.9578 0.7381
0.3171 -1.9388 0.7379
0.4716 -1.9074 0.7376
0.6232 -1.8638 0.7374
0.7708 -1.8081 0.7372
2.5261 -4.8141 2.0383
2.9050 -4.5977 2.0383
3.2654 -4.3515 2.0383
3.6049 -4.0768 2.0383
3.9211 -3.7757 2.0383
4.2122 -3.4499 2.0383
4.4760 -3.1016 2.0383
4.7109 -2.7332 2.0383
4.9153 -2.3469 2.0383
5.0878 -1.9454 2.0383
5.2274 -1.5312 2.0383
5.3332 -1.1072 2.0383
5.4043 -0.6760 2.0383
5.4404 -0.2405 2.0383
5.4412 0.1964 2.0383
5.4068 0.6319 2.0383
5.3374 1.0631 2.0383
5.2335 1.4871 2.0383
5.0957 1.9014 2.0383
4.9250 2.3030 2.0383
4.1830 2.3821 1.8054
4.4898 3.0582 2.0383
4.2282 3.4069 2.0383
3.9395 3.7333 2.0383
3.6255 4.0352 2.0383
3.2885 4.3108 2.0383
2.9305 4.5583 2.0383
2.5540 4.7762 2.0383
0.7915 1.8174 0.7464
0.6432 1.8752 0.7469
0.4907 1.9209 0.7473
0.3350 1.9541 0.7477
0.4824 5.3798 2.0383
0.0491 5.3983 2.0383
-0.3842 5.3821 2.0383
-0.2993 1.9593 0.7491
-0.4556 1.9287 0.7494
-0.6089 1.8856 0.7496
-0.7581 1.8303 0.7498
-2.4528 4.7923 2.0383
-2.8286 4.5782 2.0383
-3.1860 4.3349 2.0383
-3.5228 4.0639 2.0383
-3.8367 3.7669 2.0383
-4.1259 3.4459 2.0383
-4.3885 3.1029 2.0383
-4.6228 2.7401 2.0383
-4.8275 2.3598 2.0383
-5.0011 1.9643 2.0383
-5.1427 1.5564 2.0383
-5.2512 1.1384 2.0383
-5.3261 0.7131 2.0383
-5.3668 0.2831 2.0383
-5.3731 -0.1488 2.0383
-5.3449 -0.5799 2.0383
-5.2824 -1.0075 2.0383
-5.1859 -1.4288 2.0383
-5.0561 -1.8411 2.0383
-4.8937 -2.2420 2.0383
-4.6997 -2.6286 2.0383
-4.4754 -2.9987 2.0383
-4.2221 -3.3498 2.0383
-3.9415 -3.6796 2.0383
-3.6352 -3.9861 2.0383
-3.3052 -4.2672 2.0383
-2.9536 -4.5210 2.0383
-2.5827 -4.7460 2.0383
-2.1947 -4.9407 2.0383
-0.6508 -1.8532 0.7401
-0.4999 -1.8994 0.7397
-0.3459 -1.9333 0.7393
-0.1897 -1.9549 0.7389
-0.0323 -1.9639 0.7385
0.1254 -1.9603 0.7382
0.2822 -1.9441 0.7379
0.4373 -1.9155 0.7377
0.5896 -1.8746 0.7374
0.7382 -1.8216 0.7373
2.4391 -4.8582 2.0383
2.8219 -4.6487 2.0383
3.1866 -4.4090 2.0383
3.5309 -4.1406 2.0383
3.8526 -3.8452 2.0383
4.1494 -3.5247 2.0383
4.4195 -3.1813 2.0383
4.6610 -2.8171 2.0383
4.8723 -2.4346 2.0383
5.0521 -2.0363 2.0383
5.1992 -1.6247 2.0383
5.3125 -1.2027 2.0383
5.3914 -0.7728 2.0383
5.4354 -0.3381 2.0383
5.4441 0.0988 2.0383
5.4176 0.5348 2.0383
5.3559 0.9672 2.0383
5.2596 1.3931 2.0383
5.1294 1.8098 2.0383
4.9660 2.2145 2.0383
4.7705 2.6046 2.0383
4.0677 2.6652 1.8245
4.2891 3.3309 2.0383
4.0062 3.6624 2.0383
3.6978 3.9700 2.0383
3.3657 4.2516 2.0383
3.0122 4.5055 2.0383
2.6397 4.7301 2.0383
2.2504 4.9240 2.0383
0.6767 1.8634 0.7468
0.5251 1.9117 0.7472
0.3700 1.9477 0.7477
0.2125 1.9711 0.7481
0.1460 5.3972 2.0383
-4.6375 1.7261 2.0383
-4.7612 1.3481 2.0383
-4.8543 0.9614 2.0383
-4.9162 0.5684 2.0383
-4.9466 0.1718 2.0383
-4.9453 -0.2260 2.0383
-4.9121 -0.6226 2.0383
-4.8474 -1.0152 2.0383
-4.7516 -1.4016 2.0383
-4.6251 -1.7792 2.0383
-4.4689 -2.1455 2.0383
-4.2838 -2.4983 2.0383
-4.0710 -2.8353 2.0383
-3.8319 -3.1543 2.0383
-3.5679 -3.4533 2.0383
-3.2807 -3.7303 2.0383
-2.9722 -3.9835 2.0383
-2.6442 -4.2113 2.0383
-2.2989 -4.4121 2.0383
-0.7044 -1.6661 0.7407
-0.5684 -1.7172 0.7403
-0.4288 -1.7572 0.7399
-0.2865 -1.7860 0.7395
-0.1423 -1.8033 0.7392
0.0028 -1.8090 0.7389
0.1479 -1.8031 0.7386
0.2921 -1.7856 0.7383
0.4344 -1.7566 0.7381
0.5740 -1.7164 0.7379
0.7099 -1.6652 0.7377
2.3250 -4.4304 2.0383
2.6737 -4.2312 2.0383
3.0053 -4.0045 2.0383
3.3176 -3.7517 2.0383
3.6086 -3.4745 2.0383
3.8763 -3.1746 2.0383
4.1190 -2.8541 2.0383
4.3351 -2.5151 2.0383
4.5232 -2.1596 2.0383
4.6819 -1.7902 2.0383
4.8104 -1.4091 2.0383
4.9077 -1.0189 2.0383
4.9732 -0.6221 2.0383
5.0064 -0.2214 2.0383
5.0073 0.1806 2.0383
4.9757 0.5813 2.0383
4.9119 0.9781 2.0383
4.8163 1.3684 2.0383
4.6896 1.7496 2.0383
4.5327 2.1193 2.0383
4.3466 2.4750 2.0383
4.1325 2.8145 2.0383
3.8918 3.1355 2.0383
3.6262 3.4359 2.0383
3.3374 3.7140 2.0383
3.0272 3.9678 2.0383
2.6979 4.1957 2.0383
2.3514 4.3964 2.0383
0.7285 1.6725 0.7462
0.5920 1.7256 0.7466
0.4517 1.7676 0.7470
0.3084 1.7982 0.7474
0.1631 1.8171 0.7478
0.0167 1.8242 0.7481
-0.1297 1.8195 0.7484
-0.2753 1.8030 0.7487
-0.4191 1.7749 0.7489
-0.5602 1.7352 0.7491
-0.6975 1.6843 0.7493
-2.2585 4.4131 2.0383
-2.6046 4.2161 2.0383
-2.9338 3.9921 2.0383
-3.2440 3.7426 2.0383
-3.5332 3.4691 2.0383
-3.7996 3.1735 2.0383
-4.0415 2.8576 2.0383
-4.2574 2.5235 2.0383
-4.4459 2.1733 2.0383
-4.6058 1.8091 2.0383
-4.7362 1.4334 2.0383
-4.8362 1.0484 2.0383
-4.9051 0.6567 2.0383
-4.9426 0.2606 2.0383
-4.9483 -0.1372 2.0383
-4.9223 -0.5342 2.0383
-4.8646 -0.9280 2.0383
-4.7757 -1.3160 2.0383
-4.6560 -1.6957 2.0383
-4.5063 -2.0648 2.0383
-4.3276 -2.4208 2.0383
-4.1209 -2.7615 2.0383
-3.8875 -3.0847 2.0383
-3.6290 -3.3883 2.0383
-3.3468 -3.6704 2.0383
-3.0429 -3.9291 2.0383
-2.7191 -4.1627 2.0383
-2.3774 -4.3697 2.0383
-0.7342 -1.6533 0.7408
-0.5992 -1.7067 0.7404
-0.4603 -1.7493 0.7400
-0.3185 -1.7805 0.7396
-0.1746 -1.8004 0.7393
-0.0296 -1.8087 0.7389
0.1156 -1.8054 0.7386
0.2600 -1.7905 0.7384
0.4028 -1.7641 0.7381
0.5431 -1.7264 0.7379
0.6799 -1.6776 0.7377
2.2450 -4.4710 2.0383
2.5972 -4.2782 2.0383
2.9328 -4.0574 2.0383
3.2496 -3.8103 2.0383
3.5455 -3.5384 2.0383
3.8186 -3.2435 2.0383
4.0670 -2.9274 2.0383
4.2892 -2.5923 2.0383
4.4836 -2.2404 2.0383
4.6491 -1.8738 2.0383
4.7844 -1.4951 2.0383
4.8887 -1.1067 2.0383
4.9613 -0.7112 2.0383
5.0018 -0.3112 2.0383
5.0099 0.0908 2.0383
4.9855 0.4920 2.0383
4.9289 0.8899 2.0383
4.8404 1.2819 2.0383
4.7206 1.6654 2.0383
4.5704 2.0378 2.0383
4.3906 2.3968 2.0383
4.1827 2.7401 2.0383
3.9478 3.0654 2.0383
3.6876 3.3707 2.0383
3.4038 3.6539 2.0383
3.0983 3.9133 2.0383
2.7730 4.1471 2.0383
2.4302 4.3540 2.0383
0.7584 1.6591 0.7461
0.6229 1.7147 0.7465
0.4833 1.7592 0.7469
0.3406 1.7923 0.7473
0.1957 1.8139 0.7477
0.0495 1.8236 0.7480
-4.2905 1.5969 2.0383
-4.4049 1.2471 2.0383
-4.4910 0.8894 2.0383
-4.5483 0.5258 2.0383
-4.5764 0.1589 2.0383
-4.5750 -0.2092 2.0383
-4.5443 -0.5761 2.0383
-4.4844 -0.9394 2.0383
-4.3956 -1.2968 2.0383
-4.2786 -1.6461 2.0383
-4.1339 -1.9850 2.0383
-3.9626 -2.3113 2.0383
-3.7657 -2.6230 2.0383
-3.5444 -2.9180 2.0383
-3.3001 -3.1945 2.0383
-3.0343 -3.4506 2.0383
-2.7488 -3.6847 2.0383
-2.4454 -3.8953 2.0383
-0.7732 -1.4843 0.7413
-0.6516 -1.5414 0.7409
-0.5258 -1.5887 0.7406
-0.3966 -1.6257 0.7402
-0.2649 -1.6523 0.7398
-0.1315 -1.6683 0.7395
0.0027 -1.6736 0.7392
0.1370 -1.6682 0.7389
0.2704 -1.6520 0.7387
0.4020 -1.6252 0.7385
0.5312 -1.5880 0.7383
0.6569 -1.5405 0.7381
0.7785 -1.4832 0.7380
2.4723 -3.9121 2.0383
2.7788 -3.7024 2.0383
3.0675 -3.4686 2.0383
3.3364 -3.2122 2.0383
3.5839 -2.9350 2.0383
3.8083 -2.6387 2.0383
4.0080 -2.3252 2.0383
4.1818 -1.9966 2.0383
4.3286 -1.6551 2.0383
4.4473 -1.3028 2.0383
4.5373 -0.9421 2.0383
4.5979 -0.5753 2.0383
4.6286 -0.2048 2.0383
4.6295 0.1668 2.0383
4.6003 0.5373 2.0383
4.5414 0.9042 2.0383
4.4532 1.2650 2.0383
4.3361 1.6175 2.0383
4.1911 1.9593 2.0383
4.0191 2.2882 2.0383
3.8212 2.6022 2.0383
3.5988 2.8991 2.0383
3.3533 3.1770 2.0383
3.0864 3.4342 2.0383
2.7997 3.6690 2.0383
2.4952 3.8799 2.0383
0.7955 1.4871 0.7456
0.6737 1.5463 0.7460
0.5475 1.5954 0.7464
0.4177 1.6342 0.7468
0.2852 1.6624 0.7471
0.1509 1.6799 0.7474
0.0156 1.6865 0.7477
-0.1198 1.6821 0.7480
-0.2544 1.6669 0.7483
-0.3874 1.6409 0.7485
-0.5178 1.6042 0.7487
-0.6448 1.5572 0.7488
-0.7676 1.5001 0.7489
-2.4093 3.9004 2.0383
-2.7139 3.6932 2.0383
-3.0009 3.4624 2.0383
-3.2685 3.2095 2.0383
-3.5150 2.9360 2.0383
-3.7389 2.6438 2.0383
-3.9387 2.3347 2.0383
-4.1131 2.0107 2.0383
-4.2611 1.6737 2.0383
-4.3817 1.3261 2.0383
-4.4742 0.9699 2.0383
-4.5380 0.6074 2.0383
-4.5726 0.2410 2.0383
-4.5779 -0.1270 2.0383
-4.5537 -0.4943 2.0383
-4.5003 -0.8586 2.0383
-4.4180 -1.2176 2.0383
-4.3072 -1.5689 2.0383
-4.1686 -1.9103 2.0383
-4.0031 -2.2396 2.0383
-3.8118 -2.5547 2.0383
-3.5959 -2.8536 2.0383
-3.3566 -3.1344 2.0383
-3.0955 -3.3952 2.0383
-2.8143 -3.6344 2.0383
-2.5147 -3.8503 2.0383
-2.1986 -4.0417 2.0383
-0.6791 -1.5295 0.7410
-0.5542 -1.5790 0.7406
-0.4257 -1.6184 0.7403
-0.2945 -1.6473 0.7399
-0.1614 -1.6657 0.7396
-0.0273 -1.6734 0.7393
0.1070 -1.6703 0.7390
0.2407 -1.6565 0.7387
0.3728 -1.6321 0.7385
0.5026 -1.5972 0.7383
0.6291 -1.5520 0.7382
0.7517 -1.4969 0.7381
2.4016 -3.9555 2.0383
2.7118 -3.7513 2.0383
3.0046 -3.5228 2.0383
3.2781 -3.2714 2.0383
3.5306 -2.9987 2.0383
3.7602 -2.7065 2.0383
3.9656 -2.3966 2.0383
4.1453 -2.0712 2.0383
4.2982 -1.7324 2.0383
4.4233 -1.3823 2.0383
4.5197 -1.0233 2.0383
4.5869 -0.6576 2.0383
4.6244 -0.2878 2.0383
4.6319 0.0838 2.0383
4.6094 0.4548 2.0383
4.5571 0.8226 2.0383
4.4754 1.1850 2.0383
4.3647 1.5396 2.0383
4.2259 1.8840 2.0383
4.0598 2.2160 2.0383
3.8676 2.5334 2.0383
3.6506 2.8343 2.0383
3.4101 3.1166 2.0383
3.1478 3.3786 2.0383
2.8654 3.6185 2.0383
2.5647 3.8349 2.0383
2.2477 4.0264 2.0383
0.7013 1.5339 0.7459
0.5760 1.5853 0.7463
0.4470 1.6264 0.7467
0.3150 1.6571 0.7470
0.1810 1.6769 0.7474
0.0458 1.6860 0.7477
-3.9847 1.4831 2.0383
-4.0909 1.1582 2.0383
-4.1709 0.8259 2.0383
-4.2241 0.4883 2.0383
-4.2501 0.1474 2.0383
-4.2489 -0.1944 2.0383
-4.2203 -0.5352 2.0383
-4.1646 -0.8726 2.0383
-4.0821 -1.2045 2.0383
-3.9733 -1.5289 2.0383
-3.8389 -1.8436 2.0383
-3.6797 -2.1466 2.0383
-3.4967 -2.4360 2.0383
-3.2911 -2.7099 2.0383
-3.0642 -2.9666 2.0383
-2.8174 -3.2043 2.0383
-2.5522 -3.4216 2.0383
-2.2703 -3.6170 2.0383
-0.7180 -1.3785 0.7415
-0.6050 -1.4316 0.7411
-0.4882 -1.4755 0.7408
-0.3682 -1.5099 0.7404
-0.2459 -1.5346 0.7401
-0.1220 -1.5495 0.7398
0.0027 -1.5544 0.7395
0.1273 -1.5493 0.7393
0.2512 -1.5343 0.7390
0.3735 -1.5094 0.7388
0.4934 -1.4748 0.7387
0.6102 -1.4308 0.7385
0.7231 -1.3775 0.7384
2.2951 -3.6313 2.0383
2.5795 -3.4366 2.0383
2.8475 -3.2195 2.0383
3.0970 -2.9816 2.0383
3.3267 -2.7242 2.0383
3.5349 -2.4492 2.0383
3.7202 -2.1582 2.0383
3.8816 -1.8532 2.0383
4.0178 -1.5362 2.0383
4.1280 -1.2092 2.0383
4.2115 -0.8744 2.0383
4.2677 -0.5340 2.0383
4.2963 -0.1902 2.0383
4.2971 0.1548 2.0383
4.2701 0.4986 2.0383
4.2155 0.8391 2.0383
4.1336 1.1741 2.0383
4.0251 1.5012 2.0383
3.8906 1.8186 2.0383
3.7310 2.1239 2.0383
3.5474 2.4154 2.0383
3.3410 2.6910 2.0383
3.1132 2.9491 2.0383
2.8655 3.1879 2.0383
2.5994 3.4060 2.0383
2.3168 3.6019 2.0383
0.7385 1.3803 0.7454
0.6254 1.4352 0.7458
0.5083 1.4808 0.7462
0.3878 1.5168 0.7465
0.2649 1.5430 0.7469
0.1402 1.5592 0.7472
0.0146 1.5653 0.7474
-0.1111 1.5613 0.7477
-0.2361 1.5472 0.7479
-0.3595 1.5230 0.7481
-0.4805 1.4890 0.7483
-0.5984 1.4454 0.7484
-0.7124 1.3924 0.7486
-2.2373 3.6223 2.0383
-2.5202 3.4299 2.0383
-2.7868 3.2156 2.0383
-3.0354 2.9808 2.0383
-3.2644 2.7268 2.0383
-3.4723 2.4554 2.0383
-3.6579 2.1683 2.0383
-3.8199 1.8674 2.0383
-3.9574 1.5545 2.0383
-4.0694 1.2315 2.0383
-4.1553 0.9007 2.0383
-4.2146 0.5641 2.0383
-4.2467 0.2238 2.0383
-4.2515 -0.1181 2.0383
-4.2291 -0.4592 2.0383
-4.1794 -0.7976 2.0383
-4.1028 -1.1309 2.0383
-3.9999 -1.4572 2.0383
-3.8711 -1.7742 2.0383
-3.7174 -2.0800 2.0383
-3.5396 -2.3726 2.0383
-3.3390 -2.6501 2.0383
-3.1167 -2.9108 2.0383
-2.8742 -3.1529 2.0383
-2.6129 -3.3749 2.0383
-2.3347 -3.5753 2.0383
-0.7426 -1.3654 0.7416
-0.6306 -1.4205 0.7412
-0.5146 -1.4665 0.7408
-0.3953 -1.5031 0.7405
-0.2734 -1.5300 0.7402
-0.1498 -1.5470 0.7399
-0.0252 -1.5542 0.7396
0.0995 -1.5513 0.7393
0.2236 -1.5385 0.7391
0.3464 -1.5158 0.7389
0.4669 -1.4834 0.7387
0.5844 -1.4414 0.7386
0.6982 -1.3902 0.7384
2.2295 -3.6716 2.0383
2.5174 -3.4821 2.0383
2.7891 -3.2699 2.0383
3.0430 -3.0365 2.0383
3.2772 -2.7833 2.0383
3.4903 -2.5121 2.0383
3.6809 -2.2245 2.0383
3.8477 -1.9225 2.0383
3.9896 -1.6080 2.0383
4.1057 -1.2830 2.0383
4.1952 -0.9498 2.0383
4.2575 -0.6105 2.0383
4.2923 -0.2672 2.0383
4.2994 0.0777 2.0383
4.2786 0.4220 2.0383
4.2301 0.7634 2.0383
4.1543 1.0998 2.0383
4.0516 1.4289 2.0383
3.9228 1.7486 2.0383
3.7688 2.0568 2.0383
3.5905 2.3516 2.0383
3.3890 2.6309 2.0383
3.1659 2.8930 2.0383
2.9225 3.1363 2.0383
2.6604 3.3591 2.0383
2.3813 3.5601 2.0383
0.7632 1.3669 0.7453
0.6511 1.4237 0.7457
0.5348 1.4714 0.7461
0.4150 1.5096 0.7464
0.2925 1.5380 0.7468
0.1681 1.5565 0.7471
0.0427 1.5648 0.7474
-3.7128 1.3819 2.0383
-3.8118 1.0792 2.0383
-3.8863 0.7695 2.0383
-3.9359 0.4549 2.0383
-3.9601 0.1373 2.0383
-3.9589 -0.1813 2.0383
-3.9323 -0.4988 2.0383
-3.8803 -0.8132 2.0383
-3.8034 -1.1225 2.0383
-3.7019 -1.4247 2.0383
-3.5766 -1.7179 2.0383
-3.4282 -2.0002 2.0383
-3.2577 -2.2698 2.0383
-3.0661 -2.5249 2.0383
-2.8546 -2.7640 2.0383
-2.6245 -2.9854 2.0383
-2.3774 -3.1878 2.0383
-0.7698 -1.2267 0.7420
-0.6689 -1.2845 0.7416
-0.5636 -1.3340 0.7413
-0.4548 -1.3749 0.7409
-0.3430 -1.4069 0.7406
-0.2290 -1.4300 0.7403
-0.1136 -1.4438 0.7400
0.0026 -1.4484 0.7398
0.1188 -1.4437 0.7395
0.2342 -1.4297 0.7393
0.3481 -1.4065 0.7391
0.4599 -1.3743 0.7390
0.5687 -1.3332 0.7389
0.6738 -1.2835 0.7388
0.7747 -1.2257 0.7387
2.4026 -3.2006 2.0383
2.6521 -2.9984 2.0383
2.8845 -2.7767 2.0383
3.0983 -2.5371 2.0383
3.2922 -2.2809 2.0383
3.4648 -2.0099 2.0383
3.6150 -1.7259 2.0383
3.7418 -1.4307 2.0383
3.8445 -1.1262 2.0383
3.9222 -0.8144 2.0383
3.9746 -0.4974 2.0383
4.0013 -0.1772 2.0383
4.0020 0.1440 2.0383
3.9769 0.4642 2.0383
3.9261 0.7814 2.0383
3.8499 1.0933 2.0383
3.7489 1.3980 2.0383
3.6237 1.6936 2.0383
3.4751 1.9780 2.0383
3.3042 2.2495 2.0383
3.1121 2.5063 2.0383
2.8999 2.7467 2.0383
2.6693 2.9692 2.0383
2.4215 3.1724 2.0383
0.7888 1.2261 0.7449
0.6879 1.2855 0.7453
0.5826 1.3366 0.7456
0.4735 1.3791 0.7460
0.3613 1.4126 0.7463
0.2468 1.4370 0.7466
0.1306 1.4521 0.7469
0.0137 1.4578 0.7472
-0.1034 1.4540 0.7474
-0.2197 1.4408 0.7476
-0.3347 1.4184 0.7478
-0.4474 1.3867 0.7480
-0.5572 1.3461 0.7481
-0.6633 1.2967 0.7482
-0.7652 1.2390 0.7483
-2.3480 3.1959 2.0383
-2.5965 2.9962 2.0383
-2.8281 2.7774 2.0383
-3.0415 2.5408 2.0383
-3.2353 2.2880 2.0383
-3.4083 2.0205 2.0383
-3.5593 1.7400 2.0383
-3.6874 1.4484 2.0383
-3.7918 1.1475 2.0383
-3.8718 0.8392 2.0383
-3.9270 0.5255 2.0383
-3.9569 0.2084 2.0383
-3.9614 -0.1101 2.0383
-3.9404 -0.4280 2.0383
-3.8941 -0.7433 2.0383
-3.8227 -1.0539 2.0383
-3.7267 -1.3578 2.0383
-3.6067 -1.6532 2.0383
-3.4634 -1.9381 2.0383
-3.2977 -2.2107 2.0383
-3.1107 -2.4693 2.0383
-2.9035 -2.7121 2.0383
-2.6775 -2.9376 2.0383
-2.4340 -3.1443 2.0383
-2.1747 -3.3310 2.0383
-0.6918 -1.2723 0.7417
-0.5875 -1.3236 0.7414
-0.4794 -1.3665 0.7410
-0.3682 -1.4006 0.7407
-0.2546 -1.4256 0.7404
-0.1395 -1.4415 0.7401
-0.0234 -1.4482 0.7398
0.0928 -1.4455 0.7396
0.2085 -1.4336 0.7394
0.3228 -1.4124 0.7392
0.4351 -1.3822 0.7390
0.5446 -1.3431 0.7389
0.6507 -1.2954 0.7388
0.7526 -1.2393 0.7387
2.3447 -3.2429 2.0383
2.5978 -3.0453 2.0383
2.8341 -2.8279 2.0383
3.0522 -2.5921 2.0383
3.2507 -2.3395 2.0383
3.4281 -2.0717 2.0383
3.5834 -1.7904 2.0383
3.7156 -1.4975 2.0383
3.8237 -1.1949 2.0383
3.9070 -0.8846 2.0383
3.9651 -0.5686 2.0383
3.9975 -0.2489 2.0383
4.0041 0.0722 2.0383
3.9848 0.3929 2.0383
3.9397 0.7109 2.0383
3.8691 1.0241 2.0383
3.7736 1.3307 2.0383
3.6537 1.6284 2.0383
3.5103 1.9155 2.0383
3.3443 2.1900 2.0383
3.1568 2.4503 2.0383
2.9490 2.6945 2.0383
2.7223 2.9211 2.0383
2.4783 3.1288 2.0383
2.2184 3.3160 2.0383
0.7109 1.2730 0.7452
0.6065 1.3259 0.7456
0.4982 1.3703 0.7459
0.3866 1.4059 0.7462
0.2725 1.4323 0.7466
0.1567 1.4495 0.7468
0.0398 1.4573 0.7471
-3.4692 1.2912 2.0383
-3.5617 1.0084 2.0383
-3.6313 0.7190 2.0383
-3.6776 0.4250 2.0383
-3.7002 0.1282 2.0383
-3.6991 -0.1695 2.0383
-3.6741 -0.4661 2.0383
-3.6255 -0.7599 2.0383
-3.5536 -1.0489 2.0383
-3.4588 -1.3313 2.0383
-3.3416 -1.6052 2.0383
-3.2029 -1.8690 2.0383
-3.0435 -2.1208 2.0383
-2.8644 -2.3592 2.0383
-2.6668 -2.5825 2.0383
-2.4518 -2.7894 2.0383
-2.2209 -2.9784 2.0383
-0.7192 -1.1462 0.7421
-0.6249 -1.2002 0.7418
-0.5265 -1.2465 0.7414
-0.4248 -1.2847 0.7411
-0.3204 -1.3147 0.7408
-0.2139 -1.3362 0.7405
-0.1060 -1.3491 0.7403
0.0025 -1.3534 0.7400
0.1111 -1.3490 0.7398
0.2189 -1.3359 0.7396
0.3254 -1.3142 0.7394
0.4298 -1.2841 0.7393
0.5315 -1.2457 0.7392
0.6297 -1.1994 0.7391
0.7240 -1.1452 0.7390
2.2442 -2.9893 2.0383
2.4772 -2.8004 2.0383
2.6942 -2.5934 2.0383
2.8939 -2.3695 2.0383
3.0749 -2.1303 2.0383
3.2361 -1.8772 2.0383
3.3764 -1.6119 2.0383
3.4948 -1.3362 2.0383
3.5907 -1.0519 2.0383
3.6633 -0.7607 2.0383
3.7122 -0.4646 2.0383
3.7371 -0.1656 2.0383
3.7379 0.1344 2.0383
3.7145 0.4335 2.0383
3.6671 0.7296 2.0383
3.5960 1.0210 2.0383
3.5017 1.3056 2.0383
3.3848 1.5817 2.0383
3.2461 1.8474 2.0383
3.0865 2.1010 2.0383
2.9071 2.3409 2.0383
2.7090 2.5655 2.0383
2.4936 2.7734 2.0383
2.2622 2.9632 2.0383
0.7368 1.1452 0.7448
0.6426 1.2006 0.7452
0.5442 1.2483 0.7455
0.4423 1.2880 0.7458
0.3375 1.3193 0.7461
0.2306 1.3420 0.7464
0.1221 1.3561 0.7467
0.0129 1.3615 0.7469
-0.0964 1.3579 0.7472
-0.2051 1.3457 0.7474
-0.3124 1.3247 0.7475
-0.4177 1.2951 0.7477
-0.5203 1.2572 0.7478
-0.6194 1.2111 0.7479
-0.7146 1.1572 0.7480
-2.1937 2.9861 2.0383
-2.4259 2.7996 2.0383
-2.6424 2.5952 2.0383
-2.8418 2.3741 2.0383
-3.0229 2.1379 2.0383
-3.1846 1.8879 2.0383
-3.3257 1.6259 2.0383
-3.4454 1.3534 2.0383
-3.5430 1.0722 2.0383
-3.6178 0.7841 2.0383
-3.6693 0.4910 2.0383
-3.6972 0.1947 2.0383
-3.7014 -0.1030 2.0383
-3.6818 -0.4001 2.0383
-3.6384 -0.6946 2.0383
-3.5717 -0.9849 2.0383
-3.4819 -1.2689 2.0383
-3.3697 -1.5448 2.0383
-3.2358 -1.8110 2.0383
-3.0809 -2.0657 2.0383
-2.9061 -2.3072 2.0383
-2.7125 -2.5340 2.0383
-2.5013 -2.7446 2.0383
-2.2738 -2.9378 2.0383
-0.7397 -1.1331 0.7422
-0.6463 -1.1888 0.7418
-0.5488 -1.2368 0.7415
-0.4478 -1.2769 0.7412
-0.3439 -1.3087 0.7409
-0.2378 -1.3321 0.7406
-0.1302 -1.3470 0.7403
-0.0218 -1.3532 0.7401
0.0869 -1.3507 0.7398
0.1949 -1.3396 0.7396
0.3018 -1.3198 0.7395
0.4067 -1.2916 0.7393
0.5090 -1.2550 0.7392
0.6081 -1.2104 0.7391
0.7033 -1.1580 0.7390
2.1902 -3.0289 2.0383
2.4265 -2.8442 2.0383
2.6472 -2.6412 2.0383
2.8509 -2.4209 2.0383
3.0362 -2.1850 2.0383
3.2019 -1.9349 2.0383
3.3469 -1.6722 2.0383
3.4703 -1.3986 2.0383
3.5712 -1.1160 2.0383
3.6491 -0.8262 2.0383
3.7034 -0.5311 2.0383
3.7337 -0.2326 2.0383
3.7398 0.0674 2.0383
3.7218 0.3668 2.0383
3.6797 0.6638 2.0383
3.6139 0.9564 2.0383
3.5247 1.2427 2.0383
3.4128 1.5208 2.0383
3.2789 1.7890 2.0383
3.1239 2.0454 2.0383
2.9488 2.2885 2.0383
2.7548 2.5167 2.0383
2.5431 2.7284 2.0383
2.3152 2.9224 2.0383
0.7572 1.1317 0.7447
0.6641 1.1889 0.7451
0.5666 1.2384 0.7454
0.4654 1.2798 0.7458
0.3612 1.3130 0.7461
0.2546 1.3377 0.7463
0.1464 1.3537 0.7466
0.0373 1.3610 0.7469
-3.2492 1.2094 2.0383
-3.3359 0.9444 2.0383
-3.4011 0.6734 2.0383
-3.4444 0.3980 2.0383
-3.4656 0.1200 2.0383
-3.4645 -0.1588 2.0383
-3.4411 -0.4367 2.0383
-3.3956 -0.7119 2.0383
-3.3282 -0.9826 2.0383
-3.2393 -1.2470 2.0383
-3.1295 -1.5036 2.0383
-2.9996 -1.7506 2.0383
-2.8502 -1.9864 2.0383
-2.6824 -2.2096 2.0383
-2.4973 -2.4188 2.0383
-2.2959 -2.6124 2.0383
-0.7575 -1.0161 0.7425
-0.6735 -1.0736 0.7422
-0.5852 -1.1242 0.7419
-0.4931 -1.1675 0.7416
-0.3978 -1.2033 0.7413
-0.3000 -1.2314 0.7410
-0.2002 -1.2516 0.7407
-0.0992 -1.2637 0.7405
0.0025 -1.2677 0.7402
0.1041 -1.2636 0.7400
0.2052 -1.2513 0.7398
0.3049 -1.2310 0.7397
0.4027 -1.2028 0.7396
0.4979 -1.1668 0.7394
0.5899 -1.1234 0.7394
0.6782 -1.0727 0.7393
0.7622 -1.0151 0.7393
2.3195 -2.6219 2.0383
2.5226 -2.4281 2.0383
2.7096 -2.2185 2.0383
2.8790 -1.9944 2.0383
3.0299 -1.7575 2.0383
3.1612 -1.5092 2.0383
3.2721 -1.2510 2.0383
3.3618 -0.9848 2.0383
3.4298 -0.7122 2.0383
3.4756 -0.4351 2.0383
3.4990 -0.1551 2.0383
3.4997 0.1257 2.0383
3.4778 0.4057 2.0383
3.4335 0.6830 2.0383
3.3669 0.9558 2.0383
3.2787 1.2223 2.0383
3.1693 1.4808 2.0383
3.0395 1.7295 2.0383
2.8901 1.9670 2.0383
2.7222 2.1916 2.0383
2.5368 2.4020 2.0383
2.3351 2.5967 2.0383
0.7737 1.0133 0.7444
0.6900 1.0721 0.7447
0.6018 1.1241 0.7451
0.5096 1.1687 0.7454
0.4142 1.2058 0.7457
0.3161 1.2351 0.7460
0.2160 1.2564 0.7462
0.1144 1.2696 0.7465
0.0122 1.2746 0.7467
-0.0902 1.2713 0.7469
-0.1919 1.2598 0.7471
-0.2924 1.2402 0.7473
-0.3910 1.2125 0.7474
-0.4870 1.1770 0.7475
-0.5799 1.1339 0.7476
-0.6689 1.0834 0.7477
-0.7536 1.0260 0.7477
-2.2719 2.6222 2.0383
-2.4747 2.4307 2.0383
-2.6615 2.2237 2.0383
-2.8312 2.0024 2.0383
-2.9826 1.7683 2.0383
-3.1148 1.5228 2.0383
-3.2270 1.2676 2.0383
-3.3183 1.0042 2.0383
-3.3884 0.7344 2.0383
-3.4367 0.4598 2.0383
-3.4628 0.1822 2.0383
-3.4667 -0.0966 2.0383
-3.4483 -0.3748 2.0383
-3.4077 -0.6507 2.0383
-3.3451 -0.9225 2.0383
-3.2610 -1.1885 2.0383
-3.1558 -1.4470 2.0383
-3.0303 -1.6963 2.0383
-2.8852 -1.9348 2.0383
-2.7215 -2.1609 2.0383
-2.5401 -2.3733 2.0383
-2.3422 -2.5705 2.0383
-0.7757 -1.0024 0.7426
-0.6927 -1.0613 0.7423
-0.6053 -1.1135 0.7419
-0.5139 -1.1585 0.7416
-0.4193 -1.1960 0.7413
-0.3220 -1.2258 0.7410
-0.2227 -1.2478 0.7408
-0.1219 -1.2617 0.7405
-0.0203 -1.2675 0.7403
0.0815 -1.2652 0.7401
0.1827 -1.2547 0.7399
0.2827 -1.2362 0.7397
0.3810 -1.2098 0.7396
0.4769 -1.1755 0.7395
0.5697 -1.1337 0.7394
0.6588 -1.0846 0.7393
0.7438 -1.0285 0.7393
2.2720 -2.6629 2.0383
2.4786 -2.4728 2.0383
2.6693 -2.2666 2.0383
2.8427 -2.0457 2.0383
2.9978 -1.8115 2.0383
3.1336 -1.5656 2.0383
3.2491 -1.3095 2.0383
3.3436 -1.0449 2.0383
3.4165 -0.7736 2.0383
3.4673 -0.4973 2.0383
3.4957 -0.2178 2.0383
3.5015 0.0630 2.0383
3.4847 0.3433 2.0383
3.4453 0.6214 2.0383
3.3837 0.8953 2.0383
3.3003 1.1634 2.0383
3.1955 1.4238 2.0383
3.0702 1.6749 2.0383
2.9251 1.9150 2.0383
2.7613 2.1426 2.0383
2.5796 2.3563 2.0383
2.3815 2.5546 2.0383
0.7917 0.9992 0.7443
0.7091 1.0596 0.7447
0.6218 1.1131 0.7450
0.5305 1.1594 0.7453
0.4358 1.1982 0.7456
0.3382 1.2293 0.7459
0.2385 1.2524 0.7462
0.1372 1.2674 0.7464
0.0350 1.2742 0.7467
-3.0494 1.1350 2.0383
-3.1307 0.8863 2.0383
-3.1919 0.6319 2.0383
-3.2326 0.3735 2.0383
-3.2525 0.1125 2.0383
-3.2514 -0.1492 2.0383
-3.2294 -0.4100 2.0383
-3.1866 -0.6682 2.0383
-3.1233 -0.9222 2.0383
-3.0399 -1.1704 2.0383
-2.9369 -1.4112 2.0383
-2.8148 -1.6430 2.0383
-2.6746 -1.8643 2.0383
-2.5171 -2.0738 2.0383
-2.3433 -2.2700 2.0383
-2.1543 -2.4517 2.0383
-0.7109 -0.9537 0.7426
-0.6320 -1.0076 0.7423
-0.5491 -1.0551 0.7420
-0.4627 -1.0958 0.7417
-0.3733 -1.1294 0.7414
-0.2814 -1.1557 0.7411
-0.1878 -1.1747 0.7409
-0.0930 -1.1861 0.7407
0.0024 -1.1898 0.7404
0.0978 -1.1859 0.7402
0.1926 -1.1744 0.7401
0.2862 -1.1554 0.7399
0.3780 -1.1289 0.7398
0.4674 -1.0951 0.7397
0.5537 -1.0543 0.7396
0.6366 -1.0067 0.7396
0.7154 -0.9527 0.7395
2.1763 -2.4599 2.0383
2.3669 -2.2780 2.0383
2.5422 -2.0813 2.0383
2.7012 -1.8712 2.0383
2.8427 -1.6489 2.0383
2.9659 -1.4159 2.0383
3.0699 -1.1737 2.0383
3.1541 -0.9240 2.0383
3.2179 -0.6683 2.0383
3.2609 -0.4083 2.0383
3.2828 -0.1456 2.0383
3.2835 0.1179 2.0383
3.2630 0.3806 2.0383
3.2214 0.6407 2.0383
3.1590 0.8966 2.0383
3.0763 1.1466 2.0383
2.9737 1.3891 2.0383
2.8519 1.6226 2.0383
2.7118 1.8454 2.0383
2.5543 2.0562 2.0383
2.3804 2.2536 2.0383
2.1912 2.4363 2.0383
0.7260 0.9507 0.7444
0.6474 1.0059 0.7447
0.5647 1.0545 0.7450
0.4782 1.0964 0.7453
0.3887 1.1312 0.7455
0.2967 1.1587 0.7458
0.2027 1.1787 0.7461
0.1075 1.1911 0.7463
0.0115 1.1958 0.7465
-0.0845 1.1927 0.7467
-0.1800 1.1819 0.7469
-0.2742 1.1635 0.7470
-0.3667 1.1375 0.7472
-0.4568 1.1042 0.7473
-0.5439 1.0637 0.7474
-0.6275 1.0164 0.7474
-0.7070 0.9625 0.7474
-2.1320 2.4609 2.0383
-2.3224 2.2813 2.0383
-2.4978 2.0870 2.0383
-2.6570 1.8793 2.0383
-2.7991 1.6596 2.0383
-2.9232 1.4292 2.0383
-3.0285 1.1896 2.0383
-3.1143 0.9425 2.0383
-3.1800 0.6892 2.0383
-3.2253 0.4315 2.0383
-3.2498 0.1710 2.0383
-3.2534 -0.0907 2.0383
-3.2361 -0.3519 2.0383
-3.1980 -0.6108 2.0383
-3.1392 -0.8659 2.0383
-3.0603 -1.1156 2.0383
-2.9616 -1.3581 2.0383
-2.8437 -1.5921 2.0383
-2.7075 -1.8159 2.0383
-2.5538 -2.0281 2.0383
-2.3835 -2.2274 2.0383
-2.1978 -2.4124 2.0383
-0.7279 -0.9407 0.7426
-0.6500 -0.9961 0.7423
-0.5679 -1.0451 0.7420
-0.4822 -1.0873 0.7417
-0.3935 -1.1225 0.7415
-0.3021 -1.1505 0.7412
-0.2089 -1.1711 0.7409
-0.1143 -1.1842 0.7407
-0.0189 -1.1896 0.7405
0.0765 -1.1875 0.7403
0.1715 -1.1776 0.7401
0.2655 -1.1603 0.7400
0.3577 -1.1354 0.7398
0.4476 -1.1033 0.7397
0.5347 -1.0640 0.7396
0.6184 -1.0180 0.7396
0.6982 -0.9653 0.7395
0.7734 -0.9064 0.7395
2.3256 -2.3200 2.0383
2.5044 -2.1265 2.0383
2.6672 -1.9192 2.0383
2.8127 -1.6995 2.0383
2.9400 -1.4688 2.0383
3.0484 -1.2285 2.0383
3.1370 -0.9804 2.0383
3.2054 -0.7258 2.0383
3.2531 -0.4666 2.0383
3.2797 -0.2045 2.0383
3.2852 0.0590 2.0383
3.2694 0.3220 2.0383
3.2325 0.5829 2.0383
3.1748 0.8399 2.0383
3.0965 1.0914 2.0383
2.9983 1.3357 2.0383
2.8807 1.5713 2.0383
2.7447 1.7966 2.0383
2.5910 2.0102 2.0383
2.4206 2.2107 2.0383
2.2347 2.3968 2.0383
0.7429 0.9375 0.7443
0.6654 0.9941 0.7446
0.5835 1.0442 0.7449
0.4978 1.0877 0.7452
0.4090 1.1241 0.7455
0.3174 1.1532 0.7457
0.2239 1.1749 0.7460
0.1288 1.1890 0.7462
0.0330 1.1954 0.7465
-2.8667 1.0670 2.0383
-2.9432 0.8332 2.0383
-3.0007 0.5941 2.0383
-3.0390 0.3510 2.0383
-3.0576 0.1057 2.0383
-3.0566 -0.1403 2.0383
-3.0359 -0.3855 2.0383
-2.9957 -0.6283 2.0383
-2.9362 -0.8671 2.0383
-2.8577 -1.1005 2.0383
-2.7608 -1.3268 2.0383
-2.6460 -1.5447 2.0383
-2.5142 -1.7528 2.0383
-2.3661 -1.9496 2.0383
-2.2026 -2.1341 2.0383
-0.7380 -0.8401 0.7429
-0.6682 -0.8966 0.7426
-0.5941 -0.9473 0.7423
-0.5161 -0.9919 0.7421
-0.4349 -1.0302 0.7418
-0.3508 -1.0618 0.7415
-0.2645 -1.0866 0.7413
-0.1765 -1.1044 0.7410
-0.0874 -1.1151 0.7408
0.0024 -1.1186 0.7406
0.0921 -1.1150 0.7404
0.1812 -1.1042 0.7403
0.2692 -1.0862 0.7401
0.3555 -1.0613 0.7400
0.4395 -1.0296 0.7399
0.5207 -0.9912 0.7398
0.5986 -0.9465 0.7398
0.6726 -0.8957 0.7398
0.7424 -0.8391 0.7398
2.2247 -2.1409 2.0383
2.3894 -1.9561 2.0383
2.5388 -1.7586 2.0383
2.6718 -1.5497 2.0383
2.7876 -1.3307 2.0383
2.8853 -1.1031 2.0383
2.9644 -0.8684 2.0383
3.0244 -0.6281 2.0383
3.0648 -0.3838 2.0383
3.0854 -0.1370 2.0383
3.0861 0.1107 2.0383
3.0668 0.3576 2.0383
3.0278 0.6020 2.0383
2.9692 0.8426 2.0383
2.8914 1.0776 2.0383
2.7950 1.3055 2.0383
2.6806 1.5249 2.0383
2.5490 1.7343 2.0383
2.4010 1.9325 2.0383
2.2376 2.1180 2.0383
0.7519 0.8358 0.7440
0.6824 0.8934 0.7443
0.6086 0.9453 0.7446
0.5308 0.9911 0.7449
0.4496 1.0304 0.7451
0.3654 1.0631 0.7454
0.2789 1.0890 0.7457
0.1906 1.1078 0.7459
0.1011 1.1194 0.7461
0.0109 1.1238 0.7463
-0.0793 1.1209 0.7465
-0.1690 1.1107 0.7467
-0.2576 1.0934 0.7468
-0.3446 1.0690 0.7469
-0.4292 1.0377 0.7470
-0.5111 0.9997 0.7471
-0.5896 0.9552 0.7472
-0.6643 0.9046 0.7472
-0.7347 0.8481 0.7472
-2.1832 2.1447 2.0383
-2.3481 1.9620 2.0383
-2.4978 1.7668 2.0383
-2.6314 1.5602 2.0383
-2.7481 1.3436 2.0383
-2.8471 1.1184 2.0383
-2.9277 0.8860 2.0383
-2.9895 0.6479 2.0383
-3.0321 0.4056 2.0383
-3.0552 0.1606 2.0383
-3.0586 -0.0854 2.0383
-3.0423 -0.3309 2.0383
-3.0064 -0.5744 2.0383
-2.9511 -0.8142 2.0383
-2.8768 -1.0489 2.0383
-2.7840 -1.2769 2.0383
-2.6732 -1.4968 2.0383
-2.5451 -1.7072 2.0383
-2.4005 -1.9067 2.0383
-2.2404 -2.0940 2.0383
-0.7530 -0.8267 0.7430
-0.6842 -0.8844 0.7427
-0.6110 -0.9365 0.7424
-0.5338 -0.9825 0.7421
-0.4533 -1.0222 0.7418
-0.3698 -1.0553 0.7416
-0.2840 -1.0817 0.7413
-0.1963 -1.1010 0.7411
-0.1073 -1.1133 0.7409
-0.0177 -1.1185 0.7407
0.0721 -1.1164 0.7405
0.1614 -1.1072 0.7403
0.2497 -1.0909 0.7402
0.3364 -1.0675 0.7400
0.4209 -1.0373 0.7399
0.5028 -1.0004 0.7399
0.5815 -0.9570 0.7398
0.6564 -0.9075 0.7398
0.7272 -0.8522 0.7398
2.1859 -2.1804 2.0383
2.3539 -1.9985 2.0383
2.5068 -1.8038 2.0383
2.6436 -1.5973 2.0383
2.7632 -1.3804 2.0383
2.8651 -1.1547 2.0383
2.9484 -0.9214 2.0383
3.0127 -0.6822 2.0383
3.0575 -0.4386 2.0383
3.0825 -0.1922 2.0383
3.0877 0.0554 2.0383
3.0729 0.3025 2.0383
3.0382 0.5477 2.0383
2.9839 0.7892 2.0383
2.9104 1.0256 2.0383
2.8182 1.2552 2.0383
2.7077 1.4767 2.0383
2.5799 1.6885 2.0383
2.4354 1.8892 2.0383
2.2754 2.0777 2.0383
0.7667 0.8222 0.7439
0.6983 0.8811 0.7442
0.6254 0.9342 0.7445
0.5485 0.9814 0.7448
0.4680 1.0222 0.7451
0.3845 1.0564 0.7454
0.2984 1.0838 0.7456
0.2105 1.1042 0.7458
0.1212 1.1174 0.7461
0.0311 1.1234 0.7463
-2.6989 1.0046 2.0383
-2.7709 0.7844 2.0383
-2.8251 0.5592 2.0383
-2.8610 0.3304 2.0383
-2.8786 0.0994 2.0383
-2.8776 -0.1322 2.0383
-2.8581 -0.3631 2.0383
-2.8202 -0.5917 2.0383
-2.7642 -0.8165 2.0383
-2.6902 -1.0362 2.0383
-2.5990 -1.2493 2.0383
-2.4909 -1.4544 2.0383
-2.3668 -1.6503 2.0383
-2.2273 -1.8356 2.0383
-0.7560 -0.7326 0.7432
-0.6947 -0.7909 0.7429
-0.6290 -0.8441 0.7427
-0.5592 -0.8919 0.7424
-0.4858 -0.9339 0.7421
-0.4093 -0.9700 0.7419
-0.3302 -0.9997 0.7416
-0.2489 -1.0231 0.7414
-0.1661 -1.0398 0.7412
-0.0821 -1.0499 0.7410
0.0023 -1.0532 0.7408
0.0868 -1.0498 0.7406
0.1707 -1.0396 0.7405
0.2535 -1.0227 0.7403
0.3348 -0.9993 0.7402
0.4139 -0.9694 0.7401
0.4903 -0.9333 0.7401
0.5636 -0.8911 0.7400
0.6334 -0.8433 0.7400
0.6990 -0.7900 0.7400
0.7602 -0.7316 0.7400
2.2491 -1.8411 2.0383
2.3897 -1.6552 2.0383
2.5149 -1.4586 2.0383
2.6238 -1.2525 2.0383
2.7158 -1.0383 2.0383
2.7903 -0.8174 2.0383
2.8467 -0.5912 2.0383
2.8848 -0.3613 2.0383
2.9042 -0.1290 2.0383
2.9048 0.1041 2.0383
2.8867 0.3364 2.0383
2.8500 0.5666 2.0383
2.7948 0.7929 2.0383
2.7217 1.0141 2.0383
2.6310 1.2287 2.0383
2.5234 1.4352 2.0383
2.3995 1.6323 2.0383
2.2602 1.8189 2.0383
0.7685 0.7274 0.7437
0.7078 0.7867 0.7440
0.6424 0.8409 0.7443
0.5729 0.8897 0.7445
0.4997 0.9328 0.7448
0.4232 0.9698 0.7450
0.3440 1.0006 0.7453
0.2626 1.0249 0.7455
0.1795 1.0426 0.7458
0.0952 1.0535 0.7460
0.0104 1.0577 0.7462
-0.0746 1.0549 0.7463
-0.1590 1.0454 0.7465
-0.2424 1.0291 0.7466
-0.3242 1.0061 0.7467
-0.4039 0.9767 0.7468
-0.4810 0.9409 0.7469
-0.5549 0.8991 0.7470
-0.6252 0.8514 0.7470
-0.6914 0.7983 0.7470
-0.7532 0.7400 0.7470
-2.2105 1.8472 2.0383
-2.3515 1.6634 2.0383
-2.4773 1.4689 2.0383
-2.5872 1.2650 2.0383
-2.6804 1.0529 2.0383
-2.7563 0.8341 2.0383
-2.8145 0.6099 2.0383
-2.8546 0.3818 2.0383
-2.8763 0.1512 2.0383
-2.8795 -0.0805 2.0383
-2.8641 -0.3116 2.0383
-2.8303 -0.5409 2.0383
-2.7783 -0.7667 2.0383
-2.7083 -0.9876 2.0383
-2.6209 -1.2023 2.0383
-2.5165 -1.4093 2.0383
-2.3959 -1.6074 2.0383
-2.2598 -1.7951 2.0383
-0.7691 -0.7189 0.7433
-0.7088 -0.7783 0.7430
-0.6441 -0.8327 0.7427
-0.5751 -0.8817 0.7425
-0.5025 -0.9251 0.7422
-0.4267 -0.9624 0.7419
-0.3481 -0.9936 0.7417
-0.2673 -1.0184 0.7415
-0.1847 -1.0367 0.7412
-0.1010 -1.0482 0.7410
-0.0166 -1.0531 0.7408
0.0679 -1.0511 0.7407
0.1520 -1.0425 0.7405
0.2352 -1.0271 0.7404
0.3168 -1.0051 0.7402
0.3964 -0.9766 0.7401
0.4735 -0.9419 0.7401
0.5476 -0.9011 0.7400
0.6181 -0.8545 0.7400
0.6847 -0.8023 0.7400
0.7470 -0.7450 0.7400
2.2157 -1.8811 2.0383
2.3596 -1.6977 2.0383
2.4883 -1.5034 2.0383
2.6009 -1.2993 2.0383
2.6968 -1.0868 2.0383
2.7752 -0.8673 2.0383
2.8357 -0.6422 2.0383
2.8779 -0.4129 2.0383
2.9015 -0.1810 2.0383
2.9063 0.0520 2.0383
2.8924 0.2847 2.0383
2.8598 0.5154 2.0383
2.8087 0.7427 2.0383
2.7396 0.9652 2.0383
2.6527 1.1814 2.0383
2.5488 1.3898 2.0383
2.4285 1.5892 2.0383
2.2926 1.7782 2.0383
0.7815 0.7135 0.7436
0.7218 0.7738 0.7439
0.6574 0.8292 0.7442
0.5888 0.8793 0.7445
0.5163 0.9237 0.7447
0.4406 0.9621 0.7450
0.3619 0.9943 0.7452
0.2810 1.0201 0.7455
0.1982 1.0392 0.7457
0.1141 1.0517 0.7459
0.0293 1.0573 0.7461
-2.5439 0.9469 2.0383
-2.6118 0.7394 2.0383
-2.6628 0.5271 2.0383
-2.6967 0.3114 2.0383
-2.7133 0.0937 2.0383
-2.7124 -0.1247 2.0383
-2.6940 -0.3423 2.0383
-2.6582 -0.5578 2.0383
-2.6053 -0.7697 2.0383
-2.5356 -0.9768 2.0383
-2.4496 -1.1776 2.0383
-2.3477 -1.3710 2.0383
-2.2307 -1.5556 2.0383
-0.7657 -0.6312 0.7435
-0.7125 -0.6906 0.7432
-0.6548 -0.7456 0.7430
-0.5928 -0.7957 0.7427
-0.5270 -0.8408 0.7425
-0.4579 -0.8804 0.7422
-0.3858 -0.9143 0.7420
-0.3112 -0.9424 0.7417
-0.2346 -0.9644 0.7415
-0.1565 -0.9802 0.7413
-0.0773 -0.9897 0.7411
0.0023 -0.9928 0.7409
0.0819 -0.9896 0.7408
0.1610 -0.9800 0.7406
0.2391 -0.9641 0.7405
0.3157 -0.9420 0.7404
0.3902 -0.9138 0.7403
0.4623 -0.8797 0.7402
0.5314 -0.8400 0.7402
0.5971 -0.7949 0.7402
0.6590 -0.7447 0.7402
0.7167 -0.6896 0.7402
0.7698 -0.6301 0.7402
2.2521 -1.5598 2.0383
2.3701 -1.3745 2.0383
2.4727 -1.1803 2.0383
2.5594 -0.9785 2.0383
2.6296 -0.7703 2.0383
2.6828 -0.5572 2.0383
2.7186 -0.3405 2.0383
2.7369 -0.1216 2.0383
2.7375 0.0980 2.0383
2.7205 0.3170 2.0383
2.6859 0.5338 2.0383
2.6340 0.7471 2.0383
2.5650 0.9556 2.0383
2.4796 1.1578 2.0383
2.3782 1.3524 2.0383
2.2615 1.5382 2.0383
0.7770 0.6251 0.7434
0.7244 0.6854 0.7437
0.6671 0.7413 0.7439
0.6055 0.7924 0.7442
0.5400 0.8384 0.7445
0.4710 0.8790 0.7447
0.3989 0.9139 0.7450
0.3243 0.9429 0.7452
0.2476 0.9658 0.7454
0.1693 0.9825 0.7456
0.0898 0.9928 0.7458
0.0099 0.9967 0.7460
-0.0702 0.9941 0.7462
-0.1498 0.9851 0.7463
-0.2283 0.9697 0.7464
-0.3054 0.9481 0.7466
-0.3805 0.9204 0.7466
-0.4532 0.8867 0.7467
-0.5228 0.8472 0.7468
-0.5891 0.8023 0.7468
-0.6515 0.7522 0.7468
-0.7097 0.6973 0.7468
-0.7633 0.6379 0.7467
-2.2164 1.5679 2.0383
-2.3350 1.3846 2.0383
-2.4386 1.1924 2.0383
-2.5265 0.9925 2.0383
-2.5980 0.7862 2.0383
-2.6529 0.5749 2.0383
-2.6907 0.3598 2.0383
-2.7111 0.1424 2.0383
-2.7141 -0.0759 2.0383
-2.6996 -0.2938 2.0383
-2.6677 -0.5099 2.0383
-2.6186 -0.7228 2.0383
-2.5527 -0.9310 2.0383
-2.4702 -1.1334 2.0383
-2.3718 -1.3285 2.0383
-2.2581 -1.5152 2.0383
-0.7769 -0.6173 0.7436
-0.7248 -0.6777 0.7433
-0.6681 -0.7337 0.7430
-0.6070 -0.7849 0.7428
-0.5420 -0.8312 0.7425
-0.4736 -0.8720 0.7423
-0.4021 -0.9072 0.7420
-0.3280 -0.9366 0.7418
-0.2518 -0.9600 0.7416
-0.1740 -0.9772 0.7414
-0.0951 -0.9881 0.7412
-0.0155 -0.9927 0.7410
0.0641 -0.9909 0.7408
0.1434 -0.9827 0.7407
0.2218 -0.9682 0.7405
0.2987 -0.9474 0.7404
0.3737 -0.9206 0.7403
0.4464 -0.8879 0.7403
0.5162 -0.8494 0.7402
0.5827 -0.8054 0.7402
0.6455 -0.7563 0.7402
0.7042 -0.7023 0.7402
0.7583 -0.6438 0.7402
2.2238 -1.5999 2.0383
2.3450 -1.4168 2.0383
2.4512 -1.2244 2.0383
2.5415 -1.0242 2.0383
2.6154 -0.8173 2.0383
2.6724 -0.6052 2.0383
2.7121 -0.3892 2.0383
2.7344 -0.1707 2.0383
2.7389 0.0489 2.0383
2.7258 0.2682 2.0383
2.6951 0.4856 2.0383
2.6470 0.6998 2.0383
2.5819 0.9095 2.0383
2.5001 1.1132 2.0383
2.4022 1.3096 2.0383
2.2889 1.4975 2.0383
0.7880 0.6111 0.7434
0.7365 0.6723 0.7436
0.6803 0.7292 0.7439
0.6196 0.7814 0.7441
0.5549 0.8286 0.7444
0.4867 0.8704 0.7447
0.4153 0.9066 0.7449
0.3412 0.9369 0.7451
0.2649 0.9612 0.7454
0.1869 0.9793 0.7456
0.1077 0.9910 0.7458
0.0278 0.9963 0.7460
-2.4001 0.8934 2.0383
-2.4641 0.6976 2.0383
-2.5123 0.4973 2.0383
-2.5443 0.2937 2.0383
-2.5599 0.0883 2.0383
-2.5590 -0.1178 2.0383
-2.5417 -0.3231 2.0383
-2.5079 -0.5264 2.0383
-2.4580 -0.7264 2.0383
-2.3922 -0.9217 2.0383
-2.3110 -1.1112 2.0383
-2.2149 -1.2937 2.0383
-0.7679 -0.5356 0.7438
-0.7224 -0.5955 0.7435
-0.6722 -0.6516 0.7433
-0.6177 -0.7035 0.7430
-0.5592 -0.7508 0.7428
-0.4972 -0.7933 0.7425
-0.4319 -0.8307 0.7423
-0.3639 -0.8627 0.7421
-0.2935 -0.8892 0.7418
-0.2212 -0.9100 0.7416
-0.1475 -0.9249 0.7414
-0.0729 -0.9339 0.7413
0.0022 -0.9368 0.7411
0.0774 -0.9338 0.7409
0.1520 -0.9247 0.7408
0.2257 -0.9097 0.7407
0.2979 -0.8888 0.7406
0.3683 -0.8622 0.7405
0.4363 -0.8301 0.7404
0.5015 -0.7926 0.7404
0.5635 -0.7500 0.7404
0.6219 -0.7026 0.7404
0.6763 -0.6507 0.7404
0.7264 -0.5945 0.7404
0.7718 -0.5345 0.7405
2.2358 -1.2966 2.0383
2.3326 -1.1134 2.0383
2.4144 -0.9231 2.0383
2.4806 -0.7267 2.0383
2.5308 -0.5257 2.0383
2.5646 -0.3213 2.0383
2.5819 -0.1148 2.0383
2.5825 0.0924 2.0383
2.5664 0.2989 2.0383
2.5338 0.5034 2.0383
2.4848 0.7047 2.0383
2.4198 0.9013 2.0383
2.3392 1.0920 2.0383
2.2436 1.2756 2.0383
0.7779 0.5290 0.7432
0.7330 0.5897 0.7434
0.6834 0.6466 0.7437
0.6294 0.6993 0.7439
0.5713 0.7475 0.7442
0.5095 0.7908 0.7444
0.4444 0.8291 0.7446
0.3764 0.8620 0.7449
0.3060 0.8894 0.7451
0.2336 0.9110 0.7453
0.1597 0.9267 0.7455
0.0848 0.9364 0.7457
0.0094 0.9401 0.7459
-0.0661 0.9377 0.7460
-0.1412 0.9292 0.7462
-0.2153 0.9147 0.7463
-0.2880 0.8943 0.7464
-0.3589 0.8681 0.7465
-0.4274 0.8363 0.7465
-0.4931 0.7992 0.7466
-0.5556 0.7568 0.7466
-0.6145 0.7096 0.7466
-0.6694 0.6578 0.7466
-0.7200 0.6017 0.7466
-0.7658 0.5418 0.7465
-2.2030 1.3064 2.0383
-2.3008 1.1250 2.0383
-2.3837 0.9364 2.0383
-2.4512 0.7418 2.0383
-2.5029 0.5424 2.0383
-2.5386 0.3394 2.0383
-2.5579 0.1343 2.0383
-2.5607 -0.0717 2.0383
-2.5470 -0.2773 2.0383
-2.5169 -0.4812 2.0383
-2.4705 -0.6820 2.0383
-2.4083 -0.8785 2.0383
-2.3305 -1.0695 2.0383
-2.2376 -1.2536 2.0383
-0.7774 -0.5217 0.7438
-0.7329 -0.5824 0.7436
-0.6838 -0.6394 0.7433
-0.6302 -0.6923 0.7431
-0.5726 -0.7406 0.7428
-0.5113 -0.7842 0.7426
-0.4468 -0.8228 0.7423
-0.3793 -0.8560 0.7421
-0.3094 -0.8838 0.7419
-0.2375 -0.9058 0.7417
-0.1641 -0.9221 0.7415
-0.0896 -0.9324 0.7413
-0.0146 -0.9367 0.7411
0.0606 -0.9350 0.7410
0.1354 -0.9272 0.7408
0.2093 -0.9135 0.7407
0.2819 -0.8940 0.7406
0.3527 -0.8687 0.7405
0.4213 -0.8377 0.7404
0.4872 -0.8014 0.7404
0.5499 -0.7600 0.7404
0.6092 -0.7136 0.7404
0.6645 -0.6627 0.7404
0.7156 -0.6074 0.7404
0.7621 -0.5482 0.7405
2.2122 -1.3364 2.0383
2.3123 -1.1550 2.0383
2.3975 -0.9662 2.0383
2.4672 -0.7710 2.0383
2.5210 -0.5709 2.0383
2.5585 -0.3672 2.0383
2.5794 -0.1611 2.0383
2.5838 0.0461 2.0383
2.5714 0.2529 2.0383
2.5425 0.4580 2.0383
2.4971 0.6601 2.0383
2.4357 0.8578 2.0383
2.3586 1.0500 2.0383
2.2663 1.2353 2.0383
0.7872 0.5150 0.7431
0.7435 0.5764 0.7434
