ply
format ascii 1.0
element vertex 2169
property float32 x
property float32 y
property float32 z
end_header
-3.1567 -2.4305 2.0383
-2.9515 -2.6769 2.0383
-2.7271 -2.9061 2.0383
-2.4850 -3.1165 2.0383
-2.2267 -3.3067 2.0383
-0.7100 -1.2629 0.7406
-0.6061 -1.3158 0.7405
-0.4983 -1.3601 0.7403
-0.3873 -1.3957 0.7401
-0.2738 -1.4223 0.7400
-0.1586 -1.4397 0.7399
-0.0423 -1.4478 0.7398
0.0742 -1.4465 0.7398
0.1902 -1.4359 0.7398
0.3051 -1.4161 0.7397
0.4180 -1.3871 0.7398
0.5282 -1.3491 0.7398
0.6350 -1.3025 0.7399
0.7378 -1.2474 0.7400
2.3019 -3.2617 2.0383
2.5567 -3.0661 2.0383
2.7948 -2.8506 2.0383
3.0148 -2.6166 2.0383
3.2153 -2.3657 2.0383
3.3949 -2.0995 2.0383
-0.5118 1.2612 0.7469
-0.6115 1.2158 0.7469
-0.7072 1.1625 0.7468
-2.1794 3.0073 2.0383
-2.4143 2.8222 2.0383
-2.6336 2.6189 2.0383
-2.8359 2.3986 2.0383
-3.0198 2.1627 2.0383
-3.1842 1.9129 2.0383
-3.3280 1.6506 2.0383
-3.4503 1.3776 2.0383
-3.5503 1.0957 2.0383
-3.6273 0.8066 2.0383
-3.6808 0.5122 2.0383
-3.7105 0.2145 2.0383
-3.7163 -0.0847 2.0383
-3.6979 -0.3834 2.0383
-3.6556 -0.6798 2.0383
-3.5896 -0.9717 2.0383
-3.5004 -1.2575 2.0383
-3.3884 -1.5352 2.0383
-3.2545 -1.8030 2.0383
-3.0994 -2.0593 2.0383
-2.9243 -2.3023 2.0383
-2.7301 -2.5304 2.0383
-2.5182 -2.7422 2.0383
-2.2899 -2.9362 2.0383
-0.7440 -1.1311 0.7410
-0.6506 -1.1871 0.7408
-0.5530 -1.2355 0.7406
-0.4519 -1.2759 0.7405
-0.3478 -1.3080 0.7403
-0.2415 -1.3317 0.7402
-0.1337 -1.3468 0.7401
-0.0250 -1.3532 0.7401
0.0839 -1.3508 0.7400
0.1922 -1.3398 0.7400
0.2993 -1.3201 0.7400
0.4045 -1.2919 0.7400
0.5071 -1.2553 0.7401
0.6064 -1.2106 0.7401
0.7019 -1.1581 0.7402
2.1829 -3.0235 2.0383
2.4189 -2.8382 2.0383
2.6391 -2.6345 2.0383
2.8423 -2.4138 2.0383
3.0270 -2.1774 2.0383
3.1921 -1.9269 2.0383
3.3364 -1.6640 2.0383
3.4591 -1.3903 2.0383
3.5593 -1.1076 2.0383
3.6365 -0.8178 2.0383
3.6900 -0.5227 2.0383
3.7197 -0.2244 2.0383
3.7252 0.0754 2.0383
3.7066 0.3746 2.0383
3.6639 0.6713 2.0383
3.5975 0.9636 2.0383
3.5079 1.2496 2.0383
3.3955 1.5273 2.0383
3.2611 1.7952 2.0383
3.1057 2.0513 2.0383
2.9302 2.2940 2.0383
2.7358 2.5218 2.0383
2.5237 2.7332 2.0383
2.2953 2.9269 2.0383
0.7510 1.1351 0.7460
0.6574 1.1919 0.7462
0.5594 1.2411 0.7463
0.4578 1.2821 0.7465
0.3532 1.3149 0.7466
0.2463 1.3391 0.7467
0.1378 1.3545 0.7468
0.0283 1.3612 0.7469
-0.0813 1.3591 0.7470
-0.1903 1.3480 0.7470
-0.2981 1.3283 0.7470
-0.4040 1.2999 0.7470
-0.5072 1.2630 0.7469
-0.6071 1.2180 0.7469
-0.7031 1.1650 0.7468
-2.1686 3.0151 2.0383
-2.4042 2.8309 2.0383
-2.6242 2.6283 2.0383
-2.8273 2.4087 2.0383
-3.0120 2.1736 2.0383
-3.1773 1.9243 2.0383
-3.3221 1.6625 2.0383
-3.4453 1.3900 2.0383
-3.5463 1.1084 2.0383
-3.6243 0.8196 2.0383
-3.6789 0.5254 2.0383
-3.7097 0.2278 2.0383
-3.7165 -0.0714 2.0383
-3.6992 -0.3702 2.0383
-3.6580 -0.6666 2.0383
-3.5931 -0.9589 2.0383
-3.5048 -1.2449 2.0383
-3.3939 -1.5230 2.0383
-3.2609 -1.7913 2.0383
-3.1068 -2.0481 2.0383
-2.9325 -2.2917 2.0383
-2.7391 -2.5205 2.0383
-2.5280 -2.7331 2.0383
-2.3004 -2.9280 2.0383
-0.7481 -1.1284 0.7410
-0.6549 -1.1848 0.7408
-0.5574 -1.2335 0.7406
-0.4564 -1.2742 0.7405
-0.3525 -1.3067 0.7404
-0.2463 -1.3308 0.7402
-0.1385 -1.3463 0.7401
-0.0298 -1.3531 0.7401
0.0790 -1.3511 0.7400
0.1874 -1.3405 0.7400
0.2946 -1.3211 0.7400
0.3999 -1.2933 0.7400
0.5026 -1.2571 0.7400
0.6021 -1.2128 0.7401
0.6977 -1.1606 0.7402
2.1721 -3.0313 2.0383
2.4087 -2.8469 2.0383
2.6297 -2.6440 2.0383
2.8336 -2.4240 2.0383
3.0192 -2.1883 2.0383
3.1851 -1.9384 2.0383
3.3304 -1.6760 2.0383
3.4541 -1.4027 2.0383
3.5553 -1.1204 2.0383
3.6335 -0.8308 2.0383
3.6882 -0.5360 2.0383
3.7189 -0.2377 2.0383
3.7255 0.0620 2.0383
3.7079 0.3613 2.0383
3.6663 0.6582 2.0383
3.6010 0.9507 2.0383
3.5123 1.2370 2.0383
3.4010 1.5152 2.0383
3.2676 1.7835 2.0383
3.1131 2.0401 2.0383
2.9385 2.2835 2.0383
2.7448 2.5120 2.0383
2.5335 2.7242 2.0383
2.3058 2.9187 2.0383
0.7551 1.1324 0.7460
0.6616 1.1896 0.7462
0.5639 1.2390 0.7463
0.4624 1.2805 0.7465
0.3579 1.3136 0.7466
0.2511 1.3382 0.7467
0.1426 1.3540 0.7468
0.0332 1.3611 0.7469
-0.0764 1.3593 0.7470
-0.1855 1.3487 0.7470
-0.2934 1.3293 0.7470
-0.3993 1.3013 0.7470
-0.5027 1.2648 0.7469
-0.6028 1.2201 0.7469
-0.6989 1.1675 0.7468
-2.1578 3.0229 2.0383
-2.3940 2.8395 2.0383
-2.6148 2.6377 2.0383
-2.8186 2.4189 2.0383
-3.0042 2.1844 2.0383
-3.1704 1.9357 2.0383
-3.3161 1.6744 2.0383
-3.4403 1.4023 2.0383
-3.5423 1.1211 2.0383
-3.6214 0.8326 2.0383
-3.6770 0.5386 2.0383
-3.7089 0.2411 2.0383
-3.7167 -0.0581 2.0383
-3.7005 -0.3569 2.0383
-3.6603 -0.6535 2.0383
-3.5964 -0.9459 2.0383
-3.5093 -1.2323 2.0383
-3.3993 -1.5108 2.0383
-3.2673 -1.7796 2.0383
-3.1141 -2.0370 2.0383
-2.9407 -2.2812 2.0383
-2.7482 -2.5107 2.0383
-2.5378 -2.7240 2.0383
-2.3109 -2.9197 2.0383
-0.7521 -1.1257 0.7410
-0.6591 -1.1824 0.7408
-0.5619 -1.2315 0.7406
-0.4610 -1.2726 0.7405
-0.3572 -1.3055 0.7404
-0.2511 -1.3299 0.7402
-0.1433 -1.3458 0.7401
-0.0347 -1.3530 0.7401
0.0742 -1.3514 0.7400
0.1826 -1.3411 0.7400
0.2898 -1.3222 0.7400
0.3952 -1.2947 0.7400
0.4981 -1.2589 0.7400
0.5977 -1.2149 0.7401
0.6935 -1.1631 0.7402
0.7849 -1.1038 0.7403
2.3984 -2.8555 2.0383
2.6202 -2.6534 2.0383
2.8249 -2.4341 2.0383
3.0113 -2.1991 2.0383
3.1782 -1.9498 2.0383
3.3244 -1.6879 2.0383
3.4490 -1.4151 2.0383
3.5513 -1.1331 2.0383
3.6306 -0.8439 2.0383
3.6862 -0.5492 2.0383
3.7180 -0.2511 2.0383
3.7257 0.0487 2.0383
3.7092 0.3480 2.0383
3.6687 0.6450 2.0383
3.6044 0.9378 2.0383
3.5168 1.2244 2.0383
3.4064 1.5030 2.0383
3.2740 1.7717 2.0383
3.1204 2.0289 2.0383
2.9466 2.2729 2.0383
2.7539 2.5021 2.0383
2.5433 2.7151 2.0383
2.3163 2.9104 2.0383
0.7592 1.1297 0.7460
0.6659 1.1872 0.7461
0.5683 1.2370 0.7463
0.4670 1.2788 0.7465
0.3626 1.3123 0.7466
0.2559 1.3373 0.7467
0.1475 1.3535 0.7468
0.0381 1.3610 0.7469
-0.0715 1.3596 0.7470
-0.1806 1.3494 0.7470
-0.2886 1.3304 0.7470
-0.3947 1.3027 0.7470
-0.4982 1.2666 0.7469
-0.5984 1.2223 0.7469
-0.6947 1.1700 0.7468
-2.1469 3.0306 2.0383
-2.3838 2.8481 2.0383
-2.6053 2.6471 2.0383
-2.8099 2.4290 2.0383
-2.9963 2.1951 2.0383
-3.1634 1.9470 2.0383
-3.3100 1.6863 2.0383
-3.4352 1.4147 2.0383
-3.5382 1.1338 2.0383
-3.6183 0.8456 2.0383
-3.6750 0.5518 2.0383
-3.7080 0.2544 2.0383
-3.7169 -0.0447 2.0383
-3.7017 -0.3436 2.0383
-3.6626 -0.6403 2.0383
-3.5998 -0.9330 2.0383
-3.5136 -1.2197 2.0383
-3.4047 -1.4986 2.0383
-3.2736 -1.7679 2.0383
-3.1214 -2.0258 2.0383
-2.9488 -2.2706 2.0383
-2.7571 -2.5008 2.0383
-2.5475 -2.7148 2.0383
-2.3213 -2.9114 2.0383
-0.7562 -1.1230 0.7410
-0.6634 -1.1801 0.7408
-0.5663 -1.2295 0.7407
-0.4656 -1.2709 0.7405
-0.3619 -1.3042 0.7404
-0.2558 -1.3290 0.7402
-0.1482 -1.3453 0.7402
-0.0395 -1.3528 0.7401
0.0694 -1.3517 0.7400
0.1778 -1.3418 0.7400
0.2851 -1.3232 0.7400
0.3906 -1.2961 0.7400
0.4936 -1.2607 0.7400
0.5934 -1.2171 0.7401
0.6894 -1.1656 0.7402
0.7809 -1.1066 0.7403
2.3882 -2.8641 2.0383
2.6107 -2.6628 2.0383
2.8162 -2.4443 2.0383
3.0034 -2.2099 2.0383
3.1712 -1.9612 2.0383
-0.4791 1.1808 0.7467
-0.5725 1.1382 0.7466
-0.6621 1.0883 0.7466
-0.7475 1.0314 0.7465
-2.2610 2.6430 2.0383
-2.4664 2.4526 2.0383
-2.6558 2.2463 2.0383
-2.8281 2.0254 2.0383
-2.9820 1.7914 2.0383
-3.1167 1.5457 2.0383
-3.2312 1.2901 2.0383
-3.3248 1.0260 2.0383
-3.3969 0.7553 2.0383
-3.4470 0.4796 2.0383
-3.4748 0.2008 2.0383
-3.4802 -0.0794 2.0383
-3.4630 -0.3592 2.0383
-3.4233 -0.6367 2.0383
-3.3615 -0.9101 2.0383
-3.2779 -1.1777 2.0383
-3.1730 -1.4378 2.0383
-3.0476 -1.6886 2.0383
-2.9024 -1.9285 2.0383
-2.7383 -2.1560 2.0383
-2.5565 -2.3696 2.0383
-2.3580 -2.5679 2.0383
-0.7799 -1.0000 0.7413
-0.6968 -1.0594 0.7411
-0.6094 -1.1119 0.7410
-0.5179 -1.1572 0.7408
-0.4232 -1.1950 0.7407
-0.3257 -1.2251 0.7405
-0.2262 -1.2473 0.7404
-0.1252 -1.2615 0.7404
-0.0234 -1.2675 0.7403
0.0786 -1.2653 0.7402
0.1801 -1.2549 0.7402
0.2804 -1.2365 0.7402
0.3789 -1.2100 0.7402
0.4750 -1.1758 0.7403
0.5680 -1.1339 0.7403
0.6574 -1.0847 0.7404
0.7426 -1.0285 0.7405
2.2650 -2.6576 2.0383
2.4712 -2.4669 2.0383
2.6614 -2.2602 2.0383
2.8344 -2.0389 2.0383
2.9889 -1.8044 2.0383
3.1241 -1.5582 2.0383
3.2390 -1.3019 2.0383
3.3329 -1.0372 2.0383
3.4051 -0.7658 2.0383
3.4553 -0.4896 2.0383
3.4831 -0.2102 2.0383
3.4883 0.0705 2.0383
3.4708 0.3507 2.0383
3.4309 0.6285 2.0383
3.3688 0.9022 2.0383
3.2849 1.1700 2.0383
3.1796 1.4301 2.0383
3.0539 1.6809 2.0383
2.9084 1.9208 2.0383
2.7440 2.1481 2.0383
2.5620 2.3615 2.0383
2.3634 2.5595 2.0383
0.7863 1.0026 0.7456
0.7032 1.0627 0.7458
0.6155 1.1159 0.7460
0.5238 1.1619 0.7462
0.4286 1.2004 0.7463
0.3307 1.2310 0.7464
0.2306 1.2536 0.7465
0.1290 1.2681 0.7466
0.0266 1.2744 0.7467
-0.0761 1.2724 0.7467
-0.1782 1.2621 0.7468
-0.2791 1.2435 0.7468
-0.3782 1.2170 0.7467
-0.4749 1.1825 0.7467
-0.5684 1.1403 0.7466
-0.6582 1.0907 0.7466
-0.7438 1.0341 0.7465
-2.2515 2.6511 2.0383
-2.4576 2.4614 2.0383
-2.6477 2.2558 2.0383
-2.8208 2.0355 2.0383
-2.9756 1.8020 2.0383
-3.1111 1.5569 2.0383
-3.2265 1.3017 2.0383
-3.3211 1.0379 2.0383
-3.3942 0.7675 2.0383
-3.4453 0.4920 2.0383
-3.4741 0.2132 2.0383
-3.4804 -0.0669 2.0383
-3.4642 -0.3467 2.0383
-3.4256 -0.6244 2.0383
-3.3647 -0.8980 2.0383
-3.2821 -1.1659 2.0383
-3.1782 -1.4263 2.0383
-3.0536 -1.6776 2.0383
-2.9093 -1.9180 2.0383
-2.7460 -2.1461 2.0383
-2.5649 -2.3604 2.0383
-2.3672 -2.5594 2.0383
-0.7834 -0.9972 0.7414
-0.7006 -1.0569 0.7412
-0.6133 -1.1097 0.7410
-0.5221 -1.1553 0.7408
-0.4275 -1.1935 0.7407
-0.3301 -1.2240 0.7405
-0.2307 -1.2465 0.7404
-0.1297 -1.2610 0.7404
-0.0279 -1.2674 0.7403
0.0741 -1.2655 0.7402
0.1756 -1.2556 0.7402
0.2759 -1.2375 0.7402
0.3745 -1.2114 0.7402
0.4708 -1.1775 0.7403
0.5639 -1.1359 0.7403
0.6535 -1.0871 0.7404
0.7389 -1.0312 0.7405
2.2554 -2.6657 2.0383
2.4623 -2.4758 2.0383
2.6533 -2.2698 2.0383
2.8271 -2.0491 2.0383
2.9825 -1.8151 2.0383
3.1185 -1.5694 2.0383
3.2343 -1.3135 2.0383
3.3291 -1.0492 2.0383
3.4024 -0.7781 2.0383
3.4536 -0.5020 2.0383
3.4823 -0.2227 2.0383
3.4885 0.0580 2.0383
3.4721 0.3382 2.0383
3.4332 0.6162 2.0383
3.3720 0.8901 2.0383
3.2891 1.1582 2.0383
3.1848 1.4187 2.0383
3.0599 1.6700 2.0383
2.9152 1.9103 2.0383
2.7517 2.1383 2.0383
2.5705 2.3523 2.0383
2.3726 2.5510 2.0383
0.7899 0.9998 0.7456
0.7070 1.0602 0.7458
0.6195 1.1137 0.7460
0.5279 1.1600 0.7461
0.4329 1.1988 0.7463
0.3351 1.2298 0.7464
0.2351 1.2528 0.7465
0.1336 1.2677 0.7466
0.0311 1.2743 0.7467
-0.0715 1.2726 0.7467
-0.1736 1.2627 0.7468
-0.2746 1.2445 0.7468
-0.3739 1.2183 0.7467
-0.4706 1.1842 0.7467
-0.5643 1.1423 0.7467
-0.6543 1.0931 0.7466
-0.7400 1.0367 0.7465
-2.2420 2.6592 2.0383
-2.4487 2.4702 2.0383
-2.6396 2.2653 2.0383
-2.8134 2.0456 2.0383
-2.9691 1.8127 2.0383
-3.1055 1.5681 2.0383
-3.2218 1.3132 2.0383
-3.3173 1.0498 2.0383
-3.3914 0.7796 2.0383
-3.4435 0.5043 2.0383
-3.4733 0.2257 2.0383
-3.4806 -0.0545 2.0383
-3.4654 -0.3343 2.0383
-3.4278 -0.6121 2.0383
-3.3679 -0.8859 2.0383
-3.2862 -1.1541 2.0383
-3.1832 -1.4149 2.0383
-3.0596 -1.6666 2.0383
-2.9161 -1.9076 2.0383
-2.7537 -2.1363 2.0383
-2.5734 -2.3512 2.0383
-2.3763 -2.5509 2.0383
-2.1639 -2.7341 2.0383
-0.7044 -1.0544 0.7412
-0.6173 -1.1075 0.7410
-0.5262 -1.1535 0.7408
-0.4318 -1.1920 0.7407
-0.3345 -1.2228 0.7406
-0.2351 -1.2457 0.7404
-0.1342 -1.2605 0.7404
-0.0325 -1.2673 0.7403
0.0695 -1.2658 0.7402
0.1711 -1.2562 0.7402
0.2715 -1.2384 0.7402
0.3702 -1.2127 0.7402
0.4665 -1.1791 0.7403
0.5599 -1.1379 0.7403
0.6496 -1.0894 0.7404
0.7352 -1.0338 0.7405
2.2458 -2.6738 2.0383
2.4535 -2.4846 2.0383
2.6452 -2.2793 2.0383
2.8197 -2.0592 2.0383
2.9759 -1.8258 2.0383
3.1129 -1.5805 2.0383
3.2296 -1.3251 2.0383
3.3254 -1.0611 2.0383
3.3996 -0.7903 2.0383
3.4517 -0.5144 2.0383
3.4815 -0.2352 2.0383
3.4887 0.0455 2.0383
3.4733 0.3258 2.0383
3.4354 0.6039 2.0383
3.3752 0.8780 2.0383
3.2932 1.1464 2.0383
3.1899 1.4073 2.0383
3.0659 1.6590 2.0383
2.9221 1.8999 2.0383
2.7594 2.1284 2.0383
2.5789 2.3430 2.0383
2.3817 2.5425 2.0383
2.1692 2.7254 2.0383
0.7108 1.0576 0.7458
0.6235 1.1115 0.7460
0.5321 1.1581 0.7461
0.4372 1.1972 0.7463
0.3395 1.2286 0.7464
0.2396 1.2520 0.7465
0.1381 1.2672 0.7466
0.0357 1.2742 0.7467
-0.0669 1.2729 0.7467
-0.1691 1.2633 0.7468
-0.2702 1.2455 0.7468
-0.3695 1.2197 0.7467
-0.4664 1.1859 0.7467
-0.5602 1.1444 0.7467
-0.6504 1.0954 0.7466
-0.7363 1.0394 0.7465
-2.2324 2.6672 2.0383
-2.4398 2.4790 2.0383
-2.6315 2.2747 2.0383
-2.8061 2.0557 2.0383
-2.9625 1.8234 2.0383
-3.0998 1.5792 2.0383
-3.2171 1.3248 2.0383
-3.3135 1.0617 2.0383
-3.3885 0.7918 2.0383
-3.4416 0.5167 2.0383
-3.4724 0.2382 2.0383
-3.4808 -0.0420 2.0383
-3.4666 -0.3219 2.0383
-3.4299 -0.5998 2.0383
-3.3710 -0.8738 2.0383
-3.2903 -1.1423 2.0383
-3.1883 -1.4035 2.0383
-3.0655 -1.6556 2.0383
-2.9229 -1.8971 2.0383
-2.7613 -2.1264 2.0383
-2.5818 -2.3419 2.0383
-2.3855 -2.5423 2.0383
-2.1736 -2.7263 2.0383
-0.7082 -1.0519 0.7412
-0.6213 -1.1053 0.7410
-0.5304 -1.1516 0.7408
-0.4360 -1.1904 0.7407
-0.3389 -1.2216 0.7406
-0.2396 -1.2448 0.7405
-0.1387 -1.2600 0.7404
-0.0370 -1.2671 0.7403
0.0650 -1.2660 0.7402
0.1666 -1.2568 0.7402
0.2671 -1.2394 0.7402
0.3658 -1.2140 0.7402
0.4623 -1.1808 0.7403
0.5558 -1.1399 0.7403
0.6457 -1.0917 0.7404
0.7315 -1.0364 0.7405
2.2362 -2.6818 2.0383
2.4445 -2.4934 2.0383
2.6370 -2.2888 2.0383
2.8123 -2.0693 2.0383
2.9694 -1.8364 2.0383
-0.4495 1.1077 0.7465
-0.5371 1.0679 0.7464
-0.6212 1.0211 0.7464
-0.7012 0.9676 0.7463
-2.1218 2.4802 2.0383
-2.3145 2.3015 2.0383
-2.4923 2.1079 2.0383
-2.6539 1.9006 2.0383
-2.7984 1.6810 2.0383
-2.9247 1.4505 2.0383
-3.0322 1.2105 2.0383
-3.1200 0.9627 2.0383
-3.1877 0.7087 2.0383
-3.2347 0.4500 2.0383
-3.2608 0.1883 2.0383
-3.2657 -0.0746 2.0383
-3.2496 -0.3371 2.0383
-3.2124 -0.5975 2.0383
-3.1543 -0.8541 2.0383
-3.0758 -1.1052 2.0383
-2.9774 -1.3492 2.0383
-2.8597 -1.5846 2.0383
-2.7234 -1.8097 2.0383
-2.5694 -2.0232 2.0383
-2.3988 -2.2236 2.0383
-2.2126 -2.4097 2.0383
-0.7319 -0.9386 0.7415
-0.6540 -0.9943 0.7413
-0.5719 -1.0436 0.7411
-0.4861 -1.0861 0.7410
-0.3972 -1.1216 0.7408
-0.3057 -1.1499 0.7407
-0.2123 -1.1707 0.7406
-0.1175 -1.1840 0.7405
-0.0219 -1.1896 0.7405
0.0738 -1.1875 0.7404
0.1690 -1.1778 0.7404
0.2632 -1.1605 0.7404
0.3556 -1.1357 0.7404
0.4458 -1.1035 0.7405
0.5331 -1.0642 0.7405
0.6170 -1.0181 0.7406
0.6969 -0.9653 0.7407
0.7724 -0.9063 0.7408
2.3187 -2.3147 2.0383
2.4972 -2.1208 2.0383
2.6595 -1.9131 2.0383
2.8045 -1.6931 2.0383
2.9313 -1.4621 2.0383
3.0392 -1.2216 2.0383
3.1273 -0.9733 2.0383
3.1951 -0.7187 2.0383
3.2422 -0.4594 2.0383
3.2682 -0.1973 2.0383
3.2731 0.0661 2.0383
3.2568 0.3290 2.0383
3.2194 0.5897 2.0383
3.1611 0.8465 2.0383
3.0823 1.0978 2.0383
2.9837 1.3419 2.0383
2.8657 1.5772 2.0383
2.7291 1.8023 2.0383
2.5749 2.0156 2.0383
2.4041 2.2158 2.0383
2.2178 2.4016 2.0383
0.7377 0.9406 0.7455
0.6598 0.9970 0.7457
0.5775 1.0469 0.7458
0.4914 1.0901 0.7460
0.4022 1.1261 0.7461
0.3103 1.1549 0.7462
0.2164 1.1761 0.7463
0.1210 1.1897 0.7464
0.0249 1.1956 0.7465
-0.0713 1.1937 0.7465
-0.1671 1.1840 0.7466
-0.2618 1.1666 0.7466
-0.3548 1.1417 0.7465
-0.4455 1.1093 0.7465
-0.5333 1.0698 0.7465
-0.6175 1.0233 0.7464
-0.6978 0.9701 0.7463
-0.7735 0.9107 0.7462
-2.3062 2.3098 2.0383
-2.4847 2.1168 2.0383
-2.6470 1.9101 2.0383
-2.7923 1.6910 2.0383
-2.9195 1.4610 2.0383
-3.0278 1.2214 2.0383
-3.1165 0.9739 2.0383
-3.1851 0.7201 2.0383
-3.2330 0.4616 2.0383
-3.2600 0.2000 2.0383
-3.2660 -0.0629 2.0383
-3.2507 -0.3255 2.0383
-3.2145 -0.5860 2.0383
-3.1573 -0.8428 2.0383
-3.0798 -1.0942 2.0383
-2.9822 -1.3385 2.0383
-2.8653 -1.5743 2.0383
-2.7299 -1.7999 2.0383
-2.5767 -2.0139 2.0383
-2.4067 -2.2150 2.0383
-2.2212 -2.4017 2.0383
-0.7352 -0.9359 0.7415
-0.6575 -0.9919 0.7413
-0.5756 -1.0415 0.7411
-0.4900 -1.0843 0.7410
-0.4012 -1.1202 0.7408
-0.3098 -1.1488 0.7407
-0.2165 -1.1699 0.7406
-0.1217 -1.1835 0.7405
-0.0262 -1.1895 0.7405
0.0695 -1.1878 0.7404
0.1648 -1.1784 0.7404
0.2590 -1.1614 0.7404
0.3515 -1.1369 0.7404
0.4418 -1.1051 0.7405
0.5293 -1.0661 0.7405
0.6133 -1.0203 0.7406
0.6935 -0.9678 0.7407
0.7691 -0.9090 0.7408
2.3104 -2.3230 2.0383
2.4896 -2.1298 2.0383
2.6526 -1.9227 2.0383
2.7984 -1.7031 2.0383
2.9261 -1.4726 2.0383
3.0348 -1.2325 2.0383
3.1238 -0.9845 2.0383
3.1925 -0.7301 2.0383
3.2405 -0.4711 2.0383
3.2675 -0.2090 2.0383
3.2734 0.0543 2.0383
3.2580 0.3173 2.0383
3.2215 0.5781 2.0383
3.1641 0.8352 2.0383
3.0863 1.0867 2.0383
2.9885 1.3312 2.0383
2.8713 1.5669 2.0383
2.7356 1.7925 2.0383
2.5822 2.0064 2.0383
2.4121 2.2072 2.0383
2.2264 2.3937 2.0383
0.7411 0.9380 0.7455
0.6633 0.9946 0.7457
0.5812 1.0448 0.7458
0.4953 1.0883 0.7460
0.4062 1.1247 0.7461
0.3144 1.1537 0.7462
0.2206 1.1753 0.7463
0.1253 1.1893 0.7464
0.0292 1.1955 0.7465
-0.0670 1.1939 0.7465
-0.1629 1.1846 0.7466
-0.2576 1.1676 0.7466
-0.3507 1.1430 0.7465
-0.4415 1.1109 0.7465
-0.5294 1.0717 0.7465
-0.6139 1.0255 0.7464
-0.6943 0.9727 0.7463
-0.7702 0.9135 0.7462
-2.2979 2.3181 2.0383
-2.4771 2.1257 2.0383
-2.6402 1.9196 2.0383
-2.7862 1.7010 2.0383
-2.9142 1.4714 2.0383
-3.0234 1.2323 2.0383
-3.1130 0.9851 2.0383
-3.1825 0.7315 2.0383
-3.2313 0.4732 2.0383
-3.2593 0.2117 2.0383
-3.2662 -0.0512 2.0383
-3.2519 -0.3138 2.0383
-3.2165 -0.5744 2.0383
-3.1603 -0.8314 2.0383
-3.0837 -1.0831 2.0383
-2.9870 -1.3278 2.0383
-2.8710 -1.5640 2.0383
-2.7363 -1.7901 2.0383
-2.5839 -2.0047 2.0383
-2.4147 -2.2063 2.0383
-2.2298 -2.3937 2.0383
-0.7386 -0.9333 0.7415
-0.6611 -0.9896 0.7413
-0.5793 -1.0394 0.7411
-0.4939 -1.0826 0.7410
-0.4052 -1.1187 0.7409
-0.3139 -1.1476 0.7407
-0.2207 -1.1691 0.7406
-0.1260 -1.1831 0.7406
-0.0304 -1.1894 0.7405
0.0653 -1.1880 0.7404
0.1606 -1.1790 0.7404
0.2548 -1.1623 0.7404
0.3475 -1.1382 0.7404
0.4379 -1.1067 0.7405
0.5255 -1.0680 0.7405
0.6097 -1.0224 0.7406
0.6900 -0.9703 0.7407
0.7658 -0.9118 0.7408
2.3021 -2.3313 2.0383
2.4819 -2.1387 2.0383
2.6457 -1.9322 2.0383
2.7923 -1.7132 2.0383
2.9208 -1.4831 2.0383
3.0303 -1.2434 2.0383
3.1202 -0.9957 2.0383
3.1899 -0.7416 2.0383
3.2388 -0.4827 2.0383
3.2668 -0.2207 2.0383
3.2735 0.0426 2.0383
3.2591 0.3056 2.0383
3.2236 0.5666 2.0383
3.1671 0.8238 2.0383
3.0902 1.0756 2.0383
2.9932 1.3204 2.0383
2.8769 1.5566 2.0383
2.7420 1.7827 2.0383
2.5894 1.9971 2.0383
2.4200 2.1985 2.0383
2.2350 2.3857 2.0383
0.7445 0.9353 0.7455
0.6669 0.9922 0.7457
0.5850 1.0428 0.7458
0.4992 1.0865 0.7460
0.4102 1.1232 0.7461
0.3186 1.1526 0.7462
0.2248 1.1745 0.7463
0.1296 1.1888 0.7464
0.0335 1.1954 0.7465
-0.0628 1.1941 0.7465
-0.1586 1.1852 0.7466
-0.2535 1.1685 0.7466
-0.3466 1.1442 0.7465
-0.4375 1.1125 0.7465
-0.5256 1.0736 0.7465
-0.6102 1.0277 0.7464
-0.6908 0.9751 0.7463
-0.7669 0.9163 0.7462
-2.2896 2.3263 2.0383
-2.4694 2.1346 2.0383
-2.6332 1.9291 2.0383
-2.7801 1.7110 2.0383
-2.9089 1.4819 2.0383
-3.0189 1.2431 2.0383
-3.1094 0.9963 2.0383
-3.1798 0.7429 2.0383
-3.2296 0.4848 2.0383
-3.2585 0.2234 2.0383
-3.2663 -0.0395 2.0383
-3.2530 -0.3021 2.0383
-3.2185 -0.5629 2.0383
-3.1633 -0.8201 2.0383
-3.0875 -1.0720 2.0383
-2.9917 -1.3171 2.0383
-2.8765 -1.5537 2.0383
-2.7427 -1.7802 2.0383
-2.5910 -1.9954 2.0383
-2.4225 -2.1976 2.0383
-2.2383 -2.3856 2.0383
-0.7419 -0.9307 0.7415
-0.6646 -0.9872 0.7413
-0.5831 -1.0374 0.7411
-0.4977 -1.0808 0.7410
-0.4092 -1.1173 0.7409
-0.3181 -1.1465 0.7407
-0.2248 -1.1683 0.7406
-0.1302 -1.1826 0.7406
-0.0347 -1.1893 0.7405
0.0610 -1.1883 0.7404
0.1563 -1.1796 0.7404
0.2507 -1.1632 0.7404
0.3434 -1.1394 0.7404
0.4339 -1.1082 0.7405
0.5216 -1.0699 0.7405
0.6060 -1.0246 0.7406
0.6865 -0.9727 0.7407
0.7626 -0.9145 0.7408
2.2937 -2.3396 2.0383
2.4743 -2.1476 2.0383
2.6388 -1.9417 2.0383
2.7862 -1.7232 2.0383
-0.4224 1.0411 0.7463
-0.5048 1.0036 0.7463
-0.5838 0.9596 0.7462
-0.6590 0.9094 0.7461
-0.7300 0.8533 0.7460
-2.1757 2.1635 2.0383
-2.3428 1.9815 2.0383
-2.4948 1.7866 2.0383
-2.6306 1.5801 2.0383
-2.7493 1.3634 2.0383
-2.8503 1.1379 2.0383
-2.9329 0.9049 2.0383
-2.9965 0.6661 2.0383
-3.0407 0.4229 2.0383
-3.0652 0.1769 2.0383
-3.0698 -0.0702 2.0383
-3.0546 -0.3170 2.0383
-3.0196 -0.5618 2.0383
-2.9650 -0.8030 2.0383
-2.8913 -1.0390 2.0383
-2.7987 -1.2684 2.0383
-2.6880 -1.4896 2.0383
-2.5599 -1.7012 2.0383
-2.4152 -1.9018 2.0383
-2.2547 -2.0902 2.0383
-0.7568 -0.8243 0.7418
-0.6880 -0.8824 0.7416
-0.6148 -0.9348 0.7414
-0.5376 -0.9811 0.7413
-0.4570 -1.0211 0.7411
-0.3734 -1.0545 0.7410
-0.2874 -1.0811 0.7409
-0.1995 -1.1007 0.7408
-0.1104 -1.1131 0.7407
-0.0206 -1.1184 0.7407
0.0694 -1.1165 0.7406
0.1589 -1.1074 0.7406
0.2474 -1.0911 0.7406
0.3344 -1.0677 0.7406
0.4191 -1.0375 0.7406
0.5012 -1.0005 0.7407
0.5801 -0.9571 0.7408
0.6552 -0.9075 0.7409
0.7261 -0.8520 0.7410
2.1795 -2.1757 2.0383
2.3472 -1.9934 2.0383
2.4997 -1.7983 2.0383
2.6361 -1.5914 2.0383
2.7553 -1.3743 2.0383
2.8566 -1.1483 2.0383
2.9394 -0.9149 2.0383
3.0032 -0.6756 2.0383
3.0475 -0.4319 2.0383
3.0720 -0.1855 2.0383
3.0766 0.0620 2.0383
3.0613 0.3091 2.0383
3.0261 0.5542 2.0383
2.9714 0.7956 2.0383
2.8974 1.0318 2.0383
2.8046 1.2612 2.0383
2.6937 1.4824 2.0383
2.5654 1.6940 2.0383
2.4205 1.8946 2.0383
2.2599 2.0828 2.0383
0.7622 0.8253 0.7452
0.6934 0.8840 0.7454
0.6201 0.9370 0.7455
0.5428 0.9839 0.7457
0.4619 1.0244 0.7458
0.3780 1.0583 0.7460
0.2916 1.0853 0.7461
0.2034 1.1053 0.7462
0.1138 1.1181 0.7462
0.0235 1.1236 0.7463
-0.0670 1.1218 0.7464
-0.1570 1.1127 0.7464
-0.2461 1.0964 0.7464
-0.3335 1.0730 0.7464
-0.4187 1.0426 0.7463
-0.5011 1.0054 0.7463
-0.5804 0.9617 0.7462
-0.6558 0.9118 0.7461
-0.7269 0.8559 0.7460
-2.1679 2.1713 2.0383
-2.3357 1.9899 2.0383
-2.4883 1.7955 2.0383
-2.6249 1.5896 2.0383
-2.7444 1.3733 2.0383
-2.8462 1.1481 2.0383
-2.9296 0.9155 2.0383
-2.9940 0.6769 2.0383
-3.0391 0.4338 2.0383
-3.0645 0.1879 2.0383
-3.0700 -0.0592 2.0383
-3.0557 -0.3060 2.0383
-3.0216 -0.5509 2.0383
-2.9679 -0.7923 2.0383
-2.8949 -1.0286 2.0383
-2.8032 -1.2583 2.0383
-2.6934 -1.4799 2.0383
-2.5660 -1.6920 2.0383
-2.4220 -1.8931 2.0383
-2.2622 -2.0821 2.0383
-0.7598 -0.8216 0.7418
-0.6912 -0.8799 0.7416
-0.6181 -0.9326 0.7414
-0.5411 -0.9792 0.7413
-0.4606 -1.0195 0.7411
-0.3771 -1.0531 0.7410
-0.2913 -1.0800 0.7409
-0.2035 -1.0999 0.7408
-0.1144 -1.1127 0.7407
-0.0246 -1.1183 0.7407
0.0654 -1.1167 0.7406
0.1550 -1.1079 0.7406
0.2435 -1.0919 0.7406
0.3305 -1.0689 0.7406
0.4154 -1.0390 0.7406
0.4976 -1.0023 0.7407
0.5766 -0.9592 0.7408
0.6520 -0.9099 0.7409
0.7231 -0.8546 0.7410
2.1716 -2.1835 2.0383
2.3401 -2.0019 2.0383
2.4933 -1.8072 2.0383
2.6303 -1.6009 2.0383
2.7503 -1.3842 2.0383
2.8525 -1.1586 2.0383
2.9362 -0.9254 2.0383
3.0008 -0.6864 2.0383
3.0459 -0.4429 2.0383
3.0713 -0.1965 2.0383
3.0768 0.0510 2.0383
3.0624 0.2982 2.0383
3.0281 0.5433 2.0383
2.9742 0.7849 2.0383
2.9011 1.0214 2.0383
2.8091 1.2512 2.0383
2.6990 1.4728 2.0383
2.5715 1.6848 2.0383
2.4273 1.8859 2.0383
2.2674 2.0747 2.0383
0.7651 0.8226 0.7452
0.6966 0.8815 0.7454
0.6235 0.9348 0.7455
0.5463 0.9820 0.7457
0.4655 1.0228 0.7458
0.3818 1.0570 0.7460
0.2955 1.0843 0.7461
0.2073 1.1046 0.7462
0.1178 1.1177 0.7462
0.0275 1.1235 0.7463
-0.0630 1.1220 0.7463
-0.1531 1.1133 0.7464
-0.2421 1.0973 0.7464
-0.3296 1.0742 0.7464
-0.4149 1.0441 0.7463
-0.4975 1.0072 0.7463
-0.5769 0.9638 0.7462
-0.6525 0.9141 0.7461
-0.7238 0.8585 0.7460
-2.1601 2.1790 2.0383
-2.3285 1.9982 2.0383
-2.4818 1.8044 2.0383
-2.6191 1.5990 2.0383
-2.7395 1.3831 2.0383
-2.8421 1.1583 2.0383
-2.9263 0.9260 2.0383
-2.9916 0.6876 2.0383
-3.0375 0.4447 2.0383
-3.0638 0.1989 2.0383
-3.0702 -0.0482 2.0383
-3.0568 -0.2951 2.0383
-3.0235 -0.5401 2.0383
-2.9707 -0.7816 2.0383
-2.8986 -1.0182 2.0383
-2.8077 -1.2482 2.0383
-2.6986 -1.4702 2.0383
-2.5720 -1.6827 2.0383
-2.4287 -1.8844 2.0383
-2.2697 -2.0739 2.0383
-0.7627 -0.8189 0.7418
-0.6943 -0.8774 0.7416
-0.6215 -0.9304 0.7414
-0.5446 -0.9772 0.7413
-0.4643 -1.0178 0.7411
-0.3809 -1.0518 0.7410
-0.2951 -1.0790 0.7409
-0.2074 -1.0992 0.7408
-0.1184 -1.1123 0.7407
-0.0286 -1.1182 0.7407
0.0614 -1.1170 0.7406
0.1510 -1.1085 0.7406
0.2396 -1.0928 0.7406
0.3267 -1.0701 0.7406
0.4117 -1.0405 0.7406
0.4940 -1.0041 0.7407
0.5732 -0.9613 0.7408
0.6487 -0.9122 0.7408
0.7200 -0.8572 0.7409
2.1638 -2.1913 2.0383
2.3329 -2.0102 2.0383
2.4868 -1.8162 2.0383
2.6246 -1.6103 2.0383
2.7454 -1.3941 2.0383
2.8483 -1.1688 2.0383
2.9328 -0.9360 2.0383
2.9983 -0.6971 2.0383
3.0443 -0.4538 2.0383
3.0706 -0.2076 2.0383
3.0770 0.0399 2.0383
3.0635 0.2872 2.0383
3.0300 0.5325 2.0383
2.9770 0.7743 2.0383
2.9047 1.0110 2.0383
2.8136 1.2411 2.0383
2.7043 1.4631 2.0383
2.5775 1.6756 2.0383
2.4340 1.8772 2.0383
2.2749 2.0665 2.0383
0.7681 0.8198 0.7452
0.6997 0.8790 0.7454
0.6268 0.9325 0.7455
0.5498 0.9800 0.7457
0.4692 1.0211 0.7458
0.3856 1.0556 0.7460
0.2994 1.0832 0.7461
0.2113 1.1038 0.7462
0.1218 1.1172 0.7462
0.0315 1.1234 0.7463
-0.0590 1.1222 0.7463
-0.1491 1.1138 0.7464
-0.2382 1.0981 0.7464
-0.3257 1.0753 0.7464
-0.4112 1.0456 0.7463
-0.4939 1.0090 0.7463
-0.5734 0.9659 0.7462
-0.6492 0.9165 0.7461
-0.7208 0.8611 0.7460
-2.1523 2.1868 2.0383
-2.3213 2.0066 2.0383
-2.4753 1.8133 2.0383
-2.6134 1.6084 2.0383
-2.7345 1.3930 2.0383
-2.8379 1.1685 2.0383
-2.9229 0.9365 2.0383
-2.9891 0.6983 2.0383
-3.0359 0.4556 2.0383
-3.0630 0.2099 2.0383
-3.0704 -0.0372 2.0383
-3.0578 -0.2841 2.0383
-3.0254 -0.5292 2.0383
-2.9735 -0.7710 2.0383
-2.9022 -1.0078 2.0383
-2.8122 -1.2381 2.0383
-2.7039 -1.4605 2.0383
-2.5780 -1.6735 2.0383
-2.4355 -1.8757 2.0383
-2.2771 -2.0658 2.0383
-0.7657 -0.8161 0.7418
-0.6975 -0.8750 0.7416
-0.6248 -0.9281 0.7414
-0.5481 -0.9753 0.7413
-0.4679 -1.0161 0.7411
-0.3847 -1.0504 0.7410
-0.2990 -1.0779 0.7409
-0.2114 -1.0984 0.7408
-0.1224 -1.1119 0.7407
-0.0326 -1.1181 0.7407
0.0574 -1.1172 0.7406
0.1470 -1.1090 0.7406
0.2357 -1.0937 0.7406
0.3228 -1.0712 0.7406
0.4079 -1.0419 0.7406
0.4904 -1.0059 0.7407
0.5697 -0.9633 0.7408
0.6454 -0.9145 0.7408
0.7169 -0.8598 0.7409
0.7838 -0.7995 0.7411
2.3256 -2.0186 2.0383
2.4803 -1.8251 2.0383
2.6188 -1.6197 2.0383
-0.3976 0.9798 0.7462
-0.4751 0.9446 0.7461
-0.5495 0.9032 0.7460
-0.6203 0.8559 0.7460
-0.6871 0.8031 0.7459
-0.7494 0.7451 0.7457
-2.2055 1.8653 2.0383
-2.3486 1.6818 2.0383
-2.4764 1.4875 2.0383
-2.5882 1.2835 2.0383
-2.6833 1.0711 2.0383
-2.7610 0.8518 2.0383
-2.8208 0.6270 2.0383
-2.8624 0.3980 2.0383
-2.8855 0.1665 2.0383
-2.8899 -0.0662 2.0383
-2.8755 -0.2985 2.0383
-2.8426 -0.5289 2.0383
-2.7912 -0.7560 2.0383
-2.7217 -0.9782 2.0383
-2.6346 -1.1941 2.0383
-2.5304 -1.4023 2.0383
-2.4097 -1.6015 2.0383
-2.2735 -1.7904 2.0383
-0.7727 -0.7163 0.7421
-0.7125 -0.7761 0.7419
-0.6477 -0.8308 0.7417
-0.5788 -0.8801 0.7415
-0.5061 -0.9237 0.7414
-0.4302 -0.9614 0.7413
-0.3515 -0.9928 0.7411
-0.2705 -1.0179 0.7410
-0.1878 -1.0363 0.7410
-0.1039 -1.0481 0.7409
-0.0193 -1.0530 0.7408
0.0654 -1.0512 0.7408
0.1497 -1.0426 0.7408
0.2330 -1.0273 0.7408
0.3148 -1.0053 0.7408
0.3946 -0.9768 0.7408
0.4719 -0.9420 0.7409
0.5462 -0.9012 0.7409
0.6169 -0.8544 0.7410
0.6837 -0.8022 0.7411
0.7460 -0.7448 0.7412
2.2095 -1.8765 2.0383
2.3530 -1.6928 2.0383
2.4814 -1.4981 2.0383
2.5936 -1.2937 2.0383
2.6890 -1.0810 2.0383
2.7670 -0.8613 2.0383
2.8270 -0.6360 2.0383
2.8687 -0.4067 2.0383
2.8918 -0.1747 2.0383
2.8961 0.0583 2.0383
2.8817 0.2909 2.0383
2.8486 0.5216 2.0383
2.7971 0.7488 2.0383
2.7274 0.9712 2.0383
2.6401 1.1872 2.0383
2.5358 1.3954 2.0383
2.4150 1.5946 2.0383
2.2786 1.7834 2.0383
0.7775 0.7165 0.7449
0.7174 0.7768 0.7451
0.6527 0.8320 0.7453
0.5837 0.8819 0.7454
0.5109 0.9261 0.7456
0.4347 0.9642 0.7457
0.3558 0.9961 0.7458
0.2745 1.0215 0.7459
0.1914 1.0403 0.7460
0.1071 1.0523 0.7461
0.0221 1.0575 0.7461
-0.0631 1.0558 0.7462
-0.1478 1.0473 0.7462
-0.2316 1.0319 0.7462
-0.3138 1.0099 0.7462
-0.3940 0.9812 0.7462
-0.4717 0.9463 0.7461
-0.5462 0.9051 0.7460
-0.6172 0.8581 0.7460
-0.6842 0.8056 0.7459
-0.7467 0.7478 0.7457
-2.1988 1.8732 2.0383
-2.3425 1.6903 2.0383
-2.4710 1.4964 2.0383
-2.5836 1.2928 2.0383
-2.6794 1.0808 2.0383
-2.7579 0.8617 2.0383
-2.8186 0.6371 2.0383
-2.8610 0.4083 2.0383
-2.8849 0.1768 2.0383
-2.8901 -0.0558 2.0383
-2.8766 -0.2882 2.0383
-2.8444 -0.5187 2.0383
-2.7939 -0.7459 2.0383
-2.7252 -0.9684 2.0383
-2.6388 -1.1846 2.0383
-2.5354 -1.3932 2.0383
-2.4155 -1.5928 2.0383
-2.2799 -1.7822 2.0383
-0.7752 -0.7136 0.7421
-0.7153 -0.7735 0.7419
-0.6507 -0.8285 0.7417
-0.5819 -0.8780 0.7416
-0.5094 -0.9219 0.7414
-0.4336 -0.9598 0.7413
-0.3551 -0.9916 0.7411
-0.2742 -1.0169 0.7410
-0.1916 -1.0356 0.7410
-0.1077 -1.0477 0.7409
-0.0231 -1.0530 0.7408
0.0616 -1.0514 0.7408
0.1459 -1.0431 0.7408
0.2293 -1.0281 0.7408
0.3112 -1.0064 0.7408
0.3911 -0.9782 0.7408
0.4685 -0.9437 0.7409
0.5429 -0.9031 0.7409
0.6138 -0.8566 0.7410
0.6808 -0.8046 0.7411
0.7434 -0.7474 0.7412
2.2027 -1.8844 2.0383
2.3470 -1.7012 2.0383
2.4760 -1.5070 2.0383
2.5889 -1.3030 2.0383
2.6851 -1.0906 2.0383
2.7639 -0.8712 2.0383
2.8247 -0.6462 2.0383
2.8672 -0.4170 2.0383
2.8911 -0.1851 2.0383
2.8963 0.0479 2.0383
2.8827 0.2806 2.0383
2.8505 0.5114 2.0383
2.7998 0.7388 2.0383
2.7309 0.9614 2.0383
2.6444 1.1777 2.0383
2.5408 1.3863 2.0383
2.4207 1.5859 2.0383
2.2850 1.7752 2.0383
0.7800 0.7137 0.7449
0.7202 0.7742 0.7451
0.6556 0.8297 0.7452
0.5868 0.8798 0.7454
0.5142 0.9242 0.7456
0.4382 0.9626 0.7457
0.3594 0.9948 0.7458
0.2782 1.0205 0.7459
0.1952 1.0396 0.7460
0.1109 1.0519 0.7461
0.0259 1.0574 0.7461
-0.0593 1.0560 0.7462
-0.1440 1.0478 0.7462
-0.2279 1.0327 0.7462
-0.3102 1.0110 0.7462
-0.3905 0.9827 0.7462
-0.4683 0.9480 0.7461
-0.5430 0.9071 0.7460
-0.6141 0.8604 0.7460
-0.6813 0.8081 0.7459
-0.7440 0.7505 0.7458
-2.1921 1.8811 2.0383
-2.3364 1.6986 2.0383
-2.4656 1.5052 2.0383
-2.5789 1.3020 2.0383
-2.6755 1.0904 2.0383
-2.7548 0.8716 2.0383
-2.8162 0.6472 2.0383
-2.8595 0.4186 2.0383
-2.8842 0.1872 2.0383
-2.8902 -0.0455 2.0383
-2.8776 -0.2779 2.0383
-2.8462 -0.5085 2.0383
-2.7965 -0.7359 2.0383
-2.7286 -0.9586 2.0383
-2.6430 -1.1751 2.0383
-2.5403 -1.3841 2.0383
-2.4211 -1.5841 2.0383
-2.2862 -1.7740 2.0383
-0.7778 -0.7108 0.7421
-0.7181 -0.7710 0.7419
-0.6537 -0.8261 0.7417
-0.5851 -0.8759 0.7416
-0.5127 -0.9201 0.7414
-0.4371 -0.9583 0.7413
-0.3586 -0.9903 0.7412
-0.2778 -1.0159 0.7410
-0.1953 -1.0349 0.7410
-0.1114 -1.0473 0.7409
-0.0269 -1.0529 0.7408
0.0578 -1.0517 0.7408
0.1422 -1.0437 0.7408
0.2256 -1.0289 0.7408
0.3076 -1.0075 0.7408
0.3876 -0.9796 0.7408
0.4651 -0.9454 0.7409
0.5397 -0.9050 0.7409
0.6107 -0.8588 0.7410
0.6779 -0.8071 0.7411
0.7407 -0.7501 0.7412
2.1960 -1.8923 2.0383
2.3408 -1.7096 2.0383
2.4706 -1.5159 2.0383
2.5843 -1.3123 2.0383
2.6812 -1.1003 2.0383
2.7607 -0.8811 2.0383
2.8224 -0.6563 2.0383
2.8657 -0.4272 2.0383
2.8905 -0.1955 2.0383
2.8965 0.0375 2.0383
2.8837 0.2702 2.0383
2.8523 0.5011 2.0383
2.8024 0.7287 2.0383
2.7344 0.9516 2.0383
2.6486 1.1682 2.0383
2.5457 1.3772 2.0383
2.4264 1.5772 2.0383
2.2914 1.7670 2.0383
0.7826 0.7109 0.7449
0.7230 0.7716 0.7451
0.6586 0.8273 0.7452
0.5900 0.8777 0.7454
0.5175 0.9224 0.7456
0.4417 0.9610 0.7457
0.3629 0.9935 0.7458
0.2818 1.0195 0.7459
0.1989 1.0389 0.7460
0.1147 1.0515 0.7461
0.0297 1.0573 0.7461
-0.0555 1.0562 0.7462
-0.1403 1.0483 0.7462
-0.2242 1.0336 0.7462
-0.3066 1.0121 0.7462
-0.3870 0.9841 0.7462
-0.4649 0.9496 0.7461
-0.5397 0.9091 0.7460
-0.6110 0.8626 0.7460
-0.6784 0.8105 0.7459
-0.7413 0.7532 0.7458
-2.1853 1.8889 2.0383
-2.3303 1.7070 2.0383
-2.4602 1.5141 2.0383
-2.5742 1.3113 2.0383
-2.6716 1.1000 2.0383
-2.7516 0.8815 2.0383
-2.8139 0.6573 2.0383
-2.8579 0.4288 2.0383
-2.8835 0.1975 2.0383
-2.8904 -0.0351 2.0383
-2.8785 -0.2675 2.0383
-2.8480 -0.4983 2.0383
-2.7991 -0.7259 2.0383
-2.7320 -0.9488 2.0383
-2.6472 -1.1656 2.0383
-2.5453 -1.3750 2.0383
-2.4268 -1.5754 2.0383
-2.2926 -1.7658 2.0383
-0.7804 -0.7080 0.7421
-0.7208 -0.7684 0.7419
-0.6566 -0.8238 0.7417
-0.5882 -0.8738 0.7416
-0.5160 -0.9182 0.7414
-0.4405 -0.9567 0.7413
-0.3622 -0.9890 0.7412
-0.2815 -1.0149 0.7411
-0.1990 -1.0342 0.7410
-0.1152 -1.0469 0.7409
-0.0307 -1.0528 0.7408
0.0540 -1.0519 0.7408
0.1384 -1.0442 0.7408
0.2219 -1.0297 0.7408
0.3040 -1.0086 0.7408
0.3841 -0.9810 0.7408
0.4617 -0.9470 0.7409
0.5364 -0.9070 0.7409
0.6077 -0.8610 0.7410
0.6750 -0.8095 0.7411
0.7380 -0.7527 0.7412
2.1892 -1.9002 2.0383
2.3347 -1.7180 2.0383
2.4651 -1.5247 2.0383
-0.3746 0.9233 0.7460
-0.4477 0.8901 0.7460
-0.5178 0.8511 0.7459
-0.5845 0.8066 0.7458
-0.6475 0.7568 0.7457
-0.7062 0.7022 0.7456
-0.7603 0.6430 0.7455
-2.2136 1.5851 2.0383
-2.3341 1.4020 2.0383
-2.4395 1.2097 2.0383
-2.5291 1.0095 2.0383
-2.6023 0.8028 2.0383
-2.6587 0.5909 2.0383
-2.6979 0.3751 2.0383
-2.7196 0.1568 2.0383
-2.7237 -0.0625 2.0383
-2.7102 -0.2814 2.0383
-2.6791 -0.4986 2.0383
-2.6307 -0.7126 2.0383
-2.5652 -0.9220 2.0383
-2.4830 -1.1255 2.0383
-2.3848 -1.3218 2.0383
-2.2711 -1.5095 2.0383
-0.7803 -0.6146 0.7423
-0.7283 -0.6752 0.7421
-0.6716 -0.7316 0.7420
-0.6105 -0.7831 0.7418
-0.5456 -0.8296 0.7417
-0.4771 -0.8708 0.7415
-0.4055 -0.9063 0.7414
-0.3313 -0.9359 0.7413
-0.2550 -0.9595 0.7412
-0.1770 -0.9769 0.7411
-0.0979 -0.9880 0.7410
-0.0182 -0.9927 0.7410
0.0616 -0.9909 0.7409
0.1411 -0.9828 0.7409
0.2196 -0.9684 0.7409
0.2968 -0.9476 0.7409
0.3720 -0.9208 0.7410
0.4449 -0.8880 0.7410
0.5148 -0.8495 0.7411
0.5815 -0.8054 0.7412
0.6444 -0.7562 0.7412
0.7032 -0.7020 0.7414
0.7575 -0.6433 0.7415
2.2176 -1.5954 2.0383
2.3386 -1.4119 2.0383
2.4443 -1.2193 2.0383
2.5343 -1.0188 2.0383
2.6077 -0.8118 2.0383
2.6643 -0.5995 2.0383
2.7036 -0.3833 2.0383
2.7254 -0.1647 2.0383
2.7295 0.0549 2.0383
2.7159 0.2741 2.0383
2.6848 0.4915 2.0383
2.6362 0.7057 2.0383
2.5706 0.9152 2.0383
2.4883 1.1188 2.0383
2.3900 1.3151 2.0383
2.2762 1.5028 2.0383
0.7846 0.6140 0.7446
0.7327 0.6752 0.7448
0.6761 0.7320 0.7450
0.6151 0.7841 0.7452
0.5501 0.8311 0.7453
0.4815 0.8727 0.7454
0.4097 0.9086 0.7456
0.3353 0.9386 0.7457
0.2587 0.9626 0.7458
0.1804 0.9803 0.7459
0.1010 0.9916 0.7459
0.0209 0.9965 0.7460
-0.0594 0.9949 0.7460
-0.1393 0.9869 0.7460
-0.2182 0.9724 0.7460
-0.2957 0.9516 0.7460
-0.3713 0.9247 0.7460
-0.4445 0.8917 0.7460
-0.5147 0.8529 0.7459
-0.5816 0.8087 0.7458
-0.6447 0.7592 0.7457
-0.7036 0.7047 0.7456
-0.7580 0.6457 0.7455
-2.2079 1.5931 2.0383
-2.3290 1.4103 2.0383
-2.4351 1.2184 2.0383
-2.5254 1.0186 2.0383
-2.5994 0.8121 2.0383
-2.6565 0.6004 2.0383
-2.6965 0.3848 2.0383
-2.7190 0.1666 2.0383
-2.7239 -0.0527 2.0383
-2.7112 -0.2717 2.0383
-2.6809 -0.4890 2.0383
-2.6332 -0.7031 2.0383
-2.5684 -0.9128 2.0383
-2.4870 -1.1166 2.0383
-2.3895 -1.3132 2.0383
-2.2765 -1.5013 2.0383
-2.1487 -1.6798 2.0383
-0.7307 -0.6726 0.7421
-0.6742 -0.7291 0.7420
-0.6133 -0.7809 0.7418
-0.5485 -0.8277 0.7417
-0.4802 -0.8690 0.7415
-0.4087 -0.9048 0.7414
-0.3347 -0.9347 0.7413
-0.2584 -0.9586 0.7412
-0.1805 -0.9762 0.7411
-0.1015 -0.9876 0.7410
-0.0218 -0.9926 0.7410
0.0581 -0.9912 0.7409
0.1376 -0.9833 0.7409
0.2162 -0.9691 0.7409
0.2934 -0.9487 0.7409
0.3687 -0.9221 0.7410
0.4417 -0.8896 0.7410
0.5118 -0.8513 0.7411
0.5786 -0.8075 0.7411
0.6417 -0.7585 0.7412
0.7007 -0.7045 0.7413
0.7552 -0.6460 0.7415
2.2119 -1.6033 2.0383
2.3335 -1.4203 2.0383
2.4400 -1.2281 2.0383
2.5306 -1.0279 2.0383
2.6048 -0.8211 2.0383
2.6622 -0.6090 2.0383
2.7022 -0.3930 2.0383
2.7248 -0.1745 2.0383
2.7297 0.0451 2.0383
2.7169 0.2643 2.0383
2.6865 0.4819 2.0383
2.6387 0.6962 2.0383
2.5739 0.9060 2.0383
2.4923 1.1099 2.0383
2.3947 1.3065 2.0383
2.2815 1.4946 2.0383
0.7868 0.6112 0.7446
0.7351 0.6725 0.7448
0.6787 0.7296 0.7450
0.6179 0.7818 0.7451
0.5530 0.8291 0.7453
0.4846 0.8709 0.7454
0.4130 0.9071 0.7456
0.3387 0.9374 0.7457
0.2622 0.9616 0.7458
0.1839 0.9796 0.7459
0.1045 0.9912 0.7459
0.0244 0.9964 0.7460
-0.0558 0.9951 0.7460
-0.1357 0.9874 0.7460
-0.2147 0.9732 0.7460
-0.2923 0.9527 0.7460
-0.3680 0.9260 0.7460
-0.4413 0.8933 0.7460
-0.5117 0.8548 0.7459
-0.5787 0.8108 0.7458
-0.6420 0.7615 0.7457
-0.7011 0.7072 0.7456
-0.7557 0.6484 0.7455
-2.2021 1.6010 2.0383
-2.3239 1.4187 2.0383
-2.4307 1.2271 2.0383
-2.5217 1.0276 2.0383
-2.5964 0.8215 2.0383
-2.6544 0.6099 2.0383
-2.6951 0.3944 2.0383
-2.7184 0.1763 2.0383
-2.7241 -0.0429 2.0383
-2.7121 -0.2620 2.0383
-2.6826 -0.4794 2.0383
-2.6357 -0.6937 2.0383
-2.5717 -0.9036 2.0383
-2.4910 -1.1076 2.0383
-2.3942 -1.3046 2.0383
-2.2818 -1.4931 2.0383
-2.1547 -1.6721 2.0383
-0.7331 -0.6700 0.7422
-0.6768 -0.7267 0.7420
-0.6161 -0.7787 0.7418
-0.5515 -0.8257 0.7417
-0.4833 -0.8673 0.7415
-0.4120 -0.9033 0.7414
-0.3380 -0.9335 0.7413
-0.2619 -0.9576 0.7412
-0.1840 -0.9756 0.7411
-0.1050 -0.9872 0.7410
-0.0253 -0.9925 0.7410
0.0545 -0.9914 0.7409
0.1340 -0.9838 0.7409
0.2127 -0.9699 0.7409
0.2900 -0.9497 0.7409
0.3654 -0.9234 0.7410
0.4385 -0.8912 0.7410
0.5087 -0.8531 0.7411
0.5757 -0.8096 0.7411
0.6390 -0.7608 0.7412
0.6982 -0.7071 0.7413
0.7528 -0.6487 0.7415
2.2061 -1.6113 2.0383
2.3284 -1.4287 2.0383
2.4355 -1.2368 2.0383
2.5269 -1.0370 2.0383
2.6019 -0.8305 2.0383
2.6600 -0.6186 2.0383
2.7008 -0.4027 2.0383
2.7242 -0.1843 2.0383
2.7299 0.0353 2.0383
2.7179 0.2546 2.0383
2.6883 0.4722 2.0383
2.6412 0.6867 2.0383
2.5771 0.8968 2.0383
2.4963 1.1009 2.0383
2.3994 1.2979 2.0383
2.2869 1.4864 2.0383
0.7889 0.6084 0.7446
0.7375 0.6699 0.7448
0.6813 0.7271 0.7450
0.6207 0.7796 0.7451
0.5560 0.8271 0.7453
0.4877 0.8692 0.7454
0.4162 0.9056 0.7456
0.3420 0.9362 0.7457
0.2656 0.9607 0.7458
0.1875 0.9790 0.7459
0.1081 0.9909 0.7459
0.0280 0.9963 0.7460
-0.0522 0.9953 0.7460
-0.1322 0.9878 0.7460
-0.2112 0.9739 0.7460
-0.2889 0.9537 0.7460
-0.3647 0.9273 0.7460
-0.4381 0.8949 0.7460
-0.5086 0.8566 0.7459
-0.5758 0.8128 0.7458
-0.6393 0.7638 0.7457
-0.6986 0.7098 0.7456
-0.7533 0.6512 0.7455
-2.1964 1.6089 2.0383
-2.3188 1.4270 2.0383
-2.4263 1.2359 2.0383
-2.5180 1.0367 2.0383
-2.5935 0.8308 2.0383
-2.6521 0.6195 2.0383
-2.6937 0.4041 2.0383
-2.7177 0.1861 2.0383
-2.7242 -0.0331 2.0383
-2.7130 -0.2522 2.0383
-2.6843 -0.4697 2.0383
-2.6381 -0.6842 2.0383
-2.5749 -0.8943 2.0383
-2.4950 -1.0987 2.0383
-2.3989 -1.2960 2.0383
-2.2872 -1.4849 2.0383
-2.1607 -1.6643 2.0383
-0.7355 -0.6674 0.7422
-0.6794 -0.7243 0.7420
-0.6189 -0.7765 0.7418
-0.5545 -0.8237 0.7417
-0.4864 -0.8656 0.7415
-0.4152 -0.9018 0.7414
-0.3414 -0.9323 0.7413
-0.2653 -0.9567 0.7412
-0.1875 -0.9749 0.7411
-0.1086 -0.9868 0.7410
-0.0289 -0.9924 0.7410
0.0510 -0.9915 0.7409
0.1305 -0.9843 0.7409
0.2092 -0.9707 0.7409
0.2866 -0.9508 0.7409
0.3621 -0.9247 0.7410
0.4353 -0.8927 0.7410
0.5057 -0.8549 0.7411
0.5728 -0.8116 0.7411
0.6363 -0.7631 0.7412
0.6956 -0.7095 0.7413
0.7505 -0.6514 0.7415
2.2004 -1.6192 2.0383
2.3233 -1.4370 2.0383
-0.3534 0.8709 0.7459
-0.4223 0.8396 0.7458
-0.4884 0.8028 0.7458
-0.5514 0.7608 0.7457
-0.6107 0.7139 0.7456
-0.6661 0.6624 0.7455
-0.7172 0.6065 0.7454
-0.7636 0.5468 0.7452
-2.2021 1.3226 2.0383
-2.3015 1.1412 2.0383
-2.3860 0.9524 2.0383
-2.4551 0.7573 2.0383
-2.5083 0.5574 2.0383
-2.5453 0.3538 2.0383
-2.5658 0.1479 2.0383
-2.5696 -0.0590 2.0383
-2.5568 -0.2656 2.0383
-2.5275 -0.4705 2.0383
-2.4818 -0.6724 2.0383
-2.4200 -0.8699 2.0383
-2.3425 -1.0619 2.0383
-2.2498 -1.2471 2.0383
-0.7805 -0.5188 0.7426
-0.7362 -0.5799 0.7424
-0.6871 -0.6371 0.7422
-0.6336 -0.6903 0.7421
-0.5760 -0.7389 0.7419
-0.5147 -0.7828 0.7418
-0.4501 -0.8216 0.7416
-0.3826 -0.8551 0.7415
-0.3126 -0.8831 0.7414
-0.2406 -0.9053 0.7413
-0.1670 -0.9217 0.7412
-0.0924 -0.9322 0.7412
-0.0172 -0.9366 0.7411
0.0582 -0.9350 0.7411
0.1331 -0.9274 0.7411
0.2073 -0.9137 0.7411
0.2800 -0.8942 0.7411
0.3510 -0.8688 0.7411
0.4198 -0.8379 0.7411
0.4858 -0.8015 0.7412
0.5487 -0.7600 0.7413
0.6081 -0.7135 0.7414
0.6635 -0.6624 0.7415
0.7147 -0.6070 0.7416
0.7613 -0.5477 0.7417
2.2062 -1.3320 2.0383
2.3059 -1.1503 2.0383
2.3908 -0.9612 2.0383
2.4601 -0.7659 2.0383
2.5135 -0.5656 2.0383
2.5506 -0.3617 2.0383
2.5711 -0.1555 2.0383
2.5750 0.0517 2.0383
2.5622 0.2585 2.0383
2.5328 0.4636 2.0383
2.4870 0.6656 2.0383
2.4251 0.8633 2.0383
2.3475 1.0554 2.0383
2.2548 1.2406 2.0383
0.7842 0.5177 0.7444
0.7401 0.5792 0.7446
0.6912 0.6369 0.7447
0.6378 0.6905 0.7449
0.5802 0.7396 0.7451
0.5189 0.7839 0.7452
0.4542 0.8231 0.7453
0.3865 0.8570 0.7455
0.3163 0.8854 0.7456
0.2441 0.9080 0.7457
0.1702 0.9247 0.7457
0.0953 0.9353 0.7458
0.0197 0.9399 0.7458
-0.0560 0.9384 0.7459
-0.1313 0.9309 0.7459
-0.2058 0.9172 0.7459
-0.2789 0.8976 0.7459
-0.3502 0.8722 0.7459
-0.4192 0.8411 0.7458
-0.4855 0.8046 0.7458
-0.5486 0.7628 0.7457
-0.6082 0.7161 0.7456
-0.6637 0.6647 0.7455
-0.7150 0.6091 0.7454
-0.7616 0.5495 0.7453
-2.1973 1.3305 2.0383
-2.2974 1.1494 2.0383
-2.3826 0.9609 2.0383
-2.4524 0.7661 2.0383
-2.5063 0.5664 2.0383
-2.5440 0.3629 2.0383
-2.5652 0.1571 2.0383
-2.5698 -0.0498 2.0383
-2.5578 -0.2564 2.0383
-2.5292 -0.4614 2.0383
-2.4842 -0.6634 2.0383
-2.4231 -0.8612 2.0383
-2.3463 -1.0535 2.0383
-2.2543 -1.2390 2.0383
-2.1476 -1.4165 2.0383
-0.7383 -0.5772 0.7424
-0.6894 -0.6347 0.7422
-0.6361 -0.6880 0.7421
-0.5787 -0.7369 0.7419
-0.5175 -0.7810 0.7418
-0.4530 -0.8200 0.7416
-0.3856 -0.8537 0.7415
-0.3157 -0.8820 0.7414
-0.2438 -0.9045 0.7413
-0.1703 -0.9211 0.7412
-0.0957 -0.9319 0.7412
-0.0205 -0.9366 0.7411
0.0548 -0.9352 0.7411
0.1298 -0.9278 0.7411
0.2040 -0.9145 0.7411
0.2768 -0.8952 0.7411
0.3479 -0.8701 0.7411
0.4168 -0.8394 0.7411
0.4829 -0.8033 0.7412
0.5460 -0.7619 0.7413
0.6055 -0.7157 0.7414
0.6611 -0.6648 0.7415
0.7125 -0.6096 0.7416
0.7593 -0.5504 0.7417
2.2014 -1.3399 2.0383
2.3018 -1.1586 2.0383
2.3873 -0.9698 2.0383
2.4573 -0.7747 2.0383
2.5114 -0.5746 2.0383
2.5493 -0.3709 2.0383
2.5706 -0.1647 2.0383
2.5752 0.0424 2.0383
2.5631 0.2493 2.0383
2.5345 0.4545 2.0383
2.4894 0.6567 2.0383
2.4282 0.8546 2.0383
2.3513 1.0470 2.0383
2.2592 1.2325 2.0383
0.7861 0.5149 0.7444
0.7422 0.5765 0.7446
0.6935 0.6344 0.7447
0.6403 0.6882 0.7449
0.5829 0.7375 0.7451
0.5217 0.7820 0.7452
0.4571 0.8215 0.7453
0.3896 0.8556 0.7454
0.3195 0.8842 0.7456
0.2473 0.9071 0.7456
0.1735 0.9240 0.7457
0.0986 0.9350 0.7458
0.0231 0.9399 0.7458
-0.0526 0.9386 0.7459
-0.1280 0.9313 0.7459
-0.2025 0.9179 0.7459
-0.2757 0.8986 0.7459
-0.3471 0.8734 0.7459
-0.4162 0.8426 0.7458
-0.4826 0.8063 0.7458
-0.5459 0.7648 0.7457
-0.6056 0.7183 0.7456
-0.6614 0.6671 0.7455
-0.7128 0.6117 0.7454
-0.7596 0.5522 0.7453
-2.1925 1.3384 2.0383
-2.2932 1.1577 2.0383
-2.3791 0.9695 2.0383
-2.4496 0.7749 2.0383
-2.5042 0.5754 2.0383
-2.5426 0.3721 2.0383
-2.5646 0.1663 2.0383
-2.5700 -0.0406 2.0383
-2.5587 -0.2472 2.0383
-2.5308 -0.4523 2.0383
-2.4865 -0.6545 2.0383
-2.4261 -0.8525 2.0383
-2.3500 -1.0451 2.0383
-2.2587 -1.2309 2.0383
-2.1527 -1.4087 2.0383
-0.7404 -0.5746 0.7424
-0.6917 -0.6322 0.7422
-0.6386 -0.6857 0.7421
-0.5813 -0.7348 0.7419
-0.5203 -0.7791 0.7418
-0.4560 -0.8184 0.7416
-0.3887 -0.8524 0.7415
-0.3189 -0.8808 0.7414
-0.2471 -0.9036 0.7413
-0.1736 -0.9205 0.7412
-0.0991 -0.9315 0.7412
-0.0239 -0.9365 0.7411
0.0515 -0.9354 0.7411
0.1265 -0.9283 0.7411
0.2007 -0.9152 0.7411
0.2736 -0.8961 0.7411
0.3448 -0.8713 0.7411
0.4137 -0.8409 0.7411
0.4800 -0.8050 0.7412
0.5432 -0.7639 0.7413
0.6029 -0.7178 0.7414
0.6587 -0.6671 0.7415
0.7103 -0.6121 0.7416
0.7573 -0.5531 0.7417
2.1966 -1.3478 2.0383
2.2976 -1.1669 2.0383
2.3838 -0.9783 2.0383
2.4546 -0.7835 2.0383
2.5094 -0.5836 2.0383
2.5479 -0.3800 2.0383
2.5700 -0.1739 2.0383
2.5753 0.0332 2.0383
2.5640 0.2401 2.0383
2.5361 0.4454 2.0383
2.4918 0.6478 2.0383
2.4313 0.8459 2.0383
2.3551 1.0385 2.0383
2.2636 1.2244 2.0383
0.7879 0.5121 0.7444
0.7443 0.5738 0.7446
0.6958 0.6319 0.7447
0.6427 0.6859 0.7449
0.5855 0.7354 0.7450
0.5245 0.7802 0.7452
0.4601 0.8199 0.7453
0.3926 0.8542 0.7454
0.3227 0.8831 0.7456
0.2506 0.9062 0.7456
0.1768 0.9234 0.7457
0.1020 0.9346 0.7458
0.0264 0.9398 0.7458
-0.0493 0.9388 0.7459
-0.1246 0.9318 0.7459
-0.1992 0.9187 0.7459
-0.2725 0.8996 0.7459
-0.3440 0.8747 0.7459
-0.4132 0.8441 0.7458
-0.4797 0.8080 0.7458
-0.5431 0.7667 0.7457
-0.6030 0.7204 0.7456
-0.6590 0.6695 0.7455
-0.7106 0.6142 0.7454
-0.7576 0.5550 0.7453
-2.1877 1.3462 2.0383
-2.2890 1.1659 2.0383
-2.3756 0.9780 2.0383
-2.4468 0.7837 2.0383
-2.5021 0.5844 2.0383
-2.5413 0.3812 2.0383
-2.5640 0.1755 2.0383
-2.5701 -0.0314 2.0383
-2.5595 -0.2380 2.0383
-2.5324 -0.4432 2.0383
-2.4888 -0.6456 2.0383
-2.4292 -0.8438 2.0383
-2.3538 -1.0366 2.0383
-2.2631 -1.2227 2.0383
-2.1577 -1.4010 2.0383
-0.7424 -0.5719 0.7424
-0.6940 -0.6297 0.7422
-0.6410 -0.6834 0.7421
-0.5840 -0.7327 0.7419
-0.5231 -0.7772 0.7418
-0.4589 -0.8167 0.7416
-0.3918 -0.8510 0.7415
-0.3221 -0.8797 0.7414
-0.2503 -0.9027 0.7413
-0.1769 -0.9199 0.7412
-0.1024 -0.9312 0.7412
-0.0272 -0.9364 0.7411
0.0481 -0.9356 0.7411
0.1232 -0.9287 0.7411
0.1974 -0.9159 0.7411
0.2704 -0.8971 0.7411
0.3417 -0.8726 0.7411
0.4107 -0.8423 0.7411
0.4771 -0.8067 0.7412
0.5405 -0.7658 0.7413
0.6003 -0.7200 0.7414
0.6563 -0.6695 0.7415
0.7081 -0.6147 0.7416
0.7553 -0.5558 0.7417
2.1917 -1.3557 2.0383
-0.3335 0.8221 0.7457
-0.3986 0.7926 0.7457
-0.4610 0.7578 0.7456
-0.5205 0.7182 0.7456
-0.5765 0.6739 0.7455
-0.6288 0.6253 0.7454
-0.6770 0.5726 0.7453
-0.7208 0.5162 0.7451
-0.7599 0.4564 0.7450
-2.1730 1.0774 2.0383
-2.2528 0.8991 2.0383
-2.3180 0.7150 2.0383
-2.3682 0.5262 2.0383
-2.4031 0.3340 2.0383
-2.4225 0.1395 2.0383
-2.4261 -0.0558 2.0383
-2.4140 -0.2508 2.0383
-2.3863 -0.4443 2.0383
-2.3431 -0.6349 2.0383
-2.2848 -0.8214 2.0383
-2.2116 -1.0027 2.0383
-0.7740 -0.4291 0.7428
-0.7370 -0.4899 0.7426
-0.6951 -0.5475 0.7424
-0.6488 -0.6016 0.7423
-0.5983 -0.6518 0.7421
-0.5439 -0.6977 0.7420
-0.4860 -0.7392 0.7419
-0.4250 -0.7758 0.7417
-0.3612 -0.8075 0.7416
-0.2951 -0.8339 0.7415
-0.2271 -0.8549 0.7414
-0.1577 -0.8704 0.7414
-0.0872 -0.8803 0.7413
-0.0162 -0.8845 0.7413
0.0550 -0.8829 0.7412
0.1257 -0.8757 0.7412
0.1957 -0.8628 0.7412
0.2645 -0.8443 0.7412
0.3315 -0.8204 0.7412
0.3964 -0.7912 0.7413
0.4587 -0.7569 0.7413
0.5181 -0.7176 0.7414
0.5742 -0.6737 0.7415
0.6265 -0.6255 0.7416
0.6748 -0.5732 0.7417
0.7188 -0.5172 0.7418
0.7582 -0.4578 0.7419
2.1771 -1.0861 2.0383
2.2572 -0.9075 2.0383
2.3226 -0.7231 2.0383
2.3730 -0.5341 2.0383
2.4080 -0.3416 2.0383
2.4275 -0.1469 2.0383
2.4311 0.0487 2.0383
2.4191 0.2440 2.0383
2.3913 0.4376 2.0383
2.3481 0.6284 2.0383
2.2897 0.8150 2.0383
2.2164 0.9963 2.0383
0.7772 0.4276 0.7442
0.7404 0.4887 0.7443
0.6987 0.5468 0.7445
0.6526 0.6012 0.7447
0.6021 0.6518 0.7448
0.5478 0.6982 0.7450
0.4899 0.7400 0.7451
0.4288 0.7770 0.7452
0.3649 0.8090 0.7453
0.2986 0.8358 0.7454
0.2304 0.8571 0.7455
0.1607 0.8729 0.7456
0.0899 0.8829 0.7457
0.0186 0.8873 0.7457
-0.0528 0.8859 0.7457
-0.1240 0.8787 0.7458
-0.1943 0.8658 0.7458
-0.2633 0.8473 0.7458
-0.3306 0.8233 0.7457
-0.3957 0.7940 0.7457
-0.4583 0.7595 0.7456
-0.5179 0.7201 0.7456
-0.5741 0.6760 0.7455
-0.6266 0.6275 0.7454
-0.6750 0.5750 0.7453
-0.7190 0.5187 0.7452
-0.7583 0.4591 0.7450
-2.1691 1.0852 2.0383
-2.2495 0.9072 2.0383
-2.3154 0.7233 2.0383
-2.3663 0.5347 2.0383
-2.4019 0.3426 2.0383
-2.4219 0.1482 2.0383
-2.4263 -0.0471 2.0383
-2.4149 -0.2422 2.0383
-2.3879 -0.4357 2.0383
-2.3454 -0.6265 2.0383
-2.2877 -0.8132 2.0383
-2.2152 -0.9947 2.0383
-0.7756 -0.4263 0.7428
-0.7387 -0.4873 0.7426
-0.6971 -0.5450 0.7425
-0.6509 -0.5993 0.7423
-0.6006 -0.6496 0.7421
-0.5464 -0.6958 0.7420
-0.4886 -0.7374 0.7419
-0.4278 -0.7743 0.7417
-0.3641 -0.8062 0.7416
-0.2981 -0.8328 0.7415
-0.2302 -0.8541 0.7414
-0.1608 -0.8698 0.7414
-0.0904 -0.8800 0.7413
-0.0194 -0.8844 0.7413
0.0518 -0.8831 0.7412
0.1226 -0.8761 0.7412
0.1926 -0.8635 0.7412
0.2614 -0.8453 0.7412
0.3285 -0.8216 0.7412
0.3935 -0.7926 0.7413
0.4560 -0.7585 0.7413
0.5155 -0.7195 0.7414
0.5717 -0.6758 0.7415
0.6243 -0.6277 0.7416
0.6728 -0.5756 0.7417
0.7170 -0.5197 0.7418
0.7565 -0.4605 0.7419
2.1732 -1.0939 2.0383
2.2539 -0.9156 2.0383
2.3200 -0.7315 2.0383
2.3711 -0.5426 2.0383
2.4068 -0.3502 2.0383
2.4269 -0.1556 2.0383
2.4313 0.0400 2.0383
2.4199 0.2353 2.0383
2.3929 0.4290 2.0383
2.3504 0.6199 2.0383
2.2926 0.8068 2.0383
2.2200 0.9884 2.0383
0.7787 0.4248 0.7442
0.7421 0.4861 0.7443
0.7007 0.5442 0.7445
0.6547 0.5989 0.7447
0.6045 0.6496 0.7448
0.5503 0.6962 0.7450
0.4925 0.7382 0.7451
0.4316 0.7755 0.7452
0.3678 0.8077 0.7453
0.3016 0.8347 0.7454
0.2335 0.8563 0.7455
0.1638 0.8723 0.7456
0.0931 0.8826 0.7457
0.0218 0.8872 0.7457
-0.0497 0.8861 0.7457
-0.1208 0.8791 0.7458
-0.1911 0.8665 0.7458
-0.2602 0.8483 0.7458
-0.3276 0.8245 0.7457
-0.3929 0.7954 0.7457
-0.4556 0.7611 0.7456
-0.5153 0.7219 0.7456
-0.5717 0.6780 0.7455
-0.6243 0.6298 0.7454
-0.6729 0.5774 0.7453
-0.7171 0.5213 0.7452
-0.7566 0.4619 0.7450
-2.1652 1.0930 2.0383
-2.2463 0.9153 2.0383
-2.3128 0.7316 2.0383
-2.3644 0.5432 2.0383
-2.4006 0.3512 2.0383
