ply
format ascii 1.0
element vertex 2176
property float32 x
property float32 y
property float32 z
end_header
-15.3789 7.9771 1.8859
-15.9731 6.7118 1.8859
-16.4649 5.4031 1.8859
-16.8510 4.0592 1.8859
-17.1291 2.6884 1.8859
-17.2973 1.2993 1.8859
-17.3543 -0.0994 1.8859
-17.2998 -1.4989 1.8859
-17.1337 -2.8905 1.8859
-16.8570 -4.2654 1.8859
5.9650 -12.9816 1.9252
6.8526 -12.2106 1.8859
7.8178 -11.6237 1.8859
8.7373 -10.9661 1.8870
9.6110 -10.2459 1.8900
10.4230 -9.4540 1.8927
11.1672 -8.5957 1.8952
11.8379 -7.6771 1.8973
12.4300 -6.7046 1.8991
9.8794 -4.3408 1.4511
13.5644 -4.6963 1.9305
14.0314 -3.6221 1.9493
14.3152 -2.4861 1.9549
14.4605 -1.3236 1.9544
14.4984 -0.1536 1.9522
14.4288 1.0128 1.9484
14.2533 2.1652 1.9430
13.9744 3.2932 1.9361
11.5024 3.7114 1.6309
13.1226 5.4371 1.9180
5.8390 2.9917 0.8865
5.0316 3.1138 0.8001
4.3645 3.2147 0.7336
3.8678 3.3619 0.6941
3.9733 4.0602 0.7701
4.1054 4.9350 0.8709
4.2784 6.0799 1.0095
4.5181 7.6671 1.2095
6.5421 13.4807 2.0383
5.4294 13.9519 2.0383
4.2834 14.3317 2.0383
3.1116 14.6179 2.0383
1.9215 14.8089 2.0383
0.7209 14.9036 2.0383
-0.4824 14.9017 2.0383
-1.6809 14.8035 2.0383
-2.8668 14.6097 2.0383
-4.0326 14.3218 2.0383
-5.1710 13.9417 2.0383
-6.2747 13.4722 2.0383
-7.3368 12.9162 2.0383
-8.3506 12.2773 2.0383
-9.3099 11.5601 2.0383
-10.2085 10.7687 2.0383
-11.0409 9.9084 2.0383
-11.8019 8.9846 2.0383
-12.4866 8.0031 2.0383
-13.0909 6.9702 2.0383
-13.6109 5.8924 2.0383
-14.0433 4.7765 2.0383
-14.3854 3.6295 2.0383
-14.6350 2.4585 2.0383
-14.7903 1.2711 2.0383
-14.8504 0.0746 2.0383
-14.8147 -1.1233 2.0383
-14.6834 -2.3152 2.0383
-14.4571 -3.4933 2.0383
-14.1372 -4.6503 2.0383
-13.7254 -5.7787 2.0383
-13.2243 -6.8712 2.0383
-12.6368 -7.9208 2.0383
-11.9665 -8.9207 2.0383
-11.2176 -9.8643 2.0383
-10.3947 -10.7454 2.0383
-9.5028 -11.5583 2.0383
-8.5477 -12.2974 2.0383
-6.9719 -11.9889 1.8859
-5.9881 -12.5229 1.8859
-4.9636 -12.9762 1.8859
-4.1227 -14.0899 1.9911
-3.0468 -14.7299 2.0383
-1.8512 -14.9400 2.0383
-0.6416 -15.0527 2.0383
0.5742 -15.0671 2.0383
1.7880 -14.9830 2.0383
2.9918 -14.8004 2.0383
4.1776 -14.5207 2.0383
5.3375 -14.1453 2.0383
6.0142 -12.7256 1.8966
6.9841 -12.1368 1.8859
7.9429 -11.5395 1.8859
8.8573 -10.8743 1.8874
9.7231 -10.1442 1.8904
10.5264 -9.3432 1.8931
11.2611 -8.4765 1.8955
11.9216 -7.5502 1.8975
12.5029 -6.5711 1.8993
9.9593 -4.2485 1.4560
13.6321 -4.5560 1.9331
14.0848 -3.4746 1.9514
14.3407 -2.3317 1.9549
14.4718 -1.1676 1.9542
14.4953 0.0025 1.9518
14.4115 1.1677 1.9478
14.2220 2.3174 1.9422
13.9295 3.4414 1.9350
11.5417 3.8618 1.6424
13.0526 5.5736 1.9166
5.7212 3.0095 0.8736
4.9355 3.1283 0.7903
4.2837 3.2270 0.7259
3.8806 3.4471 0.7031
3.9891 4.1652 0.7819
4.1257 5.0695 0.8869
4.3057 6.2610 1.0319
4.5575 7.9279 1.2430
6.3958 13.5487 2.0383
5.2783 14.0079 2.0383
4.1284 14.3754 2.0383
2.9537 14.6489 2.0383
1.7617 14.8271 2.0383
0.5603 14.9090 2.0383
-0.6428 14.8942 2.0383
-1.8401 14.7831 2.0383
-3.0237 14.5767 2.0383
-4.1863 14.2763 2.0383
-5.3204 13.8842 2.0383
-6.4190 13.4029 2.0383
-7.4750 12.8357 2.0383
-8.4819 12.1861 2.0383
-9.4334 11.4586 2.0383
-10.3235 10.6577 2.0383
-11.1467 9.7886 2.0383
-11.8978 8.8567 2.0383
-12.5720 7.8681 2.0383
-13.1653 6.8288 2.0383
-13.6738 5.7455 2.0383
-14.0943 4.6251 2.0383
-14.4241 3.4744 2.0383
-14.6612 2.3009 2.0383
-14.8038 1.1118 2.0383
-14.8511 -0.0853 2.0383
-14.8027 -1.2829 2.0383
-14.6587 -2.4734 2.0383
-14.4198 -3.6491 2.0383
5.2044 -11.3256 2.0383
6.1027 -10.8738 2.0383
6.5027 -9.6680 1.9039
7.1942 -9.0291 1.8859
7.9005 -8.4221 1.8859
8.5552 -7.7596 1.8859
9.1547 -7.0466 1.8861
9.7024 -6.2922 1.8878
10.1860 -5.4942 1.8892
9.9396 -4.3673 1.7723
11.0422 -3.8232 1.9078
11.3260 -2.9239 1.9100
11.5279 -2.0022 1.9110
11.6463 -1.0662 1.9106
11.6802 -0.1240 1.9089
11.6296 0.8161 1.9059
11.4954 1.7460 1.9017
11.2795 2.6578 1.8962
10.9844 3.5439 1.8896
10.6364 4.4066 1.8859
5.8388 2.9913 1.0753
5.0314 3.1135 0.9704
4.3644 3.2144 0.8896
3.8677 3.3616 0.8416
3.9732 4.0598 0.9335
4.1054 4.9346 1.0557
4.2783 6.0793 1.2234
4.5180 7.6661 1.4656
5.3998 11.1257 2.0383
4.4822 11.5164 2.0383
3.5368 11.8317 2.0383
2.5697 12.0697 2.0383
1.5873 12.2291 2.0383
0.5959 12.3091 2.0383
-0.3981 12.3091 2.0383
-1.3882 12.2295 2.0383
-2.3682 12.0708 2.0383
-3.3318 11.8342 2.0383
-4.2729 11.5214 2.0383
-5.1855 11.1343 2.0383
-6.0638 10.6757 2.0383
-6.9023 10.1485 2.0383
-7.6957 9.5561 2.0383
-8.4390 8.9023 2.0383
-9.1275 8.1917 2.0383
-9.7569 7.4279 2.0383
-10.3232 6.6165 2.0383
-10.8229 5.7626 2.0383
-11.2527 4.8715 2.0383
-11.6100 3.9488 2.0383
-11.8924 3.0003 2.0383
-12.0982 2.0322 2.0383
-12.2259 1.0505 2.0383
-12.2748 0.0614 2.0383
-12.2444 -0.9287 2.0383
-12.1348 -1.9136 2.0383
-11.9466 -2.8871 2.0383
-11.6810 -3.8428 2.0383
-11.3395 -4.7746 2.0383
-10.9241 -5.6765 2.0383
-10.4375 -6.5428 2.0383
-9.8825 -7.3677 2.0383
-9.2627 -8.1459 2.0383
-8.5819 -8.8722 2.0383
-7.8444 -9.5419 2.0383
-7.0549 -10.1506 2.0383
-6.2183 -10.6940 2.0383
-5.3400 -11.1686 2.0383
-4.4256 -11.5711 2.0383
-3.4811 -11.8988 2.0383
-2.5125 -12.1493 2.0383
-1.5262 -12.3208 2.0383
-0.5286 -12.4121 2.0383
0.4738 -12.4223 2.0383
1.4743 -12.3513 2.0383
2.4664 -12.1994 2.0383
3.4434 -11.9674 2.0383
4.3989 -11.6568 2.0383
5.3264 -11.2695 2.0383
6.2198 -10.8080 2.0383
6.5447 -9.5078 1.8861
7.2913 -8.9515 1.8859
7.9909 -8.3368 1.8859
7.1684 -6.3625 1.5650
9.2314 -6.9486 1.8863
9.7708 -6.1881 1.8880
10.2455 -5.3847 1.8894
10.0451 -4.2851 1.7828
11.0848 -3.7047 1.9082
11.3577 -2.8020 1.9102
11.5486 -1.8779 1.9110
11.6557 -0.9406 1.9104
11.6783 0.0017 1.9086
11.6165 0.9410 1.9054
11.4712 1.8689 1.9010
11.2446 2.7777 1.8954
10.9392 3.6599 1.8886
10.5875 4.5205 1.8859
5.7209 3.0091 1.0596
4.9354 3.1280 0.9584
4.2836 3.2266 0.8802
3.8806 3.4468 0.8525
3.9891 4.1648 0.9478
4.1257 5.0690 1.0750
4.3056 6.2603 1.2506
4.5574 7.9269 1.5061
5.2792 11.1822 2.0383
4.3575 11.5629 2.0383
3.4088 11.8680 2.0383
2.4393 12.0956 2.0383
1.4554 12.2444 2.0383
0.4633 12.3137 2.0383
-0.5306 12.3031 2.0383
-1.5197 12.2129 2.0383
-2.4979 12.0437 2.0383
-3.4589 11.7969 2.0383
-4.3965 11.4740 2.0383
-5.3048 11.0772 2.0383
-6.1781 10.6093 2.0383
-7.0109 10.0731 2.0383
-7.7979 9.4723 2.0383
-8.5342 8.8106 2.0383
-9.2150 8.0924 2.0383
-9.8362 7.3222 2.0383
-10.3939 6.5049 2.0383
-10.8843 5.6457 2.0383
-11.3046 4.7500 2.0383
-11.6520 3.8236 2.0383
-11.9243 2.8721 2.0383
-12.1198 1.9018 2.0383
-12.2370 0.9188 2.0383
-12.2753 -0.0708 2.0383
-12.2343 -1.0606 2.0383
-12.1142 -2.0444 2.0383
-11.9156 -3.0158 2.0383
4.4197 -9.6173 2.0383
5.1822 -9.2332 2.0383
5.9113 -8.7883 2.0383
6.6020 -8.2855 2.0383
6.8768 -7.3307 1.9334
7.2633 -6.5878 1.8859
7.7715 -5.9818 1.8859
8.2288 -5.3365 1.8859
8.6323 -4.6561 1.8859
8.9791 -3.9452 1.8859
9.2670 -3.2086 1.8859
9.4942 -2.4511 1.8859
9.6591 -1.6777 1.8859
9.7606 -0.8937 1.8859
9.7981 -0.1042 1.8859
9.7715 0.6855 1.8859
9.6810 1.4701 1.8859
9.5271 2.2446 1.8859
9.3111 3.0038 1.8859
9.0344 3.7426 1.8859
5.8385 2.9909 1.2658
5.0313 3.1131 1.1422
4.3643 3.2141 1.0470
3.8677 3.3613 0.9904
3.9732 4.0595 1.0985
4.1053 4.9341 1.2421
4.2782 6.0786 1.4393
4.5179 7.6652 1.7239
4.5909 9.4581 2.0383
3.8112 9.7912 2.0383
3.0078 10.0601 2.0383
2.1856 10.2638 2.0383
1.3503 10.4004 2.0383
0.5072 10.4694 2.0383
-0.3382 10.4704 2.0383
-1.1806 10.4036 2.0383
-2.0145 10.2695 2.0383
-2.8345 10.0690 2.0383
-3.6355 9.8035 2.0383
-4.4123 9.4748 2.0383
-5.1601 9.0851 2.0383
-5.8739 8.6368 2.0383
-6.5495 8.1330 2.0383
-7.1823 7.5769 2.0383
-7.7686 6.9720 2.0383
-8.3044 6.3221 2.0383
-8.7866 5.6317 2.0383
-9.2119 4.9047 2.0383
-9.5777 4.1463 2.0383
-9.8816 3.3608 2.0383
-10.1218 2.5535 2.0383
-10.2966 1.7294 2.0383
-10.4050 0.8939 2.0383
-10.4461 0.0521 2.0383
-10.4196 -0.7906 2.0383
-10.3257 -1.6286 2.0383
-10.1649 -2.4568 2.0383
-9.9381 -3.2698 2.0383
-9.6468 -4.0622 2.0383
-9.2926 -4.8292 2.0383
-8.8778 -5.5656 2.0383
-8.4050 -6.2667 2.0383
-7.8770 -6.9278 2.0383
-7.2973 -7.5448 2.0383
-6.6695 -8.1134 2.0383
-5.9975 -8.6300 2.0383
-5.2857 -9.0911 2.0383
-4.5386 -9.4935 2.0383
-3.7610 -9.8346 2.0383
-2.9579 -10.1120 2.0383
-2.1346 -10.3238 2.0383
-1.2963 -10.4685 2.0383
-0.4487 -10.5450 2.0383
0.4029 -10.5527 2.0383
1.2527 -10.4914 2.0383
2.0952 -10.3615 2.0383
2.9247 -10.1637 2.0383
3.7359 -9.8992 2.0383
4.5233 -9.5697 2.0383
5.2816 -9.1772 2.0383
6.0058 -8.7244 2.0383
6.6910 -8.2142 2.0383
6.9009 -7.1995 1.9183
7.1373 -6.3348 1.8353
7.8356 -5.8979 1.8859
8.2859 -5.2476 1.8859
8.6819 -4.5629 1.8859
9.0210 -3.8483 1.8859
9.3009 -3.1086 1.8859
9.5198 -2.3487 1.8859
9.6763 -1.5736 1.8859
9.7693 -0.7885 1.8859
9.7983 0.0013 1.8859
9.7631 0.7906 1.8859
9.6641 1.5742 1.8859
9.5019 2.3469 1.8859
9.2777 3.1036 1.8859
8.9930 3.8394 1.8859
5.7207 3.0087 1.2473
4.9352 3.1276 1.1281
4.2835 3.2263 1.0359
3.8806 3.4465 1.0032
3.9890 4.1645 1.1153
4.1256 5.0685 1.2648
4.3055 6.2596 1.4712
4.5573 7.9259 1.7716
4.4884 9.5062 2.0383
3.7053 9.8309 2.0383
2.8990 10.0913 2.0383
2.0748 10.2859 2.0383
1.2382 10.4135 2.0383
0.3944 10.4735 2.0383
-0.4509 10.4654 2.0383
-1.2925 10.3896 2.0383
-2.1248 10.2465 2.0383
-2.9426 10.0373 2.0383
-3.7407 9.7632 2.0383
-4.5139 9.4263 2.0383
-5.2574 9.0286 2.0383
-5.9664 8.5727 2.0383
-6.6365 8.0617 2.0383
-7.2634 7.4989 2.0383
-7.8431 6.8877 2.0383
-8.3720 6.2322 2.0383
-8.8467 5.5367 2.0383
-9.2642 4.8048 2.0383
-9.6219 4.0429 2.0383
-9.9174 3.2543 2.0383
-10.1490 2.4444 2.0383
-10.3150 1.6185 2.0383
-10.4143 0.7817 2.0383
-10.4464 -0.0605 2.0383
-10.4110 -0.9028 2.0383
-10.3081 -1.7399 2.0383
-10.1384 -2.5663 2.0383
3.8352 -8.3449 2.0383
4.4966 -8.0112 2.0383
5.1290 -7.6249 2.0383
5.7280 -7.1885 2.0383
6.2899 -6.7049 2.0383
6.8107 -6.1771 2.0383
7.1553 -5.5074 2.0015
7.2897 -4.7274 1.9257
7.4889 -4.0394 1.8859
7.7898 -3.4227 1.8859
8.0397 -2.7837 1.8859
8.2369 -2.1266 1.8859
8.3801 -1.4557 1.8859
8.4684 -0.7755 1.8859
8.5013 -0.0906 1.8859
8.4785 0.5946 1.8859
8.4004 1.2755 1.8859
8.3216 1.9603 1.8983
8.4225 2.7168 1.9658
8.4743 3.5102 2.0383
5.8383 2.9905 1.4583
5.0311 3.1127 1.3159
4.3641 3.2137 1.2061
3.8677 3.3610 1.1408
3.9731 4.0591 1.2653
4.1052 4.9336 1.4305
4.2781 6.0779 1.6575
4.6388 7.8696 2.0383
3.9872 8.2134 2.0383
3.3103 8.5033 2.0383
2.6127 8.7378 2.0383
1.8988 8.9152 2.0383
1.1734 9.0345 2.0383
0.4410 9.0951 2.0383
-0.2935 9.0966 2.0383
-1.0254 9.0392 2.0383
-1.7501 8.9232 2.0383
-2.4628 8.7495 2.0383
-3.1590 8.5192 2.0383
-3.8342 8.2340 2.0383
-4.4843 7.8956 2.0383
-5.1049 7.5064 2.0383
-5.6922 7.0687 2.0383
-6.2425 6.5855 2.0383
-6.7521 6.0599 2.0383
-7.2180 5.4952 2.0383
-7.6372 4.8950 2.0383
-8.0069 4.2632 2.0383
-8.3248 3.6038 2.0383
-8.5889 2.9211 2.0383
-8.7975 2.2193 2.0383
-8.9493 1.5030 2.0383
-9.0432 0.7767 2.0383
-9.0786 0.0451 2.0383
-9.0552 -0.6873 2.0383
-8.9732 -1.4155 2.0383
-8.8330 -2.1352 2.0383
-8.6354 -2.8414 2.0383
-8.3818 -3.5299 2.0383
-8.0735 -4.1960 2.0383
-7.7126 -4.8355 2.0383
-7.3013 -5.4442 2.0383
-6.8421 -6.0181 2.0383
-6.3381 -6.5536 2.0383
-5.7923 -7.0469 2.0383
-5.2082 -7.4950 2.0383
-4.5897 -7.8948 2.0383
-3.9406 -8.2436 2.0383
-3.2651 -8.5391 2.0383
-2.5676 -8.7793 2.0383
-1.8527 -8.9625 2.0383
-1.1249 -9.0874 2.0383
-0.3891 -9.1531 2.0383
0.3500 -9.1591 2.0383
1.0875 -9.1054 2.0383
1.8186 -8.9920 2.0383
2.5383 -8.8199 2.0383
3.2420 -8.5898 2.0383
3.9250 -8.3035 2.0383
4.5828 -7.9627 2.0383
5.2109 -7.5695 2.0383
5.8053 -7.1266 2.0383
6.3618 -6.6369 2.0383
6.8769 -6.1036 2.0383
7.1741 -5.3999 1.9903
7.3067 -4.6274 1.9169
7.5319 -3.9585 1.8859
7.8261 -3.3386 1.8859
8.0691 -2.6970 1.8859
8.2591 -2.0377 1.8859
8.3951 -1.3654 1.8859
8.4760 -0.6843 1.8859
8.5015 0.0009 1.8859
8.4713 0.6858 1.8859
8.3953 1.3673 1.8881
8.3327 2.0575 1.9059
8.4367 2.8220 1.9762
8.4355 3.6010 2.0383
5.7205 3.0083 1.4370
4.9350 3.1273 1.2996
4.2834 3.2260 1.1934
3.8805 3.4462 1.1556
3.9890 4.1641 1.2846
4.1255 5.0680 1.4566
4.3054 6.2589 1.6943
4.5535 7.9185 2.0383
3.8982 8.2552 2.0383
3.2183 8.5379 2.0383
2.5183 8.7648 2.0383
1.8026 8.9345 2.0383
1.0759 9.0460 2.0383
0.3430 9.0987 2.0383
-0.3914 9.0924 2.0383
-1.1227 9.0271 2.0383
-1.8460 8.9033 2.0383
-2.5567 8.7220 2.0383
-3.2504 8.4843 2.0383
-3.9226 8.1919 2.0383
-4.5689 7.8466 2.0383
-5.1853 7.4507 2.0383
-5.7679 7.0068 2.0383
-6.3129 6.5178 2.0383
-6.8169 5.9867 2.0383
-7.2767 5.4170 2.0383
-7.6894 4.8124 2.0383
-8.0523 4.1767 2.0383
-8.3632 3.5140 2.0383
-8.6200 2.8284 2.0383
-8.8211 2.1245 2.0383
-8.9652 1.4066 2.0383
-9.0513 0.6793 2.0383
-9.0788 -0.0527 2.0383
-9.0476 -0.7848 2.0383
-8.9578 -1.5122 2.0383
-8.8099 -2.2303 2.0383
3.3824 -7.3590 2.0383
3.9654 -7.0645 2.0383
4.5229 -6.7236 2.0383
5.0510 -6.3387 2.0383
5.5463 -5.9121 2.0383
6.0054 -5.4467 2.0383
6.4254 -4.9455 2.0383
6.8034 -4.4120 2.0383
7.1368 -3.8495 2.0383
7.4236 -3.2619 2.0383
7.5934 -2.6293 2.0201
7.6959 -1.9870 1.9983
7.7945 -1.3541 1.9893
7.8906 -0.7228 1.9928
7.9852 -0.0853 2.0088
8.0796 0.5664 2.0380
8.0067 1.2155 2.0383
7.8803 1.8561 2.0383
7.7024 2.4842 2.0383
7.4743 3.0957 2.0383
5.8380 2.9901 1.6533
5.0309 3.1124 1.4917
4.3640 3.2134 1.3672
3.8676 3.3607 1.2932
3.9731 4.0587 1.4341
4.1052 4.9331 1.6213
4.6421 6.5944 2.0383
4.0934 6.9437 2.0383
3.5187 7.2475 2.0383
2.9216 7.5038 2.0383
2.3061 7.7112 2.0383
1.6762 7.8682 2.0383
1.0360 7.9740 2.0383
0.3896 8.0279 2.0383
-0.2588 8.0297 2.0383
-0.9049 7.9794 2.0383
-1.5447 7.8774 2.0383
-2.1740 7.7244 2.0383
-2.7888 7.5214 2.0383
-3.3851 7.2699 2.0383
-3.9591 6.9714 2.0383
-4.5073 6.6279 2.0383
-5.0260 6.2416 2.0383
-5.5120 5.8150 2.0383
-5.9621 5.3509 2.0383
-6.3736 4.8524 2.0383
-6.7437 4.3224 2.0383
-7.0702 3.7645 2.0383
-7.3510 3.1822 2.0383
-7.5841 2.5793 2.0383
-7.7682 1.9596 2.0383
-7.9021 1.3270 2.0383
-7.9848 0.6857 2.0383
-8.0159 0.0396 2.0383
-7.9950 -0.6070 2.0383
-7.9223 -1.2500 2.0383
-7.7982 -1.8853 2.0383
-7.6234 -2.5087 2.0383
-7.3991 -3.1164 2.0383
-7.1267 -3.7042 2.0383
-6.8077 -4.2685 2.0383
-6.4443 -4.8056 2.0383
-6.0387 -5.3119 2.0383
-5.5934 -5.7841 2.0383
-5.1114 -6.2191 2.0383
-4.5957 -6.6142 2.0383
-4.0496 -6.9665 2.0383
-3.4767 -7.2739 2.0383
-2.8805 -7.5341 2.0383
-2.2650 -7.7456 2.0383
-1.6341 -7.9067 2.0383
-0.9920 -8.0164 2.0383
-0.3429 -8.0740 2.0383
0.3090 -8.0788 2.0383
0.9595 -8.0310 2.0383
1.6042 -7.9306 2.0383
2.2389 -7.7784 2.0383
2.8593 -7.5753 2.0383
3.4615 -7.3225 2.0383
4.0414 -7.0217 2.0383
4.5952 -6.6748 2.0383
5.1191 -6.2841 2.0383
5.6097 -5.8521 2.0383
6.0638 -5.3818 2.0383
6.4783 -4.8761 2.0383
6.8505 -4.3385 2.0383
7.1779 -3.7725 2.0383
7.4583 -3.1817 2.0383
7.6074 -2.5427 2.0164
7.7092 -1.9022 1.9964
7.8075 -1.2699 1.9891
7.9033 -0.6382 1.9942
7.9978 0.0007 2.0119
8.0741 0.6534 2.0383
7.9929 1.3015 2.0383
7.8595 1.9408 2.0383
7.6748 2.5669 2.0383
7.4402 3.1758 2.0383
5.7202 3.0079 1.6291
4.9349 3.1269 1.4732
4.2833 3.2256 1.3528
3.8805 3.4459 1.3099
3.9675 4.1412 1.4482
4.1255 5.0675 1.6509
4.5705 6.6436 2.0383
4.0182 6.9869 2.0383
3.4402 7.2845 2.0383
2.8404 7.5344 2.0383
2.2228 7.7350 2.0383
1.5912 7.8853 2.0383
0.9500 7.9842 2.0383
0.3031 8.0312 2.0383
-0.3452 8.0260 2.0383
-0.9908 7.9688 2.0383
-1.6294 7.8599 2.0383
-2.2569 7.7002 2.0383
-2.8695 7.4907 2.0383
-3.4631 7.2327 2.0383
-4.0339 6.9281 2.0383
-4.5783 6.5787 2.0383
-5.0928 6.1869 2.0383
-5.5742 5.7552 2.0383
-6.0193 5.2863 2.0383
-6.4254 4.7833 2.0383
-6.7899 4.2495 2.0383
-7.1104 3.6881 2.0383
-7.3849 3.1029 2.0383
-7.6116 2.4975 2.0383
-7.7890 1.8758 2.0383
-7.9161 1.2418 2.0383
-7.9920 0.5996 2.0383
-8.0161 -0.0467 2.0383
-7.9883 -0.6931 2.0383
-7.9087 -1.3353 2.0383
-7.7778 -1.9692 2.0383
3.0206 -6.5715 2.0383
3.5412 -6.3084 2.0383
4.0389 -6.0038 2.0383
4.5104 -5.6600 2.0383
4.9525 -5.2790 2.0383
5.3624 -4.8634 2.0383
5.7373 -4.4159 2.0383
6.0747 -3.9394 2.0383
6.3725 -3.4372 2.0383
6.6286 -2.9126 2.0383
6.8413 -2.3689 2.0383
7.0092 -1.8098 2.0383
7.1313 -1.2390 2.0383
7.2068 -0.6603 2.0383
7.2351 -0.0774 2.0383
7.2162 0.5057 2.0383
7.1501 1.0852 2.0383
7.0374 1.6574 2.0383
6.8788 2.2184 2.0383
6.6754 2.7645 2.0383
6.4286 3.2922 2.0383
5.0308 3.1120 1.6701
4.3639 3.2130 1.5306
3.8676 3.3604 1.4477
3.9442 4.0288 1.5937
4.1051 4.9326 1.8148
4.1473 5.8910 2.0383
3.6573 6.2033 2.0383
3.1440 6.4751 2.0383
2.6107 6.7044 2.0383
2.0608 6.8900 2.0383
1.4981 7.0307 2.0383
0.9260 7.1255 2.0383
0.3484 7.1740 2.0383
-0.2310 7.1759 2.0383
-0.8085 7.1313 2.0383
-1.3803 7.0404 2.0383
-1.9428 6.9039 2.0383
-2.4924 6.7227 2.0383
-3.0255 6.4981 2.0383
-3.5387 6.2314 2.0383
-4.0288 5.9245 2.0383
-4.4925 5.5793 2.0383
-4.9270 5.1981 2.0383
-5.3295 4.7833 2.0383
-5.6974 4.3376 2.0383
-6.0284 3.8639 2.0383
-6.3202 3.3652 2.0383
-6.5712 2.8446 2.0383
-6.7796 2.3056 2.0383
-6.9441 1.7516 2.0383
-7.0636 1.1861 2.0383
-7.1374 0.6128 2.0383
-7.1650 0.0353 2.0383
-7.1462 -0.5427 2.0383
-7.0810 -1.1174 2.0383
-6.9699 -1.6852 2.0383
-6.8134 -2.2424 2.0383
-6.6127 -2.7854 2.0383
-6.3689 -3.3107 2.0383
-6.0836 -3.8148 2.0383
-5.7586 -4.2946 2.0383
-5.3958 -4.7468 2.0383
-4.9978 -5.1686 2.0383
-4.5668 -5.5570 2.0383
-4.1059 -5.9097 2.0383
-3.6178 -6.2242 2.0383
-3.1057 -6.4985 2.0383
-2.5730 -6.7307 2.0383
-2.0230 -6.9192 2.0383
-1.4594 -7.0628 2.0383
-0.8858 -7.1605 2.0383
-0.3060 -7.2116 2.0383
0.2763 -7.2156 2.0383
0.8572 -7.1726 2.0383
1.4329 -7.0827 2.0383
1.9996 -6.9465 2.0383
2.5537 -6.7648 2.0383
3.0913 -6.5389 2.0383
3.6090 -6.2701 2.0383
4.1034 -5.9602 2.0383
4.5711 -5.6112 2.0383
5.0091 -5.2254 2.0383
5.4145 -4.8054 2.0383
5.7846 -4.3539 2.0383
6.1168 -3.8738 2.0383
6.4091 -3.3684 2.0383
6.6595 -2.8410 2.0383
6.8663 -2.2951 2.0383
7.0282 -1.7342 2.0383
7.1441 -1.1621 2.0383
7.2133 -0.5826 2.0383
7.2353 0.0005 2.0383
7.2101 0.5833 2.0383
7.1378 1.1621 2.0383
7.0188 1.7330 2.0383
6.8542 2.2922 2.0383
6.6449 2.8361 2.0383
5.7200 3.0075 1.8239
4.9347 3.1265 1.6494
4.2832 3.2253 1.5144
3.8805 3.4456 1.4664
3.9157 4.0868 1.6000
4.5505 5.5890 2.0383
4.0834 5.9350 2.0383
3.5901 6.2420 2.0383
3.0739 6.5081 2.0383
2.5382 6.7317 2.0383
1.9864 6.9114 2.0383
1.4222 7.0460 2.0383
0.8492 7.1347 2.0383
0.2711 7.1770 2.0383
-0.3083 7.1727 2.0383
-0.8852 7.1218 2.0383
-1.4560 7.0248 2.0383
-2.0170 6.8823 2.0383
-2.5646 6.6952 2.0383
-3.0952 6.4649 2.0383
-3.6055 6.1927 2.0383
-4.0922 5.8806 2.0383
-4.5523 5.5305 2.0383
-4.9827 5.1446 2.0383
-5.3807 4.7256 2.0383
-5.7438 4.2759 2.0383
-6.0696 3.7987 2.0383
-6.3561 3.2969 2.0383
-6.6015 2.7737 2.0383
-6.8041 2.2325 2.0383
-6.9626 1.6767 2.0383
-7.0761 1.1100 2.0383
-7.1438 0.5359 2.0383
-7.1652 -0.0419 2.0383
-7.1402 -0.6197 2.0383
-7.0688 -1.1937 2.0383
-6.9516 -1.7603 2.0383
2.7246 -5.9271 2.0383
3.1941 -5.6896 2.0383
3.6428 -5.4149 2.0383
4.0680 -5.1046 2.0383
4.4667 -4.7610 2.0383
4.8363 -4.3861 2.0383
5.1743 -3.9825 2.0383
5.4786 -3.5528 2.0383
5.7471 -3.0999 2.0383
5.9781 -2.6268 2.0383
6.1699 -2.1365 2.0383
6.3215 -1.6323 2.0383
6.4317 -1.1175 2.0383
6.4998 -0.5956 2.0383
6.5255 -0.0700 2.0383
6.5085 0.4560 2.0383
6.4491 0.9787 2.0383
6.3476 1.4947 2.0383
6.2047 2.0007 2.0383
6.0214 2.4934 2.0383
5.7990 2.9696 2.0383
5.5389 3.4260 2.0383
4.3638 3.2127 1.6966
3.8676 3.3600 1.6046
3.9476 4.0319 1.7680
4.1600 4.9981 2.0383
3.7421 5.3149 2.0383
3.3002 5.5969 2.0383
2.8371 5.8423 2.0383
2.3560 6.0495 2.0383
1.8599 6.2173 2.0383
1.3521 6.3444 2.0383
0.8359 6.4303 2.0383
0.3147 6.4743 2.0383
-0.2082 6.4763 2.0383
-0.7294 6.4362 2.0383
-1.2456 6.3543 2.0383
-1.7533 6.2313 2.0383
-2.2494 6.0680 2.0383
-2.7307 5.8653 2.0383
-3.1940 5.6248 2.0383
-3.6365 5.3478 2.0383
-4.0552 5.0363 2.0383
-4.4475 4.6923 2.0383
-4.8108 4.3179 2.0383
-5.1430 3.9156 2.0383
-5.4417 3.4879 2.0383
-5.7052 3.0377 2.0383
-5.9317 2.5678 2.0383
-6.1198 2.0812 2.0383
-6.2683 1.5811 2.0383
-6.3761 1.0706 2.0383
-6.4427 0.5530 2.0383
-6.4675 0.0317 2.0383
-6.4503 -0.4900 2.0383
-6.3913 -1.0088 2.0383
-6.2909 -1.5213 2.0383
-6.1495 -2.0241 2.0383
-5.9681 -2.5141 2.0383
-5.7479 -2.9881 2.0383
-5.4902 -3.4430 2.0383
-5.1967 -3.8759 2.0383
-4.8692 -4.2838 2.0383
-4.5097 -4.6643 2.0383
-4.1207 -5.0146 2.0383
-3.7046 -5.3326 2.0383
-3.2640 -5.6162 2.0383
-2.8019 -5.8634 2.0383
-2.3211 -6.0727 2.0383
-1.8249 -6.2425 2.0383
-1.3163 -6.3719 2.0383
-0.7988 -6.4597 2.0383
-0.2758 -6.5055 2.0383
0.2495 -6.5090 2.0383
0.7735 -6.4699 2.0383
1.2927 -6.3886 2.0383
1.8038 -6.2656 2.0383
2.3035 -6.1016 2.0383
2.7883 -5.8976 2.0383
3.2552 -5.6551 2.0383
3.7010 -5.3755 2.0383
4.1228 -5.0607 2.0383
4.5177 -4.7127 2.0383
4.8833 -4.3338 2.0383
5.2170 -3.9266 2.0383
5.5166 -3.4937 2.0383
5.7802 -3.0379 2.0383
6.0060 -2.5623 2.0383
6.1925 -2.0699 2.0383
6.3386 -1.5641 2.0383
6.4432 -1.0482 2.0383
6.5057 -0.5256 2.0383
6.5257 0.0003 2.0383
6.5031 0.5260 2.0383
6.4380 1.0480 2.0383
6.3309 1.5629 2.0383
6.1826 2.0674 2.0383
5.9940 2.5580 2.0383
5.7664 3.0317 2.0383
4.9346 3.1262 1.8283
4.2831 3.2249 1.6787
3.8804 3.4452 1.6253
3.9220 4.0930 1.7763
4.1057 5.0423 2.0383
3.6844 5.3546 2.0383
3.2395 5.6319 2.0383
2.7739 5.8722 2.0383
2.2906 6.0742 2.0383
1.7928 6.2366 2.0383
1.2837 6.3583 2.0383
0.7666 6.4386 2.0383
0.2449 6.4770 2.0383
-0.2780 6.4733 2.0383
-0.7987 6.4277 2.0383
-1.3139 6.3403 2.0383
-1.8203 6.2118 2.0383
-2.3146 6.0432 2.0383
-2.7936 5.8354 2.0383
-3.2543 5.5899 2.0383
-3.6938 5.3082 2.0383
-4.1091 4.9922 2.0383
-4.4977 4.6440 2.0383
-4.8570 4.2657 2.0383
-5.1848 3.8599 2.0383
-5.4790 3.4291 2.0383
-5.7376 2.9761 2.0383
-5.9591 2.5038 2.0383
-6.1420 2.0152 2.0383
-6.2851 1.5134 2.0383
-6.3874 1.0018 2.0383
-6.4484 0.4836 2.0383
-6.4676 -0.0380 2.0383
-6.4449 -0.5595 2.0383
-6.3803 -1.0776 2.0383
-6.2744 -1.5890 2.0383
2.4775 -5.3892 2.0383
2.9043 -5.1732 2.0383
3.3123 -4.9233 2.0383
3.6988 -4.6412 2.0383
4.0612 -4.3287 2.0383
4.3972 -3.9878 2.0383
4.7045 -3.6209 2.0383
4.9812 -3.2302 2.0383
5.2253 -2.8184 2.0383
5.4352 -2.3883 2.0383
5.6097 -1.9425 2.0383
5.7475 -1.4841 2.0383
5.8477 -1.0162 2.0383
5.9098 -0.5416 2.0383
5.9332 -0.0637 2.0383
5.9179 0.4144 2.0383
5.8640 0.8897 2.0383
5.7718 1.3590 2.0383
5.6420 1.8191 2.0383
5.4755 2.2672 2.0383
5.2734 2.7002 2.0383
5.0370 3.1153 2.0383
4.7680 3.5099 2.0383
3.8675 3.3597 1.7644
4.1392 4.2273 2.0383
3.7836 4.5454 2.0383
3.4037 4.8338 2.0383
3.0018 5.0904 2.0383
2.5808 5.3138 2.0383
2.1432 5.5025 2.0383
1.6920 5.6552 2.0383
1.2302 5.7711 2.0383
0.7607 5.8494 2.0383
0.2865 5.8896 2.0383
-0.1892 5.8915 2.0383
-0.6634 5.8552 2.0383
-1.1330 5.7809 2.0383
-1.5950 5.6692 2.0383
-2.0464 5.5207 2.0383
-2.4843 5.3364 2.0383
-2.9059 5.1176 2.0383
-3.3085 4.8657 2.0383
-3.6895 4.5824 2.0383
-4.0465 4.2694 2.0383
-4.3772 3.9287 2.0383
-4.6794 3.5627 2.0383
-4.9513 3.1736 2.0383
-5.1911 2.7640 2.0383
-5.3972 2.3364 2.0383
-5.5683 1.8936 2.0383
-5.7033 1.4385 2.0383
-5.8014 0.9740 2.0383
-5.8619 0.5030 2.0383
-5.8843 0.0287 2.0383
-5.8686 -0.4460 2.0383
-5.8149 -0.9180 2.0383
-5.7233 -1.3842 2.0383
-5.5946 -1.8417 2.0383
-5.4294 -2.2874 2.0383
-5.2289 -2.7186 2.0383
-4.9943 -3.1323 2.0383
-4.7272 -3.5260 2.0383
-4.4291 -3.8970 2.0383
-4.1020 -4.2429 2.0383
-3.7480 -4.5615 2.0383
-3.3694 -4.8506 2.0383
-2.9686 -5.1083 2.0383
-2.5481 -5.3330 2.0383
-0.7656 -2.0034 0.7393
-1.6594 -5.6774 2.0383
-1.1969 -5.7948 2.0383
-0.7262 -5.8746 2.0383
-0.2505 -5.9160 2.0383
0.2271 -5.9190 2.0383
0.7035 -5.8833 2.0383
1.1757 -5.8092 2.0383
1.6404 -5.6972 2.0383
0.7578 -2.0071 0.7374
2.5355 -5.3624 2.0383
2.9599 -5.1418 2.0383
3.3652 -4.8875 2.0383
3.7486 -4.6012 2.0383
4.1076 -4.2848 2.0383
4.4399 -3.9403 2.0383
4.7433 -3.5700 2.0383
5.0157 -3.1764 2.0383
5.2553 -2.7620 2.0383
5.4606 -2.3296 2.0383
5.6302 -1.8820 2.0383
5.7631 -1.4222 2.0383
5.8582 -0.9531 2.0383
5.9151 -0.4780 2.0383
5.9334 0.0001 2.0383
5.9129 0.4781 2.0383
5.8539 0.9527 2.0383
5.7566 1.4210 2.0383
5.6219 1.8797 2.0383
5.4506 2.3259 2.0383
5.2438 2.7567 2.0383
5.0030 3.1692 2.0383
4.7297 3.5609 2.0383
3.8804 3.4449 1.7871
4.0932 4.2714 2.0383
3.7343 4.5857 2.0383
3.3512 4.8699 2.0383
2.9467 5.1222 2.0383
2.5233 5.3410 2.0383
2.0837 5.5250 2.0383
1.6310 5.6728 2.0383
1.1679 5.7837 2.0383
0.6976 5.8569 2.0383
0.2231 5.8921 2.0383
-0.2526 5.8889 2.0383
-0.7264 5.8475 2.0383
-1.1951 5.7682 2.0383
-1.6559 5.6515 2.0383
-2.1057 5.4981 2.0383
-2.5416 5.3092 2.0383
-2.9608 5.0859 2.0383
-3.3606 4.8297 2.0383
-3.7386 4.5423 2.0383
-4.0922 4.2254 2.0383
-4.4192 3.8813 2.0383
-4.7175 3.5120 2.0383
-4.9852 3.1201 2.0383
-5.2205 2.7079 2.0383
-5.4221 2.2781 2.0383
-5.5884 1.8335 2.0383
-5.7186 1.3770 2.0383
-5.8117 0.9114 2.0383
-5.8671 0.4399 2.0383
-5.8845 -0.0347 2.0383
-5.8637 -0.5092 2.0383
-5.8048 -0.9806 2.0383
-5.7083 -1.4458 2.0383
2.2679 -4.9328 2.0383
2.6585 -4.7350 2.0383
3.0318 -4.5062 2.0383
3.3855 -4.2480 2.0383
3.7172 -3.9619 2.0383
4.0247 -3.6499 2.0383
4.3059 -3.3140 2.0383
4.5591 -2.9565 2.0383
4.7825 -2.5796 2.0383
4.9747 -2.1859 2.0383
5.1344 -1.7780 2.0383
5.2605 -1.3585 2.0383
5.3523 -0.9302 2.0383
5.4092 -0.4959 2.0383
5.4307 -0.0585 2.0383
5.4167 0.3792 2.0383
5.3675 0.8142 2.0383
5.2832 1.2437 2.0383
5.1645 1.6650 2.0383
5.0122 2.0751 2.0383
4.8273 2.4715 2.0383
4.6111 2.8516 2.0383
4.3649 3.2129 2.0383
4.0904 3.5530 2.0383
3.7895 3.8698 2.0383
3.4641 4.1612 2.0383
3.1163 4.4253 2.0383
2.7485 4.6604 2.0383
2.3631 4.8650 2.0383
0.7195 1.8470 0.7473
0.5683 1.8991 0.7476
0.4134 1.9389 0.7479
0.2557 1.9659 0.7482
0.2626 5.3930 2.0383
-0.1730 5.3949 2.0383
-0.2231 1.9697 0.7488
-0.3811 1.9451 0.7489
-0.5367 1.9078 0.7490
-0.6886 1.8580 0.7491
-2.2749 4.8871 2.0383
-2.6611 4.6868 2.0383
-3.0298 4.4561 2.0383
-3.3788 4.1967 2.0383
-3.7058 3.9100 2.0383
-4.0087 3.5981 2.0383
-4.2856 3.2629 2.0383
-4.5346 2.9065 2.0383
-4.7542 2.5313 2.0383
-4.9429 2.1397 2.0383
-5.0996 1.7342 2.0383
-5.2233 1.3174 2.0383
-5.3131 0.8919 2.0383
-5.3684 0.4606 2.0383
-5.3889 0.0262 2.0383
-5.3744 -0.4086 2.0383
-5.3251 -0.8408 2.0383
-5.2412 -1.2678 2.0383
-5.1231 -1.6867 2.0383
-4.9718 -2.0948 2.0383
-4.7881 -2.4896 2.0383
-4.5732 -2.8684 2.0383
-4.3284 -3.2288 2.0383
-4.0553 -3.5685 2.0383
-3.7557 -3.8851 2.0383
-3.4315 -4.1767 2.0383
-3.0847 -4.4413 2.0383
-2.7177 -4.6771 2.0383
-2.3327 -4.8827 2.0383
-0.7012 -1.8350 0.7397
-0.5510 -1.8854 0.7394
-0.3972 -1.9236 0.7391
-0.2409 -1.9493 0.7388
-0.0830 -1.9624 0.7386
0.0754 -1.9628 0.7384
0.2333 -1.9505 0.7382
0.3898 -1.9255 0.7381
0.5437 -1.8881 0.7380
0.6942 -1.8384 0.7379
2.3209 -4.9083 2.0383
2.7093 -4.7062 2.0383
3.0802 -4.4734 2.0383
3.4311 -4.2114 2.0383
3.7597 -3.9217 2.0383
4.0638 -3.6064 2.0383
4.3414 -3.2675 2.0383
4.5907 -2.9073 2.0383
4.8100 -2.5280 2.0383
4.9979 -2.1322 2.0383
5.1532 -1.7226 2.0383
5.2748 -1.3018 2.0383
5.3619 -0.8725 2.0383
5.4141 -0.4376 2.0383
5.4309 0.0000 2.0383
5.4122 0.4375 2.0383
5.3582 0.8719 2.0383
5.2693 1.3005 2.0383
5.1461 1.7204 2.0383
4.9894 2.1289 2.0383
4.8003 2.5233 2.0383
4.5799 2.9010 2.0383
4.3299 3.2596 2.0383
4.0518 3.5967 2.0383
3.7474 3.9102 2.0383
3.4189 4.1981 2.0383
3.0683 4.4584 2.0383
2.6981 4.6895 2.0383
2.3105 4.8900 2.0383
0.6996 1.8546 0.7473
0.5478 1.9051 0.7476
0.3925 1.9432 0.7479
0.2346 1.9686 0.7482
0.2045 5.3952 2.0383
-0.2311 5.3925 2.0383
-0.2443 1.9671 0.7488
-0.4021 1.9408 0.7489
-0.5572 1.9018 0.7490
-0.7086 1.8504 0.7491
-2.3274 4.8621 2.0383
-2.7114 4.6577 2.0383
-3.0776 4.4231 2.0383
-3.4238 4.1599 2.0383
-3.7477 3.8698 2.0383
-4.0472 3.5546 2.0383
-4.3204 3.2165 2.0383
-4.5656 2.8575 2.0383
-4.7812 2.4799 2.0383
-4.9657 2.0863 2.0383
-5.1181 1.6791 2.0383
-5.2372 1.2610 2.0383
-5.3224 0.8346 2.0383
-5.3731 0.4027 2.0383
-5.3890 -0.0319 2.0383
-5.3699 -0.4665 2.0383
-5.3159 -0.8981 2.0383
-5.2274 -1.3242 2.0383
0.7561 -1.6446 0.7383
2.4469 -4.3580 2.0383
2.7905 -4.1474 2.0383
3.1160 -3.9096 2.0383
3.4212 -3.6463 2.0383
3.7042 -3.3592 2.0383
3.9630 -3.0501 2.0383
4.1960 -2.7210 2.0383
4.4016 -2.3742 2.0383
4.5785 -2.0119 2.0383
4.7254 -1.6364 2.0383
4.8416 -1.2503 2.0383
4.9261 -0.8562 2.0383
4.9784 -0.4565 2.0383
4.9983 -0.0539 2.0383
4.9855 0.3489 2.0383
4.9403 0.7493 2.0383
4.8628 1.1446 2.0383
4.7536 1.5323 2.0383
4.6135 1.9099 2.0383
4.4434 2.2748 2.0383
4.2445 2.6247 2.0383
4.0180 2.9573 2.0383
3.7654 3.2704 2.0383
3.4885 3.5621 2.0383
3.1890 3.8304 2.0383
2.8690 4.0736 2.0383
2.5305 4.2902 2.0383
2.1757 4.4787 2.0383
0.6622 1.6996 0.7470
0.5231 1.7476 0.7473
0.3805 1.7842 0.7475
0.2354 1.8091 0.7478
0.0888 1.8221 0.7480
-0.0584 1.8233 0.7482
-0.2052 1.8125 0.7484
-0.3507 1.7899 0.7485
-0.4938 1.7556 0.7486
-0.6337 1.7098 0.7486
-0.7693 1.6528 0.7487
-2.4502 4.3156 2.0383
-2.7898 4.1033 2.0383
-3.1112 3.8644 2.0383
-3.4123 3.6005 2.0383
-3.6913 3.3132 2.0383
-3.9462 3.0046 2.0383
-4.1756 2.6764 2.0383
-4.3778 2.3309 2.0383
-4.5516 1.9703 2.0383
-4.6959 1.5968 2.0383
-4.8097 1.2130 2.0383
-4.8924 0.8212 2.0383
-4.9433 0.4240 2.0383
-4.9621 0.0240 2.0383
-4.9487 -0.3763 2.0383
-4.9032 -0.7743 2.0383
-4.8258 -1.1675 2.0383
-4.7171 -1.5532 2.0383
-4.5777 -1.9290 2.0383
-4.4084 -2.2924 2.0383
-4.2104 -2.6412 2.0383
-3.9850 -2.9729 2.0383
-3.7335 -3.2855 2.0383
-3.4576 -3.5770 2.0383
-3.1590 -3.8453 2.0383
-2.8397 -4.0888 2.0383
-2.5017 -4.3058 2.0383
-0.7799 -1.6326 0.7403
-0.6457 -1.6900 0.7400
-0.5073 -1.7364 0.7397
-0.3657 -1.7716 0.7394
-0.2218 -1.7953 0.7392
-0.0764 -1.8073 0.7390
0.0695 -1.8077 0.7388
0.2149 -1.7963 0.7386
0.3590 -1.7733 0.7385
0.5008 -1.7388 0.7384
0.6394 -1.6931 0.7384
0.7738 -1.6364 0.7383
2.4937 -4.3315 2.0383
2.8351 -4.1172 2.0383
3.1580 -3.8760 2.0383
3.4603 -3.6093 2.0383
3.7402 -3.3192 2.0383
3.9956 -3.0073 2.0383
4.2250 -2.6757 2.0383
4.4269 -2.3267 2.0383
4.5998 -1.9624 2.0383
4.7427 -1.5854 2.0383
4.8547 -1.1981 2.0383
4.9349 -0.8031 2.0383
4.9830 -0.4029 2.0383
4.9985 -0.0001 2.0383
4.9814 0.4025 2.0383
4.9318 0.8024 2.0383
4.8500 1.1968 2.0383
4.7367 1.5833 2.0383
4.5925 1.9593 2.0383
4.4185 2.3224 2.0383
4.2158 2.6701 2.0383
3.9857 3.0002 2.0383
3.7298 3.3107 2.0383
3.4498 3.5993 2.0383
3.1475 3.8644 2.0383
2.8248 4.1041 2.0383
2.4840 4.3170 2.0383
0.7793 1.6491 0.7467
0.6439 1.7067 0.7470
0.5042 1.7532 0.7473
0.3613 1.7882 0.7476
0.2159 1.8115 0.7478
0.0692 1.8230 0.7480
-0.0780 1.8225 0.7482
-0.2247 1.8102 0.7484
-0.3699 1.7860 0.7485
-0.5127 1.7501 0.7486
-0.6520 1.7028 0.7486
-2.1429 4.4770 2.0383
-2.4965 4.2889 2.0383
-2.8338 4.0729 2.0383
-3.1526 3.8306 2.0383
-3.4509 3.5634 2.0383
-3.7267 3.2733 2.0383
-3.9784 2.9618 2.0383
-4.2041 2.6312 2.0383
-4.4026 2.2836 2.0383
-4.5726 1.9211 2.0383
-4.7129 1.5461 2.0383
-4.8226 1.1611 2.0383
-4.9010 0.7685 2.0383
-4.9476 0.3707 2.0383
-4.9622 -0.0295 2.0383
-4.9445 -0.4296 2.0383
-4.8947 -0.8271 2.0383
-4.8131 -1.2194 2.0383
0.6996 -1.5215 0.7387
2.2627 -4.0297 2.0383
2.5804 -3.8349 2.0383
2.8813 -3.6150 2.0383
3.1635 -3.3716 2.0383
3.4251 -3.1060 2.0383
3.6644 -2.8202 2.0383
3.8798 -2.5159 2.0383
4.0699 -2.1953 2.0383
4.2334 -1.8603 2.0383
4.3693 -1.5131 2.0383
4.4767 -1.1562 2.0383
4.5549 -0.7917 2.0383
4.6033 -0.4222 2.0383
4.6217 -0.0500 2.0383
4.6100 0.3225 2.0383
4.5682 0.6927 2.0383
4.4966 1.0583 2.0383
4.3958 1.4168 2.0383
4.2663 1.7659 2.0383
4.1091 2.1034 2.0383
3.9252 2.4270 2.0383
3.7158 2.7346 2.0383
3.4823 3.0243 2.0383
3.2263 3.2941 2.0383
2.9494 3.5423 2.0383
2.6535 3.7673 2.0383
2.3405 3.9676 2.0383
0.7369 1.5168 0.7464
0.6123 1.5714 0.7467
0.4837 1.6157 0.7470
0.3519 1.6495 0.7472
0.2177 1.6725 0.7475
0.0822 1.6846 0.7477
-0.0539 1.6856 0.7478
-0.1897 1.6757 0.7480
-0.3241 1.6548 0.7481
-0.4565 1.6231 0.7482
-0.5858 1.5808 0.7482
-0.7112 1.5281 0.7483
-2.2664 3.9921 2.0383
-2.5806 3.7957 2.0383
-2.8779 3.5747 2.0383
-3.1565 3.3306 2.0383
-3.4146 3.0649 2.0383
-3.6504 2.7794 2.0383
-3.8626 2.4758 2.0383
-4.0497 2.1562 2.0383
-4.2104 1.8226 2.0383
-4.3439 1.4771 2.0383
-4.4492 1.1220 2.0383
-4.5256 0.7596 2.0383
-4.5727 0.3921 2.0383
-4.5901 0.0221 2.0383
-4.5776 -0.3482 2.0383
-4.5355 -0.7164 2.0383
-4.4638 -1.0800 2.0383
-4.3632 -1.4368 2.0383
-4.2341 -1.7844 2.0383
-4.0775 -2.1206 2.0383
-3.8943 -2.4431 2.0383
-3.6857 -2.7499 2.0383
-3.4530 -3.0390 2.0383
-3.1977 -3.3085 2.0383
-2.9215 -3.5566 2.0383
-2.6261 -3.7817 2.0383
-2.3135 -3.9824 2.0383
-0.7214 -1.5104 0.7405
-0.5973 -1.5635 0.7403
-0.4693 -1.6065 0.7400
-0.3383 -1.6390 0.7397
-0.2051 -1.6609 0.7395
-0.0706 -1.6721 0.7393
0.0644 -1.6724 0.7391
0.1989 -1.6619 0.7390
0.3322 -1.6406 0.7389
0.4634 -1.6087 0.7388
0.5916 -1.5664 0.7387
0.7160 -1.5139 0.7387
2.3060 -4.0052 2.0383
2.6216 -3.8070 2.0383
2.9201 -3.5839 2.0383
3.1996 -3.3374 2.0383
3.4584 -3.0690 2.0383
3.6946 -2.7806 2.0383
3.9067 -2.4741 2.0383
4.0933 -2.1513 2.0383
4.2532 -1.8146 2.0383
4.3853 -1.4660 2.0383
4.4889 -1.1079 2.0383
4.5631 -0.7426 2.0383
4.6075 -0.3726 2.0383
4.6219 -0.0002 2.0383
4.6062 0.3721 2.0383
4.5604 0.7418 2.0383
4.4848 1.1066 2.0383
4.3801 1.4640 2.0383
4.2469 1.8117 2.0383
4.0861 2.1474 2.0383
3.8987 2.4690 2.0383
3.6860 2.7744 2.0383
3.4494 3.0615 2.0383
3.1905 3.3285 2.0383
2.9110 3.5737 2.0383
2.6126 3.7955 2.0383
2.2975 3.9924 2.0383
0.7206 1.5246 0.7464
0.5954 1.5779 0.7467
0.4662 1.6208 0.7470
0.3341 1.6532 0.7473
0.1997 1.6748 0.7475
0.0640 1.6854 0.7477
-0.0721 1.6850 0.7479
-0.2077 1.6735 0.7480
-0.3419 1.6512 0.7481
-0.4739 1.6180 0.7482
-0.6028 1.5743 0.7483
-0.7276 1.5203 0.7483
-2.3092 3.9673 2.0383
-2.6213 3.7676 2.0383
-2.9162 3.5435 2.0383
-3.1922 3.2964 2.0383
-3.4474 3.0279 2.0383
-3.6801 2.7399 2.0383
-3.8890 2.4340 2.0383
-4.0727 2.1124 2.0383
-4.2299 1.7771 2.0383
-4.3596 1.4302 2.0383
-4.4611 1.0740 2.0383
-4.5336 0.7108 2.0383
-4.5767 0.3428 2.0383
-4.5901 -0.0274 2.0383
-4.5737 -0.3975 2.0383
-4.5276 -0.7652 2.0383
-4.4521 -1.1281 2.0383
0.6498 -1.4130 0.7391
0.7616 -1.3563 0.7391
2.3955 -3.5599 2.0383
2.6748 -3.3558 2.0383
2.9367 -3.1298 2.0383
3.1795 -2.8833 2.0383
3.4016 -2.6179 2.0383
3.6016 -2.3355 2.0383
3.7780 -2.0378 2.0383
3.9298 -1.7269 2.0383
4.0560 -1.4047 2.0383
4.1557 -1.0733 2.0383
4.2283 -0.7350 2.0383
4.2733 -0.3920 2.0383
4.2904 -0.0465 2.0383
4.2796 0.2993 2.0383
4.2408 0.6429 2.0383
4.1744 0.9823 2.0383
4.0808 1.3151 2.0383
3.9607 1.6392 2.0383
3.8148 1.9526 2.0383
3.6441 2.2530 2.0383
3.4498 2.5386 2.0383
3.2331 2.8076 2.0383
2.9955 3.0581 2.0383
2.7385 3.2886 2.0383
2.4638 3.4976 2.0383
2.1732 3.6837 2.0383
0.6841 1.4079 0.7462
0.5684 1.4585 0.7465
0.4490 1.4997 0.7467
0.3267 1.5310 0.7470
0.2022 1.5524 0.7472
0.0763 1.5636 0.7474
-0.0500 1.5646 0.7475
-0.1760 1.5553 0.7477
-0.3008 1.5359 0.7478
-0.4236 1.5065 0.7479
-0.5437 1.4672 0.7479
-0.6601 1.4184 0.7479
-0.7722 1.3603 0.7479
-2.3963 3.5248 2.0383
-2.6724 3.3196 2.0383
-2.9312 3.0929 2.0383
-3.1708 2.8462 2.0383
-3.3899 2.5810 2.0383
-3.5869 2.2991 2.0383
-3.7607 2.0023 2.0383
-3.9100 1.6925 2.0383
-4.0339 1.3717 2.0383
-4.1317 1.0419 2.0383
-4.2026 0.7053 2.0383
-4.2463 0.3641 2.0383
-4.2624 0.0204 2.0383
-4.2508 -0.3235 2.0383
-4.2116 -0.6654 2.0383
-4.1450 -1.0031 2.0383
-4.0515 -1.3344 2.0383
-3.9316 -1.6571 2.0383
-3.7861 -1.9692 2.0383
-3.6159 -2.2687 2.0383
-3.4222 -2.5535 2.0383
-3.2061 -2.8219 2.0383
-2.9690 -3.0721 2.0383
-2.7124 -3.3024 2.0383
-2.4381 -3.5114 2.0383
-0.7809 -1.3443 0.7410
-0.6699 -1.4027 0.7408
-0.5546 -1.4521 0.7405
-0.4358 -1.4920 0.7402
-0.3141 -1.5222 0.7400
-0.1904 -1.5426 0.7398
-0.0655 -1.5530 0.7396
0.0599 -1.5533 0.7394
0.1848 -1.5435 0.7393
0.3086 -1.5237 0.7392
0.4304 -1.4941 0.7391
0.5495 -1.4548 0.7391
0.6650 -1.4060 0.7391
0.7762 -1.3481 0.7391
2.4337 -3.5340 2.0383
2.7108 -3.3269 2.0383
2.9703 -3.0980 2.0383
3.2104 -2.8489 2.0383
3.4296 -2.5812 2.0383
3.6265 -2.2966 2.0383
3.7997 -1.9971 2.0383
3.9482 -1.6845 2.0383
4.0709 -1.3609 2.0383
4.1670 -1.0285 2.0383
4.2359 -0.6895 2.0383
4.2772 -0.3460 2.0383
4.2906 -0.0003 2.0383
4.2760 0.3453 2.0383
4.2335 0.6885 2.0383
4.1635 1.0271 2.0383
4.0663 1.3589 2.0383
3.9427 1.6817 2.0383
3.7934 1.9934 2.0383
3.6195 2.2920 2.0383
3.4222 2.5755 2.0383
3.2026 2.8421 2.0383
2.9623 3.0901 2.0383
2.7028 3.3178 2.0383
2.4259 3.5238 2.0383
0.7807 1.3565 0.7459
0.6689 1.4152 0.7462
0.5527 1.4646 0.7465
0.4328 1.5044 0.7468
0.3101 1.5344 0.7470
0.1854 1.5544 0.7472
0.0595 1.5643 0.7474
-0.0668 1.5639 0.7475
-0.1927 1.5533 0.7477
-0.3173 1.5326 0.7478
-0.4398 1.5018 0.7479
-0.5594 1.4612 0.7479
-0.6753 1.4111 0.7479
-2.1443 3.6842 2.0383
-2.4341 3.4987 2.0383
-2.7080 3.2906 2.0383
-2.9643 3.0611 2.0383
-3.2013 2.8119 2.0383
-3.4175 2.5444 2.0383
-3.6115 2.2603 2.0383
-3.7820 1.9617 2.0383
-3.9280 1.6503 2.0383
-4.0485 1.3281 2.0383
-4.1427 0.9973 2.0383
-4.2100 0.6600 2.0383
-4.2500 0.3183 2.0383
-4.2624 -0.0255 2.0383
-4.2472 -0.3693 2.0383
-4.2043 -0.7107 2.0383
-4.1341 -1.0477 2.0383
0.6055 -1.3167 0.7394
0.7097 -1.2638 0.7394
2.2313 -3.3157 2.0383
2.4914 -3.1256 2.0383
2.7353 -2.9150 2.0383
2.9615 -2.6854 2.0383
3.1683 -2.4383 2.0383
3.3545 -2.1753 2.0383
3.5189 -1.8980 2.0383
3.6602 -1.6084 2.0383
3.7778 -1.3083 2.0383
3.8706 -0.9997 2.0383
3.9383 -0.6847 2.0383
3.9802 -0.3652 2.0383
3.9962 -0.0434 2.0383
3.9861 0.2786 2.0383
3.9500 0.5987 2.0383
3.8882 0.9148 2.0383
3.8011 1.2248 2.0383
3.6893 1.5267 2.0383
3.5534 1.8186 2.0383
3.3945 2.0985 2.0383
3.2136 2.3645 2.0383
3.0118 2.6151 2.0383
2.7905 2.8485 2.0383
2.5511 3.0633 2.0383
2.2953 3.2580 2.0383
0.7407 1.2554 0.7457
0.6372 1.3111 0.7460
0.5294 1.3583 0.7463
0.4182 1.3966 0.7465
0.3043 1.4258 0.7467
0.1883 1.4457 0.7469
0.0712 1.4561 0.7471
-0.0465 1.4570 0.7472
-0.1638 1.4484 0.7474
-0.2801 1.4304 0.7475
-0.3944 1.4030 0.7476
-0.5062 1.3664 0.7476
-0.6147 1.3209 0.7476
-0.7191 1.2668 0.7476
-2.2325 3.2840 2.0383
-2.4898 3.0929 2.0383
-2.7309 2.8817 2.0383
-2.9542 2.6518 2.0383
-3.1583 2.4048 2.0383
-3.3419 2.1421 2.0383
-3.5038 1.8655 2.0383
-3.6429 1.5769 2.0383
-3.7584 1.2779 2.0383
-3.8494 0.9707 2.0383
-3.9155 0.6570 2.0383
-3.9562 0.3391 2.0383
-3.9712 0.0189 2.0383
-3.9603 -0.3015 2.0383
-3.9238 -0.6200 2.0383
-3.8617 -0.9346 2.0383
-3.7745 -1.2433 2.0383
-3.6628 -1.5440 2.0383
-3.5272 -1.8347 2.0383
-3.3686 -2.1137 2.0383
-3.1880 -2.3790 2.0383
-2.9866 -2.6290 2.0383
-2.7657 -2.8621 2.0383
-2.5267 -3.0766 2.0383
-2.2711 -3.2712 2.0383
-0.7275 -1.2526 0.7412
-0.6241 -1.3071 0.7409
-0.5167 -1.3530 0.7407
-0.4060 -1.3902 0.7405
-0.2926 -1.4184 0.7402
-0.1774 -1.4374 0.7400
-0.0610 -1.4471 0.7399
0.0558 -1.4474 0.7397
0.1723 -1.4383 0.7396
0.2876 -1.4198 0.7395
0.4011 -1.3922 0.7394
0.5120 -1.3556 0.7394
0.6197 -1.3101 0.7394
0.7233 -1.2561 0.7394
2.2668 -3.2915 2.0383
2.5249 -3.0986 2.0383
2.7666 -2.8854 2.0383
2.9902 -2.6534 2.0383
3.1944 -2.4041 2.0383
3.3777 -2.1391 2.0383
3.5391 -1.8601 2.0383
3.6773 -1.5689 2.0383
3.7916 -1.2676 2.0383
3.8811 -0.9580 2.0383
3.9453 -0.6422 2.0383
3.9838 -0.3223 2.0383
3.9963 -0.0004 2.0383
3.9828 0.3215 2.0383
3.9432 0.6412 2.0383
3.8780 0.9566 2.0383
3.7876 1.2656 2.0383
3.6725 1.5663 2.0383
3.5335 1.8567 2.0383
3.3716 2.1348 2.0383
3.1878 2.3989 2.0383
2.9833 2.6473 2.0383
2.7595 2.8783 2.0383
2.5179 3.0904 2.0383
2.2599 3.2824 2.0383
0.7272 1.2633 0.7458
0.6230 1.3179 0.7460
0.5148 1.3639 0.7463
0.4032 1.4010 0.7465
0.2889 1.4290 0.7468
0.1727 1.4476 0.7469
0.0555 1.4568 0.7471
-0.0622 1.4564 0.7473
-0.1794 1.4466 0.7474
-0.2954 1.4272 0.7475
-0.4095 1.3986 0.7476
-0.5209 1.3608 0.7476
-0.6289 1.3142 0.7476
-0.7327 1.2590 0.7476
-2.2677 3.2597 2.0383
-2.5229 3.0658 2.0383
-2.7617 2.8521 2.0383
-2.9826 2.6198 2.0383
-3.1840 2.3706 2.0383
-3.3648 2.1060 2.0383
-3.5237 1.8277 2.0383
-3.6597 1.5375 2.0383
-3.7719 1.2374 2.0383
-3.8597 0.9291 2.0383
-3.9224 0.6148 2.0383
-3.9597 0.2965 2.0383
-3.9712 -0.0239 2.0383
-3.9569 -0.3442 2.0383
-3.9170 -0.6623 2.0383
-3.8515 -0.9762 2.0383
0.5659 -1.2303 0.7396
0.6632 -1.1809 0.7396
0.7563 -1.1238 0.7397
2.3272 -2.9194 2.0383
2.5550 -2.7228 2.0383
2.7662 -2.5083 2.0383
2.9594 -2.2775 2.0383
3.1333 -2.0318 2.0383
3.2868 -1.7729 2.0383
3.4189 -1.5024 2.0383
3.5286 -1.2221 2.0383
3.6154 -0.9339 2.0383
3.6786 -0.6396 2.0383
3.7177 -0.3412 2.0383
3.7327 -0.0406 2.0383
3.7233 0.2601 2.0383
3.6897 0.5591 2.0383
3.6320 0.8544 2.0383
3.5506 1.1440 2.0383
3.4462 1.4260 2.0383
3.3194 1.6986 2.0383
3.1710 1.9601 2.0383
3.0020 2.2086 2.0383
2.8135 2.4427 2.0383
2.6068 2.6608 2.0383
2.3833 2.8614 2.0383
0.7841 1.1128 0.7453
0.6919 1.1725 0.7456
0.5952 1.2245 0.7458
0.4945 1.2686 0.7461
0.3907 1.3044 0.7463
0.2842 1.3316 0.7465
0.1760 1.3502 0.7467
0.0665 1.3599 0.7469
-0.0434 1.3608 0.7470
-0.1529 1.3527 0.7471
-0.2615 1.3359 0.7472
-0.3683 1.3103 0.7473
-0.4728 1.2762 0.7473
-0.5741 1.2337 0.7474
-0.6716 1.1832 0.7473
-0.7647 1.1250 0.7473
-2.3261 2.8897 2.0383
-2.5514 2.6924 2.0383
-2.7601 2.4777 2.0383
-2.9508 2.2468 2.0383
-3.1224 2.0014 2.0383
-3.2736 1.7430 2.0383
-3.4036 1.4733 2.0383
-3.5115 1.1939 2.0383
-3.5966 0.9068 2.0383
-3.6583 0.6138 2.0383
-3.6963 0.3168 2.0383
-3.7102 0.0176 2.0383
-3.7001 -0.2818 2.0383
-3.6659 -0.5794 2.0383
-3.6079 -0.8733 2.0383
-3.5264 -1.1617 2.0383
-3.4219 -1.4426 2.0383
-3.2952 -1.7142 2.0383
-3.1470 -1.9748 2.0383
-2.9782 -2.2227 2.0383
-2.7901 -2.4563 2.0383
-2.5836 -2.6739 2.0383
-2.3603 -2.8743 2.0383
-0.7719 -1.1119 0.7416
-0.6797 -1.1704 0.7414
-0.5831 -1.2213 0.7411
-0.4828 -1.2643 0.7409
-0.3793 -1.2991 0.7407
-0.2734 -1.3254 0.7405
-0.1657 -1.3432 0.7403
-0.0569 -1.3522 0.7401
0.0522 -1.3525 0.7400
0.1610 -1.3439 0.7399
0.2688 -1.3267 0.7398
0.3749 -1.3009 0.7397
0.4785 -1.2666 0.7396
0.5791 -1.2242 0.7396
0.6759 -1.1737 0.7396
0.7684 -1.1157 0.7397
2.3585 -2.8943 2.0383
2.5842 -2.6951 2.0383
2.7931 -2.4784 2.0383
2.9838 -2.2455 2.0383
3.1550 -1.9980 2.0383
3.3057 -1.7374 2.0383
3.4348 -1.4655 2.0383
3.5416 -1.1840 2.0383
3.6252 -0.8949 2.0383
3.6852 -0.6000 2.0383
3.7211 -0.3011 2.0383
3.7328 -0.0004 2.0383
3.7202 0.3002 2.0383
3.6833 0.5988 2.0383
3.6225 0.8934 2.0383
3.5380 1.1821 2.0383
3.4306 1.4630 2.0383
3.3008 1.7342 2.0383
3.1496 1.9940 2.0383
2.9779 2.2408 2.0383
2.7870 2.4728 2.0383
2.5779 2.6886 2.0383
2.3522 2.8869 2.0383
0.7721 1.1212 0.7454
0.6792 1.1799 0.7456
0.5820 1.2309 0.7459
0.4809 1.2738 0.7461
0.3766 1.3085 0.7463
0.2699 1.3346 0.7465
0.1614 1.3520 0.7467
0.0519 1.3605 0.7469
-0.0580 1.3602 0.7470
-0.1675 1.3510 0.7471
-0.2759 1.3330 0.7472
-0.3824 1.3062 0.7473
-0.4865 1.2710 0.7473
-0.5873 1.2274 0.7474
-0.6843 1.1758 0.7473
-2.1186 3.0456 2.0383
-2.3571 2.8645 2.0383
-2.5803 2.6647 2.0383
-2.7866 2.4477 2.0383
-2.9748 2.2149 2.0383
-3.1437 1.9676 2.0383
-3.2922 1.7076 2.0383
-3.4193 1.4365 2.0383
-3.5242 1.1560 2.0383
-3.6062 0.8680 2.0383
-3.6647 0.5744 2.0383
-3.6995 0.2769 2.0383
-3.7103 -0.0224 2.0383
-3.6969 -0.3217 2.0383
-3.6595 -0.6189 2.0383
-3.5983 -0.9122 2.0383
0.5300 -1.1524 0.7399
0.6212 -1.1061 0.7399
0.7084 -1.0526 0.7399
2.1791 -2.7335 2.0383
2.3924 -2.5494 2.0383
2.5901 -2.3486 2.0383
2.7710 -2.1325 2.0383
2.9338 -1.9024 2.0383
3.0775 -1.6600 2.0383
3.2012 -1.4067 2.0383
3.3040 -1.1443 2.0383
3.3852 -0.8745 2.0383
3.4443 -0.5989 2.0383
3.4811 -0.3195 2.0383
3.4951 -0.0381 2.0383
3.4863 0.2435 2.0383
3.4548 0.5234 2.0383
3.4008 0.7999 2.0383
3.3247 1.0710 2.0383
3.2270 1.3351 2.0383
3.1083 1.5904 2.0383
2.9693 1.8352 2.0383
2.8111 2.0680 2.0383
2.6347 2.2872 2.0383
2.4412 2.4915 2.0383
2.2319 2.6794 2.0383
0.7342 1.0419 0.7452
0.6479 1.0977 0.7455
0.5573 1.1464 0.7457
0.4631 1.1877 0.7459
0.3658 1.2212 0.7461
0.2662 1.2467 0.7463
0.1648 1.2640 0.7465
0.0623 1.2732 0.7466
-0.0405 1.2740 0.7468
-0.1431 1.2665 0.7469
-0.2448 1.2507 0.7470
-0.3448 1.2267 0.7470
-0.4426 1.1948 0.7471
-0.5374 1.1550 0.7471
-0.6287 1.1077 0.7471
-0.7159 1.0532 0.7471
-2.1785 2.7064 2.0383
-2.3895 2.5216 2.0383
-2.5849 2.3205 2.0383
-2.7635 2.1042 2.0383
-2.9242 1.8744 2.0383
-3.0659 1.6324 2.0383
-3.1876 1.3797 2.0383
-3.2887 1.1181 2.0383
-3.3683 0.8492 2.0383
-3.4261 0.5748 2.0383
-3.4617 0.2966 2.0383
-3.4747 0.0164 2.0383
-3.4652 -0.2640 2.0383
-3.4332 -0.5427 2.0383
-3.3788 -0.8180 2.0383
-3.3024 -1.0881 2.0383
-3.2046 -1.3511 2.0383
-3.0859 -1.6055 2.0383
-2.9470 -1.8496 2.0383
-2.7890 -2.0817 2.0383
-2.6127 -2.3003 2.0383
-2.4193 -2.5041 2.0383
-2.2102 -2.6917 2.0383
-0.7229 -1.0415 0.7417
-0.6366 -1.0963 0.7415
-0.5461 -1.1440 0.7413
-0.4521 -1.1842 0.7410
-0.3552 -1.2168 0.7408
-0.2560 -1.2415 0.7406
-0.1551 -1.2581 0.7405
-0.0532 -1.2665 0.7403
0.0490 -1.2668 0.7402
0.1509 -1.2588 0.7401
0.2518 -1.2427 0.7400
0.3512 -1.2185 0.7399
0.4482 -1.1864 0.7399
0.5424 -1.1466 0.7399
0.6331 -1.0994 0.7399
0.7197 -1.0450 0.7399
2.2084 -2.7100 2.0383
2.4197 -2.5235 2.0383
2.6153 -2.3206 2.0383
2.7938 -2.1025 2.0383
2.9541 -1.8708 2.0383
3.0952 -1.6268 2.0383
3.2161 -1.3722 2.0383
3.3161 -1.1087 2.0383
3.3944 -0.8380 2.0383
3.4506 -0.5618 2.0383
3.4842 -0.2821 2.0383
3.4952 -0.0005 2.0383
3.4834 0.2810 2.0383
3.4489 0.5606 2.0383
3.3920 0.8364 2.0383
3.3129 1.1067 2.0383
3.2123 1.3697 2.0383
3.0909 1.6237 2.0383
2.9493 1.8670 2.0383
2.7886 2.0981 2.0383
2.6098 2.3154 2.0383
2.4141 2.5175 2.0383
2.2028 2.7032 2.0383
0.7229 1.0497 0.7452
0.6360 1.1047 0.7455
0.5449 1.1524 0.7457
0.4503 1.1926 0.7459
0.3527 1.2250 0.7462
0.2527 1.2495 0.7463
0.1512 1.2657 0.7465
0.0486 1.2738 0.7467
-0.0542 1.2734 0.7468
-0.1568 1.2648 0.7469
-0.2582 1.2479 0.7470
-0.3580 1.2229 0.7470
-0.4554 1.1899 0.7471
-0.5498 1.1491 0.7471
-0.6406 1.1009 0.7471
-0.7272 1.0454 0.7471
-2.2075 2.6827 2.0383
-2.4165 2.4957 2.0383
-2.6098 2.2924 2.0383
-2.7861 2.0743 2.0383
-2.9442 1.8428 2.0383
-3.0833 1.5992 2.0383
-3.2023 1.3453 2.0383
-3.3005 1.0826 2.0383
-3.3773 0.8129 2.0383
-3.4322 0.5378 2.0383
-3.4647 0.2593 2.0383
-3.4748 -0.0211 2.0383
-3.4622 -0.3013 2.0383
-3.4272 -0.5797 2.0383
-3.3699 -0.8544 2.0383
0.4975 -1.0815 0.7401
0.5831 -1.0381 0.7401
0.6649 -0.9879 0.7401
0.7425 -0.9313 0.7402
2.2447 -2.3920 2.0383
2.4302 -2.2036 2.0383
2.5999 -2.0008 2.0383
2.7527 -1.7850 2.0383
2.8875 -1.5575 2.0383
3.0035 -1.3199 2.0383
3.1000 -1.0737 2.0383
3.1762 -0.8205 2.0383
3.2317 -0.5620 2.0383
3.2662 -0.2999 2.0383
3.2793 -0.0359 2.0383
3.2711 0.2283 2.0383
3.2416 0.4910 2.0383
3.1910 0.7504 2.0383
3.1196 1.0048 2.0383
3.0279 1.2526 2.0383
2.9166 1.4921 2.0383
2.7862 1.7219 2.0383
2.6378 1.9403 2.0383
2.4723 2.1460 2.0383
2.2908 2.3377 2.0383
0.7653 0.9187 0.7448
0.6889 0.9775 0.7451
0.6079 1.0299 0.7453
0.5229 1.0756 0.7456
0.4345 1.1142 0.7458
0.3433 1.1456 0.7460
0.2498 1.1696 0.7461
0.1547 1.1859 0.7463
0.0585 1.1944 0.7464
-0.0380 1.1952 0.7466
-0.1342 1.1881 0.7467
-0.2296 1.1733 0.7468
-0.3234 1.1509 0.7468
-0.4151 1.1209 0.7469
-0.5041 1.0836 0.7469
-0.5898 1.0392 0.7469
-0.6716 0.9881 0.7468
-0.7490 0.9305 0.7468
-2.2423 2.3664 2.0383
-2.4258 2.1776 2.0383
-2.5934 1.9747 2.0383
-2.7442 1.7590 2.0383
-2.8772 1.5319 2.0383
-2.9914 1.2948 2.0383
-3.0862 1.0493 2.0383
-3.1610 0.7969 2.0383
-3.2152 0.5394 2.0383
-3.2486 0.2782 2.0383
-3.2608 0.0153 2.0383
-3.2519 -0.2479 2.0383
-3.2218 -0.5094 2.0383
-3.1707 -0.7678 2.0383
-3.0990 -1.0212 2.0383
-3.0072 -1.2681 2.0383
-2.8957 -1.5068 2.0383
-2.7654 -1.7358 2.0383
-2.6170 -1.9536 2.0383
-2.4516 -2.1587 2.0383
-2.2701 -2.3500 2.0383
-0.7550 -0.9196 0.7421
-0.6784 -0.9775 0.7419
-0.5974 -1.0289 0.7416
-0.5125 -1.0737 0.7414
-0.4243 -1.1114 0.7412
-0.3333 -1.1420 0.7410
-0.2402 -1.1652 0.7408
-0.1455 -1.1808 0.7407
-0.0499 -1.1887 0.7405
0.0460 -1.1890 0.7404
0.1417 -1.1815 0.7403
0.2364 -1.1663 0.7402
0.3296 -1.1436 0.7401
0.4207 -1.1135 0.7401
0.5091 -1.0761 0.7401
0.5942 -1.0318 0.7401
0.6755 -0.9807 0.7401
0.7525 -0.9233 0.7402
2.2704 -2.3677 2.0383
2.4538 -2.1773 2.0383
2.6213 -1.9727 2.0383
2.7718 -1.7553 2.0383
2.9041 -1.5264 2.0383
3.0176 -1.2875 2.0383
3.1113 -1.0403 2.0383
3.1848 -0.7863 2.0383
3.2375 -0.5272 2.0383
3.2692 -0.2647 2.0383
3.2795 -0.0006 2.0383
3.2684 0.2635 2.0383
3.2361 0.5258 2.0383
3.1827 0.7847 2.0383
3.1085 1.0383 2.0383
3.0142 1.2851 2.0383
2.9002 1.5234 2.0383
2.7675 1.7517 2.0383
2.6167 1.9686 2.0383
2.4490 2.1725 2.0383
2.2654 2.3622 2.0383
0.7554 0.9269 0.7449
0.6783 0.9848 0.7451
0.5968 1.0364 0.7454
0.5113 1.0811 0.7456
0.4225 1.1188 0.7458
0.3309 1.1493 0.7460
0.2372 1.1722 0.7462
0.1419 1.1875 0.7463
0.0457 1.1950 0.7465
-0.0508 1.1947 0.7466
-0.1470 1.1866 0.7467
-0.2422 1.1708 0.7468
-0.3358 1.1473 0.7468
-0.4272 1.1163 0.7469
-0.5158 1.0781 0.7469
-0.6010 1.0328 0.7469
-0.6822 0.9808 0.7468
-0.7590 0.9224 0.7468
-2.2677 2.3421 2.0383
-2.4491 2.1514 2.0383
-2.6145 1.9467 2.0383
-2.7630 1.7293 2.0383
-2.8935 1.5008 2.0383
-3.0052 1.2625 2.0383
-3.0974 1.0160 2.0383
-3.1694 0.7628 2.0383
-3.2209 0.5047 2.0383
-3.2514 0.2432 2.0383
-3.2608 -0.0199 2.0383
-3.2491 -0.2829 2.0383
-3.2162 -0.5441 2.0383
-3.1623 -0.8019 2.0383
0.4678 -1.0168 0.7403
0.5482 -0.9760 0.7403
0.6252 -0.9288 0.7403
0.6980 -0.8756 0.7404
0.7664 -0.8167 0.7404
2.2842 -2.0711 2.0383
