ply
format ascii 1.0
element vertex 2150
property float32 x
property float32 y
property float32 z
end_header
-16.2953 5.9595 -2.0196
-16.5055 4.5707 -1.9935
-16.7243 3.2111 -1.9825
-16.9328 1.8570 -1.9835
-17.1372 0.4932 -1.9971
-17.3485 -0.8975 -2.0246
-17.5697 -2.3354 -2.0670
-17.8016 -3.8428 -2.1255
-18.0463 -5.4456 -2.2019
-18.3130 -7.1775 -2.2999
-15.3273 12.3464 -2.2941
-15.5899 10.6117 -2.1970
-15.8394 9.0098 -2.1220
-16.0625 7.4976 -2.0636
-15.3464 12.2201 -1.7284
-15.6075 10.4955 -1.6560
-15.8560 8.9013 -1.6001
-16.0788 7.3951 -1.5568
-16.2960 5.9599 -1.5261
-16.5062 4.5709 -1.5064
-16.7245 3.2110 -1.4980
-16.9330 1.8568 -1.4990
-17.1374 0.4929 -1.5094
-17.3487 -0.8979 -1.5305
-17.5702 -2.3360 -1.5629
-17.8021 -3.8435 -1.6074
-18.0467 -5.4465 -1.6657
-18.3136 -7.1786 -1.7404
-15.3272 12.3469 -1.7342
-15.5898 10.6120 -1.6605
-15.8393 9.0100 -1.6036
-16.0632 7.4981 -1.5594
-15.3462 12.2206 -1.1731
-15.6074 10.4959 -1.1236
-15.8559 8.9015 -1.0854
-16.0795 7.3956 -1.0559
-16.2968 5.9602 -1.0350
-16.5070 4.5711 -1.0216
-16.7247 3.2109 -1.0160
-16.9333 1.8566 -1.0168
-17.1377 0.4926 -1.0241
-17.3490 -0.8983 -1.0387
-17.5707 -2.3365 -1.0612
-17.8026 -3.8443 -1.0919
-18.0472 -5.4474 -1.1321
-18.3141 -7.1797 -1.1836
-15.3270 12.3474 -1.1771
-15.5897 10.6124 -1.1267
-15.8392 9.0102 -1.0878
-16.0639 7.4986 -1.0577
-15.3461 12.2211 -0.6197
-15.6072 10.4962 -0.5930
-15.8557 8.9018 -0.5725
-16.0802 7.3961 -0.5567
-16.2975 5.9605 -0.5455
-16.5077 4.5712 -0.5384
-16.7249 3.2108 -0.5356
-16.9335 1.8564 -0.5362
-17.1379 0.4923 -0.5405
-17.3492 -0.8987 -0.5487
-17.5712 -2.3371 -0.5611
-17.8031 -3.8450 -0.5781
-18.0477 -5.4483 -0.6003
-18.3146 -7.1808 -0.6287
-15.3269 12.3479 -0.6219
-15.5896 10.6127 -0.5947
-15.8391 9.0105 -0.5737
-16.0646 7.4991 -0.5576
-15.3459 12.2215 -0.0673
-15.6071 10.4965 -0.0634
-15.8556 8.9020 -0.0604
-16.0809 7.3966 -0.0582
-16.2982 5.9608 -0.0568
-16.5085 4.5714 -0.0561
-16.7252 3.2107 -0.0560
-16.9338 1.8562 -0.0565
-17.1381 0.4920 -0.0576
-17.3495 -0.8992 -0.0594
-17.5717 -2.3377 -0.0619
-17.8037 -3.8457 -0.0652
-18.0481 -5.4491 -0.0694
-18.3151 -7.1819 -0.0747
-15.3267 12.3484 -0.0676
-15.5895 10.6131 -0.0636
-15.8390 9.0107 -0.0606
-16.0653 7.4996 -0.0584
-15.3458 12.2220 0.4851
-15.6070 10.4969 0.4662
-15.8555 8.9022 0.4516
-16.0817 7.3970 0.4401
-16.2989 5.9611 0.4318
-16.5092 4.5715 0.4262
-16.7254 3.2106 0.4235
-16.9340 1.8560 0.4231
-17.1384 0.4917 0.4251
-17.3498 -0.8996 0.4297
-17.5722 -2.3382 0.4372
-17.8042 -3.8464 0.4476
-18.0486 -5.4500 0.4614
-18.3156 -7.1829 0.4792
-15.3266 12.3489 0.4866
-15.5894 10.6134 0.4674
-15.8389 9.0109 0.4525
-16.0661 7.5002 0.4408
8.4285 -15.4743 0.8636
10.6599 -7.1252 0.6212
12.4273 7.4056 0.7109
13.7236 13.5446 0.9566
-15.3457 12.2225 1.0382
-15.6069 10.4972 0.9965
-15.8554 8.9024 0.9643
-16.0824 7.3975 0.9393
-16.2997 5.9615 0.9212
-16.5099 4.5717 0.9093
-16.7256 3.2105 0.9037
-16.9342 1.8558 0.9035
-17.1386 0.4914 0.9085
-17.3500 -0.9000 0.9196
-17.5727 -2.3388 0.9370
-17.8047 -3.8472 0.9612
-18.0491 -5.4509 0.9930
-18.3161 -7.1840 1.0340
8.4515 -15.7273 0.8752
10.4180 -7.0490 0.6094
12.4653 7.3331 0.7106
13.7098 13.3790 0.9501
-15.3265 12.3494 1.0415
-15.5892 10.6138 0.9991
-15.8388 9.0112 0.9663
-16.0668 7.5006 0.9408
8.4102 -15.4389 1.3586
10.0194 -6.6968 0.9244
11.1549 1.5153 0.8650
6.3111 3.1024 0.5434
6.0421 3.6001 0.5444
5.7325 4.0737 0.5454
5.3845 4.5197 0.5463
5.0007 4.9349 0.5471
4.5839 5.3164 0.5479
4.6477 6.3601 0.6162
-15.3455 12.2230 1.5930
-15.6068 10.4976 1.5284
-15.8553 8.9027 1.4785
-16.0831 7.3980 1.4400
-16.3004 5.9618 1.4120
-16.5107 4.5719 1.3938
-16.7259 3.2105 1.3854
-16.9345 1.8556 1.3852
-17.1389 0.4911 1.3934
-17.3503 -0.9004 1.4109
-17.5732 -2.3394 1.4384
-17.8052 -3.8479 1.4764
-18.0495 -5.4518 1.5262
-18.3166 -7.1851 1.5904
8.3286 -15.4968 1.3597
9.7424 -6.5916 0.9023
11.1584 1.4516 0.8646
6.3284 3.0666 0.5433
6.0623 3.5659 0.5444
5.7555 4.0413 0.5453
5.4101 4.4893 0.5462
5.0287 4.9068 0.5471
4.6141 5.2907 0.5478
4.6337 6.2663 0.6096
-15.3263 12.3499 1.5982
-15.5891 10.6142 1.5325
-15.8387 9.0114 1.4816
-16.0675 7.5012 1.4423
-13.3302 -13.2396 2.0383
-12.2421 -14.2914 2.0383
-11.0718 -15.2547 2.0383
-9.8262 -16.1230 2.0383
-7.8765 -15.6273 1.8859
-6.6063 -16.2387 1.8859
-5.2888 -16.7471 1.8859
-4.1690 -18.1808 1.9994
-2.7512 -18.8497 2.0383
-1.2292 -19.0433 2.0383
0.3062 -19.1135 2.0383
1.8448 -19.0591 2.0383
3.3764 -18.8799 2.0383
4.8908 -18.5765 2.0383
5.9008 -16.7931 1.8859
7.2418 -16.2874 1.8859
8.5468 -15.6879 1.8877
9.8162 -15.0053 1.8924
11.0278 -14.2159 1.8967
12.1723 -13.3246 1.9007
13.2405 -12.3372 1.9044
14.2238 -11.2603 1.9076
9.8048 -6.5531 1.2394
16.0824 -8.9686 1.9343
16.9808 -7.7518 1.9603
17.7839 -6.4471 1.9862
18.4750 -5.0600 2.0113
18.9268 -3.5785 2.0228
19.1456 -2.0449 2.0226
19.2157 -0.4986 2.0200
19.1369 1.0444 2.0152
11.1341 1.5121 1.1823
18.5436 4.0581 1.9991
18.0391 5.4994 1.9880
5.3815 2.1269 0.6107
4.5958 2.2590 0.5411
4.3998 2.6213 0.5418
4.1745 2.9662 0.5425
4.2269 3.5476 0.5855
4.3363 4.2787 0.6474
4.4720 5.1860 0.7289
4.6476 6.3591 0.8398
9.9859 16.2634 2.0383
8.6310 16.9837 2.0383
7.2249 17.5913 2.0383
5.7769 18.0828 2.0383
4.2968 18.4558 2.0383
2.7942 18.7083 2.0383
1.2788 18.8395 2.0383
-0.2397 18.8491 2.0383
-1.7515 18.7377 2.0383
-3.2471 18.5064 2.0383
-4.7174 18.1576 2.0383
-6.1531 17.6937 2.0383
-7.5455 17.1182 2.0383
-8.8862 16.4350 2.0383
-10.1671 15.6490 2.0383
-11.3804 14.7651 2.0383
-12.5190 13.7891 2.0383
-13.4044 12.5663 2.0125
-13.6761 10.8938 1.9165
-14.2684 9.5977 1.8859
-14.9876 8.4157 1.8859
-15.6113 7.1812 1.8859
-16.1358 5.9016 1.8859
-16.5114 4.5720 1.8806
-16.7261 3.2104 1.8692
-16.9347 1.8554 1.8692
-17.1391 0.4908 1.8805
-17.1813 -0.8920 1.8859
-17.0655 -2.2723 1.8859
-16.8411 -3.6401 1.8859
-16.5092 -4.9872 1.8859
-16.3083 -6.3981 1.9137
-16.5784 -8.0977 2.0131
-16.0923 -9.5341 2.0383
-15.2943 -10.8118 2.0383
-14.3963 -12.0240 2.0383
-13.4033 -13.1627 2.0383
-12.3213 -14.2204 2.0383
-11.1565 -15.1901 2.0383
-9.9159 -16.0653 2.0383
-7.9637 -15.5807 1.8859
-6.6971 -16.1991 1.8859
-5.3827 -16.7149 1.8859
-4.1617 -17.6894 1.9481
-2.8573 -18.8315 2.0383
-1.3366 -19.0338 2.0383
0.1982 -19.1126 2.0383
1.7369 -19.0670 2.0383
3.2693 -18.8965 2.0383
4.7852 -18.6018 2.0383
5.8053 -16.8245 1.8859
7.1490 -16.3264 1.8859
8.4557 -15.7317 1.8873
9.7288 -15.0568 1.8920
10.9448 -14.2747 1.8964
12.0943 -13.3903 1.9004
13.1682 -12.4095 1.9041
14.1577 -11.3387 1.9074
9.7767 -6.6145 1.2406
16.0161 -9.0506 1.9325
16.9207 -7.8401 1.9584
17.7308 -6.5414 1.9844
18.4320 -5.1603 2.0097
18.9059 -3.6853 2.0227
19.1351 -2.1531 2.0227
19.2156 -0.6072 2.0203
19.1473 0.9365 2.0157
11.1395 1.4488 1.1820
18.5740 3.9550 1.9998
18.0789 5.4001 1.9889
5.4466 2.1171 0.6166
4.6239 2.2404 0.5428
4.4145 2.5964 0.5418
4.1912 2.9426 0.5425
4.2200 3.5014 0.5817
4.3279 4.2224 0.6425
4.4614 5.1150 0.7224
4.6335 6.2653 0.8307
10.0789 16.2088 2.0383
8.7279 16.9368 2.0383
7.3251 17.5524 2.0383
5.8797 18.0522 2.0383
4.4015 18.4335 2.0383
2.9002 18.6945 2.0383
1.3854 18.8343 2.0383
-0.1332 18.8524 2.0383
-1.6457 18.7494 2.0383
-3.1428 18.5266 2.0383
-4.6152 18.1859 2.0383
-6.0536 17.7300 2.0383
-7.4494 17.1621 2.0383
-8.7940 16.4862 2.0383
-10.0793 15.7074 2.0383
-11.2976 14.8302 2.0383
-12.4416 13.8605 2.0383
-13.3841 12.6902 2.0201
-13.6579 11.0061 1.9225
-14.2144 9.6786 1.8859
-14.9402 8.5005 1.8859
-15.5707 7.2694 1.8859
-10.5504 -10.4800 2.0383
-9.6859 -11.3088 2.0383
-8.7569 -12.0669 2.0383
-7.7689 -12.7492 2.0383
-6.7281 -13.3510 2.0383
-5.6408 -13.8683 2.0383
-4.5140 -14.2971 2.0383
-3.3548 -14.6345 2.0383
-2.1705 -14.8779 2.0383
-0.9688 -15.0252 2.0383
0.2425 -15.0751 2.0383
1.4555 -15.0269 2.0383
2.6621 -14.8806 2.0383
3.8544 -14.6366 2.0383
5.0243 -14.2963 2.0383
6.1641 -13.8616 2.0383
6.7225 -12.3381 1.8859
7.6998 -11.7691 1.8859
8.6283 -11.1218 1.8859
7.6527 -8.3766 1.5189
10.3414 -9.6353 1.8910
11.1036 -8.7898 1.8935
10.0696 -6.7298 1.6186
12.5453 -6.9959 1.9190
13.2027 -6.0269 1.9385
13.6967 -4.9653 1.9457
14.0748 -3.8549 1.9489
14.3488 -2.7131 1.9505
14.5161 -1.5506 1.9503
14.5751 -0.3785 1.9485
14.5257 0.7924 1.9450
11.3672 1.5434 1.5346
14.1078 3.0869 1.9333
13.7454 4.1898 1.9251
5.3813 2.1265 0.7759
4.5733 2.2476 0.6839
4.0578 2.4173 0.6346
4.1358 2.9384 0.6824
4.2268 3.5472 0.7431
4.3362 4.2781 0.8213
4.4719 5.1852 0.9244
4.6474 6.3581 1.0646
7.8796 12.8311 2.0383
6.8131 13.4043 2.0383
5.7054 13.8889 2.0383
4.5639 14.2823 2.0383
3.3960 14.5823 2.0383
2.2095 14.7873 2.0383
1.0121 14.8964 2.0383
-0.1886 14.9092 2.0383
-1.3849 14.8261 2.0383
-2.5692 14.6481 2.0383
-3.7342 14.3765 2.0383
-4.8724 14.0134 2.0383
-5.9769 13.5614 2.0383
-7.0409 13.0236 2.0383
-8.0578 12.4036 2.0383
-9.0215 11.7055 2.0383
-9.9261 10.9339 2.0383
-10.7662 10.0936 2.0383
-11.5366 9.1900 2.0383
-12.2328 8.2288 2.0383
-12.8506 7.2160 2.0383
-13.3862 6.1577 2.0383
-13.8364 5.0607 2.0383
-14.1984 3.9315 2.0383
-14.4702 2.7773 2.0383
-14.6498 1.6049 2.0383
-14.7363 0.4217 2.0383
-14.7289 -0.7651 2.0383
-14.6276 -1.9481 2.0383
-14.4328 -3.1201 2.0383
-14.1457 -4.2738 2.0383
-13.7677 -5.4020 2.0383
-13.3010 -6.4977 2.0383
-12.7483 -7.5538 2.0383
-12.1128 -8.5637 2.0383
-11.3981 -9.5210 2.0383
-10.6085 -10.4193 2.0383
-9.7488 -11.2528 2.0383
-8.8241 -12.0161 2.0383
-7.8401 -12.7039 2.0383
-6.8027 -13.3115 2.0383
-5.7185 -13.8348 2.0383
-4.5943 -14.2700 2.0383
-3.4371 -14.6139 2.0383
-2.2543 -14.8639 2.0383
-1.0536 -15.0180 2.0383
0.1573 -15.0748 2.0383
1.3704 -15.0335 2.0383
2.5778 -14.8940 2.0383
3.7713 -14.6569 2.0383
4.9431 -14.3233 2.0383
6.0852 -13.8952 2.0383
6.6523 -12.3750 1.8859
7.6327 -11.8117 1.8859
8.5649 -11.1697 1.8859
7.5514 -8.3601 1.5082
10.2854 -9.6922 1.8908
11.0524 -8.8513 1.8933
10.0376 -6.7908 1.6197
12.4962 -7.0613 1.9176
13.1599 -6.0974 1.9373
13.6664 -5.0419 1.9454
14.0516 -3.9340 1.9488
14.3330 -2.7940 1.9504
14.5079 -1.6327 1.9504
14.5745 -0.4608 1.9487
14.5327 0.7105 1.9453
11.3419 1.4748 1.5300
14.1295 3.0081 1.9338
13.7740 4.1137 1.9258
5.4464 2.1168 0.7835
4.6237 2.2401 0.6895
4.0527 2.3833 0.6316
4.1299 2.8992 0.6786
4.2199 3.5009 0.7383
4.3278 4.2219 0.8151
4.4613 5.1142 0.9161
4.6334 6.2643 1.0532
7.9527 12.7876 2.0383
6.8894 13.3669 2.0383
5.7843 13.8579 2.0383
4.6449 14.2578 2.0383
3.4787 14.5643 2.0383
2.2933 14.7760 2.0383
1.0964 14.8918 2.0383
-0.1044 14.9115 2.0383
-1.3012 14.8351 2.0383
-2.4866 14.6636 2.0383
-3.6532 14.3985 2.0383
-4.7935 14.0418 2.0383
-5.9006 13.5959 2.0383
-6.9676 13.0641 2.0383
-7.9881 12.4497 2.0383
-8.9557 11.7571 2.0383
-9.8647 10.9904 2.0383
-10.7094 10.1548 2.0383
-11.4849 9.2554 2.0383
-12.1865 8.2981 2.0383
-12.8098 7.2886 2.0383
-13.3513 6.2334 2.0383
-8.7181 -8.6609 2.0383
-8.0020 -9.3438 2.0383
-7.2327 -9.9679 2.0383
-6.4151 -10.5291 2.0383
-5.5542 -11.0235 2.0383
-4.6554 -11.4478 2.0383
-3.7244 -11.7989 2.0383
-2.7671 -12.0744 2.0383
-1.7895 -12.2722 2.0383
-0.7981 -12.3908 2.0383
0.2007 -12.4290 2.0383
1.2005 -12.3864 2.0383
2.1946 -12.2630 2.0383
3.1764 -12.0594 2.0383
4.1395 -11.7766 2.0383
5.0774 -11.4163 2.0383
5.9837 -10.9808 2.0383
6.7636 -10.3372 2.0119
7.1033 -9.1553 1.8859
7.6075 -8.3265 1.8344
8.4885 -7.9085 1.8859
9.1009 -7.2041 1.8859
9.6609 -6.4564 1.8872
10.1851 -5.6795 1.8935
10.6389 -4.8565 1.8985
11.0179 -3.9942 1.9023
11.3183 -3.1000 1.9049
11.5372 -2.1815 1.9061
11.6723 -1.2470 1.9060
11.7227 -0.3046 1.9045
11.6881 0.6373 1.9018
11.5693 1.5705 1.8978
11.3679 2.4870 1.8926
11.0866 3.3789 1.8862
5.3811 2.1262 0.9423
4.5732 2.2473 0.8305
4.0578 2.4170 0.7705
4.1357 2.9380 0.8283
4.2268 3.5467 0.9018
4.3361 4.2776 0.9965
4.4718 5.1845 1.1214
4.6473 6.3570 1.2912
6.4986 10.5808 2.0383
5.6205 11.0561 2.0383
4.7080 11.4587 2.0383
3.7671 11.7861 2.0383
2.8040 12.0366 2.0383
1.8251 12.2087 2.0383
0.8366 12.3017 2.0383
-0.1550 12.3152 2.0383
-1.1434 12.2493 2.0383
-2.1224 12.1048 2.0383
-3.0857 11.8829 2.0383
-4.0274 11.5850 2.0383
-4.9414 11.2134 2.0383
-5.8222 10.7706 2.0383
-6.6643 10.2594 2.0383
-7.4625 9.6835 2.0383
-8.2119 9.0463 2.0383
-8.9079 8.3520 2.0383
-9.5464 7.6050 2.0383
-10.1233 6.8100 2.0383
-10.6351 5.9721 2.0383
-11.0789 5.0965 2.0383
-11.4517 4.1885 2.0383
-11.7514 3.2539 2.0383
-11.9761 2.2985 2.0383
-12.1244 1.3281 2.0383
-12.1953 0.3487 2.0383
-12.1883 -0.6334 2.0383
-12.1033 -1.6123 2.0383
-11.9409 -2.5818 2.0383
-11.7018 -3.5359 2.0383
-11.3875 -4.4687 2.0383
-10.9997 -5.3741 2.0383
-10.5408 -6.2465 2.0383
-10.0134 -7.0803 2.0383
-9.4207 -7.8701 2.0383
-8.7663 -8.6109 2.0383
-8.0540 -9.2977 2.0383
-7.2883 -9.9261 2.0383
-6.4740 -10.4918 2.0383
-5.6160 -10.9911 2.0383
-4.7196 -11.4204 2.0383
-3.7907 -11.7767 2.0383
-2.8350 -12.0576 2.0383
-1.8587 -12.2609 2.0383
-0.8681 -12.3850 2.0383
0.1305 -12.4289 2.0383
1.1304 -12.3920 2.0383
2.1251 -12.2743 2.0383
3.1080 -12.0763 2.0383
4.0727 -11.7990 2.0383
5.0125 -11.4441 2.0383
5.9212 -11.0138 2.0383
6.7453 -10.4373 2.0241
7.0511 -9.1949 1.8859
7.5071 -8.3104 1.8215
8.4434 -7.9560 1.8859
9.0598 -7.2552 1.8859
9.6216 -6.5091 1.8867
10.1505 -5.7356 1.8931
10.6094 -4.9156 1.8982
10.9938 -4.0558 1.9021
11.2999 -3.1636 1.9047
11.5245 -2.2466 1.9060
11.6656 -1.3130 1.9060
11.7219 -0.3708 1.9047
11.6933 0.5714 1.9021
11.5803 1.5055 1.8981
11.3847 2.4233 1.8930
11.1089 3.3173 1.8867
5.4462 2.1164 0.9515
4.6236 2.2397 0.8373
4.0527 2.3830 0.7669
4.1299 2.8989 0.8238
4.2199 3.5005 0.8960
4.3277 4.2213 0.9890
4.4612 5.1135 1.1113
4.6333 6.2632 1.2773
6.5588 10.5447 2.0383
5.6833 11.0251 2.0383
4.7730 11.4328 2.0383
3.8339 11.7656 2.0383
2.8722 12.0215 2.0383
1.8942 12.1992 2.0383
0.9062 12.2978 2.0383
-0.0854 12.3168 2.0383
-1.0743 12.2565 2.0383
-2.0541 12.1175 2.0383
-3.0187 11.9009 2.0383
-3.9621 11.6084 2.0383
-4.8783 11.2419 2.0383
-5.7616 10.8039 2.0383
-6.6065 10.2975 2.0383
-7.4080 9.7260 2.0383
-8.1610 9.0929 2.0383
-8.8609 8.4025 2.0383
-9.5035 7.6591 2.0383
-10.0848 6.8673 2.0383
-10.6014 6.0323 2.0383
-11.0500 5.1591 2.0383
-7.4176 -7.3699 2.0383
-6.8072 -7.9497 2.0383
-6.1517 -8.4794 2.0383
-5.4554 -8.9552 2.0383
-4.7224 -9.3741 2.0383
-3.9574 -9.7333 2.0383
-3.1653 -10.0301 2.0383
-2.3511 -10.2625 2.0383
-1.5200 -10.4288 2.0383
-0.6774 -10.5278 2.0383
0.1712 -10.5585 2.0383
1.0203 -10.5206 2.0383
1.8644 -10.4141 2.0383
2.6978 -10.2396 2.0383
3.5150 -9.9981 2.0383
4.3106 -9.6909 2.0383
5.0793 -9.3200 2.0383
5.8158 -8.8877 2.0383
6.5153 -8.3968 2.0383
7.1572 -7.8331 2.0338
7.3315 -6.8301 1.9197
7.7213 -6.1117 1.8859
8.1902 -5.4733 1.8859
8.6056 -4.7986 1.8859
8.9649 -4.0922 1.8859
9.2656 -3.3589 1.8859
9.5055 -2.6035 1.8859
9.6832 -1.8311 1.8859
9.7974 -1.0468 1.8859
9.8475 -0.2561 1.8859
9.8330 0.5359 1.8859
9.7543 1.3238 1.8859
9.6118 2.1024 1.8859
9.4066 2.8665 1.8859
5.3809 2.1258 1.1102
4.5731 2.2470 0.9784
4.0577 2.4167 0.9076
4.1357 2.9376 0.9756
4.2267 3.5462 1.0620
4.3361 4.2770 1.1733
4.4717 5.1837 1.3201
4.5434 6.2140 1.4858
5.5221 8.9894 2.0383
4.7768 9.3949 2.0383
4.0020 9.7386 2.0383
3.2029 10.0187 2.0383
2.3847 10.2333 2.0383
1.5526 10.3815 2.0383
0.7122 10.4623 2.0383
-0.1312 10.4755 2.0383
-0.9721 10.4212 2.0383
-1.8053 10.2998 2.0383
-2.6254 10.1124 2.0383
-3.4272 9.8603 2.0383
-4.2057 9.5453 2.0383
-4.9561 9.1695 2.0383
-5.6737 8.7353 2.0383
-6.3540 8.2457 2.0383
-6.9928 7.7039 2.0383
-7.5861 7.1131 2.0383
-8.1304 6.4773 2.0383
-8.6223 5.8006 2.0383
-9.0586 5.0871 2.0383
-9.4369 4.3412 2.0383
-9.7547 3.5679 2.0383
-10.0100 2.7717 2.0383
-10.2012 1.9577 2.0383
-10.3273 1.1311 2.0383
-10.3872 0.2969 2.0383
-10.3807 -0.5397 2.0383
-10.3077 -1.3734 2.0383
-10.1685 -2.1990 2.0383
-9.9641 -3.0113 2.0383
-9.6954 -3.8052 2.0383
-9.3642 -4.5756 2.0383
-8.9724 -5.3177 2.0383
-8.5223 -6.0267 2.0383
-8.0167 -6.6980 2.0383
-7.4587 -7.3274 2.0383
-6.8516 -7.9106 2.0383
-6.1992 -8.4439 2.0383
-5.5055 -8.9236 2.0383
-4.7749 -9.3467 2.0383
-4.0121 -9.7101 2.0383
-3.2217 -10.0113 2.0383
-2.4089 -10.2483 2.0383
-1.5788 -10.4193 2.0383
-0.7368 -10.5230 2.0383
0.1115 -10.5586 2.0383
0.9608 -10.5255 2.0383
1.8054 -10.4238 2.0383
2.6397 -10.2541 2.0383
3.4583 -10.0172 2.0383
4.2556 -9.7146 2.0383
5.0263 -9.3481 2.0383
5.7653 -8.9200 2.0383
6.4675 -8.4331 2.0383
7.1282 -7.8904 2.0383
7.3200 -6.8970 1.9269
7.6865 -6.1551 1.8859
8.1590 -5.5193 1.8859
8.5783 -4.8471 1.8859
8.9416 -4.1428 1.8859
9.2464 -3.4111 1.8859
9.4907 -2.6571 1.8859
9.6728 -1.8857 1.8859
9.7915 -1.1022 1.8859
9.8461 -0.3117 1.8859
9.8361 0.4804 1.8859
9.7619 1.2688 1.8859
9.6238 2.0482 1.8859
9.4230 2.8135 1.8859
5.4460 2.1161 1.1211
4.6235 2.2394 0.9865
4.0526 2.3827 0.9034
4.1298 2.8985 0.9703
4.2198 3.5000 1.0552
4.3276 4.2207 1.1645
4.4611 5.1127 1.3083
4.5558 6.1577 1.4783
5.5731 8.9587 2.0383
4.8301 9.3684 2.0383
4.0573 9.7166 2.0383
3.2597 10.0011 2.0383
2.4426 10.2204 2.0383
1.6114 10.3733 2.0383
0.7714 10.4588 2.0383
-0.0720 10.4768 2.0383
-0.9133 10.4272 2.0383
-1.7471 10.3105 2.0383
-2.5683 10.1277 2.0383
-3.3716 9.8801 2.0383
-4.1519 9.5694 2.0383
-4.9045 9.1978 2.0383
-5.6245 8.7676 2.0383
-6.3075 8.2819 2.0383
-6.9494 7.7435 2.0383
-7.5460 7.1561 2.0383
-8.0939 6.5234 2.0383
-8.5895 5.8493 2.0383
-9.0299 5.1382 2.0383
-9.4123 4.3946 2.0383
-6.4454 -6.4047 2.0383
-5.9143 -6.9078 2.0383
-5.3441 -7.3671 2.0383
-4.7385 -7.7796 2.0383
-4.1012 -8.1425 2.0383
-3.4363 -8.4534 2.0383
-2.7481 -8.7100 2.0383
-2.0408 -8.9107 2.0383
-1.3190 -9.0540 2.0383
-0.5874 -9.1387 2.0383
0.1492 -9.1642 2.0383
0.8861 -9.1302 2.0383
1.6184 -9.0368 2.0383
2.3413 -8.8844 2.0383
3.0500 -8.6739 2.0383
3.7398 -8.4065 2.0383
4.4062 -8.0840 2.0383
5.0446 -7.7084 2.0383
5.6508 -7.2820 2.0383
6.2207 -6.8077 2.0383
6.7504 -6.2884 2.0383
7.2365 -5.7277 2.0383
7.5815 -5.0663 2.0133
7.7101 -4.2991 1.9487
7.8303 -3.5742 1.8998
8.0335 -2.9122 1.8859
8.2415 -2.2573 1.8859
8.3957 -1.5877 1.8859
8.4949 -0.9078 1.8859
8.5385 -0.2222 1.8859
8.5264 0.4645 1.8859
8.5463 1.1597 1.9055
8.6477 1.8913 1.9565
8.7529 2.6669 2.0234
5.3807 2.1255 1.2800
4.5730 2.2467 1.1280
4.0577 2.4163 1.0462
4.1356 2.9372 1.1245
4.2267 3.5458 1.2239
4.3360 4.2764 1.3521
4.4716 5.1829 1.5210
4.4991 6.1527 1.6950
4.7939 7.8029 2.0383
4.1475 8.1559 2.0383
3.4754 8.4554 2.0383
2.7819 8.6997 2.0383
2.0716 8.8873 2.0383
1.3492 9.0171 2.0383
0.6193 9.0884 2.0383
-0.1134 9.1010 2.0383
-0.8441 9.0549 2.0383
-1.5682 8.9505 2.0383
-2.2811 8.7886 2.0383
-2.9783 8.5704 2.0383
-3.6554 8.2974 2.0383
-4.3081 7.9714 2.0383
-4.9323 7.5946 2.0383
-5.5242 7.1695 2.0383
-6.0801 6.6988 2.0383
-6.5964 6.1854 2.0383
-7.0701 5.6329 2.0383
-7.4981 5.0445 2.0383
-7.8779 4.4241 2.0383
-8.2070 3.7755 2.0383
-8.4835 3.1030 2.0383
-8.7056 2.4105 2.0383
-8.8718 1.7026 2.0383
-8.9813 0.9835 2.0383
-9.0331 0.2580 2.0383
-9.0271 -0.4695 2.0383
-8.9632 -1.1945 2.0383
-8.8417 -1.9123 2.0383
-8.6633 -2.6185 2.0383
-8.4290 -3.3086 2.0383
-8.1404 -3.9781 2.0383
-7.7991 -4.6228 2.0383
-7.4071 -5.2386 2.0383
-6.9669 -5.8216 2.0383
-6.4812 -6.3678 2.0383
-5.9529 -6.8739 2.0383
-5.3853 -7.3364 2.0383
-4.7821 -7.7522 2.0383
-4.1469 -8.1187 2.0383
-3.4838 -8.4333 2.0383
-2.7971 -8.6938 2.0383
-2.0909 -8.8985 2.0383
-1.3700 -9.0458 2.0383
-0.6390 -9.1347 2.0383
0.0974 -9.1644 2.0383
0.8344 -9.1345 2.0383
1.5672 -9.0453 2.0383
2.2909 -8.8970 2.0383
3.0008 -8.6905 2.0383
3.6921 -8.4271 2.0383
4.3602 -8.1084 2.0383
5.0008 -7.7365 2.0383
5.6094 -7.3136 2.0383
6.1819 -6.8425 2.0383
6.7146 -6.3263 2.0383
7.2039 -5.7683 2.0383
7.5721 -5.1221 2.0185
7.7014 -4.3514 1.9527
7.8212 -3.6236 1.9025
8.0169 -2.9575 1.8859
8.2287 -2.3038 1.8859
8.3866 -1.6351 1.8859
8.4897 -0.9558 1.8859
8.5373 -0.2704 1.8859
8.5290 0.4164 1.8859
8.5394 1.1100 1.9024
8.6405 1.8386 1.9525
8.7454 2.6108 2.0181
5.4458 2.1157 1.2926
4.6234 2.2391 1.1372
4.0526 2.3824 1.0413
4.1298 2.8981 1.1184
4.2198 3.4995 1.2161
4.3276 4.2201 1.3419
4.4610 5.1119 1.5074
4.5139 6.1002 1.6875
4.8382 7.7762 2.0383
4.1938 8.1328 2.0383
3.5233 8.4362 2.0383
2.8312 8.6844 2.0383
2.1220 8.8760 2.0383
1.4002 9.0098 2.0383
0.6707 9.0853 2.0383
-0.0619 9.1020 2.0383
-0.7929 9.0600 2.0383
-1.5177 8.9597 2.0383
-2.2315 8.8018 2.0383
-2.9300 8.5875 2.0383
-3.6086 8.3183 2.0383
-4.2631 7.9960 2.0383
-4.8895 7.6227 2.0383
-5.4838 7.2009 2.0383
-6.0423 6.7332 2.0383
-6.5615 6.2228 2.0383
-7.0383 5.6729 2.0383
-7.4696 5.0869 2.0383
-7.8529 4.4686 2.0383
-8.1856 3.8219 2.0383
-5.6901 -5.6548 2.0383
-5.2207 -6.0985 2.0383
-4.7169 -6.5034 2.0383
-4.1819 -6.8668 2.0383
-3.6190 -7.1864 2.0383
-3.0319 -7.4601 2.0383
-2.4243 -7.6858 2.0383
-1.8000 -7.8621 2.0383
-1.1631 -7.9877 2.0383
-0.5176 -8.0616 2.0383
0.1321 -8.0833 2.0383
0.7820 -8.0526 2.0383
1.4277 -7.9695 2.0383
2.0651 -7.8344 2.0383
2.6898 -7.6481 2.0383
3.2978 -7.4118 2.0383
3.8850 -7.1270 2.0383
4.4475 -6.7954 2.0383
4.9816 -6.4191 2.0383
5.4836 -6.0006 2.0383
5.9503 -5.5427 2.0383
6.3784 -5.0483 2.0383
6.7651 -4.5206 2.0383
7.1079 -3.9632 2.0383
7.4043 -3.3797 2.0383
7.6524 -2.7740 2.0383
7.8506 -2.1502 2.0383
7.9974 -1.5124 2.0383
8.0921 -0.8648 2.0383
8.1339 -0.2118 2.0383
8.1225 0.4423 2.0383
8.0582 1.0931 2.0383
7.9413 1.7365 2.0383
7.7728 2.3680 2.0383
5.3805 2.1251 1.4519
4.5729 2.2463 1.2793
4.0576 2.4160 1.1865
4.1356 2.9369 1.2752
4.2266 3.5453 1.3878
4.3359 4.2758 1.5330
4.4715 5.1821 1.7244
4.7726 6.5257 2.0383
4.2294 6.8829 2.0383
3.6595 7.1950 2.0383
3.0669 7.4599 2.0383
2.4552 7.6763 2.0383
1.8287 7.8426 2.0383
1.1913 7.9579 2.0383
0.5472 8.0216 2.0383
-0.0995 8.0335 2.0383
-0.7446 7.9935 2.0383
-1.3840 7.9021 2.0383
-2.0136 7.7598 2.0383
-2.6294 7.5678 2.0383
-3.2275 7.3273 2.0383
-3.8042 7.0399 2.0383
-4.3558 6.7076 2.0383
-4.8789 6.3325 2.0383
-5.3701 5.9170 2.0383
-5.8265 5.4639 2.0383
-6.2452 4.9759 2.0383
-6.6235 4.4563 2.0383
-6.9592 3.9083 2.0383
-7.2501 3.3354 2.0383
-7.4944 2.7412 2.0383
-7.6906 2.1294 2.0383
-7.8374 1.5040 2.0383
-7.9340 0.8687 2.0383
-7.9796 0.2277 2.0383
-7.9740 -0.4150 2.0383
-7.9173 -1.0554 2.0383
-7.8096 -1.6894 2.0383
-7.6516 -2.3131 2.0383
-7.4443 -2.9224 2.0383
-7.1889 -3.5135 2.0383
-6.8869 -4.0826 2.0383
-6.5403 -4.6261 2.0383
-6.1510 -5.1405 2.0383
-5.7217 -5.6223 2.0383
-5.2548 -6.0686 2.0383
-4.7533 -6.4763 2.0383
-4.2204 -6.8427 2.0383
-3.6594 -7.1655 2.0383
-3.0739 -7.4424 2.0383
-2.4676 -7.6715 2.0383
-1.8443 -7.8513 2.0383
-1.2081 -7.9805 2.0383
-0.5632 -8.0581 2.0383
0.0865 -8.0835 2.0383
0.7365 -8.0565 2.0383
1.3826 -7.9770 2.0383
2.0207 -7.8455 2.0383
2.6464 -7.6628 2.0383
3.2557 -7.4300 2.0383
3.8445 -7.1485 2.0383
4.4089 -6.8201 2.0383
4.9451 -6.4469 2.0383
5.4495 -6.0313 2.0383
5.9187 -5.5761 2.0383
6.3497 -5.0841 2.0383
6.7394 -4.5586 2.0383
7.0853 -4.0032 2.0383
7.3850 -3.4214 2.0383
7.6366 -2.8172 2.0383
7.8383 -2.1945 2.0383
7.9888 -1.5576 2.0383
8.0872 -0.9105 2.0383
8.1326 -0.2578 2.0383
8.1250 0.3964 2.0383
8.0644 1.0477 2.0383
7.9512 1.6916 2.0383
7.7863 2.3241 2.0383
5.4456 2.1153 1.4661
4.6233 2.2388 1.2898
4.0526 2.3821 1.1810
4.1297 2.8978 1.2683
4.2197 3.4991 1.3790
4.3275 4.2195 1.5215
4.4609 5.1112 1.7090
4.6076 6.2260 1.9527
4.2684 6.8593 2.0383
3.7003 7.1746 2.0383
3.1091 7.4430 2.0383
2.4987 7.6627 2.0383
1.8731 7.8325 2.0383
1.2363 7.9515 2.0383
0.5925 8.0189 2.0383
-0.0541 8.0344 2.0383
-0.6995 7.9980 2.0383
-1.3394 7.9102 2.0383
-1.9698 7.7715 2.0383
-2.5867 7.5829 2.0383
-3.1862 7.3457 2.0383
-3.7645 7.0616 2.0383
-4.3180 6.7323 2.0383
-4.8431 6.3602 2.0383
-5.3367 5.9474 2.0383
-5.7957 5.4968 2.0383
-6.2171 5.0113 2.0383
-6.5983 4.4937 2.0383
-6.9370 3.9476 2.0383
-7.2311 3.3764 2.0383
-5.0854 -5.0546 2.0383
-4.6655 -5.4507 2.0383
-4.2149 -5.8122 2.0383
-3.7365 -6.1365 2.0383
-3.2333 -6.4216 2.0383
-2.7085 -6.6656 2.0383
-2.1654 -6.8667 2.0383
-1.6075 -7.0237 2.0383
-1.0385 -7.1353 2.0383
-0.4619 -7.2008 2.0383
0.1185 -7.2196 2.0383
0.6989 -7.1917 2.0383
1.2755 -7.1169 2.0383
1.8444 -6.9958 2.0383
2.4021 -6.8290 2.0383
2.9448 -6.6176 2.0383
3.4689 -6.3629 2.0383
3.9709 -6.0665 2.0383
4.4474 -5.7303 2.0383
4.8954 -5.3566 2.0383
5.3117 -4.9476 2.0383
5.6937 -4.5061 2.0383
6.0388 -4.0350 2.0383
6.3445 -3.5374 2.0383
6.6090 -3.0166 2.0383
6.8304 -2.4760 2.0383
7.0073 -1.9193 2.0383
7.1384 -1.3500 2.0383
7.2230 -0.7721 2.0383
7.2604 -0.1892 2.0383
7.2505 0.3946 2.0383
7.1933 0.9756 2.0383
7.0892 1.5499 2.0383
6.9391 2.1137 2.0383
5.3803 2.1247 1.6262
4.5728 2.2460 1.4329
4.0576 2.4157 1.3288
4.1355 2.9365 1.4281
4.2266 3.5448 1.5541
4.3358 4.2752 1.7165
4.7209 5.4704 2.0383
4.2630 5.8282 2.0383
3.7781 6.1477 2.0383
3.2694 6.4269 2.0383
2.7402 6.6641 2.0383
2.1940 6.8579 2.0383
1.6344 7.0070 2.0383
1.0650 7.1106 2.0383
0.4895 7.1682 2.0383
-0.0885 7.1793 2.0383
-0.6650 7.1441 2.0383
-1.2366 7.0629 2.0383
-1.7994 6.9362 2.0383
-2.3501 6.7650 2.0383
-2.8849 6.5504 2.0383
-3.4007 6.2939 2.0383
-3.8940 5.9971 2.0383
-4.3619 5.6619 2.0383
-4.8013 5.2907 2.0383
-5.2096 4.8857 2.0383
-5.5842 4.4495 2.0383
-5.9226 3.9849 2.0383
-6.2229 3.4949 2.0383
-6.4831 2.9826 2.0383
-6.7017 2.4513 2.0383
-6.8771 1.9042 2.0383
-7.0084 1.3448 2.0383
-7.0947 0.7768 2.0383
-7.1354 0.2035 2.0383
-7.1302 -0.3712 2.0383
-7.0792 -0.9439 2.0383
-6.9827 -1.5108 2.0383
-6.8411 -2.0684 2.0383
-6.6554 -2.6131 2.0383
-6.4267 -3.1414 2.0383
-6.1564 -3.6501 2.0383
-5.8462 -4.1356 2.0383
-5.4979 -4.5951 2.0383
-5.1137 -5.0255 2.0383
-4.6960 -5.4240 2.0383
-4.2475 -5.7880 2.0383
-3.7710 -6.1150 2.0383
-3.2694 -6.4029 2.0383
-2.7460 -6.6498 2.0383
-2.2041 -6.8540 2.0383
-1.6471 -7.0141 2.0383
-1.0787 -7.1290 2.0383
-0.5025 -7.1977 2.0383
0.0777 -7.2199 2.0383
0.6582 -7.1951 2.0383
1.2352 -7.1237 2.0383
1.8048 -7.0058 2.0383
2.3634 -6.8422 2.0383
2.9073 -6.6339 2.0383
3.4328 -6.3822 2.0383
3.9364 -6.0887 2.0383
4.4149 -5.7552 2.0383
4.8649 -5.3840 2.0383
5.2836 -4.9774 2.0383
5.6681 -4.5381 2.0383
6.0158 -4.0690 2.0383
6.3244 -3.5732 2.0383
6.5918 -3.0539 2.0383
6.8163 -2.5146 2.0383
6.9963 -1.9588 2.0383
7.1307 -1.3903 2.0383
7.2186 -0.8128 2.0383
7.2593 -0.2302 2.0383
7.2527 0.3537 2.0383
7.1988 0.9350 2.0383
7.0981 1.5099 2.0383
6.9511 2.0745 2.0383
5.4453 2.1150 1.6421
4.6232 2.2384 1.4446
4.0525 2.3818 1.3227
4.1297 2.8974 1.4203
4.1625 3.4512 1.5233
4.3274 4.2189 1.7036
4.7519 5.4439 2.0383
4.2961 5.8043 2.0383
3.8130 6.1265 2.0383
3.3058 6.4087 2.0383
2.7780 6.6489 2.0383
2.2329 6.8458 2.0383
1.6740 6.9980 2.0383
1.1052 7.1049 2.0383
0.5300 7.1656 2.0383
-0.0479 7.1800 2.0383
-0.6247 7.1481 2.0383
-1.1967 7.0701 2.0383
-1.7603 6.9466 2.0383
-2.3119 6.7785 2.0383
-2.8480 6.5669 2.0383
-3.3651 6.3132 2.0383
-3.8602 6.0192 2.0383
-4.3300 5.6865 2.0383
-4.7715 5.3179 2.0383
-5.1820 4.9152 2.0383
-5.5590 4.4811 2.0383
-5.9001 4.0184 2.0383
-6.2031 3.5301 2.0383
-6.4662 3.0192 2.0383
-4.5898 -4.5625 2.0383
-4.2105 -4.9198 2.0383
-3.8036 -5.2457 2.0383
-3.3716 -5.5381 2.0383
-2.9173 -5.7950 2.0383
-2.4435 -6.0148 2.0383
-1.9534 -6.1959 2.0383
-1.4499 -6.3371 2.0383
-0.9364 -6.4374 2.0383
-0.4162 -6.4960 2.0383
0.1073 -6.5126 2.0383
0.6308 -6.4870 2.0383
1.1508 -6.4192 2.0383
1.6639 -6.3095 2.0383
2.1668 -6.1588 2.0383
2.6561 -5.9679 2.0383
3.1285 -5.7379 2.0383
3.5810 -5.4704 2.0383
4.0106 -5.1671 2.0383
4.4143 -4.8298 2.0383
4.7896 -4.4610 2.0383
5.1339 -4.0628 2.0383
5.4448 -3.6380 2.0383
5.7204 -3.1893 2.0383
5.9588 -2.7198 2.0383
6.1584 -2.2324 2.0383
6.3178 -1.7305 2.0383
6.4361 -1.2173 2.0383
6.5124 -0.6962 2.0383
6.5462 -0.1707 2.0383
6.5374 0.3557 2.0383
6.4860 0.8795 2.0383
6.3924 1.3973 2.0383
6.2572 1.9057 2.0383
5.3801 2.1244 1.8032
4.5727 2.2457 1.5888
4.0576 2.4154 1.4734
4.1355 2.9361 1.5834
4.1416 3.4732 1.6884
4.6442 4.5786 2.0383
4.2586 4.9341 2.0383
3.8459 5.2571 2.0383
3.4087 5.5457 2.0383
2.9500 5.7980 2.0383
2.4727 6.0124 2.0383
1.9801 6.1876 2.0383
1.4752 6.3226 2.0383
0.9615 6.4165 2.0383
0.4422 6.4688 2.0383
-0.0794 6.4793 2.0383
-0.5998 6.4479 2.0383
-1.1157 6.3750 2.0383
-1.6239 6.2610 2.0383
-2.1210 6.1068 2.0383
-2.6040 5.9133 2.0383
-3.0697 5.6820 2.0383
-3.5153 5.4143 2.0383
-3.9378 5.1119 2.0383
-4.3347 4.7769 2.0383
-4.7035 4.4113 2.0383
-5.0419 4.0176 2.0383
-5.3476 3.5982 2.0383
-5.6188 3.1558 2.0383
-5.8539 2.6932 2.0383
-6.0512 2.2134 2.0383
-6.2097 1.7194 2.0383
-6.3282 1.2142 2.0383
-6.4060 0.7013 2.0383
-6.4427 0.1837 2.0383
-6.4379 -0.3353 2.0383
-6.3917 -0.8524 2.0383
-6.3043 -1.3642 2.0383
-6.1763 -1.8676 2.0383
-6.0084 -2.3593 2.0383
-5.8017 -2.8362 2.0383
-5.5574 -3.2953 2.0383
-5.2770 -3.7335 2.0383
-4.9623 -4.1481 2.0383
-4.6153 -4.5363 2.0383
-4.2381 -4.8957 2.0383
-3.8330 -5.2239 2.0383
-3.4027 -5.5187 2.0383
-2.9499 -5.7782 2.0383
-2.4774 -6.0006 2.0383
-1.9883 -6.1845 2.0383
-1.4856 -6.3285 2.0383
-0.9727 -6.4317 2.0383
-0.4529 -6.4933 2.0383
0.0706 -6.5128 2.0383
0.5942 -6.4902 2.0383
1.1145 -6.4253 2.0383
1.6282 -6.3186 2.0383
2.1319 -6.1707 2.0383
2.6222 -5.9825 2.0383
3.0960 -5.7553 2.0383
3.5500 -5.4904 2.0383
3.9812 -5.1895 2.0383
4.3869 -4.8546 2.0383
4.7642 -4.4878 2.0383
5.1108 -4.0917 2.0383
5.4241 -3.6686 2.0383
5.7023 -3.2216 2.0383
5.9433 -2.7534 2.0383
6.1457 -2.2671 2.0383
6.3079 -1.7661 2.0383
6.4291 -1.2536 2.0383
6.5084 -0.7330 2.0383
6.5452 -0.2077 2.0383
6.5394 0.3187 2.0383
6.4910 0.8429 2.0383
6.4003 1.3612 2.0383
6.2681 1.8704 2.0383
5.4451 2.1146 1.8209
4.6231 2.2381 1.6019
4.0525 2.3815 1.4666
4.1296 2.8970 1.5748
4.1013 3.4001 1.6640
4.6702 4.5525 2.0383
4.2866 4.9102 2.0383
3.8757 5.2356 2.0383
3.4402 5.5266 2.0383
2.9828 5.7815 2.0383
2.5068 5.9986 2.0383
2.0151 6.1766 2.0383
1.5110 6.3144 2.0383
0.9978 6.4112 2.0383
0.4787 6.4665 2.0383
-0.0428 6.4799 2.0383
-0.5634 6.4515 2.0383
-1.0797 6.3814 2.0383
-1.5885 6.2703 2.0383
-2.0865 6.1189 2.0383
-2.5706 5.9282 2.0383
-3.0376 5.6995 2.0383
-3.4847 5.4342 2.0383
-3.9090 5.1343 2.0383
-4.3078 4.8014 2.0383
-4.6786 4.4379 2.0383
-5.0191 4.0461 2.0383
-5.3272 3.6284 2.0383
-5.6010 3.1875 2.0383
-5.8386 2.7263 2.0383
-4.1755 -4.1512 2.0383
-3.8302 -4.4761 2.0383
-3.4599 -4.7723 2.0383
-3.0667 -5.0381 2.0383
-2.6533 -5.2715 2.0383
-2.2222 -5.4711 2.0383
-1.7762 -5.6355 2.0383
-1.3183 -5.7636 2.0383
-0.8512 -5.8545 2.0383
-0.3781 -5.9076 2.0383
0.0980 -5.9223 2.0383
0.5740 -5.8987 2.0383
1.0468 -5.8367 2.0383
1.5133 -5.7368 2.0383
0.7122 -2.0239 0.7367
2.4151 -5.4257 2.0383
2.8445 -5.2164 2.0383
3.2558 -4.9730 2.0383
3.6461 -4.6971 2.0383
4.0131 -4.3905 2.0383
4.3541 -4.0550 2.0383
4.6669 -3.6931 2.0383
4.9494 -3.3069 2.0383
5.1999 -2.8990 2.0383
5.4165 -2.4722 2.0383
5.5979 -2.0292 2.0383
5.7428 -1.5730 2.0383
5.8503 -1.1065 2.0383
5.9197 -0.6329 2.0383
5.9505 -0.1553 2.0383
5.9426 0.3231 2.0383
5.8960 0.7993 2.0383
5.8111 1.2700 2.0383
5.6884 1.7322 2.0383
5.5288 2.1828 2.0383
4.5726 2.2453 1.7475
4.0575 2.4151 1.6206
4.1354 2.9357 1.7414
4.5465 3.8122 2.0383
4.2231 4.1630 2.0383
3.8728 4.4864 2.0383
3.4976 4.7804 2.0383
3.1003 5.0431 2.0383
2.6833 5.2728 2.0383
2.2493 5.4681 2.0383
1.8014 5.6277 2.0383
1.3423 5.7508 2.0383
0.8750 5.8365 2.0383
0.4026 5.8844 2.0383
-0.0718 5.8943 2.0383
-0.5453 5.8660 2.0383
-1.0147 5.8000 2.0383
-1.4771 5.6965 2.0383
-1.9295 5.5565 2.0383
-2.3691 5.3807 2.0383
-2.7930 5.1704 2.0383
-3.1985 4.9269 2.0383
-3.5832 4.6520 2.0383
-3.9445 4.3472 2.0383
-4.2802 4.0146 2.0383
-4.5882 3.6563 2.0383
-4.8666 3.2747 2.0383
-5.1135 2.8721 2.0383
-5.3275 2.4511 2.0383
-5.5071 2.0144 2.0383
-5.6513 1.5647 2.0383
-5.7592 1.1050 2.0383
-5.8300 0.6381 2.0383
-5.8633 0.1670 2.0383
-5.8588 -0.3053 2.0383
-5.8166 -0.7759 2.0383
-5.7370 -1.2417 2.0383
-5.6203 -1.6998 2.0383
-5.4673 -2.1472 2.0383
-5.2790 -2.5811 2.0383
-5.0565 -2.9987 2.0383
-4.8012 -3.3973 2.0383
-4.5147 -3.7743 2.0383
-4.1987 -4.1274 2.0383
-3.8553 -4.4542 2.0383
-3.4866 -4.7525 2.0383
-3.0950 -5.0204 2.0383
-2.6829 -5.2562 2.0383
-2.2530 -5.4582 2.0383
-1.8080 -5.6252 2.0383
-1.3507 -5.7558 2.0383
-0.8842 -5.8494 2.0383
-0.4114 -5.9051 2.0383
0.0646 -5.9226 2.0383
0.5407 -5.9016 2.0383
1.0138 -5.8423 2.0383
1.4808 -5.7451 2.0383
0.7007 -2.0278 0.7367
2.3844 -5.4390 2.0383
2.8149 -5.2322 2.0383
3.2276 -4.9912 2.0383
3.6195 -4.7175 2.0383
3.9881 -4.4130 2.0383
4.3310 -4.0795 2.0383
4.6459 -3.7193 2.0383
4.9306 -3.3347 2.0383
5.1834 -2.9283 2.0383
5.4024 -2.5027 2.0383
5.5863 -2.0608 2.0383
5.7338 -1.6054 2.0383
5.8440 -1.1395 2.0383
5.9161 -0.6663 2.0383
5.9496 -0.1889 2.0383
5.9444 0.2896 2.0383
5.9006 0.7660 2.0383
5.8183 1.2372 2.0383
5.6982 1.7001 2.0383
5.5412 2.1516 2.0383
4.6230 2.2377 1.7619
4.0525 2.3812 1.6131
4.1296 2.8966 1.7319
4.5681 3.7866 2.0383
4.2468 4.1392 2.0383
3.8981 4.4649 2.0383
3.5247 4.7608 2.0383
3.1288 5.0257 2.0383
2.7131 5.2578 2.0383
2.2803 5.4555 2.0383
1.8332 5.6177 2.0383
1.3748 5.7434 2.0383
0.9080 5.8317 2.0383
0.4359 5.8823 2.0383
-0.0385 5.8948 2.0383
-0.5121 5.8693 2.0383
-0.9819 5.8058 2.0383
-1.4449 5.7050 2.0383
-1.8981 5.5675 2.0383
-2.3387 5.3942 2.0383
-2.7638 5.1863 2.0383
-3.1707 4.9451 2.0383
-3.5569 4.6722 2.0383
-3.9200 4.3695 2.0383
-4.2575 4.0388 2.0383
-4.5676 3.6823 2.0383
-4.8480 3.3022 2.0383
-5.0972 2.9010 2.0383
-5.3136 2.4812 2.0383
-3.8235 -3.8018 2.0383
-3.5072 -4.0991 2.0383
-3.1679 -4.3702 2.0383
-2.8077 -4.6134 2.0383
-2.4291 -4.8269 2.0383
-0.7390 -1.8199 0.7405
-0.5903 -1.8733 0.7400
-0.4378 -1.9146 0.7396
-0.2824 -1.9436 0.7392
-0.1253 -1.9601 0.7388
0.0326 -1.9640 0.7384
0.1904 -1.9552 0.7381
0.3469 -1.9338 0.7378
0.5013 -1.8999 0.7375
0.6525 -1.8538 0.7373
2.2107 -4.9657 2.0383
2.6036 -4.7740 2.0383
2.9799 -4.5511 2.0383
3.3370 -4.2985 2.0383
3.6727 -4.0178 2.0383
3.9847 -3.7108 2.0383
4.2708 -3.3795 2.0383
4.5293 -3.0260 2.0383
4.7584 -2.6528 2.0383
4.9566 -2.2622 2.0383
5.1225 -1.8569 2.0383
5.2552 -1.4394 2.0383
5.3536 -1.0126 2.0383
5.4171 -0.5793 2.0383
5.4454 -0.1422 2.0383
5.4382 0.2956 2.0383
5.3957 0.7313 2.0383
5.3181 1.1621 2.0383
5.2059 1.5850 2.0383
5.0600 1.9975 2.0383
4.8813 2.3966 2.0383
4.0575 2.4148 1.7706
4.3903 3.1162 2.0197
4.1616 3.4890 2.0383
3.8659 3.8103 2.0383
3.5453 4.1065 2.0383
3.2021 4.3758 2.0383
2.8385 4.6164 2.0383
2.4568 4.8269 2.0383
0.7543 1.8333 0.7465
0.6045 1.8881 0.7469
0.4508 1.9307 0.7474
0.2941 1.9606 0.7478
0.3691 5.3881 2.0383
-0.0654 5.3974 2.0383
-0.1833 1.9737 0.7489
-0.3414 1.9524 0.7492
-0.4973 1.9183 0.7495
-0.6498 1.8718 0.7497
-2.1694 4.9281 2.0383
-2.5578 4.7356 2.0383
-2.9293 4.5128 2.0383
-3.2817 4.2610 2.0383
-3.6128 3.9819 2.0383
-3.9204 3.6773 2.0383
-4.2026 3.3492 2.0383
-4.4577 2.9997 2.0383
-4.6839 2.6309 2.0383
-4.8800 2.2452 2.0383
-5.0446 1.8452 2.0383
-5.1767 1.4333 2.0383
-5.2755 1.0122 2.0383
-5.3403 0.5844 2.0383
-5.3707 0.1529 2.0383
-5.3665 -0.2798 2.0383
-5.3278 -0.7109 2.0383
-5.2547 -1.1375 2.0383
-5.1477 -1.5571 2.0383
-5.0075 -1.9669 2.0383
-4.8349 -2.3642 2.0383
-4.6309 -2.7466 2.0383
-4.3969 -3.1116 2.0383
-4.1343 -3.4568 2.0383
-3.8448 -3.7800 2.0383
-3.5302 -4.0791 2.0383
-3.1924 -4.3521 2.0383
-2.8336 -4.5973 2.0383
-2.4562 -4.8129 2.0383
-0.7493 -1.8157 0.7405
-0.6009 -1.8699 0.7401
-0.4486 -1.9121 0.7396
-0.2934 -1.9420 0.7392
-0.1364 -1.9594 0.7388
0.0216 -1.9641 0.7384
0.1794 -1.9562 0.7381
0.3360 -1.9357 0.7378
0.4906 -1.9027 0.7375
0.6420 -1.8574 0.7373
2.1826 -4.9780 2.0383
2.5765 -4.7885 2.0383
2.9541 -4.5678 2.0383
3.3126 -4.3172 2.0383
3.6499 -4.0384 2.0383
3.9636 -3.7332 2.0383
4.2516 -3.4035 2.0383
4.5121 -3.0515 2.0383
4.7433 -2.6796 2.0383
4.9437 -2.2902 2.0383
5.1120 -1.8858 2.0383
5.2470 -1.4691 2.0383
5.3478 -1.0428 2.0383
5.4138 -0.6098 2.0383
5.4445 -0.1730 2.0383
5.4399 0.2649 2.0383
5.3998 0.7008 2.0383
5.3247 1.1320 2.0383
5.2149 1.5557 2.0383
5.0713 1.9689 2.0383
4.8949 2.3691 2.0383
4.0524 2.3809 1.7624
4.4484 3.1199 2.0383
4.1814 3.4656 2.0383
3.8875 3.7885 2.0383
3.5686 4.0865 2.0383
3.2269 4.3578 2.0383
2.8646 4.6005 2.0383
2.4841 4.8132 2.0383
0.7646 1.8290 0.7464
0.6152 1.8847 0.7469
0.4617 1.9281 0.7474
0.3052 1.9590 0.7478
0.3995 5.3862 2.0383
-0.0349 5.3979 2.0383
-0.1722 1.9747 0.7489
-0.3304 1.9543 0.7492
-0.4864 1.9211 0.7495
-0.6393 1.8754 0.7497
-2.1416 4.9404 2.0383
-2.5310 4.7501 2.0383
-2.9038 4.5294 2.0383
-3.2577 4.2796 2.0383
-3.5903 4.0024 2.0383
-3.8996 3.6995 2.0383
-4.1837 3.3730 2.0383
-4.4407 3.0248 2.0383
-4.6690 2.6574 2.0383
-4.8672 2.2728 2.0383
-3.5203 -3.5008 2.0383
-3.2289 -3.7745 2.0383
-2.9164 -4.0240 2.0383
-2.5847 -4.2476 2.0383
-2.2360 -4.4441 2.0383
-0.6805 -1.6760 0.7407
-0.5435 -1.7252 0.7403
-0.4030 -1.7633 0.7399
-0.2600 -1.7900 0.7395
-0.1153 -1.8052 0.7391
0.0302 -1.8087 0.7388
0.1755 -1.8006 0.7385
0.3197 -1.7809 0.7382
0.4618 -1.7497 0.7380
0.6010 -1.7073 0.7378
0.7364 -1.6538 0.7376
2.3964 -4.3935 2.0383
2.7426 -4.1882 2.0383
3.0712 -3.9557 2.0383
3.3800 -3.6973 2.0383
3.6670 -3.4147 2.0383
3.9302 -3.1098 2.0383
4.1680 -2.7845 2.0383
4.3788 -2.4411 2.0383
4.5611 -2.0817 2.0383
4.7138 -1.7087 2.0383
4.8358 -1.3246 2.0383
4.9264 -0.9319 2.0383
4.9849 -0.5331 2.0383
5.0109 -0.1310 2.0383
5.0044 0.2719 2.0383
4.9653 0.6728 2.0383
4.8940 1.0692 2.0383
4.7909 1.4585 2.0383
4.6568 1.8380 2.0383
4.4925 2.2054 2.0383
4.2991 2.5582 2.0383
4.0779 2.8941 2.0383
3.8305 3.2110 2.0383
3.5584 3.5068 2.0383
3.2635 3.7795 2.0383
2.9477 4.0275 2.0383
2.6131 4.2492 2.0383
2.2619 4.4432 2.0383
0.6943 1.6871 0.7462
0.5564 1.7375 0.7467
0.4150 1.7766 0.7471
0.2708 1.8042 0.7475
0.1248 1.8201 0.7478
-0.0220 1.8241 0.7482
-0.1686 1.8163 0.7485
-0.3141 1.7966 0.7488
-0.4575 1.7653 0.7490
-0.5979 1.7224 0.7492
-0.7344 1.6684 0.7494
-2.3551 4.3610 2.0383
-2.6974 4.1559 2.0383
-3.0220 3.9241 2.0383
-3.3270 3.6672 2.0383
-3.6104 3.3867 2.0383
-3.8703 3.0846 2.0383
-4.1053 2.7627 2.0383
-4.3137 2.4230 2.0383
-4.4943 2.0679 2.0383
-4.6459 1.6994 2.0383
-4.7676 1.3200 2.0383
-4.8586 0.9321 2.0383
-4.9182 0.5382 2.0383
-4.9462 0.1407 2.0383
-4.9423 -0.2578 2.0383
-4.9066 -0.6548 2.0383
-4.8392 -1.0478 2.0383
-4.7405 -1.4341 2.0383
-4.6113 -1.8115 2.0383
-4.4522 -2.1774 2.0383
-4.2642 -2.5295 2.0383
-4.0486 -2.8655 2.0383
-3.8067 -3.1833 2.0383
-3.5400 -3.4808 2.0383
-3.2501 -3.7560 2.0383
-2.9390 -4.0073 2.0383
-2.6086 -4.2328 2.0383
-2.2610 -4.4312 2.0383
-0.6899 -1.6722 0.7408
-0.5532 -1.7221 0.7403
-0.4130 -1.7610 0.7399
-0.2701 -1.7885 0.7395
-0.1255 -1.8045 0.7392
0.0200 -1.8089 0.7388
0.1653 -1.8016 0.7385
0.3096 -1.7827 0.7382
0.4519 -1.7523 0.7380
0.5913 -1.7106 0.7378
0.7270 -1.6579 0.7376
2.3715 -4.4068 2.0383
2.7188 -4.2036 2.0383
3.0487 -3.9729 2.0383
3.3590 -3.7162 2.0383
3.6476 -3.4353 2.0383
3.9126 -3.1319 2.0383
4.1522 -2.8080 2.0383
4.3649 -2.4657 2.0383
4.5493 -2.1074 2.0383
4.7041 -1.7353 2.0383
4.8282 -1.3519 2.0383
4.9210 -0.9597 2.0383
4.9818 -0.5613 2.0383
5.0102 -0.1593 2.0383
5.0059 0.2436 2.0383
4.9691 0.6448 2.0383
4.9001 1.0416 2.0383
4.7992 1.4314 2.0383
4.6672 1.8117 2.0383
4.5050 2.1801 2.0383
4.3136 2.5340 2.0383
4.0943 2.8711 2.0383
3.8487 3.1894 2.0383
3.5783 3.4867 2.0383
3.2849 3.7612 2.0383
2.9705 4.0110 2.0383
2.6372 4.2345 2.0383
2.2871 4.4305 2.0383
0.7038 1.6831 0.7462
0.5662 1.7343 0.7466
0.4250 1.7743 0.7471
0.2810 1.8027 0.7474
0.1351 1.8193 0.7478
-0.0116 1.8242 0.7482
-0.1583 1.8172 0.7485
-0.3039 1.7984 0.7487
-0.4475 1.7678 0.7490
-0.5881 1.7258 0.7492
-0.7249 1.6726 0.7494
-2.3305 4.3744 2.0383
-2.6739 4.1712 2.0383
-2.9998 3.9412 2.0383
-3.3063 3.6860 2.0383
-3.5912 3.4071 2.0383
-3.8529 3.1065 2.0383
-4.0896 2.7859 2.0383
-4.3000 2.4474 2.0383
-4.4826 2.0933 2.0383
-3.2561 -3.2385 2.0383
-2.9864 -3.4915 2.0383
-2.6973 -3.7222 2.0383
-2.3904 -3.9289 2.0383
-0.7521 -1.4950 0.7414
-0.6294 -1.5506 0.7409
-0.5027 -1.5961 0.7405
-0.3727 -1.6314 0.7402
-0.2404 -1.6561 0.7398
-0.1065 -1.6701 0.7395
0.0281 -1.6734 0.7391
0.1625 -1.6659 0.7389
0.2959 -1.6477 0.7386
0.4274 -1.6188 0.7384
0.5561 -1.5795 0.7382
0.6814 -1.5300 0.7381
2.2159 -4.0621 2.0383
2.5359 -3.8723 2.0383
2.8397 -3.6572 2.0383
3.1251 -3.4182 2.0383
3.3904 -3.1569 2.0383
3.6337 -2.8750 2.0383
3.8535 -2.5743 2.0383
4.0483 -2.2568 2.0383
4.2169 -1.9245 2.0383
4.3580 -1.5797 2.0383
4.4708 -1.2246 2.0383
4.5545 -0.8616 2.0383
4.6086 -0.4930 2.0383
4.6327 -0.1212 2.0383
4.6268 0.2512 2.0383
4.5907 0.6219 2.0383
4.5249 0.9884 2.0383
4.4296 1.3483 2.0383
4.3057 1.6992 2.0383
4.1539 2.0389 2.0383
3.9752 2.3651 2.0383
3.7708 2.6758 2.0383
3.5421 2.9689 2.0383
3.2907 3.2425 2.0383
3.0181 3.4948 2.0383
2.7261 3.7242 2.0383
2.4168 3.9293 2.0383
0.7653 1.5030 0.7456
0.6420 1.5597 0.7460
0.5146 1.6063 0.7464
0.3838 1.6425 0.7468
0.2505 1.6680 0.7472
0.1155 1.6827 0.7475
-0.0202 1.6864 0.7478
-0.1557 1.6791 0.7481
-0.2902 1.6610 0.7484
-0.4228 1.6320 0.7486
-0.5527 1.5924 0.7488
-0.6788 1.5425 0.7489
-2.1785 4.0344 2.0383
-2.4952 3.8447 2.0383
-2.7955 3.6304 2.0383
-3.0778 3.3927 2.0383
-3.3400 3.1333 2.0383
-3.5806 2.8538 2.0383
-3.7980 2.5560 2.0383
-3.9909 2.2418 2.0383
-4.1580 1.9132 2.0383
-4.2983 1.5723 2.0383
-4.4109 1.2212 2.0383
-4.4950 0.8623 2.0383
-4.5502 0.4978 2.0383
-4.5760 0.1301 2.0383
-4.5724 -0.2387 2.0383
-4.5393 -0.6060 2.0383
-4.4768 -0.9695 2.0383
-4.3855 -1.3269 2.0383
-4.2658 -1.6760 2.0383
-4.1185 -2.0145 2.0383
-3.9445 -2.3401 2.0383
-3.7450 -2.6509 2.0383
-3.5211 -2.9448 2.0383
-3.2742 -3.2199 2.0383
-3.0060 -3.4744 2.0383
-2.7182 -3.7067 2.0383
-2.4125 -3.9152 2.0383
-0.7605 -1.4908 0.7414
-0.6381 -1.5470 0.7410
-0.5117 -1.5933 0.7406
-0.3819 -1.6292 0.7402
-0.2497 -1.6547 0.7398
-0.1159 -1.6695 0.7395
0.0186 -1.6735 0.7392
0.1531 -1.6668 0.7389
0.2865 -1.6493 0.7386
0.4182 -1.6212 0.7384
0.5472 -1.5826 0.7382
0.6727 -1.5338 0.7381
2.1929 -4.0744 2.0383
2.5140 -3.8865 2.0383
2.8189 -3.6731 2.0383
3.1057 -3.4358 2.0383
3.3725 -3.1760 2.0383
3.6174 -2.8954 2.0383
3.8389 -2.5960 2.0383
4.0355 -2.2796 2.0383
4.2059 -1.9483 2.0383
4.3490 -1.6043 2.0383
4.4638 -1.2498 2.0383
4.5496 -0.8873 2.0383
4.6058 -0.5190 2.0383
4.6320 -0.1474 2.0383
4.6282 0.2251 2.0383
4.5942 0.5960 2.0383
4.5304 0.9628 2.0383
4.4373 1.3233 2.0383
4.3153 1.6749 2.0383
4.1654 2.0155 2.0383
3.9886 2.3427 2.0383
3.7860 2.6545 2.0383
3.5590 2.9489 2.0383
3.3090 3.2239 2.0383
3.0379 3.4778 2.0383
2.7472 3.7089 2.0383
2.4391 3.9158 2.0383
0.7738 1.4986 0.7456
0.6508 1.5561 0.7460
0.5236 1.6034 0.7464
0.3930 1.6403 0.7468
0.2599 1.6666 0.7471
0.1250 1.6820 0.7475
-0.0106 1.6865 0.7478
-0.1462 1.6800 0.7481
-0.2808 1.6626 0.7484
-0.4136 1.6344 0.7486
-0.5436 1.5956 0.7488
-0.6701 1.5464 0.7489
-2.1557 4.0467 2.0383
-2.4734 3.8589 2.0383
-2.7750 3.6462 2.0383
-3.0586 3.4101 2.0383
-3.3223 3.1522 2.0383
-3.5644 2.8740 2.0383
-3.7835 2.5774 2.0383
-3.9782 2.2643 2.0383
-4.1471 1.9367 2.0383
-3.0234 -3.0074 2.0383
-2.7729 -3.2423 2.0383
-2.5043 -3.4564 2.0383
-2.2192 -3.6483 2.0383
-0.6983 -1.3885 0.7415
-0.5844 -1.4401 0.7411
-0.4667 -1.4824 0.7407
-0.3460 -1.5151 0.7404
-0.2231 -1.5381 0.7401
-0.0988 -1.5511 0.7397
0.0262 -1.5542 0.7395
0.1510 -1.5472 0.7392
0.2749 -1.5303 0.7390
0.3970 -1.5035 0.7388
0.5166 -1.4669 0.7386
0.6329 -1.4210 0.7384
0.7452 -1.3658 0.7383
2.3542 -3.5943 2.0383
2.6360 -3.3946 2.0383
2.9009 -3.1728 2.0383
3.1471 -2.9302 2.0383
3.3729 -2.6685 2.0383
3.5769 -2.3894 2.0383
3.7576 -2.0946 2.0383
3.9140 -1.7863 2.0383
4.0450 -1.4662 2.0383
4.1497 -1.1367 2.0383
4.2274 -0.7997 2.0383
4.2776 -0.4576 2.0383
4.3001 -0.1126 2.0383
4.2946 0.2331 2.0383
4.2612 0.5771 2.0383
4.2001 0.9173 2.0383
4.1118 1.2513 2.0383
3.9968 1.5771 2.0383
3.8560 1.8924 2.0383
3.6902 2.1953 2.0383
3.5006 2.4837 2.0383
3.2884 2.7558 2.0383
3.0550 3.0098 2.0383
2.8021 3.2442 2.0383
2.5311 3.4573 2.0383
2.2440 3.6478 2.0383
0.7105 1.3951 0.7454
0.5961 1.4477 0.7458
0.4778 1.4910 0.7462
0.3563 1.5245 0.7466
0.2326 1.5482 0.7469
0.1073 1.5618 0.7472
-0.0186 1.5653 0.7475
-0.1444 1.5585 0.7478
-0.2693 1.5417 0.7480
-0.3924 1.5148 0.7482
-0.5129 1.4781 0.7484
-0.6300 1.4318 0.7485
-0.7430 1.3761 0.7487
-2.3170 3.5706 2.0383
-2.5960 3.3716 2.0383
-2.8582 3.1509 2.0383
-3.1018 2.9101 2.0383
-3.3253 2.6505 2.0383
-3.5272 2.3739 2.0383
-3.7064 2.0821 2.0383
-3.8617 1.7769 2.0383
-3.9920 1.4602 2.0383
-4.0965 1.1342 2.0383
-4.1747 0.8008 2.0383
-4.2259 0.4623 2.0383
-4.2499 0.1207 2.0383
-4.2465 -0.2218 2.0383
-4.2156 -0.5629 2.0383
-4.1576 -0.9005 2.0383
-4.0727 -1.2325 2.0383
-3.9615 -1.5567 2.0383
-3.8246 -1.8710 2.0383
-3.6630 -2.1734 2.0383
-3.4775 -2.4620 2.0383
-3.2695 -2.7348 2.0383
-3.0402 -2.9902 2.0383
-2.7911 -3.2265 2.0383
-2.5237 -3.4421 2.0383
-2.2398 -3.6356 2.0383
-0.7062 -1.3845 0.7415
-0.5925 -1.4368 0.7411
-0.4751 -1.4797 0.7408
-0.3546 -1.5132 0.7404
-0.2318 -1.5368 0.7401
-0.1076 -1.5506 0.7398
0.0174 -1.5543 0.7395
0.1423 -1.5480 0.7392
0.2662 -1.5318 0.7390
0.3885 -1.5057 0.7388
0.5083 -1.4698 0.7386
0.6249 -1.4245 0.7384
0.7374 -1.3700 0.7383
2.3338 -3.6075 2.0383
2.6168 -3.4094 2.0383
2.8829 -3.1890 2.0383
3.1305 -2.9479 2.0383
3.3577 -2.6874 2.0383
3.5633 -2.4095 2.0383
3.7457 -2.1158 2.0383
3.9039 -1.8083 2.0383
4.0367 -1.4890 2.0383
4.1432 -1.1601 2.0383
4.2228 -0.8236 2.0383
4.2750 -0.4818 2.0383
4.2994 -0.1369 2.0383
4.2959 0.2088 2.0383
4.2644 0.5530 2.0383
4.2053 0.8935 2.0383
4.1189 1.2281 2.0383
4.0057 1.5545 2.0383
3.8667 1.8707 2.0383
3.7026 2.1745 2.0383
3.5146 2.4640 2.0383
3.3040 2.7373 2.0383
3.0721 2.9926 2.0383
2.8204 3.2284 2.0383
2.5507 3.4430 2.0383
2.2647 3.6352 2.0383
0.7183 1.3910 0.7454
0.6042 1.4443 0.7458
0.4862 1.4882 0.7462
0.3649 1.5225 0.7465
0.2413 1.5469 0.7469
0.1162 1.5612 0.7472
-0.0098 1.5653 0.7475
-0.1356 1.5593 0.7478
-0.2606 1.5432 0.7480
-0.3838 1.5170 0.7482
-0.5045 1.4810 0.7484
-0.6219 1.4353 0.7485
-0.7352 1.3803 0.7487
-2.2968 3.5837 2.0383
-2.5770 3.3863 2.0383
-2.8404 3.1671 2.0383
-3.0853 2.9276 2.0383
-3.3103 2.6693 2.0383
-3.5138 2.3938 2.0383
-3.6946 2.1030 2.0383
-3.8516 1.7987 2.0383
-2.8165 -2.8021 2.0383
-2.5831 -3.0209 2.0383
-2.3328 -3.2202 2.0383
-0.7525 -1.2373 0.7420
-0.6506 -1.2938 0.7416
-0.5444 -1.3419 0.7413
-0.4348 -1.3813 0.7409
-0.3223 -1.4118 0.7406
-0.2078 -1.4332 0.7403
-0.0920 -1.4454 0.7400
0.0245 -1.4482 0.7397
0.1408 -1.4417 0.7395
0.2562 -1.4259 0.7393
0.3700 -1.4009 0.7391
0.4815 -1.3669 0.7389
0.5898 -1.3241 0.7388
0.6944 -1.2726 0.7387
2.1927 -3.3475 2.0383
2.4552 -3.1615 2.0383
2.7019 -2.9548 2.0383
2.9311 -2.7289 2.0383
3.1413 -2.4851 2.0383
3.3312 -2.2252 2.0383
3.4996 -1.9507 2.0383
3.6452 -1.6635 2.0383
3.7671 -1.3655 2.0383
3.8646 -1.0586 2.0383
3.9370 -0.7448 2.0383
3.9838 -0.4263 2.0383
4.0047 -0.1050 2.0383
3.9996 0.2169 2.0383
3.9686 0.5373 2.0383
3.9117 0.8541 2.0383
3.8296 1.1652 2.0383
3.7226 1.4686 2.0383
3.5914 1.7623 2.0383
3.4371 2.0445 2.0383
3.2606 2.3131 2.0383
3.0630 2.5666 2.0383
2.8458 2.8033 2.0383
2.6102 3.0216 2.0383
2.3579 3.2202 2.0383
0.7640 1.2418 0.7449
0.6618 1.2992 0.7453
0.5552 1.3482 0.7457
0.4450 1.3885 0.7460
0.3320 1.4198 0.7464
0.2167 1.4418 0.7467
0.1001 1.4545 0.7470
-0.0172 1.4577 0.7472
-0.1344 1.4514 0.7475
-0.2507 1.4357 0.7477
-0.3653 1.4107 0.7479
-0.4775 1.3765 0.7481
-0.5866 1.3334 0.7482
-0.6918 1.2816 0.7483
-2.1586 3.3270 2.0383
-2.4187 3.1416 2.0383
-2.6630 2.9360 2.0383
-2.8900 2.7116 2.0383
-3.0983 2.4697 2.0383
-3.2865 2.2120 2.0383
-3.4535 1.9401 2.0383
-3.5982 1.6557 2.0383
-3.7196 1.3606 2.0383
-3.8171 1.0568 2.0383
-3.8899 0.7462 2.0383
-3.9376 0.4307 2.0383
-3.9599 0.1124 2.0383
-3.9567 -0.2068 2.0383
-3.9280 -0.5246 2.0383
-3.8738 -0.8392 2.0383
-3.7947 -1.1485 2.0383
-3.6910 -1.4506 2.0383
-3.5634 -1.7434 2.0383
-3.4127 -2.0252 2.0383
-3.2398 -2.2940 2.0383
-3.0460 -2.5482 2.0383
-2.8322 -2.7861 2.0383
-2.6001 -3.0061 2.0383
-2.3509 -3.2069 2.0383
-0.7595 -1.2331 0.7420
-0.6579 -1.2901 0.7417
-0.5520 -1.3388 0.7413
-0.4426 -1.3788 0.7410
-0.3303 -1.4100 0.7406
-0.2159 -1.4320 0.7403
-0.1001 -1.4448 0.7400
0.0163 -1.4483 0.7398
0.1327 -1.4425 0.7395
0.2482 -1.4273 0.7393
0.3621 -1.4030 0.7391
0.4737 -1.3696 0.7389
0.5823 -1.3273 0.7388
0.6872 -1.2765 0.7387
2.1738 -3.3597 2.0383
2.4373 -3.1752 2.0383
2.6851 -2.9699 2.0383
2.9156 -2.7453 2.0383
3.1272 -2.5028 2.0383
3.3186 -2.2439 2.0383
3.4885 -1.9704 2.0383
3.6357 -1.6841 2.0383
3.7594 -1.3867 2.0383
3.8586 -1.0804 2.0383
3.9327 -0.7670 2.0383
3.9814 -0.4487 2.0383
4.0041 -0.1276 2.0383
4.0008 0.1944 2.0383
3.9716 0.5149 2.0383
3.9166 0.8320 2.0383
3.8361 1.1436 2.0383
3.7309 1.4476 2.0383
3.6014 1.7421 2.0383
3.4487 2.0251 2.0383
3.2737 2.2947 2.0383
3.0776 2.5493 2.0383
2.8616 2.7872 2.0383
2.6273 3.0069 2.0383
2.3762 3.2069 2.0383
0.7710 1.2374 0.7449
0.6691 1.2955 0.7453
0.5628 1.3451 0.7457
0.4529 1.3860 0.7460
0.3400 1.4179 0.7463
0.2249 1.4406 0.7467
0.1083 1.4539 0.7469
-0.0090 1.4578 0.7472
-0.1262 1.4522 0.7475
-0.2425 1.4371 0.7477
-0.3573 1.4128 0.7479
-0.4697 1.3792 0.7481
-0.5791 1.3367 0.7482
-0.6846 1.2855 0.7483
-2.1398 3.3392 2.0383
-2.4009 3.1553 2.0383
