ply
format ascii 1.0
element vertex 2176
property float32 x
property float32 y
property float32 z
end_header
-4.6394 3.6462 1.8860
-4.9135 3.2576 1.8860
-5.1558 2.8490 1.8860
-5.3650 2.4228 1.8860
-5.9875 2.1419 2.0384
-6.1382 1.6519 2.0384
-6.2497 1.1517 2.0384
-6.3215 0.6444 2.0384
-6.3531 0.1330 2.0384
-6.3443 -0.3793 2.0384
-6.2951 -0.8894 2.0384
-6.2058 -1.3943 2.0384
-6.0769 -1.8908 2.0384
-5.9092 -2.3759 2.0384
-5.7035 -2.8465 2.0384
-5.4610 -3.2999 2.0384
-5.1832 -3.7330 2.0384
-4.8717 -4.1432 2.0384
-4.5282 -4.5279 2.0384
-4.1548 -4.8846 2.0384
-3.7538 -5.2109 2.0384
-3.3274 -5.5047 2.0384
-2.8784 -5.7640 2.0384
-2.4094 -5.9869 2.0384
-1.9233 -6.1720 2.0384
-1.4232 -6.3179 2.0384
-0.9121 -6.4233 2.0384
-0.3934 -6.4875 2.0384
0.1296 -6.5099 2.0384
0.6536 -6.4900 2.0384
1.1752 -6.4278 2.0384
1.6907 -6.3235 2.0384
2.1970 -6.1776 2.0384
2.6905 -5.9909 2.0384
3.1679 -5.7644 2.0384
3.6260 -5.4995 2.0384
4.0615 -5.1978 2.0384
4.4715 -4.8612 2.0384
4.7213 -4.3699 1.9830
4.8240 -3.7937 1.8897
5.1077 -3.3908 1.8860
5.3678 -2.9724 1.8860
5.5929 -2.5337 1.8860
5.7814 -2.0779 1.8860
5.9319 -1.6079 1.8860
6.0434 -1.1270 1.8860
6.1150 -0.6385 1.8860
6.1464 -0.1458 1.8860
6.1372 0.3479 1.8860
6.0875 0.8389 1.8860
5.9977 1.3241 1.8860
5.8686 1.8001 1.8860
5.7009 2.2636 1.8860
5.4960 2.7115 1.8860
5.3553 3.2004 1.9218
5.3832 3.8353 2.0384
5.0517 4.2498 2.0384
4.6879 4.6355 2.0384
4.2944 4.9899 2.0384
3.8740 5.3106 2.0384
3.4294 5.5958 2.0384
2.9639 5.8435 2.0384
2.4806 6.0524 2.0384
1.9828 6.2213 2.0384
1.4737 6.3493 2.0384
0.9569 6.4357 2.0384
0.4356 6.4801 2.0384
-0.0867 6.4824 2.0384
-0.6067 6.4430 2.0384
-1.1210 6.3622 2.0384
-1.6264 6.2407 2.0384
-2.1197 6.0794 2.0384
-2.5979 5.8797 2.0384
-3.0580 5.6429 2.0384
-3.4972 5.3706 2.0384
-3.9129 5.0647 2.0384
-4.1128 4.5188 1.9485
-4.3151 4.0344 1.8860
-4.6211 3.6699 1.8860
-4.8971 3.2828 1.8860
-5.1415 2.8753 1.8860
-5.3528 2.4502 1.8860
-5.9767 2.1724 2.0384
-6.1298 1.6831 2.0384
-6.2439 1.1835 2.0384
-6.3182 0.6766 2.0384
-6.3523 0.1654 2.0384
-6.3460 -0.3470 2.0384
-6.2994 -0.8574 2.0384
-6.2126 -1.3627 2.0384
-6.0862 -1.8598 2.0384
-5.9209 -2.3457 2.0384
-5.7176 -2.8173 2.0384
-5.4774 -3.2718 2.0384
-5.2018 -3.7063 2.0384
-4.8923 -4.1181 2.0384
-4.5508 -4.5044 2.0384
-4.1792 -4.8629 2.0384
-3.7798 -5.1912 2.0384
-3.3550 -5.4871 2.0384
-2.9073 -5.7486 2.0384
-2.4395 -5.9740 2.0384
-1.9544 -6.1615 2.0384
-1.4551 -6.3098 2.0384
-0.9446 -6.4179 2.0384
-0.4263 -6.4847 2.0384
0.0966 -6.5097 2.0384
0.6206 -6.4925 2.0384
1.1424 -6.4329 2.0384
1.6585 -6.3313 2.0384
2.1654 -6.1880 2.0384
2.6598 -6.0039 2.0384
3.1384 -5.7798 2.0384
3.5977 -5.5173 2.0384
4.0348 -5.2179 2.0384
4.4465 -4.8834 2.0384
4.7271 -4.4200 1.9950
4.7950 -3.8103 1.8860
5.0902 -3.4165 1.8860
5.3524 -2.9994 1.8860
5.5798 -2.5619 1.8860
5.7706 -2.1071 1.8860
5.9235 -1.6379 1.8860
6.0375 -1.1576 1.8860
6.1117 -0.6695 1.8860
6.1456 -0.1769 1.8860
6.1389 0.3168 1.8860
6.0918 0.8081 1.8860
6.0046 1.2938 1.8860
5.8779 1.7704 1.8860
5.7126 2.2348 1.8860
5.5100 2.6837 1.8860
5.3425 3.1562 1.9113
5.4030 3.8082 2.0384
5.0736 4.2245 2.0384
4.7118 4.6121 2.0384
4.3201 4.9685 2.0384
3.9012 5.2914 2.0384
3.4581 5.5789 2.0384
2.9938 5.8290 2.0384
2.5116 6.0404 2.0384
2.0145 6.2119 2.0384
1.5061 6.3424 2.0384
0.9896 6.4314 2.0384
0.4685 6.4785 2.0384
-0.0538 6.4835 2.0384
-0.5740 6.4467 2.0384
-1.0888 6.3685 2.0384
0.3074 5.8974 2.0384
-0.1675 5.8933 2.0384
-0.6399 5.8511 2.0384
-1.1067 5.7713 2.0384
-1.5649 5.6546 2.0384
-2.0118 5.5019 2.0384
-2.4444 5.3143 2.0384
-2.8602 5.0931 2.0384
-3.2566 4.8398 2.0384
-3.6312 4.5562 2.0384
-3.9817 4.2441 2.0384
-4.2339 3.8401 2.0042
-4.3347 3.3366 1.9199
-4.5046 2.9216 1.8860
-4.7219 2.5474 1.8860
-4.9088 2.1574 1.8860
-5.4735 1.8957 2.0384
-5.6065 1.4480 2.0384
-5.7037 0.9913 2.0384
-5.7646 0.5285 2.0384
-5.7887 0.0622 2.0384
-5.7759 -0.4045 2.0384
-5.7263 -0.8688 2.0384
-5.6402 -1.3280 2.0384
-5.5180 -1.7791 2.0384
-5.3604 -2.2194 2.0384
-5.1683 -2.6462 2.0384
-4.9430 -3.0567 2.0384
-4.6855 -3.4484 2.0384
-4.3976 -3.8188 2.0384
-4.0808 -4.1656 2.0384
-3.7371 -4.4865 2.0384
-3.3685 -4.7794 2.0384
-2.9772 -5.0424 2.0384
-2.5657 -5.2736 2.0384
-0.7795 -1.9964 0.7438
-1.6920 -5.6347 2.0384
-1.2354 -5.7620 2.0384
-0.7693 -5.8524 2.0384
-0.2968 -5.9051 2.0384
0.1792 -5.9197 2.0384
0.6555 -5.8959 2.0384
1.1290 -5.8337 2.0384
1.5966 -5.7333 2.0384
0.7401 -2.0149 0.7340
2.5017 -5.4201 2.0384
2.9331 -5.2091 2.0384
3.3465 -4.9635 2.0384
3.7389 -4.6848 2.0384
4.1078 -4.3747 2.0384
4.4505 -4.0353 2.0384
4.6162 -3.5544 1.9749
4.6706 -3.0322 1.8860
4.9025 -2.6496 1.8860
5.1025 -2.2491 1.8860
5.2691 -1.8334 1.8860
5.4012 -1.4052 1.8860
5.4977 -0.9676 1.8860
5.5581 -0.5235 1.8860
5.5820 -0.0759 1.8860
5.5691 0.3722 1.8860
5.5195 0.8175 1.8860
5.4337 1.2572 1.8860
5.3122 1.6881 1.8860
5.1560 2.1074 1.8860
5.1528 2.6067 1.9568
5.1274 3.1344 2.0384
4.8542 3.5321 2.0384
4.5498 3.9059 2.0384
4.2163 4.2533 2.0384
3.8560 4.5720 2.0384
3.4715 4.8600 2.0384
3.0654 5.1156 2.0384
2.6405 5.3371 2.0384
2.1997 5.5233 2.0384
1.7460 5.6730 2.0384
1.2823 5.7854 2.0384
0.8117 5.8600 2.0384
0.3374 5.8964 2.0384
-0.1376 5.8946 2.0384
-0.6102 5.8548 2.0384
-1.0774 5.7774 2.0384
-1.5363 5.6630 2.0384
-1.9840 5.5126 2.0384
-2.4176 5.3271 2.0384
-2.8346 5.1080 2.0384
-3.2323 4.8567 2.0384
-3.6083 4.5750 2.0384
-3.9604 4.2646 2.0384
-4.2271 3.8732 2.0102
-4.3290 3.3675 1.9248
-4.4899 2.9446 1.8860
-4.7090 2.5715 1.8860
-4.8979 2.1824 1.8860
-5.4639 1.9236 2.0384
-5.5992 1.4766 2.0384
-5.6987 1.0203 2.0384
-5.7618 0.5578 2.0384
-5.7882 0.0917 2.0384
-5.7778 -0.3751 2.0384
-5.7305 -0.8397 2.0384
-5.6467 -1.2992 2.0384
-5.5267 -1.7510 2.0384
-5.3714 -2.1920 2.0384
-5.1815 -2.6197 2.0384
-4.9581 -3.0313 2.0384
-4.7027 -3.4243 2.0384
-4.4166 -3.7961 2.0384
-4.1016 -4.1445 2.0384
-3.7595 -4.4671 2.0384
-3.3924 -4.7618 2.0384
-3.0025 -5.0267 2.0384
-2.5922 -5.2600 2.0384
-2.1640 -5.4600 2.0384
-1.7205 -5.6255 2.0384
-1.2645 -5.7550 2.0384
-0.7989 -5.8478 2.0384
-0.3267 -5.9029 2.0384
0.1491 -5.9199 2.0384
0.6255 -5.8986 2.0384
1.0993 -5.8387 2.0384
1.5673 -5.7407 2.0384
0.7299 -2.0186 0.7341
2.4740 -5.4322 2.0384
2.9064 -5.2235 2.0384
3.3210 -4.9800 2.0384
3.7148 -4.7033 2.0384
4.0853 -4.3952 2.0384
4.4297 -4.0575 2.0384
4.6194 -3.5942 1.9841
4.6550 -3.0557 1.8860
4.8888 -2.6743 1.8860
5.0909 -2.2749 1.8860
5.2596 -1.8600 1.8860
5.3939 -1.4325 1.8860
5.4927 -0.9954 1.8860
5.5554 -0.5516 1.8860
5.5816 -0.1041 1.8860
5.5710 0.3439 1.8860
5.5237 0.7896 1.8860
5.4402 1.2296 1.8860
5.3209 1.6612 1.8860
5.1669 2.0814 1.8860
5.1425 2.5689 1.9479
5.1436 3.1086 2.0384
4.8724 3.5077 2.0384
4.5699 3.8831 2.0384
4.2381 4.2322 2.0384
3.8795 4.5528 2.0384
3.4964 4.8428 2.0384
3.0916 5.1005 2.0384
2.6678 5.3242 2.0384
2.2280 5.5126 2.0384
1.7749 5.6646 2.0384
1.3118 5.7794 2.0384
0.8416 5.8564 2.0384
0.3674 5.8953 2.0384
-0.1077 5.8959 2.0384
-0.5805 5.8585 2.0384
-1.0482 5.7834 2.0384
-1.5077 5.6713 2.0384
-1.9561 5.5231 2.0384
-2.3907 5.3398 2.0384
-2.8088 5.1228 2.0384
-3.2078 4.8735 2.0384
-3.5852 4.5936 2.0384
-3.9389 4.2850 2.0384
-4.2202 3.9066 2.0162
-4.3234 3.3985 1.9299
-4.4750 2.9676 1.8860
-4.6961 2.5955 1.8860
-4.8931 2.2101 1.8883
-5.4542 1.9514 2.0384
-5.5917 1.5051 2.0384
-5.6934 1.0494 2.0384
-5.7589 0.5871 2.0384
-5.7877 0.1211 2.0384
-5.7796 -0.3457 2.0384
-5.7346 -0.8105 2.0384
-5.6530 -1.2705 2.0384
-5.5353 -1.7227 2.0384
-5.3822 -2.1646 2.0384
-5.1944 -2.5932 2.0384
-4.9732 -3.0059 2.0384
-4.7197 -3.4001 2.0384
-4.4355 -3.7734 2.0384
-4.1223 -4.1233 2.0384
-3.7819 -4.4475 2.0384
-3.4163 -4.7441 2.0384
-3.0278 -5.0109 2.0384
-2.6186 -5.2462 2.0384
-2.1914 -5.4484 2.0384
-1.7488 -5.6161 2.0384
-1.2936 -5.7479 2.0384
-0.8285 -5.8430 2.0384
-0.3566 -5.9006 2.0384
0.1190 -5.9200 2.0384
0.5955 -5.9010 2.0384
1.0695 -5.8436 2.0384
1.5380 -5.7480 2.0384
0.7196 -2.0222 0.7342
2.4461 -5.4442 2.0384
2.8796 -5.2377 2.0384
3.2954 -4.9963 2.0384
3.6906 -4.7217 2.0384
4.0626 -4.4155 2.0384
4.4088 -4.0796 2.0384
4.6225 -3.6344 1.9934
4.6392 -3.0791 1.8860
4.8750 -2.6990 1.8860
5.0791 -2.3005 1.8860
5.2500 -1.8866 1.8860
5.3864 -1.4598 1.8860
5.4875 -1.0232 1.8860
5.5525 -0.5797 1.8860
5.5810 -0.1324 1.8860
5.5727 0.3157 1.8860
5.5278 0.7616 1.8860
5.4465 1.2021 1.8860
5.3295 1.6343 1.8860
5.1776 2.0553 1.8860
5.1323 2.5314 1.9390
5.1596 3.0827 2.0384
4.8904 3.4832 2.0384
4.5898 3.8602 2.0384
4.2599 4.2110 2.0384
3.9028 4.5334 2.0384
3.5213 4.8254 2.0384
3.1178 5.0852 2.0384
2.6951 5.3111 2.0384
2.2561 5.5018 2.0384
1.8038 5.6561 2.0384
1.3412 5.7733 2.0384
0.8714 5.8527 2.0384
0.3974 5.8939 2.0384
-0.0777 5.8970 2.0384
-0.5508 5.8619 2.0384
-1.0189 5.7892 2.0384
-1.4790 5.6795 2.0384
-1.9282 5.5335 2.0384
-2.3638 5.3524 2.0384
-2.7830 5.1374 2.0384
-3.1832 4.8901 2.0384
-3.5621 4.6121 2.0384
-3.9173 4.3052 2.0384
-4.2132 3.9401 2.0222
-4.3177 3.4298 1.9350
-4.4601 2.9904 1.8860
-4.6830 2.6195 1.8860
-4.8758 2.2323 1.8860
-5.4444 1.9792 2.0384
-5.5841 1.5335 2.0384
-5.6881 1.0783 2.0384
-5.7559 0.6164 2.0384
-5.7869 0.1506 2.0384
-5.7812 -0.3163 2.0384
-5.7385 -0.7813 2.0384
-5.6593 -1.2416 2.0384
-5.5438 -1.6945 2.0384
-5.3929 -2.1370 2.0384
-5.2073 -2.5666 2.0384
-4.9881 -2.9803 2.0384
-4.7366 -3.3758 2.0384
-4.4543 -3.7505 2.0384
-4.1429 -4.1019 2.0384
-3.8041 -4.4279 2.0384
-3.4400 -4.7262 2.0384
-3.0529 -4.9950 2.0384
-2.6450 -5.2324 2.0384
-2.2189 -5.4367 2.0384
-1.7772 -5.6066 2.0384
-1.3226 -5.7407 2.0384
-0.8581 -5.8381 2.0384
-0.3866 -5.8981 2.0384
0.0890 -5.9199 2.0384
0.5655 -5.9034 2.0384
1.0397 -5.8484 2.0384
1.5087 -5.7552 2.0384
0.7093 -2.0258 0.7342
2.4183 -5.4560 2.0384
2.8527 -5.2518 2.0384
3.2697 -5.0126 2.0384
3.6664 -4.7400 2.0384
4.0399 -4.4357 2.0384
4.3878 -4.1017 2.0384
4.6256 -3.6749 2.0029
4.6233 -3.1024 1.8860
4.8611 -2.7235 1.8860
5.0672 -2.3262 1.8860
5.2402 -1.9131 1.8860
5.3789 -1.4871 1.8860
5.4822 -1.0510 1.8860
5.5495 -0.6079 1.8860
5.5803 -0.1607 1.8860
5.5743 0.2875 1.8860
5.5317 0.7336 1.8860
5.4527 1.1745 1.8860
5.3379 1.6073 1.8860
5.1882 2.0291 1.8860
5.1217 2.4940 1.9301
5.1755 3.0567 2.0384
4.9084 3.4586 2.0384
4.6097 3.8371 2.0384
4.2815 4.1897 2.0384
3.9261 4.5139 2.0384
3.5460 4.8080 2.0384
3.1438 5.0698 2.0384
2.7223 5.2979 2.0384
2.2842 5.4908 2.0384
1.8327 5.6475 2.0384
1.3707 5.7670 2.0384
0.9012 5.8488 2.0384
0.4273 5.8925 2.0384
-0.0478 5.8979 2.0384
-0.5211 5.8653 2.0384
-0.9896 5.7949 2.0384
0.2826 5.3996 2.0384
-0.1523 5.3964 2.0384
-0.2151 1.9703 0.7495
-0.3728 1.9461 0.7504
-0.5280 1.9093 0.7513
-0.6797 1.8600 0.7522
-2.2386 4.8691 2.0384
-2.6199 4.6669 2.0384
-2.9834 4.4353 2.0384
-3.3270 4.1758 2.0384
-3.6486 3.8900 2.0384
-3.9461 3.5800 2.0384
-4.2180 3.2475 2.0384
-4.3903 2.8481 2.0054
-4.4624 2.4078 1.9444
-4.7381 2.0827 1.9859
-5.0177 1.7381 2.0384
-5.1398 1.3277 2.0384
-5.2290 0.9089 2.0384
-5.2848 0.4845 2.0384
-5.3069 0.0570 2.0384
-5.2951 -0.3710 2.0384
-5.2495 -0.7968 2.0384
-5.1704 -1.2177 2.0384
-5.0581 -1.6313 2.0384
-4.9134 -2.0348 2.0384
-4.7370 -2.4260 2.0384
-4.5301 -2.8021 2.0384
-4.2938 -3.1610 2.0384
-4.0295 -3.5002 2.0384
-3.7388 -3.8177 2.0384
-3.4235 -4.1114 2.0384
-3.0854 -4.3794 2.0384
-2.7266 -4.6198 2.0384
-2.3493 -4.8311 2.0384
-0.7136 -1.8286 0.7437
-0.5642 -1.8802 0.7427
-0.4112 -1.9197 0.7416
-0.2555 -1.9468 0.7405
-0.0982 -1.9614 0.7395
0.0598 -1.9633 0.7385
0.2175 -1.9526 0.7375
0.3738 -1.9292 0.7366
0.5277 -1.8935 0.7357
0.6783 -1.8455 0.7348
2.2898 -4.9586 2.0384
2.6842 -4.7651 2.0384
3.0619 -4.5400 2.0384
3.4206 -4.2846 2.0384
3.7576 -4.0007 2.0384
4.0707 -3.6899 2.0384
4.3576 -3.3544 2.0384
4.5542 -2.9560 2.0109
4.5375 -2.4519 1.9089
4.6656 -2.0562 1.8860
4.8177 -1.6761 1.8860
4.9383 -1.2846 1.8860
5.0265 -0.8846 1.8860
5.0817 -0.4786 1.8860
5.1035 -0.0694 1.8860
5.0918 0.3401 1.8860
5.0466 0.7472 1.8860
4.9683 1.1492 1.8860
4.8575 1.5432 1.8860
4.9532 2.0240 1.9813
4.9087 2.4826 2.0384
4.6895 2.8660 2.0384
4.4401 3.2299 2.0384
4.1620 3.5720 2.0384
3.8574 3.8900 2.0384
3.5282 4.1820 2.0384
3.1769 4.4459 2.0384
2.8057 4.6802 2.0384
2.4173 4.8835 2.0384
0.7343 1.8428 0.7432
0.5839 1.8957 0.7442
0.4296 1.9363 0.7453
0.2725 1.9643 0.7464
0.3100 5.3986 2.0384
-0.1249 5.3977 2.0384
-0.2051 1.9714 0.7494
-0.3629 1.9480 0.7504
-0.5183 1.9120 0.7513
-0.6703 1.8635 0.7521
-2.2140 4.8808 2.0384
-2.5963 4.6806 2.0384
-2.9611 4.4508 2.0384
-3.3061 4.1930 2.0384
-3.6290 3.9088 2.0384
-3.9281 3.6002 2.0384
-4.2016 3.2691 2.0384
-4.3857 2.8769 2.0099
-4.4559 2.4337 1.9469
-4.7103 2.0992 1.9786
-5.0089 1.7637 2.0384
-5.1330 1.3538 2.0384
-5.2243 0.9355 2.0384
-5.2823 0.5114 2.0384
-5.3065 0.0840 2.0384
-5.2969 -0.3440 2.0384
-5.2534 -0.7700 2.0384
-5.1763 -1.1914 2.0384
-5.0662 -1.6055 2.0384
-4.9234 -2.0098 2.0384
-4.7491 -2.4017 2.0384
-4.5440 -2.7789 2.0384
-4.3095 -3.1389 2.0384
-4.0470 -3.4795 2.0384
-3.7579 -3.7984 2.0384
-3.4441 -4.0936 2.0384
-3.1073 -4.3633 2.0384
-2.7498 -4.6055 2.0384
-2.3736 -4.8187 2.0384
-0.7229 -1.8250 0.7438
-0.5738 -1.8773 0.7427
-0.4209 -1.9176 0.7417
-0.2654 -1.9455 0.7406
-0.1081 -1.9608 0.7396
0.0499 -1.9635 0.7386
0.2076 -1.9536 0.7376
0.3640 -1.9311 0.7366
0.5181 -1.8961 0.7357
0.6689 -1.8489 0.7349
2.2644 -4.9698 2.0384
2.6597 -4.7783 2.0384
3.0386 -4.5551 2.0384
3.3986 -4.3016 2.0384
3.7370 -4.0194 2.0384
4.0517 -3.7103 2.0384
4.3403 -3.3763 2.0384
4.5555 -2.9898 2.0182
4.5377 -2.4818 1.9143
4.6550 -2.0797 1.8860
4.8091 -1.7004 1.8860
4.9317 -1.3096 1.8860
5.0219 -0.9100 1.8860
5.0792 -0.5043 1.8860
5.1031 -0.0953 1.8860
5.0935 0.3143 1.8860
5.0504 0.7217 1.8860
4.9742 1.1240 1.8860
4.8654 1.5186 1.8860
4.9436 1.9909 1.9733
4.9214 2.4578 2.0384
4.7043 2.8423 2.0384
4.4567 3.2075 2.0384
4.1804 3.5511 2.0384
3.8773 3.8707 2.0384
3.5497 4.1644 2.0384
3.1997 4.4301 2.0384
2.8297 4.6664 2.0384
2.4422 4.8716 2.0384
0.7437 1.8390 0.7431
0.5935 1.8927 0.7442
0.4394 1.9341 0.7452
0.2825 1.9629 0.7463
0.3375 5.3975 2.0384
-0.0975 5.3988 2.0384
-0.1951 1.9724 0.7494
-0.3530 1.9499 0.7503
-0.5086 1.9146 0.7512
-0.6608 1.8669 0.7521
-2.1894 4.8925 2.0384
-2.5727 4.6941 2.0384
-2.9386 4.4661 2.0384
-3.2848 4.2100 2.0384
-3.6093 3.9275 2.0384
-3.9100 3.6204 2.0384
-4.1851 3.2906 2.0384
-4.3811 2.9059 2.0144
-4.4510 2.4605 1.9501
-4.6829 2.1156 1.9715
-5.0000 1.7892 2.0384
-5.1261 1.3800 2.0384
-5.2196 0.9621 2.0384
-5.2796 0.5383 2.0384
-5.3060 0.1110 2.0384
-5.2985 -0.3171 2.0384
-5.2571 -0.7433 2.0384
-5.1822 -1.1650 2.0384
-5.0741 -1.5796 2.0384
-4.9334 -1.9846 2.0384
-4.7610 -2.3774 2.0384
-4.5578 -2.7556 2.0384
-4.3252 -3.1167 2.0384
-4.0643 -3.4586 2.0384
-3.7769 -3.7789 2.0384
-3.4646 -4.0757 2.0384
-3.1292 -4.3470 2.0384
-2.7729 -4.5910 2.0384
-2.3978 -4.8061 2.0384
-0.7321 -1.8213 0.7439
-0.5833 -1.8744 0.7428
-0.4307 -1.9154 0.7417
-0.2753 -1.9441 0.7407
-0.1181 -1.9602 0.7396
0.0399 -1.9637 0.7386
0.1976 -1.9546 0.7376
0.3542 -1.9329 0.7367
0.5084 -1.8987 0.7358
0.6595 -1.8523 0.7349
2.2390 -4.9807 2.0384
2.6352 -4.7913 2.0384
3.0153 -4.5701 2.0384
3.3765 -4.3185 2.0384
3.7163 -4.0380 2.0384
4.0325 -3.7306 2.0384
4.3229 -3.3981 2.0384
4.5569 -3.0239 2.0257
4.5379 -2.5119 1.9198
4.6442 -2.1032 1.8860
4.8003 -1.7247 1.8860
4.9249 -1.3345 1.8860
5.0172 -0.9354 1.8860
5.0766 -0.5300 1.8860
5.1026 -0.1211 1.8860
5.0951 0.2885 1.8860
5.0541 0.6961 1.8860
4.9800 1.0988 1.8860
4.8733 1.4940 1.8860
4.9341 1.9581 1.9654
4.9341 2.4330 2.0384
4.7189 2.8186 2.0384
4.4731 3.1851 2.0384
4.1986 3.5301 2.0384
3.8972 3.8513 2.0384
3.5710 4.1466 2.0384
3.2224 4.4142 2.0384
2.8536 4.6524 2.0384
2.4671 4.8596 2.0384
0.7530 1.8352 0.7430
0.6031 1.8897 0.7441
0.4492 1.9319 0.7452
0.2924 1.9615 0.7462
0.3649 5.3963 2.0384
-0.0701 5.3997 2.0384
-0.1850 1.9734 0.7493
-0.3431 1.9517 0.7503
-0.4989 1.9172 0.7512
-0.6513 1.8703 0.7520
-2.1647 4.9039 2.0384
-2.5490 4.7075 2.0384
-2.9161 4.4813 2.0384
-3.2636 4.2270 2.0384
-3.5895 3.9460 2.0384
-3.8918 3.6404 2.0384
-4.1686 3.3121 2.0384
-4.3765 2.9350 2.0191
-4.4467 2.4878 1.9537
-4.6567 2.1323 1.9649
-4.9909 1.8147 2.0384
-5.1192 1.4061 2.0384
-5.2146 0.9887 2.0384
-5.2768 0.5651 2.0384
-5.3053 0.1380 2.0384
-5.2999 -0.2901 2.0384
-5.2607 -0.7165 2.0384
-5.1879 -1.1386 2.0384
-5.0819 -1.5537 2.0384
-4.9432 -1.9594 2.0384
-4.7728 -2.3530 2.0384
-4.5715 -2.7322 2.0384
-4.3407 -3.0945 2.0384
-4.0816 -3.4376 2.0384
-3.7958 -3.7594 2.0384
-3.4850 -4.0578 2.0384
-3.1510 -4.3307 2.0384
-2.7960 -4.5765 2.0384
-2.4220 -4.7934 2.0384
-0.7414 -1.8175 0.7439
-0.5928 -1.8714 0.7429
-0.4404 -1.9132 0.7418
-0.2851 -1.9426 0.7407
-0.1280 -1.9596 0.7397
0.0299 -1.9639 0.7387
0.1877 -1.9555 0.7377
0.3443 -1.9346 0.7367
0.4988 -1.9012 0.7358
0.6501 -1.8555 0.7350
2.2135 -4.9916 2.0384
2.6107 -4.8042 2.0384
2.9918 -4.5850 2.0384
3.3543 -4.3352 2.0384
3.6956 -4.0565 2.0384
4.0133 -3.7507 2.0384
4.3054 -3.4197 2.0384
4.5583 -3.0581 2.0333
4.5382 -2.5421 1.9254
4.6334 -2.1266 1.8860
4.7913 -1.7489 1.8860
4.9180 -1.3594 1.8860
5.0123 -0.9608 1.8860
5.0738 -0.5557 1.8860
5.1020 -0.1470 1.8860
5.0966 0.2627 1.8860
5.0577 0.6705 1.8860
4.9857 1.0736 1.8860
4.8809 1.4694 1.8860
4.9258 1.9260 1.9581
4.9466 2.4081 2.0384
4.7334 2.7948 2.0384
4.4895 3.1626 2.0384
4.2168 3.5090 2.0384
3.9170 3.8318 2.0384
3.5923 4.1288 2.0384
3.2450 4.3982 2.0384
2.8774 4.6382 2.0384
2.4920 4.8475 2.0384
0.7623 1.8314 0.7430
0.6127 1.8866 0.7440
0.4590 1.9296 0.7451
0.3024 1.9600 0.7462
0.3923 5.3949 2.0384
-0.0427 5.4005 2.0384
-0.1750 1.9744 0.7493
-0.3332 1.9534 0.7502
0.0957 1.8221 0.7472
-0.0511 1.8235 0.7481
-0.1975 1.8131 0.7490
-0.3427 1.7909 0.7499
-0.4855 1.7570 0.7507
-0.6252 1.7117 0.7515
-0.7607 1.6552 0.7522
-2.4126 4.2995 2.0384
-2.7478 4.0864 2.0384
-3.0646 3.8476 2.0384
-3.3611 3.5846 2.0384
-3.6356 3.2991 2.0384
-3.8863 2.9929 2.0384
-4.1118 2.6680 2.0384
-4.3107 2.3265 2.0384
-4.4818 1.9704 2.0384
-4.6241 1.6021 2.0384
-4.7368 1.2237 2.0384
-4.8191 0.8378 2.0384
-4.8706 0.4465 2.0384
-4.8909 0.0524 2.0384
-4.8800 -0.3421 2.0384
-4.8379 -0.7345 2.0384
-4.7648 -1.1225 2.0384
-4.6611 -1.5037 2.0384
-4.5275 -1.8756 2.0384
-4.3648 -2.2359 2.0384
-4.1738 -2.5825 2.0384
-3.9558 -2.9130 2.0384
-3.7120 -3.2254 2.0384
-3.4438 -3.5177 2.0384
-3.1530 -3.7879 2.0384
-2.8413 -4.0344 2.0384
-2.5105 -4.2555 2.0384
-2.1627 -4.4497 2.0384
-0.6568 -1.6841 0.7437
-0.5192 -1.7316 0.7427
-0.3783 -1.7680 0.7417
-0.2349 -1.7929 0.7408
-0.0900 -1.8063 0.7398
0.0555 -1.8081 0.7389
0.2007 -1.7982 0.7380
0.3446 -1.7767 0.7371
0.4863 -1.7438 0.7363
0.6250 -1.6996 0.7355
0.7597 -1.6445 0.7348
2.4702 -4.3835 2.0384
2.8174 -4.1760 2.0384
3.1471 -3.9408 2.0384
3.4568 -3.6794 2.0384
3.7444 -3.3933 2.0384
4.0080 -3.0846 2.0384
4.2458 -2.7552 2.0384
4.4560 -2.4074 2.0384
4.5051 -1.9851 1.9803
4.5078 -1.5680 1.9190
4.5410 -1.1811 1.8860
4.6220 -0.8133 1.8860
4.6727 -0.4400 1.8860
4.6928 -0.0639 1.8860
4.6821 0.3126 1.8860
4.6406 0.6869 1.8860
4.6999 1.0868 1.9401
4.7969 1.5235 2.0252
4.6866 1.9146 2.0384
4.5147 2.2827 2.0384
4.3134 2.6354 2.0384
4.0843 2.9702 2.0384
3.8289 3.2851 2.0384
3.5490 3.5779 2.0384
3.2466 3.8468 2.0384
2.9236 4.0899 2.0384
2.5824 4.3059 2.0384
2.2252 4.4934 2.0384
0.6761 1.6958 0.7432
0.5377 1.7445 0.7442
0.3957 1.7818 0.7452
0.2511 1.8076 0.7461
0.1050 1.8216 0.7471
-0.0418 1.8238 0.7481
-0.1883 1.8141 0.7490
-0.3336 1.7926 0.7498
-0.4766 1.7595 0.7507
-0.6165 1.7149 0.7515
-0.7522 1.6591 0.7522
-2.3909 4.3120 2.0384
-2.7272 4.1006 2.0384
-3.0452 3.8634 2.0384
-3.3431 3.6019 2.0384
-3.6192 3.3178 2.0384
-3.8712 3.0128 2.0384
-4.0984 2.6890 2.0384
-4.2990 2.3485 2.0384
-4.4719 1.9933 2.0384
-4.6160 1.6256 2.0384
-4.7306 1.2479 2.0384
-4.8148 0.8623 2.0384
-4.8683 0.4713 2.0384
-4.8906 0.0773 2.0384
-4.8816 -0.3172 2.0384
-4.8415 -0.7099 2.0384
-4.7703 -1.0982 2.0384
-4.6686 -1.4799 2.0384
-4.5368 -1.8524 2.0384
-4.3759 -2.2136 2.0384
-4.1867 -2.5610 2.0384
-3.9703 -2.8926 2.0384
-3.7281 -3.2062 2.0384
-3.4614 -3.4999 2.0384
-3.1720 -3.7716 2.0384
-2.8615 -4.0196 2.0384
-2.5319 -4.2424 2.0384
-2.1851 -4.4383 2.0384
-0.6653 -1.6807 0.7438
-0.5280 -1.7289 0.7428
-0.3873 -1.7660 0.7418
-0.2440 -1.7917 0.7408
-0.0992 -1.8058 0.7399
0.0463 -1.8083 0.7389
0.1915 -1.7992 0.7380
0.3356 -1.7784 0.7372
0.4775 -1.7462 0.7363
0.6164 -1.7027 0.7356
0.7514 -1.6483 0.7348
2.4477 -4.3956 2.0384
2.7960 -4.1899 2.0384
3.1268 -3.9564 2.0384
3.4379 -3.6966 2.0384
3.7270 -3.4121 2.0384
3.9921 -3.1047 2.0384
4.2316 -2.7766 2.0384
4.4436 -2.4298 2.0384
4.5053 -2.0125 1.9849
4.5073 -1.5934 1.9222
4.5349 -1.2041 1.8860
4.6178 -0.8367 1.8860
4.6704 -0.4637 1.8860
4.6924 -0.0877 1.8860
4.6836 0.2889 1.8860
4.6441 0.6634 1.8860
4.6944 1.0605 1.9355
4.7897 1.4946 2.0189
4.6965 1.8909 2.0384
4.5264 2.2599 2.0384
4.3270 2.6136 2.0384
4.0995 2.9497 2.0384
3.8458 3.2659 2.0384
3.5673 3.5601 2.0384
3.2663 3.8305 2.0384
2.9446 4.0754 2.0384
2.6044 4.2931 2.0384
2.2482 4.4824 2.0384
0.6847 1.6923 0.7431
0.5465 1.7417 0.7441
0.4047 1.7798 0.7451
0.2603 1.8063 0.7461
0.1142 1.8211 0.7471
-0.0326 1.8240 0.7480
-0.1791 1.8151 0.7489
-0.3245 1.7943 0.7498
-0.4677 1.7619 0.7506
-0.6077 1.7180 0.7514
-0.7438 1.6630 0.7521
-2.3691 4.3244 2.0384
-2.7065 4.1148 2.0384
-3.0257 3.8791 2.0384
-3.3249 3.6191 2.0384
-3.6023 3.3363 2.0384
-3.8561 3.0326 2.0384
-4.0848 2.7100 2.0384
-4.2871 2.3704 2.0384
-4.4618 2.0161 2.0384
-4.6078 1.6492 2.0384
-4.7242 1.2720 2.0384
-4.8104 0.8868 2.0384
-4.8658 0.4961 2.0384
-4.8901 0.1022 2.0384
-4.8831 -0.2923 2.0384
-4.8449 -0.6852 2.0384
-4.7757 -1.0739 2.0384
-4.6759 -1.4560 2.0384
-4.5460 -1.8292 2.0384
-4.3869 -2.1912 2.0384
-4.1994 -2.5396 2.0384
-3.9847 -2.8722 2.0384
-3.7441 -3.1870 2.0384
-3.4790 -3.4820 2.0384
-3.1909 -3.7551 2.0384
-2.8817 -4.0047 2.0384
-2.5532 -4.2291 2.0384
-2.2075 -4.4268 2.0384
-0.6739 -1.6773 0.7438
-0.5368 -1.7262 0.7428
-0.3962 -1.7640 0.7419
-0.2531 -1.7904 0.7409
-0.1084 -1.8053 0.7399
0.0371 -1.8085 0.7390
0.1824 -1.8001 0.7381
0.3265 -1.7801 0.7372
0.4686 -1.7486 0.7364
0.6077 -1.7058 0.7356
0.7430 -1.6520 0.7349
2.4252 -4.4076 2.0384
2.7746 -4.2038 2.0384
3.1065 -3.9720 2.0384
3.4189 -3.7137 2.0384
3.7094 -3.4307 2.0384
3.9762 -3.1248 2.0384
4.2173 -2.7979 2.0384
4.4311 -2.4522 2.0384
4.5056 -2.0400 1.9896
4.5067 -1.6189 1.9255
4.5287 -1.2270 1.8860
4.6135 -0.8600 1.8860
4.6680 -0.4873 1.8860
4.6920 -0.1114 1.8860
4.6851 0.2652 1.8860
4.6475 0.6399 1.8860
4.6889 1.0343 1.9310
4.7826 1.4658 2.0127
4.7062 1.8671 2.0384
4.5380 2.2371 2.0384
4.3404 2.5918 2.0384
4.1147 2.9291 2.0384
3.8625 3.2466 2.0384
3.5856 3.5423 2.0384
3.2859 3.8142 2.0384
2.9654 4.0607 2.0384
2.6264 4.2802 2.0384
2.2711 4.4713 2.0384
0.6933 1.6888 0.7431
0.5553 1.7390 0.7441
0.4138 1.7778 0.7450
0.2695 1.8050 0.7460
0.1235 1.8205 0.7470
-0.0233 1.8242 0.7479
-0.1699 1.8160 0.7488
-0.3154 1.7960 0.7497
-0.4587 1.7643 0.7506
-0.5990 1.7211 0.7514
-0.7354 1.6668 0.7521
-2.3473 4.3368 2.0384
-2.6857 4.1288 2.0384
-3.0061 3.8947 2.0384
-3.3067 3.6361 2.0384
-3.5854 3.3548 2.0384
-3.8408 3.0523 2.0384
-4.0712 2.7308 2.0384
-4.2752 2.3923 2.0384
-4.4516 2.0388 2.0384
-4.5995 1.6726 2.0384
-4.7178 1.2960 2.0384
-4.8059 0.9113 2.0384
-4.8632 0.5209 2.0384
-4.8895 0.1271 2.0384
-4.8845 -0.2675 2.0384
-4.8483 -0.6605 2.0384
-4.7810 -1.0496 2.0384
-4.6831 -1.4322 2.0384
-4.5551 -1.8060 2.0384
-4.3978 -2.1687 2.0384
-4.2121 -2.5180 2.0384
-3.9991 -2.8517 2.0384
-3.7600 -3.1677 2.0384
-3.4964 -3.4640 2.0384
-3.2097 -3.7386 2.0384
-2.9018 -3.9897 2.0384
-2.5745 -4.2157 2.0384
-2.2298 -4.4151 2.0384
-0.6824 -1.6738 0.7439
-0.5455 -1.7235 0.7429
-0.4052 -1.7620 0.7419
-0.2622 -1.7891 0.7410
-0.1175 -1.8047 0.7400
0.0279 -1.8087 0.7391
0.1732 -1.8010 0.7382
0.3175 -1.7817 0.7373
0.4597 -1.7509 0.7364
0.5991 -1.7088 0.7357
0.7346 -1.6557 0.7349
2.4027 -4.4195 2.0384
2.7530 -4.2175 2.0384
3.0861 -3.9874 2.0384
3.3998 -3.7308 2.0384
3.6918 -3.4493 2.0384
3.9601 -3.1447 2.0384
4.2028 -2.8191 2.0384
4.4184 -2.4745 2.0384
4.5059 -2.0677 1.9944
4.5061 -1.6445 1.9288
4.5248 -1.2506 1.8870
4.6090 -0.8834 1.8860
4.6655 -0.5110 1.8860
4.6914 -0.1352 1.8860
4.6865 0.2414 1.8860
4.6508 0.6163 1.8860
4.6834 1.0082 1.9266
4.7755 1.4372 2.0065
4.7158 1.8434 2.0384
4.5495 2.2141 2.0384
4.3537 2.5699 2.0384
4.1297 2.9083 2.0384
3.8792 3.2272 2.0384
3.6038 3.5243 2.0384
3.3054 3.7978 2.0384
2.9862 4.0460 2.0384
2.6483 4.2672 2.0384
2.2939 4.4601 2.0384
0.7019 1.6853 0.7430
0.5642 1.7361 0.7440
0.4228 1.7757 0.7450
0.2787 1.8036 0.7460
0.1327 1.8199 0.7469
-0.0140 1.8243 0.7479
-0.1607 1.8168 0.7488
-0.3062 1.7976 0.7497
0.0889 1.6846 0.7469
-0.0469 1.6859 0.7478
-0.1823 1.6762 0.7486
-0.3165 1.6557 0.7494
-0.4485 1.6244 0.7502
-0.5776 1.5825 0.7509
-0.7029 1.5304 0.7516
-2.2318 3.9789 2.0384
-2.5422 3.7820 2.0384
-2.8356 3.5612 2.0384
-3.1102 3.3180 2.0384
-3.3645 3.0539 2.0384
-3.5968 2.7706 2.0384
-3.8057 2.4700 2.0384
-3.9900 2.1538 2.0384
-4.1486 1.8243 2.0384
-4.2804 1.4833 2.0384
-4.3848 1.1330 2.0384
-4.4611 0.7756 2.0384
-4.5088 0.4134 2.0384
-4.5276 0.0485 2.0384
-4.5175 -0.3168 2.0384
-4.4784 -0.6802 2.0384
-4.4106 -1.0394 2.0384
-4.3145 -1.3922 2.0384
-4.1906 -1.7365 2.0384
-4.0398 -2.0700 2.0384
-3.8628 -2.3907 2.0384
-3.6607 -2.6965 2.0384
-3.4348 -2.9855 2.0384
-3.1864 -3.2558 2.0384
-2.9171 -3.5057 2.0384
-2.6283 -3.7335 2.0384
-2.3221 -3.9378 2.0384
-0.7306 -1.5040 0.7446
-0.6073 -1.5580 0.7437
-0.4800 -1.6020 0.7428
-0.3496 -1.6357 0.7419
-0.2170 -1.6588 0.7410
-0.0829 -1.6712 0.7401
0.0517 -1.6728 0.7392
0.1860 -1.6637 0.7384
0.3191 -1.6438 0.7376
0.4503 -1.6133 0.7368
0.5786 -1.5724 0.7361
0.7032 -1.5214 0.7354
2.2840 -4.0515 2.0384
2.6048 -3.8594 2.0384
2.9092 -3.6418 2.0384
3.1952 -3.3999 2.0384
3.4607 -3.1354 2.0384
3.7041 -2.8500 2.0384
3.9236 -2.5456 2.0384
4.1176 -2.2241 2.0384
4.2849 -1.8877 2.0384
4.4243 -1.5387 2.0384
4.4890 -1.1674 2.0178
4.5015 -0.7920 1.9880
4.5182 -0.4255 1.9737
4.5347 -0.0618 1.9725
4.5536 0.3039 1.9852
4.5918 0.6794 2.0197
4.5627 1.0547 2.0384
4.4613 1.4165 2.0384
4.3308 1.7687 2.0384
4.1721 2.1089 2.0384
3.9864 2.4349 2.0384
3.7749 2.7445 2.0384
3.5392 3.0356 2.0384
3.2808 3.3064 2.0384
3.0015 3.5551 2.0384
2.7032 3.7802 2.0384
2.3881 3.9802 2.0384
0.7495 1.5126 0.7423
0.6255 1.5678 0.7432
0.4975 1.6128 0.7441
0.3662 1.6474 0.7450
0.2326 1.6712 0.7459
0.0974 1.6841 0.7468
-0.0383 1.6861 0.7477
-0.1738 1.6772 0.7485
-0.3080 1.6573 0.7494
-0.4403 1.6267 0.7501
-0.5696 1.5855 0.7509
-0.6951 1.5339 0.7515
-2.2117 3.9904 2.0384
-2.5231 3.7951 2.0384
-2.8176 3.5758 2.0384
-3.0935 3.3340 2.0384
-3.3491 3.0711 2.0384
-3.5828 2.7890 2.0384
-3.7933 2.4894 2.0384
-3.9792 2.1742 2.0384
-4.1394 1.8454 2.0384
-4.2729 1.5051 2.0384
-4.3791 1.1553 2.0384
-4.4571 0.7983 2.0384
-4.5066 0.4363 2.0384
-4.5273 0.0716 2.0384
-4.5190 -0.2938 2.0384
-4.4817 -0.6573 2.0384
-4.4157 -1.0169 2.0384
-4.3214 -1.3702 2.0384
-4.1993 -1.7151 2.0384
-4.0501 -2.0493 2.0384
-3.8747 -2.3709 2.0384
-3.6742 -2.6777 2.0384
-3.4498 -2.9678 2.0384
-3.2027 -3.2393 2.0384
-2.9346 -3.4906 2.0384
-2.6471 -3.7198 2.0384
-2.3419 -3.9256 2.0384
-0.7383 -1.5002 0.7447
-0.6152 -1.5549 0.7437
-0.4881 -1.5995 0.7428
-0.3579 -1.6339 0.7419
-0.2254 -1.6576 0.7410
-0.0914 -1.6707 0.7401
0.0432 -1.6730 0.7393
0.1775 -1.6646 0.7384
0.3108 -1.6454 0.7376
0.4421 -1.6155 0.7369
0.5706 -1.5753 0.7362
0.6955 -1.5249 0.7355
2.2633 -4.0627 2.0384
2.5850 -3.8723 2.0384
2.8905 -3.6562 2.0384
3.1777 -3.4159 2.0384
3.4446 -3.1528 2.0384
3.6894 -2.8686 2.0384
3.9105 -2.5653 2.0384
4.1062 -2.2448 2.0384
4.2752 -1.9093 2.0384
4.4164 -1.5610 2.0384
4.4885 -1.1916 2.0203
4.5004 -0.8153 1.9893
4.5172 -0.4485 1.9742
4.5335 -0.0847 1.9721
4.5525 0.2807 1.9840
4.5873 0.6551 2.0162
4.5681 1.0316 2.0384
4.4686 1.3940 2.0384
4.3399 1.7468 2.0384
4.1829 2.0879 2.0384
3.9989 2.4148 2.0384
3.7890 2.7255 2.0384
3.5547 3.0178 2.0384
3.2977 3.2900 2.0384
3.0197 3.5401 2.0384
2.7226 3.7667 2.0384
2.4084 3.9683 2.0384
0.7571 1.5088 0.7422
0.6334 1.5646 0.7431
0.5056 1.6103 0.7441
0.3745 1.6455 0.7450
0.2410 1.6700 0.7459
0.1060 1.6836 0.7468
-0.0297 1.6863 0.7477
-0.1652 1.6781 0.7485
-0.2996 1.6589 0.7493
-0.4320 1.6289 0.7501
-0.5615 1.5884 0.7508
-0.6874 1.5375 0.7515
-2.1915 4.0019 2.0384
-2.5039 3.8082 2.0384
-2.7995 3.5903 2.0384
-3.0767 3.3498 2.0384
-3.3336 3.0883 2.0384
-3.5688 2.8073 2.0384
-3.7807 2.5088 2.0384
-3.9682 2.1945 2.0384
-4.1300 1.8665 2.0384
-4.2653 1.5268 2.0384
-4.3732 1.1776 2.0384
-4.4530 0.8210 2.0384
-4.5044 0.4593 2.0384
-4.5268 0.0946 2.0384
-4.5204 -0.2708 2.0384
-4.4849 -0.6345 2.0384
-4.4207 -0.9944 2.0384
-4.3282 -1.3481 2.0384
-4.2078 -1.6936 2.0384
-4.0603 -2.0286 2.0384
-3.8865 -2.3510 2.0384
-3.6876 -2.6588 2.0384
-3.4646 -2.9500 2.0384
-3.2190 -3.2228 2.0384
-2.9521 -3.4754 2.0384
-2.6658 -3.7061 2.0384
-2.3616 -3.9134 2.0384
-0.7459 -1.4965 0.7447
-0.6231 -1.5518 0.7438
-0.4962 -1.5970 0.7429
-0.3662 -1.6320 0.7420
-0.2338 -1.6564 0.7411
-0.0999 -1.6702 0.7402
0.0347 -1.6732 0.7393
0.1691 -1.6654 0.7385
0.3024 -1.6469 0.7377
0.4339 -1.6177 0.7369
0.5626 -1.5781 0.7362
0.6877 -1.5284 0.7355
2.2425 -4.0738 2.0384
2.5652 -3.8851 2.0384
2.8717 -3.6706 2.0384
3.1602 -3.4317 2.0384
3.4284 -3.1700 2.0384
3.6747 -2.8871 2.0384
3.8972 -2.5850 2.0384
4.0946 -2.2655 2.0384
4.2653 -1.9309 2.0384
4.4083 -1.5833 2.0384
4.4881 -1.2158 2.0229
4.4992 -0.8387 1.9907
4.5162 -0.4715 1.9748
4.5322 -0.1077 1.9717
4.5514 0.2575 1.9829
4.5829 0.6308 2.0128
4.5734 1.0085 2.0384
4.4757 1.3714 2.0384
4.3488 1.7249 2.0384
4.1937 2.0668 2.0384
4.0113 2.3946 2.0384
3.8030 2.7064 2.0384
3.5702 3.0000 2.0384
3.3146 3.2735 2.0384
3.0378 3.5250 2.0384
2.7419 3.7532 2.0384
2.4287 3.9564 2.0384
0.7648 1.5050 0.7422
0.6414 1.5614 0.7431
0.5138 1.6077 0.7440
0.3829 1.6436 0.7449
0.2495 1.6688 0.7458
0.1145 1.6831 0.7467
-0.0212 1.6865 0.7476
-0.1567 1.6789 0.7484
-0.2912 1.6604 0.7493
-0.4237 1.6311 0.7500
-0.5535 1.5912 0.7508
-0.6795 1.5410 0.7514
-2.1713 4.0133 2.0384
-2.4847 3.8211 2.0384
-2.7814 3.6048 2.0384
-3.0598 3.3657 2.0384
-3.3180 3.1054 2.0384
-3.5546 2.8256 2.0384
-3.7680 2.5281 2.0384
-3.9571 2.2148 2.0384
-4.1206 1.8876 2.0384
-4.2576 1.5486 2.0384
-4.3672 1.1999 2.0384
-4.4488 0.8437 2.0384
-4.5020 0.4822 2.0384
-4.5263 0.1176 2.0384
-4.5216 -0.2477 2.0384
-4.4880 -0.6116 2.0384
-4.4256 -0.9718 2.0384
-4.3348 -1.3260 2.0384
-4.2162 -1.6721 2.0384
-4.0704 -2.0078 2.0384
-3.8982 -2.3311 2.0384
-3.7008 -2.6399 2.0384
-3.4794 -2.9322 2.0384
-3.2351 -3.2062 2.0384
-2.9696 -3.4600 2.0384
-2.6844 -3.6922 2.0384
-2.3813 -3.9010 2.0384
-0.7535 -1.4926 0.7448
-0.6309 -1.5486 0.7439
-0.5044 -1.5945 0.7430
-0.3745 -1.6301 0.7420
-0.2422 -1.6552 0.7411
-0.1084 -1.6697 0.7403
0.0262 -1.6733 0.7394
0.1606 -1.6662 0.7385
0.2941 -1.6484 0.7377
0.4257 -1.6199 0.7370
0.5546 -1.5809 0.7362
0.6800 -1.5318 0.7356
2.2216 -4.0848 2.0384
2.5453 -3.8978 2.0384
2.8529 -3.6849 2.0384
3.1425 -3.4475 2.0384
3.4121 -3.1872 2.0384
3.6598 -2.9056 2.0384
3.8839 -2.6046 2.0384
4.0829 -2.2861 2.0384
4.2554 -1.9524 2.0384
4.4001 -1.6056 2.0384
4.4876 -1.2401 2.0255
4.4981 -0.8620 1.9921
4.5152 -0.4945 1.9755
4.5309 -0.1306 1.9714
4.5502 0.2343 1.9819
4.5785 0.6065 2.0094
4.5786 0.9854 2.0384
4.4827 1.3487 2.0384
4.3577 1.7029 2.0384
4.2043 2.0456 2.0384
4.0236 2.3744 2.0384
3.8169 2.6872 2.0384
3.5856 2.9820 2.0384
3.3313 3.2568 2.0384
3.0559 3.5098 2.0384
2.7611 3.7395 2.0384
2.4489 3.9443 2.0384
0.7724 1.5011 0.7421
0.6493 1.5581 0.7430
0.5220 1.6051 0.7439
0.3912 1.6416 0.7449
0.2580 1.6675 0.7458
0.1231 1.6825 0.7467
-0.0126 1.6866 0.7475
-0.1482 1.6797 0.7484
-0.2828 1.6619 0.7492
0.0828 1.5636 0.7466
-0.0432 1.5648 0.7475
-0.1688 1.5558 0.7482
-0.2934 1.5368 0.7490
-0.4160 1.5077 0.7497
-0.5358 1.4689 0.7504
-0.6521 1.4205 0.7510
-0.7641 1.3629 0.7516
-2.3609 3.5136 2.0384
-2.6336 3.3087 2.0384
-2.8890 3.0829 2.0384
-3.1254 2.8376 2.0384
-3.3414 2.5745 2.0384
-3.5357 2.2952 2.0384
-3.7071 2.0016 2.0384
-3.8546 1.6953 2.0384
-3.9772 1.3784 2.0384
-4.0743 1.0529 2.0384
-4.1453 0.7208 2.0384
-4.1896 0.3841 2.0384
-4.2071 0.0450 2.0384
-4.1976 -0.2945 2.0384
-4.1612 -0.6322 2.0384
-4.0981 -0.9660 2.0384
-4.0087 -1.2939 2.0384
-3.8935 -1.6138 2.0384
-3.7531 -1.9237 2.0384
-3.5885 -2.2216 2.0384
-3.4006 -2.5056 2.0384
-3.1905 -2.7740 2.0384
-2.9595 -3.0250 2.0384
-2.7091 -3.2569 2.0384
-2.4407 -3.4683 2.0384
-2.1560 -3.6578 2.0384
-0.6782 -1.3968 0.7445
-0.5636 -1.4470 0.7437
-0.4455 -1.4879 0.7428
-0.3244 -1.5191 0.7420
-0.2012 -1.5406 0.7411
-0.0767 -1.5521 0.7403
0.0483 -1.5536 0.7395
0.1731 -1.5451 0.7388
0.2967 -1.5267 0.7380
0.4185 -1.4984 0.7373
0.5377 -1.4604 0.7366
0.6534 -1.4130 0.7360
0.7650 -1.3564 0.7354
2.4178 -3.5811 2.0384
2.7001 -3.3789 2.0384
2.9652 -3.1543 2.0384
3.2114 -2.9088 2.0384
3.4370 -2.6439 2.0384
3.6405 -2.3614 2.0384
3.8203 -2.0631 2.0384
3.9754 -1.7510 2.0384
4.1046 -1.4272 2.0384
4.2070 -1.0939 2.0384
4.2819 -0.7533 2.0384
4.3288 -0.4076 2.0384
4.3474 -0.0593 2.0384
4.3375 0.2893 2.0384
4.2993 0.6359 2.0384
4.2330 0.9782 2.0384
4.1391 1.3139 2.0384
4.0182 1.6406 2.0384
3.8711 1.9562 2.0384
3.6990 2.2587 2.0384
3.5031 2.5460 2.0384
3.2845 2.8163 2.0384
3.0450 3.0678 2.0384
2.7860 3.2987 2.0384
2.5095 3.5078 2.0384
2.2171 3.6936 2.0384
0.6960 1.4040 0.7424
0.5809 1.4552 0.7432
0.4621 1.4970 0.7441
0.3402 1.5290 0.7449
0.2162 1.5511 0.7458
0.0908 1.5632 0.7466
-0.0352 1.5650 0.7474
-0.1609 1.5567 0.7482
-0.2856 1.5383 0.7489
-0.4083 1.5098 0.7496
-0.5284 1.4716 0.7503
-0.6449 1.4238 0.7509
-0.7572 1.3667 0.7515
-2.3431 3.5258 2.0384
-2.6169 3.3222 2.0384
-2.8735 3.0977 2.0384
-3.1111 2.8536 2.0384
-3.3284 2.5916 2.0384
-3.5242 2.3133 2.0384
-3.6970 2.0205 2.0384
-3.8460 1.7150 2.0384
-3.9703 1.3987 2.0384
-4.0690 1.0737 2.0384
-4.1416 0.7419 2.0384
-4.1876 0.4054 2.0384
-4.2068 0.0664 2.0384
-4.1990 -0.2731 2.0384
-4.1643 -0.6110 2.0384
-4.1029 -0.9451 2.0384
-4.0151 -1.2735 2.0384
-3.9015 -1.5939 2.0384
-3.7627 -1.9045 2.0384
-3.5996 -2.2032 2.0384
-3.4131 -2.4881 2.0384
-3.2044 -2.7575 2.0384
-2.9747 -3.0097 2.0384
-2.7254 -3.2429 2.0384
-2.4581 -3.4556 2.0384
-2.1744 -3.6466 2.0384
-0.6853 -1.3933 0.7446
-0.5710 -1.4441 0.7437
-0.4530 -1.4856 0.7429
-0.3321 -1.5174 0.7420
-0.2090 -1.5395 0.7412
-0.0846 -1.5517 0.7404
0.0404 -1.5538 0.7396
0.1652 -1.5460 0.7388
0.2890 -1.5281 0.7381
0.4109 -1.5004 0.7373
0.5303 -1.4630 0.7367
0.6462 -1.4162 0.7360
0.7581 -1.3602 0.7355
2.3995 -3.5930 2.0384
2.6828 -3.3923 2.0384
2.9490 -3.1691 2.0384
3.1965 -2.9249 2.0384
3.4235 -2.6612 2.0384
3.6283 -2.3797 2.0384
3.8097 -2.0823 2.0384
3.9664 -1.7711 2.0384
4.0972 -1.4479 2.0384
4.2013 -1.1152 2.0384
4.2780 -0.7749 2.0384
4.3267 -0.4295 2.0384
4.3471 -0.0813 2.0384
4.3390 0.2674 2.0384
4.3026 0.6142 2.0384
4.2380 0.9568 2.0384
4.1458 1.2929 2.0384
4.0266 1.6203 2.0384
3.8812 1.9367 2.0384
3.7106 2.2401 2.0384
3.5161 2.5284 2.0384
3.2989 2.7998 2.0384
3.0607 3.0525 2.0384
2.8029 3.2848 2.0384
2.5274 3.4953 2.0384
2.2360 3.6826 2.0384
0.7031 1.4005 0.7423
0.5883 1.4523 0.7432
0.4697 1.4946 0.7440
0.3480 1.5273 0.7449
0.2241 1.5500 0.7457
0.0987 1.5627 0.7465
-0.0273 1.5652 0.7474
-0.1530 1.5575 0.7481
-0.2778 1.5397 0.7489
-0.4006 1.5119 0.7496
-0.5209 1.4743 0.7503
-0.6377 1.4271 0.7509
-0.7502 1.3706 0.7515
-2.3253 3.5379 2.0384
-2.6002 3.3357 2.0384
-2.8578 3.1125 2.0384
-3.0967 2.8696 2.0384
-3.3154 2.6086 2.0384
-3.5125 2.3313 2.0384
-3.6868 2.0393 2.0384
-3.8373 1.7346 2.0384
-3.9632 1.4189 2.0384
-4.0635 1.0944 2.0384
-4.1378 0.7630 2.0384
-4.1855 0.4268 2.0384
-4.2064 0.0878 2.0384
-4.2003 -0.2517 2.0384
-4.1673 -0.5898 2.0384
-4.1076 -0.9242 2.0384
-4.0214 -1.2530 2.0384
-3.9094 -1.5740 2.0384
-3.7722 -1.8852 2.0384
-3.6106 -2.1847 2.0384
-3.4255 -2.4706 2.0384
-3.2182 -2.7410 2.0384
-2.9898 -2.9943 2.0384
-2.7417 -3.2287 2.0384
-2.4755 -3.4428 2.0384
-2.1927 -3.6352 2.0384
-0.6924 -1.3898 0.7446
-0.5783 -1.4412 0.7438
-0.4605 -1.4832 0.7429
-0.3398 -1.5157 0.7421
-0.2168 -1.5384 0.7413
-0.0924 -1.5512 0.7404
0.0326 -1.5540 0.7396
0.1574 -1.5468 0.7389
0.2812 -1.5295 0.7381
0.4033 -1.5025 0.7374
0.5228 -1.4657 0.7367
0.6390 -1.4194 0.7361
0.7512 -1.3640 0.7355
2.3811 -3.6049 2.0384
2.6654 -3.4057 2.0384
2.9328 -3.1839 2.0384
3.1815 -2.9409 2.0384
3.4098 -2.6783 2.0384
3.6161 -2.3979 2.0384
3.7990 -2.1015 2.0384
3.9572 -1.7911 2.0384
4.0897 -1.4686 2.0384
4.1956 -1.1364 2.0384
4.2740 -0.7966 2.0384
4.3244 -0.4514 2.0384
4.3466 -0.1033 2.0384
4.3404 0.2454 2.0384
4.3057 0.5924 2.0384
4.2429 0.9354 2.0384
4.1524 1.2720 2.0384
4.0349 1.5999 2.0384
3.8911 1.9171 2.0384
3.7221 2.2214 2.0384
3.5291 2.5107 2.0384
3.3133 2.7832 2.0384
3.0763 3.0371 2.0384
2.8197 3.2708 2.0384
2.5453 3.4827 2.0384
2.2548 3.6715 2.0384
0.7102 1.3969 0.7423
0.5957 1.4493 0.7431
0.4773 1.4923 0.7440
0.3557 1.5255 0.7448
0.2319 1.5489 0.7457
0.1066 1.5622 0.7465
-0.0193 1.5653 0.7473
-0.1451 1.5583 0.7481
-0.2699 1.5411 0.7488
-0.3930 1.5140 0.7496
-0.5134 1.4769 0.7502
-0.6304 1.4303 0.7509
-0.7433 1.3744 0.7515
-2.3074 3.5499 2.0384
-2.5833 3.3491 2.0384
-2.8421 3.1271 2.0384
-3.0822 2.8855 2.0384
-3.3022 2.6256 2.0384
-3.5007 2.3493 2.0384
-3.6765 2.0582 2.0384
-3.8286 1.7542 2.0384
-3.9560 1.4391 2.0384
-4.0579 1.1151 2.0384
-4.1339 0.7841 2.0384
-4.1833 0.4481 2.0384
-4.2058 0.1092 2.0384
-4.2015 -0.2303 2.0384
-4.1702 -0.5685 2.0384
-4.1121 -0.9033 2.0384
-4.0276 -1.2324 2.0384
-3.9172 -1.5540 2.0384
-3.7816 -1.8659 2.0384
-3.6215 -2.1662 2.0384
-3.4379 -2.4530 2.0384
-3.2319 -2.7245 2.0384
-3.0048 -2.9789 2.0384
-2.7579 -3.2145 2.0384
-2.4928 -3.4300 2.0384
-2.2110 -3.6237 2.0384
-0.6994 -1.3863 0.7447
-0.5856 -1.4382 0.7438
-0.4681 -1.4809 0.7430
-0.3475 -1.5140 0.7421
-0.2246 -1.5373 0.7413
-0.1003 -1.5507 0.7405
0.0247 -1.5541 0.7397
0.1495 -1.5475 0.7389
0.2735 -1.5309 0.7382
0.3957 -1.5045 0.7374
0.5154 -1.4683 0.7368
0.6318 -1.4226 0.7361
0.7442 -1.3678 0.7355
2.3626 -3.6167 2.0384
2.6479 -3.4189 2.0384
2.9164 -3.1985 2.0384
3.1664 -2.9568 2.0384
3.3960 -2.6955 2.0384
3.6037 -2.4161 2.0384
3.7882 -2.1207 2.0384
3.9480 -1.8110 2.0384
4.0822 -1.4893 2.0384
4.1897 -1.1576 2.0384
4.2699 -0.8182 2.0384
4.3221 -0.4733 2.0384
4.3461 -0.1253 2.0384
4.3416 0.2234 2.0384
4.3087 0.5706 2.0384
4.2477 0.9139 2.0384
4.1589 1.2510 2.0384
4.0431 1.5795 2.0384
3.9009 1.8975 2.0384
3.7335 2.2026 2.0384
3.5419 2.4929 2.0384
3.3275 2.7666 2.0384
3.0918 3.0217 2.0384
2.8364 3.2567 2.0384
2.5631 3.4700 2.0384
2.2736 3.6603 2.0384
0.7173 1.3933 0.7422
0.6030 1.4462 0.7431
0.4848 1.4898 0.7439
0.3635 1.5237 0.7448
0.2398 1.5477 0.7456
0.1146 1.5617 0.7464
-0.0114 1.5654 0.7473
-0.1372 1.5591 0.7480
-0.2621 1.5425 0.7488
0.0775 1.4561 0.7464
-0.0399 1.4573 0.7472
-0.1569 1.4489 0.7479
-0.2729 1.4312 0.7486
-0.3871 1.4041 0.7493
-0.4987 1.3679 0.7499
-0.6070 1.3229 0.7505
-0.7113 1.2692 0.7510
-2.1996 3.2749 2.0384
-2.4540 3.0841 2.0384
-2.6922 2.8737 2.0384
-2.9127 2.6452 2.0384
-3.1142 2.4000 2.0384
-3.2954 2.1398 2.0384
-3.4554 1.8660 2.0384
-3.5929 1.5805 2.0384
-3.7074 1.2851 2.0384
-3.7979 0.9817 2.0384
-3.8641 0.6720 2.0384
-3.9055 0.3581 2.0384
-3.9218 0.0419 2.0384
-3.9129 -0.2747 2.0384
-3.8789 -0.5895 2.0384
-3.8200 -0.9008 2.0384
-3.7366 -1.2064 2.0384
-3.6290 -1.5046 2.0384
-3.4980 -1.7934 2.0384
-3.3444 -2.0711 2.0384
-3.1691 -2.3358 2.0384
-2.9731 -2.5858 2.0384
-2.7576 -2.8196 2.0384
-2.5241 -3.0356 2.0384
-2.2738 -3.2325 2.0384
-0.7343 -1.2463 0.7452
-0.6316 -1.3015 0.7445
-0.5249 -1.3483 0.7437
-0.4147 -1.3864 0.7429
-0.3019 -1.4155 0.7421
-0.1871 -1.4355 0.7413
-0.0711 -1.4463 0.7405
0.0454 -1.4477 0.7398
0.1616 -1.4398 0.7391
0.2768 -1.4226 0.7384
0.3903 -1.3962 0.7377
0.5013 -1.3608 0.7371
0.6092 -1.3166 0.7365
0.7131 -1.2639 0.7360
2.2519 -3.3341 2.0384
2.5146 -3.1457 2.0384
2.7612 -2.9365 2.0384
2.9903 -2.7078 2.0384
3.2002 -2.4611 2.0384
3.3894 -2.1980 2.0384
3.5567 -1.9203 2.0384
3.7009 -1.6298 2.0384
3.8211 -1.3284 2.0384
3.9163 -1.0181 2.0384
3.9860 -0.7011 2.0384
4.0296 -0.3794 2.0384
4.0469 -0.0553 2.0384
4.0378 0.2692 2.0384
4.0023 0.5918 2.0384
3.9406 0.9104 2.0384
3.8533 1.2228 2.0384
3.7409 1.5269 2.0384
3.6042 1.8208 2.0384
3.4441 2.1025 2.0384
3.2619 2.3700 2.0384
3.0586 2.6217 2.0384
2.8357 2.8560 2.0384
2.5948 3.0712 2.0384
2.3375 3.2661 2.0384
0.7515 1.2514 0.7417
0.6485 1.3076 0.7424
0.5413 1.3553 0.7432
0.4307 1.3941 0.7440
0.3172 1.4240 0.7448
0.2017 1.4446 0.7456
0.0849 1.4557 0.7464
-0.0325 1.4575 0.7471
-0.1496 1.4497 0.7479
-0.2656 1.4326 0.7486
-0.3799 1.4061 0.7492
-0.4917 1.3705 0.7498
-0.6003 1.3260 0.7504
-0.7049 1.2729 0.7510
-2.1831 3.2862 2.0384
-2.4384 3.0967 2.0384
-2.6777 2.8875 2.0384
-2.8993 2.6601 2.0384
-3.1021 2.4160 2.0384
-3.2846 2.1566 2.0384
-3.4459 1.8837 2.0384
-3.5849 1.5989 2.0384
-3.7008 1.3040 2.0384
-3.7929 1.0010 2.0384
-3.8607 0.6917 2.0384
-3.9036 0.3780 2.0384
-3.9215 0.0618 2.0384
-3.9142 -0.2547 2.0384
-3.8818 -0.5697 2.0384
-3.8245 -0.8813 2.0384
-3.7425 -1.1874 2.0384
-3.6365 -1.4861 2.0384
-3.5070 -1.7755 2.0384
-3.3548 -2.0539 2.0384
-3.1808 -2.3195 2.0384
-2.9860 -2.5705 2.0384
-2.7718 -2.8054 2.0384
-2.5393 -3.0226 2.0384
-2.2900 -3.2207 2.0384
-0.7406 -1.2425 0.7453
-0.6382 -1.2983 0.7445
-0.5317 -1.3456 0.7437
-0.4218 -1.3842 0.7429
-0.3091 -1.4140 0.7421
-0.1944 -1.4345 0.7414
-0.0785 -1.4459 0.7406
0.0380 -1.4479 0.7398
0.1543 -1.4405 0.7391
0.2696 -1.4239 0.7384
0.3832 -1.3981 0.7378
0.4944 -1.3633 0.7371
0.6025 -1.3196 0.7366
0.7067 -1.2675 0.7360
2.2348 -3.3452 2.0384
2.4984 -3.1582 2.0384
2.7462 -2.9503 2.0384
2.9764 -2.7228 2.0384
3.1875 -2.4772 2.0384
3.3781 -2.2151 2.0384
3.5468 -1.9382 2.0384
3.6925 -1.6484 2.0384
3.8142 -1.3477 2.0384
3.9110 -1.0379 2.0384
3.9824 -0.7213 2.0384
4.0277 -0.3998 2.0384
4.0466 -0.0758 2.0384
4.0392 0.2488 2.0384
4.0053 0.5716 2.0384
3.9453 0.8904 2.0384
3.8596 1.2033 2.0384
3.7487 1.5080 2.0384
3.6135 1.8026 2.0384
3.4549 2.0851 2.0384
3.2740 2.3536 2.0384
3.0720 2.6064 2.0384
2.8503 2.8417 2.0384
2.6105 3.0582 2.0384
2.3542 3.2544 2.0384
0.7578 1.2476 0.7416
0.6552 1.3043 0.7424
0.5482 1.3525 0.7432
0.4377 1.3919 0.7440
0.3244 1.4224 0.7448
0.2090 1.4435 0.7456
0.0922 1.4553 0.7463
-0.0251 1.4576 0.7471
-0.1422 1.4505 0.7478
-0.2584 1.4339 0.7485
-0.3728 1.4080 0.7492
-0.4848 1.3730 0.7498
-0.5935 1.3290 0.7504
-0.6984 1.2765 0.7509
-2.1665 3.2975 2.0384
-2.4228 3.1092 2.0384
-2.6631 2.9013 2.0384
-2.8859 2.6750 2.0384
-3.0899 2.4318 2.0384
-3.2737 2.1734 2.0384
-3.4364 1.9012 2.0384
-3.5768 1.6172 2.0384
-3.6942 1.3229 2.0384
-3.7878 1.0203 2.0384
-3.8571 0.7113 2.0384
-3.9016 0.3978 2.0384
-3.9211 0.0818 2.0384
-3.9154 -0.2348 2.0384
-3.8846 -0.5500 2.0384
-3.8288 -0.8618 2.0384
-3.7484 -1.1682 2.0384
-3.6439 -1.4675 2.0384
-3.5158 -1.7576 2.0384
-3.3650 -2.0367 2.0384
-3.1924 -2.3031 2.0384
-2.9989 -2.5551 2.0384
-2.7859 -2.7910 2.0384
-2.5545 -3.0094 2.0384
-2.3062 -3.2088 2.0384
-0.7469 -1.2388 0.7453
-0.6448 -1.2950 0.7445
-0.5385 -1.3429 0.7438
-0.4288 -1.3821 0.7430
-0.3163 -1.4123 0.7422
-0.2017 -1.4335 0.7414
-0.0858 -1.4454 0.7406
0.0307 -1.4480 0.7399
0.1470 -1.4413 0.7392
0.2624 -1.4252 0.7385
0.3761 -1.4000 0.7378
0.4875 -1.3657 0.7372
0.5958 -1.3226 0.7366
0.7002 -1.2710 0.7360
2.2177 -3.3563 2.0384
2.4823 -3.1706 2.0384
2.7311 -2.9640 2.0384
2.9624 -2.7377 2.0384
3.1748 -2.4931 2.0384
3.3667 -2.2321 2.0384
3.5368 -1.9561 2.0384
3.6840 -1.6671 2.0384
3.8073 -1.3669 2.0384
3.9057 -1.0577 2.0384
3.9786 -0.7414 2.0384
4.0256 -0.4202 2.0384
4.0462 -0.0962 2.0384
4.0404 0.2283 2.0384
4.0082 0.5513 2.0384
3.9499 0.8705 2.0384
3.8657 1.1838 2.0384
3.7564 1.4891 2.0384
3.6228 1.7844 2.0384
3.4656 2.0677 2.0384
3.2860 2.3371 2.0384
3.0853 2.5909 2.0384
2.8649 2.8274 2.0384
2.6261 3.0452 2.0384
2.3708 3.2427 2.0384
0.7642 1.2437 0.7416
0.6618 1.3009 0.7423
0.5551 1.3497 0.7431
0.4448 1.3897 0.7439
0.3316 1.4207 0.7447
0.2163 1.4425 0.7455
0.0996 1.4549 0.7463
-0.0177 1.4578 0.7470
-0.1348 1.4512 0.7478
-0.2511 1.4352 0.7485
-0.3656 1.4099 0.7491
-0.4778 1.3755 0.7498
-0.5868 1.3321 0.7504
-0.6919 1.2800 0.7509
-2.1498 3.3087 2.0384
-2.4071 3.1217 2.0384
-2.6484 2.9150 2.0384
-2.8724 2.6898 2.0384
-3.0776 2.4477 2.0384
-3.2627 2.1901 2.0384
-3.4268 1.9188 2.0384
-3.5687 1.6354 2.0384
-3.6875 1.3417 2.0384
-3.7826 1.0396 2.0384
-3.8535 0.7310 2.0384
-3.8996 0.4177 2.0384
-3.9206 0.1018 2.0384
-3.9165 -0.2148 2.0384
-3.8873 -0.5302 2.0384
-3.8331 -0.8422 2.0384
-3.7542 -1.1491 2.0384
-3.6512 -1.4489 2.0384
-3.5246 -1.7396 2.0384
-3.3752 -2.0195 2.0384
-3.2039 -2.2867 2.0384
-3.0117 -2.5397 2.0384
-2.7999 -2.7767 2.0384
-2.5696 -2.9962 2.0384
-2.3223 -3.1968 2.0384
-0.7532 -1.2349 0.7454
-0.6514 -1.2917 0.7446
-0.5453 -1.3401 0.7438
-0.4358 -1.3799 0.7430
-0.3235 -1.4107 0.7422
-0.2090 -1.4325 0.7415
-0.0932 -1.4450 0.7407
0.0233 -1.4481 0.7399
0.1396 -1.4420 0.7392
0.2551 -1.4265 0.7385
0.3690 -1.4019 0.7378
0.4805 -1.3681 0.7372
0.5890 -1.3256 0.7366
0.6938 -1.2745 0.7361
2.2005 -3.3673 2.0384
2.4660 -3.1830 2.0384
2.7159 -2.9776 2.0384
2.9484 -2.7525 2.0384
3.1620 -2.5091 2.0384
3.3552 -2.2490 2.0384
3.5268 -1.9739 2.0384
3.6755 -1.6857 2.0384
3.8002 -1.3862 2.0384
3.9002 -1.0774 2.0384
3.9748 -0.7615 2.0384
4.0234 -0.4406 2.0384
4.0457 -0.1167 2.0384
4.0416 0.2079 2.0384
4.0110 0.5310 2.0384
3.9543 0.8505 2.0384
3.8718 1.1642 2.0384
3.7641 1.4701 2.0384
3.6319 1.7661 2.0384
3.4762 2.0502 2.0384
3.2980 2.3205 2.0384
3.0986 2.5754 2.0384
2.8793 2.8131 2.0384
2.6417 3.0320 2.0384
2.3873 3.2308 2.0384
0.7705 1.2398 0.7415
0.6684 1.2976 0.7423
0.5619 1.3469 0.7431
0.4518 1.3875 0.7439
0.3388 1.4190 0.7447
0.2237 1.4414 0.7455
0.1070 1.4543 0.7462
-0.0103 1.4579 0.7470
-0.1275 1.4519 0.7477
-0.2438 1.4365 0.7484
0.0727 1.3599 0.7462
-0.0369 1.3610 0.7469
-0.1462 1.3532 0.7476
-0.2546 1.3366 0.7483
-0.3612 1.3114 0.7489
-0.4655 1.2776 0.7495
-0.5666 1.2355 0.7500
-0.6641 1.1854 0.7505
-0.7571 1.1277 0.7510
-2.2929 2.8826 2.0384
-2.5157 2.6861 2.0384
-2.7219 2.4726 2.0384
-2.9104 2.2435 2.0384
-3.0799 2.0003 2.0384
-3.2295 1.7444 2.0384
-3.3582 1.4776 2.0384
-3.4652 1.2014 2.0384
-3.5500 0.9177 2.0384
-3.6118 0.6282 2.0384
-3.6505 0.3347 2.0384
-3.6658 0.0391 2.0384
-3.6575 -0.2569 2.0384
-3.6256 -0.5512 2.0384
-3.5705 -0.8422 2.0384
-3.4924 -1.1279 2.0384
-3.3918 -1.4067 2.0384
-3.2692 -1.6766 2.0384
-3.1255 -1.9361 2.0384
-2.9615 -2.1834 2.0384
-2.7781 -2.4171 2.0384
-2.5766 -2.6355 2.0384
-2.3582 -2.8372 2.0384
-0.7772 -1.1054 0.7458
-0.6858 -1.1645 0.7451
-0.5898 -1.2161 0.7444
-0.4901 -1.2599 0.7436
-0.3872 -1.2955 0.7429
-0.2818 -1.3227 0.7422
-0.1746 -1.3414 0.7414
-0.0662 -1.3514 0.7407
0.0427 -1.3527 0.7400
0.1513 -1.3453 0.7394
0.2590 -1.3293 0.7387
0.3650 -1.3046 0.7381
0.4687 -1.2715 0.7375
0.5695 -1.2302 0.7370
0.6666 -1.1810 0.7365
0.7595 -1.1241 0.7360
2.3486 -2.9371 2.0384
2.5788 -2.7416 2.0384
2.7925 -2.5280 2.0384
2.9883 -2.2976 2.0384
3.1649 -2.0519 2.0384
3.3209 -1.7926 2.0384
3.4555 -1.5214 2.0384
3.5676 -1.2400 2.0384
3.6564 -0.9504 2.0384
3.7214 -0.6545 2.0384
3.7621 -0.3542 2.0384
3.7783 -0.0517 2.0384
3.7698 0.2512 2.0384
3.7367 0.5523 2.0384
3.6792 0.8497 2.0384
3.5978 1.1414 2.0384
3.4930 1.4253 2.0384
3.3655 1.6997 2.0384
3.2162 1.9627 2.0384
3.0461 2.2126 2.0384
2.8565 2.4477 2.0384
2.6485 2.6665 2.0384
2.4237 2.8676 2.0384
0.7938 1.1087 0.7411
0.7022 1.1688 0.7418
0.6060 1.2212 0.7425
0.5059 1.2657 0.7433
0.4025 1.3021 0.7440
0.2966 1.3299 0.7447
0.1887 1.3491 0.7455
0.0796 1.3596 0.7462
-0.0300 1.3612 0.7469
-0.1394 1.3540 0.7476
-0.2478 1.3379 0.7482
-0.3545 1.3132 0.7488
-0.4590 1.2800 0.7494
-0.5603 1.2384 0.7500
-0.6580 1.1888 0.7505
-0.7514 1.1315 0.7509
-2.2784 2.8944 2.0384
-2.5021 2.6990 2.0384
-2.7094 2.4866 2.0384
-2.8991 2.2584 2.0384
-3.0698 2.0160 2.0384
-3.2207 1.7609 2.0384
-3.3507 1.4947 2.0384
-3.4591 1.2191 2.0384
-3.5453 0.9358 2.0384
-3.6086 0.6466 2.0384
-3.6488 0.3533 2.0384
-3.6655 0.0578 2.0384
-3.6587 -0.2382 2.0384
-3.6283 -0.5327 2.0384
-3.5747 -0.8240 2.0384
-3.4980 -1.1101 2.0384
-3.3988 -1.3893 2.0384
-3.2776 -1.6599 2.0384
-3.1352 -1.9201 2.0384
-2.9724 -2.1682 2.0384
-2.7903 -2.4028 2.0384
-2.5899 -2.6222 2.0384
-2.3725 -2.8250 2.0384
-2.1393 -3.0100 2.0384
-0.6917 -1.1610 0.7452
-0.5960 -1.2131 0.7444
-0.4965 -1.2573 0.7437
-0.3938 -1.2935 0.7430
-0.2885 -1.3212 0.7422
-0.1814 -1.3405 0.7415
-0.0730 -1.3510 0.7408
0.0358 -1.3529 0.7401
0.1445 -1.3461 0.7394
0.2522 -1.3305 0.7388
0.3584 -1.3064 0.7381
0.4623 -1.2738 0.7376
0.5632 -1.2331 0.7370
0.6606 -1.1843 0.7365
0.7538 -1.1279 0.7360
2.3335 -2.9487 2.0384
2.5647 -2.7545 2.0384
2.7796 -2.5420 2.0384
2.9765 -2.3126 2.0384
3.1543 -2.0678 2.0384
3.3117 -1.8093 2.0384
