ply
format ascii 1.0
element vertex 2176
property float32 x
property float32 y
property float32 z
end_header
-0.5101 1.0809 0.7467
-0.5953 1.0362 0.7467
-0.6766 0.9848 0.7467
-0.7534 0.9270 0.7467
-2.2535 2.3569 2.0385
-2.4354 2.1678 2.0385
-2.6016 1.9647 2.0385
-2.7510 1.7489 2.0385
-2.8826 1.5218 2.0385
-2.9955 1.2850 2.0385
-3.0891 1.0399 2.0385
-3.1627 0.7880 2.0385
-3.2159 0.5311 2.0385
-3.2484 0.2707 2.0385
-3.2598 0.0085 2.0385
-3.2502 -0.2537 2.0385
-3.2196 -0.5144 2.0385
-3.1682 -0.7718 2.0385
-3.0964 -1.0242 2.0385
-3.0044 -1.2702 2.0385
-2.8931 -1.5079 2.0385
-2.7630 -1.7360 2.0385
-2.6150 -1.9530 2.0385
-2.4501 -2.1574 2.0385
-2.2692 -2.3480 2.0385
-0.7553 -0.9191 0.7425
-0.6789 -0.9768 0.7422
-0.5982 -1.0281 0.7420
-0.5136 -1.0729 0.7418
-0.4257 -1.1106 0.7416
-0.3350 -1.1413 0.7414
-0.2422 -1.1645 0.7412
-0.1479 -1.1803 0.7410
-0.0526 -1.1884 0.7409
0.0431 -1.1889 0.7407
0.1384 -1.1817 0.7406
0.2329 -1.1669 0.7405
0.3260 -1.1445 0.7404
0.4169 -1.1148 0.7403
0.5051 -1.0779 0.7403
0.5902 -1.0340 0.7403
0.6714 -0.9834 0.7403
0.7484 -0.9265 0.7403
2.2592 -2.3779 2.0385
2.4432 -2.1891 2.0385
2.6114 -1.9861 2.0385
2.7626 -1.7701 2.0385
2.8960 -1.5427 2.0385
3.0107 -1.3053 2.0385
3.1058 -1.0594 2.0385
3.1808 -0.8066 2.0385
3.2353 -0.5486 2.0385
3.2687 -0.2871 2.0385
3.2810 -0.0237 2.0385
3.2720 0.2398 2.0385
3.2419 0.5017 2.0385
3.1907 0.7603 2.0385
3.1189 1.0139 2.0385
3.0269 1.2608 2.0385
2.9154 1.4996 2.0385
2.7850 1.7285 2.0385
2.6366 1.9462 2.0385
2.4712 2.1512 2.0385
2.2899 2.3422 2.0385
0.7647 0.9196 0.7445
0.6884 0.9781 0.7447
0.6076 1.0303 0.7449
0.5229 1.0758 0.7452
0.4348 1.1144 0.7454
0.3438 1.1457 0.7456
0.2506 1.1696 0.7458
0.1558 1.1859 0.7459
0.0600 1.1946 0.7461
-0.0362 1.1954 0.7462
-0.1322 1.1885 0.7464
-0.2273 1.1739 0.7465
-0.3209 1.1517 0.7466
-0.4124 1.1220 0.7466
-0.5012 1.0851 0.7467
-0.5868 1.0411 0.7467
-0.6685 0.9903 0.7467
-0.7458 0.9332 0.7467
-2.2341 2.3753 2.0385
-2.4176 2.1877 2.0385
-2.5855 1.9859 2.0385
-2.7366 1.7714 2.0385
-2.8700 1.5454 2.0385
-2.9849 1.3095 2.0385
-3.0805 1.0651 2.0385
-3.1562 0.8139 2.0385
-3.2115 0.5574 2.0385
-3.2460 0.2973 2.0385
-3.2596 0.0352 2.0385
-3.2522 -0.2271 2.0385
-3.2237 -0.4880 2.0385
-3.1744 -0.7458 2.0385
-3.1046 -0.9988 2.0385
-3.0147 -1.2455 2.0385
-2.9053 -1.4842 2.0385
-2.7771 -1.7133 2.0385
-2.6309 -1.9315 2.0385
-2.4676 -2.1372 2.0385
-2.2883 -2.3293 2.0385
-0.7628 -0.9129 0.7425
-0.6869 -0.9712 0.7423
-0.6066 -1.0232 0.7420
-0.5223 -1.0686 0.7418
-0.4347 -1.1071 0.7416
-0.3444 -1.1385 0.7414
-0.2518 -1.1625 0.7412
-0.1576 -1.1790 0.7410
-0.0623 -1.1879 0.7409
0.0333 -1.1892 0.7407
0.1288 -1.1828 0.7406
0.2234 -1.1687 0.7405
0.3166 -1.1471 0.7404
0.4077 -1.1181 0.7404
0.4963 -1.0819 0.7403
0.5817 -1.0388 0.7403
0.6633 -0.9889 0.7403
0.7407 -0.9326 0.7403
2.2397 -2.3963 2.0385
2.4252 -2.2090 2.0385
2.5950 -2.0073 2.0385
2.7480 -1.7927 2.0385
2.8833 -1.5663 2.0385
2.9999 -1.3298 2.0385
3.0970 -1.0847 2.0385
3.1741 -0.8326 2.0385
3.2307 -0.5750 2.0385
3.2663 -0.3138 2.0385
3.2807 -0.0505 2.0385
3.2739 0.2130 2.0385
3.2459 0.4752 2.0385
3.1969 0.7342 2.0385
3.1272 0.9883 2.0385
3.0372 1.2361 2.0385
2.9276 1.4757 2.0385
2.7991 1.7057 2.0385
2.6525 1.9246 2.0385
2.4888 2.1310 2.0385
2.3091 2.3235 2.0385
0.7722 0.9133 0.7444
0.6964 0.9724 0.7447
0.6160 1.0253 0.7449
0.5317 1.0715 0.7451
0.4439 1.1108 0.7454
0.3532 1.1429 0.7456
0.2602 1.1675 0.7458
0.1655 1.1846 0.7459
0.0697 1.1940 0.7461
-0.0265 1.1957 0.7462
-0.1225 1.1896 0.7464
-0.2177 1.1758 0.7465
-0.3115 1.1543 0.7466
-0.4032 1.1254 0.7466
-0.4923 1.0892 0.7467
-0.5782 1.0459 0.7467
-0.6604 0.9958 0.7467
-0.7382 0.9393 0.7467
-2.2146 2.3936 2.0385
-2.3996 2.2074 2.0385
-2.5691 2.0071 2.0385
-2.7220 1.7937 2.0385
-2.8573 1.5689 2.0385
-2.9741 1.3339 2.0385
-3.0716 1.0903 2.0385
-3.1494 0.8397 2.0385
-3.2068 0.5837 2.0385
-3.2435 0.3238 2.0385
-3.2592 0.0619 2.0385
-3.2539 -0.2005 2.0385
-3.2276 -0.4616 2.0385
-3.1804 -0.7198 2.0385
-3.1126 -0.9734 2.0385
-3.0247 -1.2207 2.0385
-2.9173 -1.4603 2.0385
-2.7910 -1.6905 2.0385
-2.6465 -1.9098 2.0385
-2.4850 -2.1169 2.0385
-2.3072 -2.3104 2.0385
-0.7702 -0.9066 0.7425
-0.6948 -0.9656 0.7423
-0.6149 -1.0182 0.7421
-0.5311 -1.0643 0.7418
-0.4438 -1.1035 0.7416
-0.3537 -1.1356 0.7414
-0.2613 -1.1604 0.7412
-0.1672 -1.1777 0.7410
-0.0720 -1.1874 0.7409
0.0236 -1.1894 0.7407
0.1191 -1.1838 0.7406
0.2138 -1.1705 0.7405
0.3072 -1.1497 0.7404
0.3986 -1.1214 0.7404
0.4874 -1.0860 0.7403
0.5732 -1.0435 0.7403
0.6552 -0.9942 0.7403
0.7331 -0.9386 0.7403
2.2200 -2.4145 2.0385
2.4070 -2.2287 2.0385
2.5785 -2.0285 2.0385
2.7333 -1.8150 2.0385
2.8704 -1.5898 2.0385
2.9889 -1.3543 2.0385
3.0881 -1.1100 2.0385
3.1672 -0.8585 2.0385
3.2259 -0.6015 2.0385
3.2636 -0.3405 2.0385
3.2802 -0.0774 2.0385
3.2756 0.1862 2.0385
3.2497 0.4486 2.0385
3.2028 0.7080 2.0385
3.1352 0.9627 2.0385
3.0473 1.2112 2.0385
2.9396 1.4518 2.0385
2.8130 1.6828 2.0385
2.6682 1.9029 2.0385
2.5062 2.1106 2.0385
2.3280 2.3045 2.0385
0.7796 0.9069 0.7444
0.7043 0.9667 0.7447
0.6244 1.0202 0.7449
0.5404 1.0671 0.7451
0.4529 1.1071 0.7453
0.3625 1.1399 0.7455
0.2697 1.1654 0.7457
0.1752 1.1832 0.7459
0.0795 1.1934 0.7461
-0.0167 1.1959 0.7462
-0.1127 1.1906 0.7463
-0.2081 1.1775 0.7465
-0.3020 1.1569 0.7465
-0.3940 1.1287 0.7466
-0.4834 1.0932 0.7467
-0.5697 1.0506 0.7467
-0.6522 1.0012 0.7467
-0.7305 0.9453 0.7467
-2.1950 2.4117 2.0385
-2.3815 2.2270 2.0385
-2.5526 2.0281 2.0385
-2.7072 1.8160 2.0385
-2.8443 1.5922 2.0385
-2.9630 1.3582 2.0385
-3.0626 1.1155 2.0385
-3.1424 0.8655 2.0385
-3.2019 0.6099 2.0385
-3.2407 0.3504 2.0385
-3.2586 0.0886 2.0385
-3.2554 -0.1738 2.0385
-3.2312 -0.4351 2.0385
-3.1861 -0.6937 2.0385
-3.1204 -0.9478 2.0385
-3.0346 -1.1959 2.0385
-2.9291 -1.4363 2.0385
-2.8047 -1.6675 2.0385
-2.6620 -1.8880 2.0385
-2.5021 -2.0964 2.0385
-2.3260 -2.2913 2.0385
-0.7777 -0.9003 0.7426
-0.7027 -0.9598 0.7423
-0.6232 -1.0132 0.7421
-0.5398 -1.0599 0.7419
-0.4528 -1.0999 0.7416
-0.3630 -1.1327 0.7414
-0.2708 -1.1582 0.7412
-0.1768 -1.1763 0.7411
-0.0817 -1.1867 0.7409
0.0139 -1.1895 0.7408
0.1094 -1.1847 0.7406
0.2042 -1.1722 0.7405
0.2978 -1.1521 0.7404
0.3894 -1.1246 0.7404
0.4785 -1.0899 0.7403
0.5646 -1.0481 0.7403
0.6471 -0.9996 0.7403
0.7254 -0.9445 0.7403
2.2001 -2.4325 2.0385
2.3887 -2.2483 2.0385
2.5618 -2.0495 2.0385
2.7183 -1.8373 2.0385
2.8573 -1.6133 2.0385
2.9777 -1.3787 2.0385
3.0789 -1.1352 2.0385
3.1601 -0.8844 2.0385
3.2209 -0.6278 2.0385
3.2607 -0.3672 2.0385
3.2795 -0.1042 2.0385
3.2770 0.1595 2.0385
3.2533 0.4220 2.0385
3.2085 0.6818 2.0385
3.1430 0.9371 2.0385
3.0571 1.1863 2.0385
2.9515 1.4277 2.0385
2.8267 1.6598 2.0385
2.6838 1.8811 2.0385
2.5235 2.0901 2.0385
2.3469 2.2855 2.0385
0.7870 0.9005 0.7444
0.7122 0.9609 0.7446
0.6327 1.0151 0.7449
0.5491 1.0627 0.7451
0.4620 1.1034 0.7453
0.3718 1.1369 0.7455
0.2793 1.1631 0.7457
0.1849 1.1818 0.7459
0.0893 1.1928 0.7461
-0.0069 1.1960 0.7462
-0.1030 1.1915 0.7463
-0.1984 1.1792 0.7464
-0.2926 1.1593 0.7465
-0.3848 1.1319 0.7466
-0.4745 1.0971 0.7467
-0.5611 1.0552 0.7467
-0.6440 1.0065 0.7467
-0.7227 0.9513 0.7467
-2.1752 2.4296 2.0385
-2.3632 2.2465 2.0385
-2.5360 2.0489 2.0385
-2.6923 1.8381 2.0385
-2.8312 1.6155 2.0385
-2.9518 1.3825 2.0385
-3.0534 1.1405 2.0385
-3.1352 0.8912 2.0385
-3.1968 0.6361 2.0385
-3.2377 0.3769 2.0385
-3.2577 0.1153 2.0385
-3.2567 -0.1471 2.0385
-3.2346 -0.4086 2.0385
-3.1916 -0.6676 2.0385
-3.1280 -0.9222 2.0385
-3.0442 -1.1710 2.0385
-2.9407 -1.4123 2.0385
-2.8181 -1.6445 2.0385
-2.6773 -1.8661 2.0385
-2.5192 -2.0758 2.0385
-2.3447 -2.2722 2.0385
-2.1549 -2.4539 2.0385
-0.7105 -0.9541 0.7423
-0.6315 -1.0080 0.7421
-0.5484 -1.0555 0.7419
-0.4618 -1.0961 0.7417
-0.3722 -1.1297 0.7415
-0.2802 -1.1560 0.7413
-0.1864 -1.1748 0.7411
-0.0915 -1.1860 0.7409
0.0041 -1.1896 0.7408
0.0997 -1.1855 0.7406
0.1946 -1.1738 0.7405
0.2883 -1.1545 0.7404
0.3802 -1.1278 0.7404
0.4696 -1.0937 0.7403
0.5560 -1.0527 0.7403
0.6388 -1.0048 0.7403
0.7176 -0.9504 0.7403
2.1801 -2.4504 2.0385
2.3702 -2.2677 2.0385
2.5449 -2.0703 2.0385
2.7032 -1.8595 2.0385
2.8439 -1.6366 2.0385
2.9663 -1.4030 2.0385
3.0695 -1.1604 2.0385
3.1528 -0.9102 2.0385
3.2156 -0.6541 2.0385
3.2577 -0.3938 2.0385
3.2786 -0.1310 2.0385
3.2782 0.1327 2.0385
3.2567 0.3954 2.0385
3.2141 0.6555 2.0385
3.1506 0.9114 2.0385
3.0668 1.1612 2.0385
2.9631 1.4035 2.0385
2.8403 1.6366 2.0385
2.6991 1.8591 2.0385
2.5405 2.0694 2.0385
2.3655 2.2663 2.0385
2.1753 2.4484 2.0385
0.7200 0.9550 0.7446
0.6410 1.0098 0.7448
0.5578 1.0581 0.7451
0.4710 1.0996 0.7453
0.3811 1.1339 0.7455
0.2888 1.1608 0.7457
0.1945 1.1802 0.7459
0.0990 1.1920 0.7460
0.0029 1.1960 0.7462
-0.0932 1.1923 0.7463
-0.1888 1.1808 0.7464
-0.2831 1.1617 0.7465
-0.3755 1.1350 0.7466
-0.4655 1.1010 0.7467
-0.5524 1.0598 0.7467
-0.6357 1.0118 0.7467
-0.7149 0.9572 0.7467
-2.1552 2.4474 2.0385
-2.3448 2.2658 2.0385
-2.5191 2.0696 2.0385
-2.6772 1.8601 2.0385
-2.8179 1.6386 2.0385
-2.9404 1.4066 2.0385
-3.0439 1.1655 2.0385
-3.1278 0.9168 2.0385
-3.1914 0.6623 2.0385
-3.2345 0.4034 2.0385
-3.2566 0.1420 2.0385
-3.2577 -0.1204 2.0385
-3.2378 -0.3821 2.0385
-3.1970 -0.6414 2.0385
-3.1355 -0.8965 2.0385
-3.0537 -1.1460 2.0385
-2.9521 -1.3881 2.0385
-2.8315 -1.6213 2.0385
-2.6925 -1.8441 2.0385
-2.5360 -2.0551 2.0385
-2.3631 -2.2529 2.0385
-2.1749 -2.4361 2.0385
-0.7183 -0.9482 0.7424
-0.6397 -1.0028 0.7421
-0.5570 -1.0510 0.7419
-0.4708 -1.0923 0.7417
-0.3814 -1.1266 0.7415
-0.2897 -1.1536 0.7413
-0.1960 -1.1732 0.7411
-0.1012 -1.1852 0.7409
-0.0056 -1.1896 0.7408
0.0900 -1.1863 0.7407
0.1850 -1.1753 0.7405
0.2789 -1.1568 0.7404
0.3709 -1.1308 0.7404
0.4606 -1.0975 0.7403
0.5474 -1.0572 0.7403
0.6306 -1.0100 0.7403
0.7098 -0.9562 0.7403
0.7844 -0.8963 0.7403
2.3515 -2.2870 2.0385
2.5279 -2.0910 2.0385
2.6878 -1.8815 2.0385
2.8304 -1.6597 2.0385
2.9547 -1.4272 2.0385
3.0599 -1.1854 2.0385
3.1452 -0.9359 2.0385
3.2102 -0.6804 2.0385
3.2543 -0.4205 2.0385
3.2774 -0.1578 2.0385
3.2793 0.1058 2.0385
3.2599 0.3688 2.0385
3.2193 0.6292 2.0385
3.1580 0.8856 2.0385
3.0762 1.1361 2.0385
2.9745 1.3793 2.0385
2.8536 1.6134 2.0385
2.7143 1.8370 2.0385
2.5574 2.0486 2.0385
2.3841 2.2469 2.0385
2.1954 2.4305 2.0385
0.7278 0.9491 0.7446
0.6492 1.0046 0.7448
0.5664 1.0535 0.7451
0.4800 1.0957 0.7453
0.3904 1.1307 0.7455
0.2983 1.1584 0.7457
0.2042 1.1786 0.7459
0.1088 1.1911 0.7460
0.0127 1.1960 0.7462
-0.0835 1.1930 0.7463
-0.1791 1.1823 0.7464
-0.2735 1.1640 0.7465
-0.3662 1.1381 0.7466
-0.4564 1.1048 0.7466
-0.5437 1.0643 0.7467
-0.6274 1.0170 0.7467
-0.7071 0.9630 0.7467
-2.1351 2.4650 2.0385
-2.3262 2.2850 2.0385
-2.5021 2.0902 2.0385
-2.6619 1.8820 2.0385
-2.8044 1.6617 2.0385
-2.9288 1.4306 2.0385
-3.0343 1.1904 2.0385
-3.1202 0.9424 2.0385
-3.1859 0.6884 2.0385
-3.2311 0.4299 2.0385
-3.2553 0.1686 2.0385
-3.2586 -0.0938 2.0385
-3.2408 -0.3556 2.0385
-3.2021 -0.6152 2.0385
-3.1426 -0.8708 2.0385
-3.0629 -1.1209 2.0385
-2.9633 -1.3638 2.0385
-2.8446 -1.5980 2.0385
-2.7074 -1.8220 2.0385
-2.5527 -2.0342 2.0385
-2.3814 -2.2334 2.0385
-2.1947 -2.4182 2.0385
-0.7261 -0.9423 0.7424
-0.6479 -0.9976 0.7422
-0.5656 -1.0464 0.7419
-0.4797 -1.0884 0.7417
-0.3907 -1.1234 0.7415
-0.2991 -1.1512 0.7413
-0.2056 -1.1716 0.7411
-0.1108 -1.1843 0.7410
-0.0153 -1.1895 0.7408
0.0803 -1.1870 0.7407
0.1754 -1.1768 0.7406
0.2694 -1.1590 0.7405
0.3617 -1.1338 0.7404
0.4516 -1.1012 0.7403
0.5387 -1.0616 0.7403
0.6223 -1.0151 0.7403
0.7019 -0.9620 0.7403
0.7771 -0.9027 0.7403
2.3327 -2.3061 2.0385
2.5106 -2.1116 2.0385
2.6724 -1.9034 2.0385
2.8168 -1.6828 2.0385
2.9430 -1.4513 2.0385
3.0501 -1.2104 2.0385
3.1375 -0.9616 2.0385
3.2045 -0.7066 2.0385
3.2508 -0.4470 2.0385
3.2760 -0.1846 2.0385
3.2800 0.0790 2.0385
3.2628 0.3421 2.0385
3.2244 0.6029 2.0385
3.1652 0.8598 2.0385
3.0855 1.1110 2.0385
2.9858 1.3549 2.0385
2.8668 1.5900 2.0385
2.7293 1.8148 2.0385
2.5742 2.0277 2.0385
2.4024 2.2274 2.0385
2.2152 2.4126 2.0385
0.7355 0.9431 0.7446
0.6574 0.9992 0.7448
0.5750 1.0489 0.7450
0.4889 1.0917 0.7452
0.3996 1.1275 0.7455
0.3077 1.1559 0.7457
0.2138 1.1769 0.7458
0.1185 1.1902 0.7460
0.0225 1.1958 0.7462
-0.0737 1.1937 0.7463
-0.1694 1.1838 0.7464
-0.2640 1.1662 0.7465
-0.3569 1.1410 0.7466
-0.4474 1.1085 0.7466
-0.5350 1.0688 0.7467
-0.6191 1.0221 0.7467
-0.6992 0.9688 0.7467
-0.7747 0.9093 0.7467
-2.3074 2.3040 2.0385
-2.4849 2.1107 2.0385
-2.6464 1.9038 2.0385
-2.7907 1.6846 2.0385
-2.9170 1.4546 2.0385
-3.0245 1.2152 2.0385
-3.1124 0.9680 2.0385
-3.1802 0.7145 2.0385
-3.2274 0.4564 2.0385
-3.2538 0.1953 2.0385
-3.2592 -0.0670 2.0385
-3.2436 -0.3290 2.0385
-3.2070 -0.5889 2.0385
-3.1496 -0.8450 2.0385
-3.0719 -1.0958 2.0385
-2.9744 -1.3395 2.0385
-2.8575 -1.5746 2.0385
-2.7222 -1.7997 2.0385
-2.5692 -2.0132 2.0385
-2.3996 -2.2137 2.0385
-2.2144 -2.4001 2.0385
-0.7338 -0.9363 0.7424
-0.6561 -0.9922 0.7422
-0.5742 -1.0417 0.7419
-0.4886 -1.0845 0.7417
-0.3998 -1.1202 0.7415
-0.3085 -1.1487 0.7413
-0.2152 -1.1698 0.7411
-0.1205 -1.1834 0.7410
-0.0251 -1.1893 0.7408
0.0706 -1.1876 0.7407
0.1658 -1.1782 0.7406
0.2599 -1.1612 0.7405
0.3524 -1.1367 0.7404
0.4426 -1.1049 0.7403
0.5300 -1.0659 0.7403
0.6140 -1.0201 0.7403
0.6940 -0.9677 0.7403
0.7696 -0.9090 0.7403
2.3137 -2.3251 2.0385
2.4933 -2.1320 2.0385
2.6567 -1.9252 2.0385
2.8029 -1.7058 2.0385
2.9310 -1.4753 2.0385
3.0401 -1.2353 2.0385
3.1295 -0.9872 2.0385
3.1986 -0.7328 2.0385
3.2470 -0.4736 2.0385
3.2744 -0.2114 2.0385
3.2806 0.0522 2.0385
3.2655 0.3154 2.0385
3.2293 0.5765 2.0385
3.1722 0.8338 2.0385
3.0945 1.0857 2.0385
2.9968 1.3305 2.0385
2.8798 1.5666 2.0385
2.7441 1.7924 2.0385
2.5907 2.0066 2.0385
2.4206 2.2077 2.0385
2.2349 2.3944 2.0385
0.7432 0.9370 0.7445
0.6656 0.9938 0.7448
0.5836 1.0441 0.7450
0.4978 1.0877 0.7452
0.4088 1.1242 0.7454
0.3172 1.1534 0.7456
0.2235 1.1751 0.7458
0.1283 1.1892 0.7460
0.0323 1.1956 0.7461
-0.0639 1.1942 0.7463
-0.1597 1.1851 0.7464
-0.2544 1.1683 0.7465
-0.3475 1.1439 0.7466
-0.4383 1.1121 0.7466
-0.5262 1.0731 0.7467
-0.6107 1.0272 0.7467
-0.6912 0.9745 0.7467
-0.7672 0.9156 0.7467
-2.2885 2.3228 2.0385
-2.4676 2.1310 2.0385
-2.6307 1.9254 2.0385
-2.7769 1.7074 2.0385
-2.9050 1.4784 2.0385
-3.0144 1.2399 2.0385
-3.1043 0.9934 2.0385
-3.1742 0.7405 2.0385
-3.2236 0.4828 2.0385
-3.2521 0.2219 2.0385
-3.2596 -0.0404 2.0385
-3.2461 -0.3024 2.0385
-3.2116 -0.5626 2.0385
-3.1564 -0.8192 2.0385
-3.0808 -1.0705 2.0385
-2.9852 -1.3151 2.0385
-2.8703 -1.5511 2.0385
-2.7368 -1.7773 2.0385
-2.5856 -1.9920 2.0385
-2.4176 -2.1939 2.0385
-2.2339 -2.3818 2.0385
-0.7414 -0.9303 0.7424
-0.6642 -0.9868 0.7422
-0.5827 -1.0370 0.7420
-0.4974 -1.0804 0.7417
-0.4090 -1.1169 0.7415
-0.3179 -1.1462 0.7413
-0.2248 -1.1680 0.7412
-0.1302 -1.1824 0.7410
-0.0348 -1.1891 0.7408
0.0609 -1.1881 0.7407
0.1561 -1.1795 0.7406
0.2504 -1.1633 0.7405
0.3431 -1.1395 0.7404
0.4335 -1.1085 0.7403
0.5212 -1.0702 0.7403
0.6056 -1.0251 0.7403
0.6861 -0.9733 0.7403
0.7622 -0.9152 0.7403
2.2946 -2.3439 2.0385
2.4757 -2.1523 2.0385
2.6408 -1.9468 2.0385
2.7888 -1.7286 2.0385
2.9188 -1.4992 2.0385
3.0299 -1.2601 2.0385
3.1213 -1.0128 2.0385
3.1925 -0.7589 2.0385
3.2431 -0.5001 2.0385
3.2726 -0.2381 2.0385
3.2809 0.0254 2.0385
3.2680 0.2887 2.0385
3.2339 0.5501 2.0385
3.1789 0.8079 2.0385
3.1033 1.0604 2.0385
3.0076 1.3060 2.0385
2.8925 1.5430 2.0385
2.7587 1.7700 2.0385
2.6071 1.9854 2.0385
2.4387 2.1879 2.0385
2.2545 2.3761 2.0385
0.7508 0.9309 0.7445
0.6737 0.9883 0.7447
0.5921 1.0393 0.7450
0.5067 1.0835 0.7452
0.4180 1.1208 0.7454
0.3266 1.1507 0.7456
0.2331 1.1732 0.7458
0.1380 1.1881 0.7460
0.0421 1.1953 0.7461
-0.0541 1.1947 0.7463
-0.1500 1.1864 0.7464
-0.2449 1.1704 0.7465
-0.3381 1.1468 0.7466
-0.4292 1.1157 0.7466
-0.5174 1.0774 0.7467
-0.6023 1.0321 0.7467
-0.6832 0.9802 0.7467
-0.7597 0.9219 0.7467
-2.2694 2.3415 2.0385
-2.4501 2.1512 2.0385
-2.6149 1.9469 2.0385
-2.7628 1.7301 2.0385
-2.8928 1.5022 2.0385
-3.0042 1.2646 2.0385
-3.0961 1.0188 2.0385
-3.1680 0.7665 2.0385
-3.2195 0.5092 2.0385
-3.2502 0.2486 2.0385
-3.2598 -0.0136 2.0385
-3.2485 -0.2758 2.0385
-3.2161 -0.5363 2.0385
-3.1630 -0.7933 2.0385
-3.0894 -1.0453 2.0385
-2.9958 -1.2905 2.0385
-2.8828 -1.5276 2.0385
-2.7512 -1.7548 2.0385
-2.6017 -1.9707 2.0385
-2.4354 -2.1740 2.0385
-2.2533 -2.3634 2.0385
-0.7490 -0.9242 0.7425
-0.6723 -0.9814 0.7422
-0.5912 -1.0322 0.7420
-0.5063 -1.0763 0.7418
-0.4181 -1.1135 0.7416
-0.3273 -1.1435 0.7414
-0.2343 -1.1661 0.7412
-0.1399 -1.1812 0.7410
-0.0445 -1.1887 0.7408
0.0511 -1.1886 0.7407
0.1465 -1.1807 0.7406
0.2409 -1.1653 0.7405
0.3337 -1.1423 0.7404
0.4244 -1.1120 0.7403
0.5125 -1.0744 0.7403
0.5972 -1.0300 0.7403
0.6781 -0.9789 0.7403
0.7546 -0.9214 0.7403
2.2753 -2.3625 2.0385
2.4580 -2.1725 2.0385
2.6248 -1.9683 2.0385
2.7746 -1.7514 2.0385
2.9064 -1.5230 2.0385
3.0194 -1.2848 2.0385
3.1129 -1.0383 2.0385
3.1862 -0.7850 2.0385
3.2389 -0.5267 2.0385
3.2706 -0.2649 2.0385
3.2811 -0.0015 2.0385
3.2703 0.2620 2.0385
3.2384 0.5236 2.0385
3.1855 0.7819 2.0385
3.1119 1.0350 2.0385
3.0183 1.2813 2.0385
2.9051 1.5193 2.0385
2.7732 1.7473 2.0385
2.6233 1.9640 2.0385
2.4565 2.1679 2.0385
2.2739 2.3576 2.0385
0.7584 0.9247 0.7445
0.6817 0.9828 0.7447
0.6006 1.0344 0.7450
0.5156 1.0794 0.7452
0.4272 1.1173 0.7454
0.3360 1.1480 0.7456
0.2427 1.1713 0.7458
0.1477 1.1870 0.7460
0.0519 1.1949 0.7461
-0.0444 1.1951 0.7463
-0.1403 1.1876 0.7464
-0.2353 1.1724 0.7465
-0.3287 1.1495 0.7466
-0.4200 1.1192 0.7466
-0.5086 1.0816 0.7467
-0.5938 1.0371 0.7467
-0.6752 0.9858 0.7467
-0.7521 0.9281 0.7467
-2.2502 2.3601 2.0385
-2.4324 2.1712 2.0385
-2.5989 1.9683 2.0385
-2.7485 1.7527 2.0385
-2.8804 1.5259 2.0385
-2.9937 1.2892 2.0385
-3.0876 1.0442 2.0385
-3.1616 0.7924 2.0385
-3.2152 0.5355 2.0385
-3.2480 0.2752 2.0385
-3.2598 0.0131 2.0385
-3.2506 -0.2492 2.0385
-3.2203 -0.5099 2.0385
-3.1693 -0.7674 2.0385
-3.0978 -1.0199 2.0385
-3.0062 -1.2660 2.0385
-2.8952 -1.5039 2.0385
-2.7654 -1.7322 2.0385
-2.6177 -1.9493 2.0385
-2.4531 -2.1540 2.0385
-2.2725 -2.3448 2.0385
-0.7566 -0.9181 0.7425
-0.6803 -0.9758 0.7422
-0.5996 -1.0273 0.7420
-0.5151 -1.0721 0.7418
-0.4272 -1.1101 0.7416
-0.3366 -1.1408 0.7414
-0.2439 -1.1642 0.7412
-0.1495 -1.1801 0.7410
-0.0543 -1.1883 0.7409
0.0414 -1.1889 0.7407
0.1368 -1.1819 0.7406
0.2313 -1.1672 0.7405
0.3244 -1.1450 0.7404
0.4153 -1.1154 0.7403
0.5036 -1.0786 0.7403
0.5887 -1.0348 0.7403
0.6700 -0.9844 0.7403
0.7471 -0.9276 0.7403
2.2559 -2.3810 2.0385
2.4401 -2.1925 2.0385
2.6086 -1.9897 2.0385
2.7601 -1.7740 2.0385
2.8939 -1.5467 2.0385
3.0088 -1.3095 2.0385
3.1043 -1.0637 2.0385
3.1797 -0.8110 2.0385
3.2345 -0.5531 2.0385
3.2683 -0.2916 2.0385
3.2810 -0.0283 2.0385
3.2724 0.2352 2.0385
3.2426 0.4972 2.0385
3.1918 0.7558 2.0385
3.1203 1.0095 2.0385
3.0287 1.2566 2.0385
2.9175 1.4955 2.0385
2.7874 1.7247 2.0385
2.6393 1.9425 2.0385
2.4742 2.1478 2.0385
2.2932 2.3390 2.0385
0.7660 0.9185 0.7445
0.6898 0.9771 0.7447
0.6091 1.0295 0.7449
0.5244 1.0751 0.7452
0.4363 1.1138 0.7454
0.3454 1.1452 0.7456
0.2522 1.1693 0.7458
0.1574 1.1857 0.7459
0.0616 1.1945 0.7461
-0.0346 1.1955 0.7462
-0.1306 1.1887 0.7464
-0.2257 1.1743 0.7465
-0.3193 1.1522 0.7466
-0.4109 1.1226 0.7466
-0.4997 1.0858 0.7467
-0.5853 1.0419 0.7467
-0.6671 0.9913 0.7467
-0.7445 0.9342 0.7467
-2.2308 2.3785 2.0385
-2.4146 2.1910 2.0385
-2.5827 1.9895 2.0385
-2.7341 1.7752 2.0385
-2.8679 1.5494 2.0385
-2.9831 1.3136 2.0385
-3.0790 1.0694 2.0385
-3.1550 0.8183 2.0385
-3.2107 0.5619 2.0385
-3.2456 0.3018 2.0385
-3.2596 0.0398 2.0385
-3.2525 -0.2226 2.0385
-3.2244 -0.4835 2.0385
-3.1754 -0.7414 2.0385
-3.1060 -0.9945 2.0385
-3.0164 -1.2413 2.0385
-2.9073 -1.4801 2.0385
-2.7794 -1.7094 2.0385
-2.6335 -1.9278 2.0385
-2.4706 -2.1338 2.0385
-2.2915 -2.3260 2.0385
-0.7641 -0.9119 0.7425
-0.6882 -0.9703 0.7423
-0.6080 -1.0224 0.7420
-0.5238 -1.0679 0.7418
-0.4363 -1.1065 0.7416
-0.3460 -1.1380 0.7414
-0.2534 -1.1621 0.7412
-0.1592 -1.1788 0.7410
-0.0640 -1.1878 0.7409
0.0317 -1.1892 0.7407
0.1271 -1.1829 0.7406
0.2218 -1.1690 0.7405
0.3150 -1.1476 0.7404
0.4062 -1.1187 0.7404
0.4948 -1.0826 0.7403
0.5802 -1.0396 0.7403
0.6620 -0.9898 0.7403
0.7394 -0.9336 0.7403
2.2363 -2.3994 2.0385
2.4221 -2.2124 2.0385
2.5922 -2.0110 2.0385
2.7455 -1.7965 2.0385
2.8811 -1.5704 2.0385
2.9980 -1.3340 2.0385
3.0955 -1.0891 2.0385
3.1730 -0.8370 2.0385
3.2299 -0.5796 2.0385
3.2658 -0.3184 2.0385
3.2807 -0.0551 2.0385
3.2742 0.2084 2.0385
3.2466 0.4706 2.0385
3.1979 0.7297 2.0385
3.1285 0.9840 2.0385
3.0389 1.2318 2.0385
2.9297 1.4716 2.0385
2.8015 1.7018 2.0385
2.6552 1.9209 2.0385
2.4918 2.1275 2.0385
2.3123 2.3202 2.0385
0.7735 0.9122 0.7444
0.6977 0.9715 0.7447
0.6175 1.0244 0.7449
0.5332 1.0708 0.7451
0.4454 1.1102 0.7454
0.3548 1.1424 0.7456
0.2618 1.1672 0.7458
0.1672 1.1844 0.7459
0.0714 1.1939 0.7461
-0.0248 1.1957 0.7462
-0.1208 1.1898 0.7464
-0.2161 1.1761 0.7465
-0.3099 1.1548 0.7465
-0.4017 1.1260 0.7466
-0.4908 1.0899 0.7467
-0.5768 1.0467 0.7467
-0.6590 0.9967 0.7467
-0.7369 0.9403 0.7467
-2.2113 2.3967 2.0385
-2.3966 2.2108 2.0385
-2.5663 2.0106 2.0385
-2.7195 1.7976 2.0385
-2.8551 1.5729 2.0385
-2.9722 1.3381 2.0385
-3.0701 1.0946 2.0385
-3.1482 0.8441 2.0385
-3.2060 0.5882 2.0385
-3.2430 0.3284 2.0385
-3.2591 0.0665 2.0385
-3.2542 -0.1959 2.0385
-3.2282 -0.4571 2.0385
-3.1814 -0.7153 2.0385
-3.1140 -0.9690 2.0385
-3.0264 -1.2165 2.0385
-2.9193 -1.4562 2.0385
-2.7933 -1.6866 2.0385
-2.6492 -1.9061 2.0385
-2.4879 -2.1134 2.0385
-2.3105 -2.3071 2.0385
-0.7715 -0.9056 0.7425
-0.6962 -0.9646 0.7423
-0.6163 -1.0174 0.7421
-0.5326 -1.0636 0.7418
-0.4453 -1.1029 0.7416
-0.3553 -1.1351 0.7414
-0.2629 -1.1600 0.7412
-0.1688 -1.1774 0.7411
-0.0737 -1.1873 0.7409
0.0219 -1.1894 0.7407
0.1174 -1.1839 0.7406
0.2122 -1.1708 0.7405
0.3056 -1.1501 0.7404
0.3970 -1.1220 0.7404
0.4859 -1.0866 0.7403
0.5717 -1.0443 0.7403
0.6538 -0.9952 0.7403
0.7318 -0.9396 0.7403
2.2166 -2.4175 2.0385
2.4039 -2.2320 2.0385
2.5756 -2.0321 2.0385
2.7307 -1.8189 2.0385
2.8681 -1.5939 2.0385
2.9870 -1.3585 2.0385
3.0865 -1.1143 2.0385
3.1660 -0.8629 2.0385
3.2250 -0.6059 2.0385
3.2631 -0.3450 2.0385
3.2801 -0.0819 2.0385
3.2758 0.1817 2.0385
3.2504 0.4441 2.0385
3.2038 0.7035 2.0385
3.1365 0.9584 2.0385
3.0490 1.2070 2.0385
2.9417 1.4476 2.0385
2.8154 1.6789 2.0385
2.6709 1.8992 2.0385
2.5091 2.1071 2.0385
2.3313 2.3013 2.0385
0.7809 0.9058 0.7444
0.7056 0.9657 0.7446
0.6258 1.0193 0.7449
0.5419 1.0664 0.7451
0.4545 1.1065 0.7453
0.3641 1.1394 0.7455
0.2714 1.1650 0.7457
0.1768 1.1830 0.7459
0.0812 1.1933 0.7461
-0.0150 1.1959 0.7462
-0.1111 1.1907 0.7463
-0.2064 1.1778 0.7465
-0.3004 1.1573 0.7465
-0.3924 1.1292 0.7466
-0.4819 1.0938 0.7467
-0.5682 1.0514 0.7467
-0.6508 1.0021 0.7467
-0.7291 0.9464 0.7467
-2.1916 2.4148 2.0385
-2.3784 2.2304 2.0385
-2.5498 2.0316 2.0385
-2.7047 1.8198 2.0385
-2.8421 1.5962 2.0385
-2.9612 1.3624 2.0385
-3.0611 1.1197 2.0385
-3.1412 0.8699 2.0385
-3.2010 0.6144 2.0385
-3.2402 0.3549 2.0385
-3.2584 0.0932 2.0385
-3.2556 -0.1693 2.0385
-3.2318 -0.4306 2.0385
-3.1871 -0.6892 2.0385
-3.1218 -0.9435 2.0385
-3.0362 -1.1917 2.0385
-2.9311 -1.4322 2.0385
-2.8070 -1.6636 2.0385
-2.6646 -1.8843 2.0385
-2.5051 -2.0929 2.0385
-2.3292 -2.2881 2.0385
-0.7789 -0.8992 0.7426
-0.7040 -0.9589 0.7423
-0.6246 -1.0123 0.7421
-0.5412 -1.0592 0.7419
-0.4543 -1.0992 0.7416
-0.3645 -1.1322 0.7414
-0.2724 -1.1578 0.7412
-0.1785 -1.1760 0.7411
-0.0834 -1.1866 0.7409
0.0122 -1.1896 0.7408
0.1077 -1.1848 0.7406
0.2026 -1.1725 0.7405
0.2962 -1.1525 0.7404
0.3878 -1.1252 0.7404
0.4770 -1.0906 0.7403
0.5631 -1.0489 0.7403
0.6457 -1.0004 0.7403
0.7240 -0.9455 0.7403
2.1967 -2.4356 2.0385
2.3855 -2.2516 2.0385
2.5589 -2.0530 2.0385
2.7157 -1.8411 2.0385
2.8550 -1.6172 2.0385
2.9758 -1.3829 2.0385
3.0773 -1.1395 2.0385
3.1589 -0.8888 2.0385
3.2200 -0.6323 2.0385
3.2602 -0.3717 2.0385
3.2794 -0.1087 2.0385
3.2772 0.1549 2.0385
3.2539 0.4175 2.0385
3.2095 0.6773 2.0385
3.1443 0.9327 2.0385
3.0588 1.1820 2.0385
2.9535 1.4236 2.0385
2.8291 1.6558 2.0385
2.6864 1.8773 2.0385
2.5264 2.0866 2.0385
2.3501 2.2822 2.0385
0.7883 0.8994 0.7444
0.7135 0.9599 0.7446
0.6341 1.0142 0.7449
0.5506 1.0619 0.7451
0.4635 1.1027 0.7453
0.3734 1.1364 0.7455
0.2809 1.1627 0.7457
0.1865 1.1815 0.7459
0.0909 1.1926 0.7461
-0.0052 1.1960 0.7462
-0.1013 1.1916 0.7463
-0.1968 1.1795 0.7464
-0.2909 1.1597 0.7465
-0.3832 1.1324 0.7466
-0.4729 1.0978 0.7467
-0.5596 1.0560 0.7467
-0.6426 1.0074 0.7467
-0.7214 0.9523 0.7467
-2.1718 2.4327 2.0385
-2.3601 2.2498 2.0385
-2.5331 2.0524 2.0385
-2.6897 1.8419 2.0385
-2.8290 1.6194 2.0385
-2.9499 1.3866 2.0385
-3.0518 1.1448 2.0385
-3.1340 0.8956 2.0385
-3.1959 0.6406 2.0385
-3.2372 0.3815 2.0385
-3.2575 0.1199 2.0385
-3.2569 -0.1426 2.0385
-3.2352 -0.4041 2.0385
-3.1926 -0.6631 2.0385
-3.1293 -0.9178 2.0385
-3.0459 -1.1667 2.0385
-2.9427 -1.4081 2.0385
-2.8204 -1.6405 2.0385
-2.6799 -1.8624 2.0385
-2.5221 -2.0723 2.0385
-2.3478 -2.2689 2.0385
-2.1583 -2.4509 2.0385
-0.7119 -0.9531 0.7423
-0.6329 -1.0071 0.7421
-0.5499 -1.0547 0.7419
-0.4633 -1.0955 0.7417
-0.3738 -1.1292 0.7415
-0.2818 -1.1556 0.7413
-0.1881 -1.1745 0.7411
-0.0931 -1.1859 0.7409
0.0025 -1.1896 0.7408
0.0980 -1.1857 0.7406
0.1930 -1.1741 0.7405
0.2867 -1.1549 0.7404
0.3786 -1.1283 0.7404
0.4681 -1.0944 0.7403
0.5545 -1.0534 0.7403
0.6374 -1.0057 0.7403
0.7163 -0.9514 0.7403
2.1767 -2.4534 2.0385
2.3670 -2.2710 2.0385
2.5420 -2.0739 2.0385
2.7006 -1.8632 2.0385
2.8417 -1.6405 2.0385
2.9644 -1.4072 2.0385
3.0679 -1.1647 2.0385
3.1515 -0.9146 2.0385
3.2147 -0.6586 2.0385
3.2571 -0.3984 2.0385
3.2784 -0.1356 2.0385
3.2784 0.1281 2.0385
3.2573 0.3908 2.0385
3.2150 0.6510 2.0385
3.1519 0.9070 2.0385
3.0684 1.1570 2.0385
2.9651 1.3994 2.0385
2.8426 1.6327 2.0385
2.7017 1.8553 2.0385
2.5434 2.0659 2.0385
2.3687 2.2630 2.0385
2.1788 2.4453 2.0385
0.7213 0.9540 0.7446
0.6424 1.0089 0.7448
0.5593 1.0573 0.7451
0.4725 1.0989 0.7453
0.3827 1.1333 0.7455
0.2904 1.1604 0.7457
0.1962 1.1800 0.7459
0.1007 1.1918 0.7460
0.0046 1.1960 0.7462
-0.0916 1.1924 0.7463
-0.1871 1.1811 0.7464
-0.2814 1.1621 0.7465
-0.3739 1.1355 0.7466
-0.4639 1.1016 0.7467
-0.5509 1.0606 0.7467
-0.6343 1.0127 0.7467
-0.7136 0.9582 0.7467
-2.1518 2.4504 2.0385
-2.3416 2.2691 2.0385
-2.5162 2.0732 2.0385
-2.6746 1.8639 2.0385
-2.8156 1.6426 2.0385
-2.9385 1.4107 2.0385
-3.0423 1.1697 2.0385
-3.1265 0.9212 2.0385
-3.1905 0.6668 2.0385
-3.2339 0.4080 2.0385
-3.2564 0.1465 2.0385
-3.2579 -0.1159 2.0385
-3.2383 -0.3776 2.0385
-3.1979 -0.6369 2.0385
-3.1367 -0.8922 2.0385
-3.0553 -1.1417 2.0385
-2.9540 -1.3840 2.0385
-2.8337 -1.6173 2.0385
-2.6950 -1.8403 2.0385
-2.5389 -2.0515 2.0385
-2.3663 -2.2495 2.0385
-2.1783 -2.4331 2.0385
-0.7197 -0.9472 0.7424
-0.6411 -1.0019 0.7421
-0.5585 -1.0502 0.7419
-0.4723 -1.0917 0.7417
-0.3830 -1.1261 0.7415
-0.2913 -1.1532 0.7413
-0.1977 -1.1729 0.7411
-0.1028 -1.1851 0.7409
-0.0073 -1.1896 0.7408
0.0883 -1.1864 0.7407
0.1834 -1.1756 0.7405
0.2772 -1.1572 0.7405
0.3693 -1.1313 0.7404
0.4591 -1.0982 0.7403
0.5459 -1.0579 0.7403
0.6292 -1.0108 0.7403
0.7085 -0.9572 0.7403
0.7832 -0.8974 0.7403
2.3483 -2.2903 2.0385
2.5249 -2.0946 2.0385
2.6852 -1.8852 2.0385
2.8281 -1.6637 2.0385
2.9528 -1.4313 2.0385
3.0582 -1.1897 2.0385
3.1439 -0.9403 2.0385
3.2092 -0.6849 2.0385
3.2537 -0.4250 2.0385
3.2772 -0.1624 2.0385
3.2794 0.1013 2.0385
3.2604 0.3642 2.0385
3.2202 0.6248 2.0385
3.1592 0.8812 2.0385
3.0778 1.1319 2.0385
2.9765 1.3751 2.0385
2.8559 1.6094 2.0385
2.7169 1.8332 2.0385
2.5603 2.0450 2.0385
2.3872 2.2436 2.0385
2.1988 2.4275 2.0385
0.7291 0.9481 0.7446
0.6506 1.0037 0.7448
0.5679 1.0527 0.7450
0.4815 1.0950 0.7453
0.3920 1.1302 0.7455
0.2999 1.1580 0.7457
0.2058 1.1783 0.7459
0.1105 1.1910 0.7460
0.0144 1.1959 0.7462
-0.0818 1.1931 0.7463
-0.1774 1.1826 0.7464
-0.2719 1.1644 0.7465
-0.3646 1.1386 0.7466
-0.4549 1.1054 0.7466
-0.5422 1.0651 0.7467
-0.6260 1.0179 0.7467
-0.7057 0.9640 0.7467
-2.1317 2.4680 2.0385
-2.3230 2.2882 2.0385
-2.4992 2.0937 2.0385
-2.6592 1.8857 2.0385
-2.8021 1.6656 2.0385
-2.9268 1.4347 2.0385
-3.0326 1.1946 2.0385
-3.1189 0.9468 2.0385
-3.1849 0.6929 2.0385
-3.2305 0.4344 2.0385
-3.2551 0.1732 2.0385
-3.2587 -0.0892 2.0385
-3.2413 -0.3511 2.0385
-3.2029 -0.6107 2.0385
-3.1438 -0.8664 2.0385
-3.0644 -1.1166 2.0385
-2.9652 -1.3597 2.0385
-2.8468 -1.5941 2.0385
-2.7100 -1.8182 2.0385
-2.5555 -2.0306 2.0385
-2.3845 -2.2300 2.0385
-2.1981 -2.4151 2.0385
-0.7274 -0.9413 0.7424
-0.6493 -0.9967 0.7422
-0.5671 -1.0456 0.7419
-0.4812 -1.0878 0.7417
-0.3922 -1.1229 0.7415
-0.3007 -1.1508 0.7413
-0.2073 -1.1713 0.7411
-0.1125 -1.1842 0.7410
-0.0170 -1.1895 0.7408
0.0786 -1.1871 0.7407
0.1738 -1.1770 0.7406
0.2678 -1.1594 0.7405
0.3601 -1.1343 0.7404
0.4501 -1.1019 0.7403
0.5372 -1.0623 0.7403
0.6209 -1.0159 0.7403
0.7006 -0.9630 0.7403
0.7758 -0.9038 0.7403
2.3295 -2.3093 2.0385
2.5077 -2.1151 2.0385
2.6697 -1.9071 2.0385
2.8144 -1.6867 2.0385
2.9409 -1.4554 2.0385
3.0484 -1.2146 2.0385
3.1361 -0.9660 2.0385
3.2035 -0.7111 2.0385
3.2502 -0.4516 2.0385
3.2758 -0.1891 2.0385
3.2801 0.0745 2.0385
3.2633 0.3376 2.0385
3.2253 0.5984 2.0385
3.1664 0.8553 2.0385
3.0870 1.1066 2.0385
-2.1720 2.1629 2.0385
-2.3387 1.9810 2.0385
-2.4902 1.7862 2.0385
-2.6256 1.5800 2.0385
-2.7441 1.3636 2.0385
-2.8448 1.1384 2.0385
-2.9271 0.9059 2.0385
-2.9905 0.6675 2.0385
-3.0346 0.4248 2.0385
-3.0591 0.1793 2.0385
-3.0638 -0.0674 2.0385
-3.0487 -0.3136 2.0385
-3.0139 -0.5579 2.0385
-2.9597 -0.7986 2.0385
-2.8863 -1.0342 2.0385
-2.7942 -1.2632 2.0385
-2.6841 -1.4841 2.0385
-2.5565 -1.6955 2.0385
-2.4124 -1.8959 2.0385
-2.2527 -2.0842 2.0385
-0.7572 -0.8231 0.7427
-0.6885 -0.8813 0.7425
-0.6154 -0.9337 0.7423
-0.5384 -0.9801 0.7420
-0.4578 -1.0202 0.7418
-0.3744 -1.0537 0.7416
-0.2885 -1.0804 0.7414
-0.2007 -1.1001 0.7413
-0.1117 -1.1127 0.7411
-0.0219 -1.1182 0.7410
0.0680 -1.1164 0.7408
0.1574 -1.1075 0.7407
0.2459 -1.0914 0.7406
0.3328 -1.0682 0.7406
0.4176 -1.0382 0.7405
0.4997 -1.0015 0.7405
0.5786 -0.9582 0.7405
0.6538 -0.9088 0.7405
0.7248 -0.8536 0.7405
2.1778 -2.1823 2.0385
2.3463 -2.0006 2.0385
2.4996 -1.8060 2.0385
2.6367 -1.5996 2.0385
2.7568 -1.3828 2.0385
2.8590 -1.1571 2.0385
2.9427 -0.9238 2.0385
3.0074 -0.6846 2.0385
3.0525 -0.4409 2.0385
3.0779 -0.1944 2.0385
3.0834 0.0533 2.0385
3.0689 0.3007 2.0385
3.0345 0.5460 2.0385
2.9805 0.7878 2.0385
2.9072 1.0244 2.0385
2.8151 1.2544 2.0385
2.7048 1.4761 2.0385
2.5770 1.6882 2.0385
2.4326 1.8893 2.0385
2.2725 2.0781 2.0385
0.7659 0.8227 0.7442
0.6973 0.8816 0.7445
0.6243 0.9349 0.7447
0.5472 0.9820 0.7449
0.4665 1.0228 0.7451
0.3828 1.0570 0.7453
0.2966 1.0844 0.7455
0.2085 1.1047 0.7457
0.1191 1.1178 0.7458
0.0288 1.1237 0.7460
-0.0616 1.1223 0.7461
-0.1516 1.1136 0.7462
-0.2406 1.0977 0.7463
-0.3280 1.0746 0.7464
-0.4133 1.0446 0.7464
-0.4959 1.0078 0.7465
-0.5753 0.9645 0.7465
-0.6509 0.9150 0.7465
-0.7222 0.8595 0.7465
-2.1543 2.1806 2.0385
-2.3224 2.0001 2.0385
-2.4755 1.8066 2.0385
-2.6126 1.6015 2.0385
-2.7328 1.3860 2.0385
-2.8354 1.1617 2.0385
-2.9196 0.9298 2.0385
-2.9849 0.6920 2.0385
-3.0310 0.4496 2.0385
-3.0575 0.2043 2.0385
-3.0642 -0.0423 2.0385
-3.0512 -0.2886 2.0385
-3.0184 -0.5332 2.0385
-2.9661 -0.7743 2.0385
-2.8946 -1.0105 2.0385
-2.8044 -1.2403 2.0385
-2.6961 -1.4620 2.0385
-2.5703 -1.6744 2.0385
-2.4278 -1.8761 2.0385
-2.2696 -2.0657 2.0385
-0.7639 -0.8169 0.7427
-0.6957 -0.8756 0.7425
-0.6231 -0.9286 0.7423
-0.5464 -0.9757 0.7421
-0.4662 -1.0164 0.7418
-0.3830 -1.0506 0.7416
-0.2973 -1.0780 0.7415
-0.2097 -1.0984 0.7413
-0.1208 -1.1118 0.7411
-0.0311 -1.1180 0.7410
0.0588 -1.1169 0.7409
0.1484 -1.1087 0.7407
0.2370 -1.0933 0.7407
0.3241 -1.0709 0.7406
0.4091 -1.0416 0.7405
0.4915 -1.0055 0.7405
0.5708 -0.9629 0.7405
0.6463 -0.9141 0.7405
0.7178 -0.8595 0.7405
0.7846 -0.7992 0.7405
2.3298 -2.0197 2.0385
2.4847 -1.8263 2.0385
2.6235 -1.6211 2.0385
2.7454 -1.4053 2.0385
2.8494 -1.1804 2.0385
2.9351 -0.9478 2.0385
3.0017 -0.7091 2.0385
3.0488 -0.4659 2.0385
3.0763 -0.2196 2.0385
3.0837 0.0281 2.0385
3.0713 0.2756 2.0385
3.0389 0.5212 2.0385
2.9869 0.7634 2.0385
2.9155 1.0006 2.0385
2.8253 1.2313 2.0385
2.7168 1.4540 2.0385
2.5907 1.6671 2.0385
2.4480 1.8694 2.0385
2.2894 2.0595 2.0385
0.7726 0.8164 0.7442
0.7045 0.8759 0.7444
0.6319 0.9297 0.7447
0.5552 0.9775 0.7449
0.4749 1.0190 0.7451
0.3915 1.0539 0.7453
0.3055 1.0819 0.7455
0.2176 1.1029 0.7457
0.1282 1.1168 0.7458
0.0380 1.1234 0.7460
-0.0524 1.1227 0.7461
-0.1425 1.1148 0.7462
-0.2316 1.0996 0.7463
-0.3192 1.0773 0.7464
-0.4048 1.0480 0.7464
-0.4876 1.0119 0.7465
-0.5673 0.9692 0.7465
-0.6433 0.9203 0.7465
-0.7151 0.8654 0.7465
-2.1364 2.1982 2.0385
-2.3060 2.0190 2.0385
-2.4607 1.8268 2.0385
-2.5994 1.6228 2.0385
-2.7214 1.4084 2.0385
-2.8258 1.1849 2.0385
-2.9119 0.9537 2.0385
-2.9791 0.7164 2.0385
-3.0272 0.4744 2.0385
-3.0557 0.2294 2.0385
-3.0644 -0.0172 2.0385
-3.0534 -0.2636 2.0385
-3.0226 -0.5084 2.0385
-2.9723 -0.7500 2.0385
-2.9028 -0.9868 2.0385
-2.8144 -1.2172 2.0385
-2.7079 -1.4399 2.0385
-2.5839 -1.6533 2.0385
-2.4430 -1.8561 2.0385
-2.2864 -2.0470 2.0385
-0.7706 -0.8106 0.7428
-0.7029 -0.8699 0.7425
-0.6306 -0.9235 0.7423
-0.5544 -0.9712 0.7421
-0.4745 -1.0126 0.7419
-0.3916 -1.0474 0.7417
-0.3061 -1.0755 0.7415
-0.2187 -1.0967 0.7413
-0.1299 -1.1107 0.7411
-0.0402 -1.1177 0.7410
0.0497 -1.1174 0.7409
0.1393 -1.1099 0.7408
0.2280 -1.0952 0.7407
0.3153 -1.0735 0.7406
0.4006 -1.0449 0.7405
0.4832 -1.0095 0.7405
0.5628 -0.9676 0.7405
0.6388 -0.9194 0.7405
0.7107 -0.8653 0.7405
0.7781 -0.8056 0.7405
2.3132 -2.0387 2.0385
2.4697 -1.8466 2.0385
2.6102 -1.6424 2.0385
2.7338 -1.4277 2.0385
2.8397 -1.2036 2.0385
2.9272 -0.9718 2.0385
2.9958 -0.7337 2.0385
3.0449 -0.4908 2.0385
3.0744 -0.2447 2.0385
3.0839 0.0029 2.0385
3.0734 0.2504 2.0385
3.0431 0.4963 2.0385
2.9930 0.7390 2.0385
2.9236 0.9768 2.0385
2.8353 1.2082 2.0385
2.7286 1.4317 2.0385
2.6044 1.6459 2.0385
2.4632 1.8494 2.0385
2.3063 2.0408 2.0385
0.7792 0.8101 0.7442
0.7117 0.8701 0.7444
0.6395 0.9245 0.7447
0.5632 0.9729 0.7449
0.4832 1.0151 0.7451
0.4001 1.0506 0.7453
0.3144 1.0794 0.7455
0.2266 1.1011 0.7457
0.1374 1.1157 0.7458
0.0472 1.1231 0.7460
-0.0432 1.1231 0.7461
-0.1333 1.1159 0.7462
-0.2226 1.1015 0.7463
-0.3104 1.0799 0.7464
-0.3962 1.0513 0.7464
-0.4794 1.0159 0.7465
-0.5594 0.9739 0.7465
-0.6358 0.9256 0.7465
-0.7080 0.8713 0.7465
-0.7757 0.8113 0.7464
-2.2894 2.0379 2.0385
-2.4456 1.8469 2.0385
-2.5861 1.6441 2.0385
-2.7098 1.4307 2.0385
-2.8160 1.2080 2.0385
-2.9039 0.9775 2.0385
-2.9732 0.7408 2.0385
-3.0232 0.4992 2.0385
-3.0537 0.2544 2.0385
-3.0644 0.0079 2.0385
-3.0554 -0.2386 2.0385
-3.0266 -0.4836 2.0385
-2.9783 -0.7256 2.0385
-2.9107 -0.9629 2.0385
-2.8243 -1.1941 2.0385
-2.7196 -1.4176 2.0385
-2.5972 -1.6321 2.0385
-2.4581 -1.8360 2.0385
-2.3030 -2.0281 2.0385
-0.7772 -0.8043 0.7428
-0.7100 -0.8641 0.7425
-0.6382 -0.9183 0.7423
-0.5623 -0.9666 0.7421
-0.4828 -1.0087 0.7419
-0.4001 -1.0442 0.7417
-0.3149 -1.0730 0.7415
-0.2277 -1.0948 0.7413
-0.1390 -1.1096 0.7412
-0.0494 -1.1173 0.7410
0.0405 -1.1177 0.7409
0.1302 -1.1110 0.7408
0.2191 -1.0970 0.7407
0.3065 -1.0760 0.7406
0.3920 -1.0481 0.7405
0.4750 -1.0134 0.7405
0.5549 -0.9721 0.7405
0.6313 -0.9246 0.7405
0.7036 -0.8710 0.7405
0.7714 -0.8119 0.7405
2.2964 -2.0575 2.0385
2.4545 -1.8667 2.0385
2.5966 -1.6637 2.0385
2.7220 -1.4500 2.0385
2.8297 -1.2268 2.0385
2.9192 -0.9957 2.0385
2.9897 -0.7581 2.0385
3.0408 -0.5157 2.0385
3.0723 -0.2699 2.0385
3.0838 -0.0223 2.0385
3.0754 0.2253 2.0385
3.0471 0.4714 2.0385
2.9990 0.7145 2.0385
2.9316 0.9528 2.0385
2.8451 1.1850 2.0385
2.7403 1.4094 2.0385
2.6178 1.6246 2.0385
2.4783 1.8292 2.0385
2.3229 2.0219 2.0385
0.7858 0.8037 0.7442
0.7188 0.8642 0.7444
0.6470 0.9192 0.7446
0.5711 0.9683 0.7449
0.4915 1.0111 0.7451
0.4087 1.0473 0.7453
0.3232 1.0768 0.7455
0.2356 1.0992 0.7456
0.1465 1.1146 0.7458
0.0564 1.1227 0.7459
-0.0340 1.1235 0.7461
-0.1242 1.1170 0.7462
-0.2136 1.1033 0.7463
-0.3015 1.0824 0.7464
-0.3876 1.0545 0.7464
-0.4710 1.0198 0.7465
-0.5514 0.9784 0.7465
-0.6282 0.9308 0.7465
-0.7009 0.8771 0.7465
-0.7690 0.8177 0.7464
-2.2726 2.0566 2.0385
-2.4305 1.8669 2.0385
-2.5725 1.6652 2.0385
-2.6980 1.4528 2.0385
-2.8060 1.2310 2.0385
-2.8958 1.0013 2.0385
-2.9670 0.7651 2.0385
-3.0190 0.5240 2.0385
-3.0515 0.2794 2.0385
-3.0643 0.0330 2.0385
-3.0572 -0.2136 2.0385
-3.0305 -0.4588 2.0385
-2.9841 -0.7012 2.0385
-2.9184 -0.9391 2.0385
-2.8339 -1.1709 2.0385
-2.7310 -1.3953 2.0385
-2.6105 -1.6107 2.0385
-2.4730 -1.8158 2.0385
-2.3195 -2.0092 2.0385
-2.1510 -2.1897 2.0385
-0.7170 -0.8583 0.7426
-0.6457 -0.9131 0.7423
-0.5702 -0.9620 0.7421
-0.4910 -1.0047 0.7419
-0.4087 -1.0409 0.7417
-0.3237 -1.0704 0.7415
-0.2366 -1.0929 0.7413
-0.1481 -1.1085 0.7412
-0.0585 -1.1168 0.7410
0.0314 -1.1180 0.7409
0.1211 -1.1120 0.7408
0.2101 -1.0988 0.7407
0.2977 -1.0785 0.7406
0.3834 -1.0512 0.7405
0.4667 -1.0172 0.7405
0.5469 -0.9766 0.7405
0.6237 -0.9297 0.7405
0.6965 -0.8768 0.7405
0.7647 -0.8182 0.7405
2.2795 -2.0762 2.0385
2.4391 -1.8867 2.0385
2.5829 -1.6849 2.0385
2.7100 -1.4722 2.0385
2.8196 -1.2499 2.0385
2.9109 -1.0195 2.0385
2.9834 -0.7826 2.0385
3.0365 -0.5405 2.0385
3.0700 -0.2950 2.0385
3.0836 -0.0475 2.0385
3.0772 0.2002 2.0385
3.0509 0.4465 2.0385
3.0048 0.6900 2.0385
2.9393 0.9289 2.0385
2.8548 1.1617 2.0385
2.7518 1.3869 2.0385
2.6310 1.6031 2.0385
2.4933 1.8089 2.0385
2.3394 2.0029 2.0385
0.7923 0.7972 0.7441
0.7258 0.8583 0.7444
0.6545 0.9139 0.7446
0.5790 0.9636 0.7448
0.4998 1.0070 0.7450
0.4172 1.0439 0.7452
0.3320 1.0741 0.7454
0.2446 1.0973 0.7456
0.1556 1.1133 0.7458
0.0656 1.1222 0.7459
-0.0248 1.1237 0.7461
-0.1150 1.1180 0.7462
-0.2045 1.1050 0.7463
-0.2927 1.0848 0.7464
-0.3789 1.0577 0.7464
-0.4627 1.0236 0.7465
-0.5434 0.9829 0.7465
-0.6206 0.9359 0.7465
-0.6937 0.8828 0.7465
-0.7623 0.8240 0.7465
-2.2558 2.0752 2.0385
-2.4151 1.8868 2.0385
-2.5588 1.6863 2.0385
-2.6860 1.4749 2.0385
-2.7958 1.2540 2.0385
-2.8875 1.0250 2.0385
-2.9606 0.7894 2.0385
-3.0146 0.5487 2.0385
-3.0491 0.3044 2.0385
-3.0639 0.0581 2.0385
-3.0589 -0.1885 2.0385
-3.0341 -0.4340 2.0385
-2.9897 -0.6767 2.0385
-2.9260 -0.9151 2.0385
-2.8434 -1.1476 2.0385
-2.7423 -1.3728 2.0385
-2.6235 -1.5892 2.0385
-2.4877 -1.7954 2.0385
-2.3358 -1.9901 2.0385
-2.1688 -2.1719 2.0385
-0.7241 -0.8524 0.7426
-0.6531 -0.9078 0.7424
-0.5780 -0.9573 0.7421
-0.4992 -1.0006 0.7419
-0.4172 -1.0375 0.7417
-0.3324 -1.0677 0.7415
-0.2456 -1.0910 0.7414
-0.1571 -1.1072 0.7412
-0.0677 -1.1163 0.7410
0.0223 -1.1182 0.7409
0.1120 -1.1129 0.7408
0.2011 -1.1004 0.7407
0.2889 -1.0809 0.7406
0.3748 -1.0543 0.7405
0.4583 -1.0210 0.7405
0.5389 -0.9810 0.7405
0.6161 -0.9347 0.7405
0.6892 -0.8824 0.7405
0.7580 -0.8244 0.7405
2.2624 -2.0947 2.0385
2.4236 -1.9065 2.0385
2.5690 -1.7059 2.0385
2.6979 -1.4943 2.0385
2.8093 -1.2729 2.0385
2.9025 -1.0433 2.0385
2.9769 -0.8069 2.0385
3.0320 -0.5653 2.0385
3.0675 -0.3201 2.0385
3.0831 -0.0728 2.0385
3.0788 0.1750 2.0385
3.0545 0.4216 2.0385
3.0104 0.6654 2.0385
2.9468 0.9048 2.0385
2.8642 1.1383 2.0385
2.7631 1.3644 2.0385
2.6441 1.5816 2.0385
2.5080 1.7885 2.0385
2.3558 1.9837 2.0385
2.1883 2.1660 2.0385
0.7328 0.8524 0.7444
0.6620 0.9085 0.7446
0.5869 0.9588 0.7448
0.5080 1.0029 0.7450
0.4258 1.0405 0.7452
0.3408 1.0713 0.7454
0.2536 1.0952 0.7456
0.1647 1.1120 0.7458
0.0748 1.1216 0.7459
-0.0156 1.1239 0.7461
-0.1059 1.1189 0.7462
-0.1955 1.1067 0.7463
-0.2838 1.0872 0.7464
-0.3702 1.0607 0.7464
-0.4543 1.0274 0.7465
-0.5353 0.9874 0.7465
-0.6129 0.9410 0.7465
-0.6865 0.8885 0.7465
-0.7556 0.8302 0.7465
-2.2387 2.0936 2.0385
-2.3996 1.9065 2.0385
-2.5449 1.7072 2.0385
-2.6738 1.4968 2.0385
-2.7854 1.2768 2.0385
-2.8791 1.0486 2.0385
-2.9541 0.8136 2.0385
-3.0100 0.5733 2.0385
-3.0465 0.3294 2.0385
-3.0633 0.0832 2.0385
-3.0603 -0.1634 2.0385
-3.0375 -0.4091 2.0385
-2.9951 -0.6522 2.0385
-2.9333 -0.8911 2.0385
-2.8526 -1.1243 2.0385
-2.7534 -1.3503 2.0385
-2.6364 -1.5677 2.0385
-2.5023 -1.7749 2.0385
-2.3520 -1.9708 2.0385
-2.1864 -2.1540 2.0385
-0.7310 -0.8464 0.7426
-0.6606 -0.9024 0.7424
-0.5859 -0.9525 0.7422
-0.5074 -0.9965 0.7420
-0.4256 -1.0340 0.7417
-0.3412 -1.0649 0.7416
-0.2545 -1.0889 0.7414
-0.1662 -1.1059 0.7412
-0.0768 -1.1157 0.7411
0.0131 -1.1184 0.7409
0.1029 -1.1138 0.7408
0.1921 -1.1020 0.7407
0.2800 -1.0832 0.7406
0.3661 -1.0573 0.7405
0.4499 -1.0247 0.7405
0.5309 -0.9854 0.7405
0.6084 -0.9397 0.7405
0.6820 -0.8880 0.7405
0.7512 -0.8305 0.7405
2.2452 -2.1131 2.0385
2.4079 -1.9262 2.0385
2.5550 -1.7269 2.0385
2.6856 -1.5163 2.0385
2.7988 -1.2958 2.0385
2.8938 -1.0670 2.0385
2.9702 -0.8312 2.0385
3.0273 -0.5901 2.0385
3.0648 -0.3451 2.0385
3.0824 -0.0980 2.0385
3.0801 0.1498 2.0385
3.0578 0.3966 2.0385
3.0158 0.6407 2.0385
2.9542 0.8807 2.0385
2.8735 1.1149 2.0385
2.7742 1.3418 2.0385
2.6570 1.5600 2.0385
2.5226 1.7679 2.0385
2.3720 1.9644 2.0385
2.2060 2.1481 2.0385
0.7397 0.8463 0.7443
0.6694 0.9031 0.7446
0.5947 0.9540 0.7448
0.5162 0.9987 0.7450
0.4343 1.0370 0.7452
0.3495 1.0685 0.7454
0.2625 1.0931 0.7456
0.1738 1.1106 0.7457
0.0840 1.1210 0.7459
-0.0064 1.1240 0.7460
-0.0967 1.1197 0.7462
-0.1864 1.1082 0.7463
-0.2749 1.0895 0.7464
-0.3615 1.0637 0.7464
-0.4459 1.0311 0.7465
-0.5272 0.9917 0.7465
-0.6052 0.9460 0.7465
-0.6792 0.8941 0.7465
-0.7487 0.8364 0.7465
-2.2215 2.1119 2.0385
-2.3839 1.9262 2.0385
-2.5309 1.7280 2.0385
-2.6615 1.5187 2.0385
-2.7749 1.2996 2.0385
-2.8704 1.0722 2.0385
-2.9473 0.8378 2.0385
-3.0052 0.5980 2.0385
-3.0436 0.3543 2.0385
-3.0625 0.1083 2.0385
-3.0615 -0.1384 2.0385
-3.0407 -0.3842 2.0385
-3.0003 -0.6276 2.0385
-2.9405 -0.8670 2.0385
-2.8617 -1.1009 2.0385
-2.7643 -1.3277 2.0385
-2.6491 -1.5460 2.0385
-2.5167 -1.7543 2.0385
-2.3680 -1.9515 2.0385
-2.2039 -2.1360 2.0385
-0.7379 -0.8404 0.7426
-0.6679 -0.8970 0.7424
-0.5936 -0.9477 0.7422
-0.5155 -0.9923 0.7420
-0.4341 -1.0305 0.7418
-0.3499 -1.0621 0.7416
-0.2634 -1.0868 0.7414
-0.1752 -1.1045 0.7412
-0.0859 -1.1150 0.7411
0.0039 -1.1184 0.7409
0.0938 -1.1146 0.7408
0.1830 -1.1036 0.7407
0.2711 -1.0854 0.7406
0.3575 -1.0603 0.7406
0.4415 -1.0283 0.7405
0.5228 -0.9897 0.7405
0.6007 -0.9446 0.7405
0.6747 -0.8935 0.7405
0.7444 -0.8366 0.7405
2.2278 -2.1314 2.0385
2.3920 -1.9459 2.0385
2.5408 -1.7477 2.0385
2.6731 -1.5382 2.0385
2.7881 -1.3187 2.0385
2.8850 -1.0906 2.0385
2.9633 -0.8555 2.0385
3.0224 -0.6148 2.0385
3.0619 -0.3702 2.0385
3.0815 -0.1232 2.0385
3.0813 0.1246 2.0385
3.0610 0.3716 2.0385
3.0209 0.6161 2.0385
2.9613 0.8565 2.0385
2.8826 1.0914 2.0385
2.7851 1.3191 2.0385
2.6697 1.5382 2.0385
2.5371 1.7473 2.0385
2.3880 1.9450 2.0385
2.2236 2.1300 2.0385
0.7466 0.8402 0.7443
0.6768 0.8976 0.7445
0.6025 0.9491 0.7448
0.5243 0.9944 0.7450
0.4427 1.0334 0.7452
0.3583 1.0656 0.7454
0.2715 1.0909 0.7456
0.1829 1.1092 0.7457
0.0931 1.1202 0.7459
0.0028 1.1240 0.7460
-0.0876 1.1205 0.7462
-0.1773 1.1097 0.7463
-0.2660 1.0917 0.7463
-0.3528 1.0667 0.7464
-0.4374 1.0347 0.7465
-0.5191 0.9960 0.7465
-0.5974 0.9509 0.7465
-0.6718 0.8996 0.7465
-0.7419 0.8425 0.7465
-2.2042 2.1301 2.0385
-2.3681 1.9456 2.0385
-2.5167 1.7487 2.0385
-2.6490 1.5405 2.0385
-2.7642 1.3223 2.0385
-2.8615 1.0956 2.0385
-2.9403 0.8619 2.0385
-3.0002 0.6226 2.0385
-3.0406 0.3792 2.0385
-3.0614 0.1334 2.0385
-3.0625 -0.1133 2.0385
-3.0437 -0.3593 2.0385
-3.0053 -0.6030 2.0385
-2.9475 -0.8429 2.0385
-2.8706 -1.0774 2.0385
-2.7751 -1.3050 2.0385
-2.6616 -1.5242 2.0385
-2.5309 -1.7336 2.0385
-2.3838 -1.9320 2.0385
-2.2213 -2.1179 2.0385
-0.7448 -0.8343 0.7427
-0.6753 -0.8915 0.7424
-0.6014 -0.9428 0.7422
-0.5236 -0.9881 0.7420
-0.4425 -1.0269 0.7418
-0.3585 -1.0592 0.7416
-0.2723 -1.0846 0.7414
-0.1842 -1.1030 0.7412
-0.0950 -1.1143 0.7411
-0.0052 -1.1184 0.7409
0.0847 -1.1153 0.7408
0.1740 -1.1050 0.7407
0.2622 -1.0876 0.7406
0.3488 -1.0632 0.7406
0.4331 -1.0319 0.7405
0.5147 -0.9939 0.7405
0.5929 -0.9495 0.7405
0.6674 -0.8990 0.7405
0.7375 -0.8427 0.7405
2.2103 -2.1495 2.0385
2.3760 -1.9653 2.0385
2.5264 -1.7684 2.0385
2.6604 -1.5600 2.0385
2.7772 -1.3414 2.0385
2.8760 -1.1142 2.0385
2.9562 -0.8797 2.0385
3.0173 -0.6395 2.0385
3.0588 -0.3952 2.0385
3.0805 -0.1484 2.0385
3.0822 0.0994 2.0385
3.0640 0.3465 2.0385
3.0259 0.5913 2.0385
2.9683 0.8323 2.0385
2.8914 1.0678 2.0385
2.7959 1.2963 2.0385
2.6823 1.5163 2.0385
2.5513 1.7265 2.0385
2.4039 1.9254 2.0385
2.2410 2.1118 2.0385
0.7535 0.8341 0.7443
0.6841 0.8920 0.7445
0.6102 0.9441 0.7447
0.5324 0.9901 0.7450
0.4512 1.0297 0.7452
0.3670 1.0626 0.7454
0.2804 1.0887 0.7455
0.1920 1.1077 0.7457
0.1023 1.1194 0.7459
0.0120 1.1240 0.7460
-0.0784 1.1212 0.7461
-0.1682 1.1112 0.7462
-0.2570 1.0939 0.7463
-0.3441 1.0696 0.7464
-0.4289 1.0383 0.7465
-0.5109 1.0003 0.7465
-0.5896 0.9558 0.7465
-0.6645 0.9051 0.7465
-0.7350 0.8486 0.7465
-2.1867 2.1481 2.0385
-2.3521 1.9650 2.0385
-2.5023 1.7693 2.0385
-2.6363 1.5621 2.0385
-2.7533 1.3449 2.0385
-2.8524 1.1191 2.0385
-2.9332 0.8860 2.0385
-2.9950 0.6471 2.0385
-3.0374 0.4041 2.0385
-3.0602 0.1585 2.0385
-3.0633 -0.0882 2.0385
-3.0465 -0.3343 2.0385
-3.0101 -0.5784 2.0385
-2.9542 -0.8187 2.0385
-2.8792 -1.0538 2.0385
-2.7856 -1.2822 2.0385
-2.6740 -1.5023 2.0385
-2.5450 -1.7128 2.0385
-2.3995 -1.9123 2.0385
-2.2385 -2.0995 2.0385
-0.7516 -0.8282 0.7427
-0.6825 -0.8859 0.7425
-0.6091 -0.9379 0.7422
-0.5317 -0.9837 0.7420
-0.4509 -1.0233 0.7418
-0.3672 -1.0562 0.7416
-0.2811 -1.0823 0.7414
-0.1933 -1.1015 0.7413
-0.1041 -1.1135 0.7411
-0.0144 -1.1183 0.7410
0.0755 -1.1160 0.7408
0.1650 -1.1064 0.7407
0.2533 -1.0897 0.7406
0.3401 -1.0660 0.7406
0.4246 -1.0353 0.7405
0.5065 -0.9981 0.7405
0.5851 -0.9543 0.7405
0.6600 -0.9044 0.7405
0.7306 -0.8487 0.7405
2.1926 -2.1675 2.0385
2.3598 -1.9847 2.0385
2.5118 -1.7890 2.0385
2.6475 -1.5817 2.0385
2.7661 -1.3641 2.0385
2.8668 -1.1376 2.0385
2.9489 -0.9038 2.0385
3.0119 -0.6642 2.0385
3.0554 -0.4202 2.0385
3.0792 -0.1735 2.0385
3.0829 0.0742 2.0385
3.0667 0.3215 2.0385
3.0307 0.5666 2.0385
2.9750 0.8080 2.0385
2.9001 1.0441 2.0385
2.8064 1.2734 2.0385
2.6946 1.4944 2.0385
2.5654 1.7056 2.0385
2.4196 1.9058 2.0385
2.2583 2.0935 2.0385
0.7603 0.8279 0.7443
0.6913 0.8864 0.7445
0.6179 0.9391 0.7447
0.5405 0.9857 0.7449
0.4596 1.0260 0.7451
0.3756 1.0596 0.7453
0.2893 1.0863 0.7455
0.2010 1.1060 0.7457
0.1115 1.1186 0.7459
0.0212 1.1238 0.7460
-0.0692 1.1218 0.7461
-0.1591 1.1125 0.7462
-0.2480 1.0960 0.7463
-0.3353 1.0724 0.7464
-0.4204 1.0418 0.7465
-0.5027 1.0044 0.7465
-0.5818 0.9606 0.7465
-0.6570 0.9105 0.7465
-0.7280 0.8546 0.7465
-2.1690 2.1659 2.0385
-2.3360 1.9842 2.0385
-2.4877 1.7897 2.0385
-2.6234 1.5837 2.0385
-2.7422 1.3674 2.0385
-2.8432 1.1424 2.0385
-2.9258 0.9100 2.0385
-2.9896 0.6717 2.0385
-3.0340 0.4290 2.0385
-3.0588 0.1836 2.0385
-3.0639 -0.0631 2.0385
-3.0491 -0.3094 2.0385
-3.0147 -0.5537 2.0385
-2.9608 -0.7945 2.0385
-2.8877 -1.0302 2.0385
-2.7960 -1.2593 2.0385
-2.6861 -1.4803 2.0385
-2.5589 -1.6919 2.0385
-2.4151 -1.8926 2.0385
-2.2556 -2.0811 2.0385
-0.7584 -0.8220 0.7427
-0.6898 -0.8803 0.7425
-0.6167 -0.9328 0.7423
-0.5397 -0.9794 0.7420
-0.4593 -1.0196 0.7418
-0.3758 -1.0532 0.7416
-0.2900 -1.0800 0.7414
-0.2023 -1.0998 0.7413
-0.1133 -1.1126 0.7411
-0.0235 -1.1182 0.7410
0.0664 -1.1165 0.7408
0.1559 -1.1077 0.7407
0.2444 -1.0917 0.7406
0.3313 -1.0687 0.7406
0.4162 -1.0388 0.7405
0.4983 -1.0021 0.7405
0.5773 -0.9591 0.7405
0.6525 -0.9098 0.7405
0.7236 -0.8546 0.7405
2.1748 -2.1853 2.0385
2.3435 -2.0039 2.0385
2.4971 -1.8094 2.0385
2.6345 -1.6032 2.0385
2.7549 -1.3866 2.0385
2.8574 -1.1610 2.0385
2.9414 -0.9279 2.0385
3.0064 -0.6888 2.0385
3.0519 -0.4452 2.0385
3.0777 -0.1987 2.0385
3.0835 0.0490 2.0385
3.0693 0.2964 2.0385
3.0353 0.5418 2.0385
2.9816 0.7837 2.0385
2.9086 1.0204 2.0385
2.8168 1.2504 2.0385
2.7068 1.4723 2.0385
2.5793 1.6846 2.0385
2.4352 1.8859 2.0385
2.2754 2.0750 2.0385
0.7670 0.8216 0.7442
0.6986 0.8807 0.7445
0.6256 0.9340 0.7447
0.5486 0.9813 0.7449
0.4680 1.0222 0.7451
0.3843 1.0565 0.7453
0.2982 1.0839 0.7455
0.2101 1.1044 0.7457
0.1206 1.1176 0.7458
0.0304 1.1236 0.7460
-0.0600 1.1224 0.7461
-0.1500 1.1138 0.7462
-0.2391 1.0980 0.7463
-0.3265 1.0751 0.7464
-0.4119 1.0452 0.7464
-0.4945 1.0085 0.7465
-0.5739 0.9653 0.7465
-0.6496 0.9159 0.7465
-0.7210 0.8605 0.7465
-2.1512 2.1837 2.0385
-2.3196 2.0033 2.0385
-2.4730 1.8101 2.0385
-2.6104 1.6051 2.0385
-2.7309 1.3899 2.0385
-2.8337 1.1656 2.0385
-2.9183 0.9339 2.0385
-2.9839 0.6961 2.0385
-3.0304 0.4538 2.0385
