ply
format ascii 1.0
element vertex 2177
property float32 x
property float32 y
property float32 z
end_header
-4.5605 0.1274 1.8879
-4.5568 -0.2400 1.8881
-4.5237 -0.6060 1.8881
-4.4613 -0.9682 1.8880
-4.3701 -1.3243 1.8878
-4.2505 -1.6721 1.8876
-4.1035 -2.0092 1.8873
-3.9297 -2.3334 1.8868
-3.7305 -2.6427 1.8863
-3.5075 -2.9355 1.8860
-3.4308 -3.3762 1.9834
-3.2378 -3.7447 2.0384
-2.9285 -3.9959 2.0384
-2.5999 -4.2218 2.0384
-2.2540 -4.4208 2.0384
-0.6893 -1.6718 0.7422
-0.5527 -1.7218 0.7415
-0.4126 -1.7607 0.7409
-0.2698 -1.7882 0.7403
-0.1253 -1.8043 0.7397
0.0200 -1.8087 0.7391
0.1652 -1.8016 0.7386
0.3094 -1.7828 0.7381
0.4517 -1.7525 0.7376
0.5910 -1.7110 0.7371
0.7266 -1.6584 0.7367
2.3740 -4.4156 2.0384
2.7226 -4.2138 2.0384
3.0540 -3.9844 2.0384
3.3659 -3.7287 2.0384
3.6562 -3.4486 2.0384
3.9230 -3.1457 2.0384
4.1645 -2.8221 2.0384
4.3791 -2.4798 2.0384
4.5653 -2.1212 2.0384
4.7218 -1.7486 2.0384
4.8476 -1.3645 2.0384
4.9418 -0.9713 2.0384
4.9524 -0.5660 2.0174
4.8931 -0.1640 1.9816
4.8334 0.2263 1.9587
4.7725 0.6098 1.9480
4.7098 0.9910 1.9492
4.6480 1.3753 1.9637
4.5899 1.7697 1.9937
4.5303 2.1789 2.0384
4.3386 2.5340 2.0384
4.1189 2.8723 2.0384
3.8727 3.1915 2.0384
3.6016 3.4896 2.0384
3.3075 3.7647 2.0384
2.9924 4.0149 2.0384
2.6583 4.2388 2.0384
2.3074 4.4348 2.0384
0.7096 1.6813 0.7447
0.5723 1.7328 0.7454
0.4313 1.7732 0.7460
0.2874 1.8020 0.7467
0.1417 1.8191 0.7473
-0.0049 1.8244 0.7478
-0.1514 1.8178 0.7484
-0.2970 1.7995 0.7489
-0.4406 1.7694 0.7494
-0.5813 1.7279 0.7498
-0.7181 1.6752 0.7502
-2.3090 4.3766 2.0384
-2.6516 4.1738 2.0384
-2.9767 3.9444 2.0384
-3.2823 3.6900 2.0384
-3.5665 3.4122 2.0384
-3.8275 3.1127 2.0384
-4.0638 2.7935 2.0384
-4.0573 2.3322 1.9351
-4.1231 1.9468 1.8860
-4.2665 1.6089 1.8865
-4.3826 1.2605 1.8870
-4.4703 0.9039 1.8874
-4.5292 0.5414 1.8877
-4.5588 0.1752 1.8879
-4.5590 -0.1922 1.8880
-4.5297 -0.5585 1.8881
-4.4711 -0.9214 1.8880
-4.3836 -1.2784 1.8879
-4.2677 -1.6273 1.8876
-4.1241 -1.9660 1.8873
-3.9538 -2.2920 1.8869
-3.7578 -2.6034 1.8864
-3.5377 -2.8984 1.8860
-3.4328 -3.3080 1.9646
-3.2766 -3.7102 2.0384
-2.9699 -3.9646 2.0384
-2.6437 -4.1939 2.0384
-2.3000 -4.3965 2.0384
-0.7067 -1.6645 0.7423
-0.5707 -1.7159 0.7416
-0.4310 -1.7563 0.7410
-0.2885 -1.7853 0.7404
-0.1442 -1.8029 0.7398
0.0011 -1.8088 0.7392
0.1464 -1.8032 0.7386
0.2907 -1.7859 0.7381
0.4333 -1.7571 0.7376
0.5731 -1.7170 0.7372
0.7092 -1.6659 0.7368
2.3274 -4.4398 2.0384
2.6781 -4.2417 2.0384
3.0119 -4.0158 2.0384
3.3264 -3.7634 2.0384
3.6197 -3.4864 2.0384
3.8897 -3.1863 2.0384
4.1346 -2.8653 2.0384
4.3527 -2.5254 2.0384
4.5427 -2.1687 2.0384
4.7031 -1.7978 2.0384
4.8330 -1.4150 2.0384
4.9314 -1.0229 2.0384
4.9607 -0.6195 2.0233
4.9008 -0.2155 1.9855
4.8412 0.1760 1.9610
4.7805 0.5601 1.9487
4.7181 0.9414 1.9484
4.6559 1.3249 1.9610
4.5973 1.7175 1.9889
4.5410 2.1259 2.0330
4.3652 2.4887 2.0384
4.1491 2.8293 2.0384
3.9062 3.1511 2.0384
3.6382 3.4521 2.0384
3.3470 3.7302 2.0384
3.0345 3.9838 2.0384
2.7028 4.2112 2.0384
2.3540 4.4109 2.0384
0.7272 1.6738 0.7446
0.5904 1.7268 0.7453
0.4498 1.7686 0.7459
0.3063 1.7989 0.7466
0.1608 1.8175 0.7472
0.0142 1.8244 0.7478
-0.1324 1.8193 0.7483
-0.2781 1.8025 0.7488
-0.4220 1.7740 0.7493
-0.5631 1.7339 0.7498
-0.7005 1.6826 0.7502
-2.2632 4.4009 2.0384
-2.6079 4.2017 2.0384
-2.9354 3.9757 2.0384
-3.2437 3.7245 2.0384
-3.5308 3.4496 2.0384
-3.7949 3.1528 2.0384
-4.0345 2.8361 2.0384
-4.0714 2.3974 1.9537
-4.1026 1.9900 1.8860
-4.2494 1.6535 1.8864
-4.3691 1.3064 1.8869
-4.4605 0.9507 1.8874
-4.5232 0.5888 1.8877
-4.5567 0.2230 1.8879
-4.5606 -0.1444 1.8880
-4.5352 -0.5110 1.8881
-4.4804 -0.8744 1.8880
-4.3966 -1.2323 1.8879
-4.2844 -1.5825 1.8877
-4.1444 -1.9225 1.8874
-3.9775 -2.2503 1.8869
-3.7848 -2.5637 1.8865
-3.5676 -2.8609 1.8860
-3.4347 -3.2411 1.9463
-3.3150 -3.6753 2.0384
-3.0110 -3.9329 2.0384
-2.6872 -4.1655 2.0384
-2.3457 -4.3717 2.0384
-0.7241 -1.6570 0.7423
-0.5886 -1.7098 0.7417
-0.4494 -1.7516 0.7411
-0.3072 -1.7822 0.7404
-0.1630 -1.8012 0.7398
-0.0178 -1.8087 0.7393
0.1275 -1.8046 0.7387
0.2720 -1.7888 0.7382
0.4149 -1.7615 0.7377
0.5551 -1.7229 0.7373
0.6917 -1.6732 0.7368
2.2806 -4.4635 2.0384
2.6334 -4.2691 2.0384
2.9695 -4.0467 2.0384
3.2866 -3.7977 2.0384
3.5828 -3.5238 2.0384
3.8559 -3.2266 2.0384
4.1042 -2.9082 2.0384
4.3259 -2.5706 2.0384
4.5196 -2.2160 2.0384
4.6839 -1.8468 2.0384
4.8178 -1.4655 2.0384
4.9204 -1.0744 2.0384
4.9691 -0.6734 2.0295
4.9086 -0.2673 1.9896
4.8490 0.1256 1.9635
4.7885 0.5104 1.9496
4.7263 0.8917 1.9477
4.6639 1.2746 1.9586
4.6047 1.6657 1.9844
4.5478 2.0714 2.0261
4.3913 2.4431 2.0384
4.1787 2.7860 2.0384
3.9393 3.1103 2.0384
3.6745 3.4141 2.0384
3.3862 3.6954 2.0384
3.0763 3.9522 2.0384
2.7470 4.1831 2.0384
2.4003 4.3865 2.0384
0.7446 1.6661 0.7446
0.6085 1.7205 0.7452
0.4683 1.7638 0.7459
0.3251 1.7956 0.7465
0.1798 1.8158 0.7471
0.0333 1.8241 0.7477
-0.1133 1.8207 0.7482
-0.2592 1.8054 0.7488
-0.4034 1.7784 0.7493
-0.5450 1.7398 0.7497
-0.6829 1.6900 0.7501
-2.2172 4.4248 2.0384
-2.5640 4.2292 2.0384
-2.8939 4.0066 2.0384
-3.2047 3.7586 2.0384
-3.4947 3.4867 2.0384
-3.7619 3.1927 2.0384
-4.0048 2.8784 2.0384
-4.0857 2.4639 1.9727
-4.0816 2.0330 1.8860
-4.2318 1.6980 1.8864
-4.3551 1.3521 1.8869
-4.4503 0.9974 1.8873
-4.5167 0.6362 1.8876
-4.5540 0.2708 1.8879
-4.5618 -0.0965 1.8880
-4.5401 -0.4634 1.8881
-4.4891 -0.8273 1.8880
-4.4091 -1.1861 1.8879
-4.3006 -1.5374 1.8877
-4.1641 -1.8789 1.8874
-4.0007 -2.2084 1.8870
-3.8113 -2.5238 1.8865
-3.6027 -2.8275 1.8889
-3.4366 -3.1754 1.9286
-3.3530 -3.6400 2.0384
-3.0517 -3.9007 2.0384
-2.7304 -4.1367 2.0384
-2.3910 -4.3464 2.0384
-0.7415 -1.6493 0.7424
-0.6065 -1.7036 0.7418
-0.4677 -1.7468 0.7411
-0.3258 -1.7788 0.7405
-0.1819 -1.7994 0.7399
-0.0368 -1.8084 0.7393
0.1086 -1.8058 0.7388
0.2533 -1.7915 0.7383
0.3964 -1.7657 0.7378
0.5370 -1.7285 0.7373
0.6742 -1.6803 0.7369
2.2336 -4.4866 2.0384
2.5884 -4.2960 2.0384
2.9267 -4.0772 2.0384
3.2465 -3.8316 2.0384
3.5455 -3.5608 2.0384
3.8217 -3.2666 2.0384
4.0733 -2.9508 2.0384
4.2986 -2.6156 2.0384
4.4960 -2.2631 2.0384
4.6642 -1.8957 2.0384
4.8022 -1.5157 2.0384
4.9088 -1.1258 2.0384
4.9774 -0.7276 2.0359
4.9163 -0.3193 1.9940
4.8568 0.0750 1.9662
4.7965 0.4606 1.9508
4.7346 0.8421 1.9473
4.6717 1.2244 1.9563
4.6121 1.6140 1.9800
4.5546 2.0172 2.0194
4.4169 2.3972 2.0384
4.2080 2.7423 2.0384
3.9719 3.0693 2.0384
3.7103 3.3758 2.0384
3.4250 3.6601 2.0384
3.1178 3.9202 2.0384
2.7909 4.1546 2.0384
2.4463 4.3616 2.0384
0.7620 1.6582 0.7445
0.6264 1.7140 0.7451
0.4867 1.7588 0.7458
0.3439 1.7921 0.7464
0.1988 1.8138 0.7470
0.0524 1.8237 0.7476
-0.0943 1.8218 0.7482
-0.2403 1.8080 0.7487
-0.3848 1.7825 0.7492
-0.5267 1.7455 0.7497
-0.6652 1.6971 0.7501
-2.1709 4.4483 2.0384
-2.5198 4.2562 2.0384
-2.8519 4.0371 2.0384
-3.1654 3.7923 2.0384
-3.4582 3.5234 2.0384
-3.7285 3.2321 2.0384
-3.9746 2.9204 2.0384
-4.1002 2.5317 1.9924
-4.0602 2.0758 1.8860
-4.2137 1.7422 1.8863
-4.3406 1.3977 1.8868
-4.4395 1.0440 1.8873
-4.5097 0.6835 1.8876
-4.5508 0.3185 1.8879
-4.5624 -0.0487 1.8880
-4.5446 -0.4157 1.8881
-4.4974 -0.7802 1.8880
-4.4212 -1.1398 1.8879
-4.3163 -1.4922 1.8877
-4.1834 -1.8351 1.8874
-4.0235 -2.1663 1.8871
-3.8374 -2.4836 1.8866
-3.6263 -2.7851 1.8860
-3.4383 -3.1109 1.9113
-3.3906 -3.6043 2.0384
-3.0922 -3.8682 2.0384
-2.7734 -4.1074 2.0384
-2.4362 -4.3206 2.0384
-0.7587 -1.6415 0.7425
-0.6243 -1.6971 0.7419
-0.4859 -1.7418 0.7412
-0.3444 -1.7753 0.7406
-0.2007 -1.7974 0.7400
-0.0557 -1.8079 0.7394
0.0897 -1.8068 0.7389
0.2345 -1.7940 0.7383
0.3779 -1.7697 0.7378
0.5189 -1.7340 0.7374
0.6565 -1.6872 0.7369
2.1864 -4.5093 2.0384
2.5430 -4.3225 2.0384
2.8837 -4.1072 2.0384
3.2060 -3.8651 2.0384
3.5078 -3.5974 2.0384
3.7871 -3.3062 2.0384
4.0420 -2.9931 2.0384
4.2708 -2.6602 2.0384
4.4719 -2.3099 2.0384
4.6440 -1.9442 2.0384
4.7859 -1.5658 2.0384
4.8967 -1.1770 2.0384
4.9756 -0.7806 2.0384
4.9240 -0.3715 1.9986
4.8646 0.0242 1.9691
4.8044 0.4107 1.9521
4.7427 0.7925 1.9471
4.6795 1.1743 1.9542
4.6193 1.5625 1.9759
4.5617 1.9636 2.0133
4.4420 2.3511 2.0384
4.2368 2.6984 2.0384
4.0041 3.0278 2.0384
3.7458 3.3371 2.0384
3.4634 3.6244 2.0384
3.1590 3.8878 2.0384
2.8345 4.1256 2.0384
2.4921 4.3363 2.0384
0.7793 1.6501 0.7444
0.6443 1.7074 0.7450
0.5051 1.7536 0.7457
0.3626 1.7884 0.7463
0.2178 1.8116 0.7469
0.0715 1.8231 0.7475
-0.0752 1.8227 0.7481
-0.2214 1.8105 0.7486
-0.3661 1.7865 0.7491
-0.5084 1.7509 0.7496
-0.6474 1.7040 0.7500
-2.1244 4.4712 2.0384
-2.4752 4.2828 2.0384
-2.8097 4.0671 2.0384
-3.1257 3.8256 2.0384
-3.4213 3.5597 2.0384
-3.6946 3.2713 2.0384
-3.9440 2.9621 2.0384
-4.1150 2.6008 2.0126
-4.0384 2.1183 1.8860
-4.1951 1.7863 1.8862
-4.3256 1.4431 1.8868
-4.4282 1.0905 1.8872
-4.5022 0.7308 1.8876
-4.5471 0.3662 1.8878
-4.5626 -0.0008 1.8880
-4.5486 -0.3680 1.8881
-4.5052 -0.7329 1.8880
-4.4327 -1.0933 1.8879
-4.3315 -1.4467 1.8878
-4.2023 -1.7910 1.8875
-4.0458 -2.1239 1.8871
-3.8630 -2.4432 1.8867
-3.6552 -2.7468 1.8861
-3.4436 -3.0506 1.8965
-3.4279 -3.5683 2.0384
-3.1322 -3.8351 2.0384
-2.8159 -4.0777 2.0384
-2.4811 -4.2944 2.0384
-0.7758 -1.6334 0.7426
-0.6421 -1.6905 0.7420
-0.5041 -1.7366 0.7413
-0.3630 -1.7716 0.7407
-0.2195 -1.7952 0.7401
-0.0746 -1.8072 0.7395
0.0708 -1.8076 0.7389
0.2157 -1.7963 0.7384
0.3593 -1.7735 0.7379
0.5007 -1.7393 0.7374
0.6388 -1.6939 0.7370
0.7729 -1.6376 0.7366
2.4975 -4.3484 2.0384
2.8403 -4.1368 2.0384
3.1652 -3.8980 2.0384
3.4697 -3.6337 2.0384
3.7521 -3.3454 2.0384
4.0103 -3.0350 2.0384
4.2425 -2.7046 2.0384
4.4473 -2.3564 2.0384
4.6233 -1.9926 2.0384
4.7692 -1.6157 2.0384
4.8841 -1.2282 2.0384
4.9672 -0.8325 2.0384
4.9317 -0.4240 2.0034
4.8724 -0.0267 1.9722
4.8123 0.3607 1.9536
4.7509 0.7429 1.9471
4.6873 1.1243 1.9524
4.6265 1.5112 1.9721
4.5695 1.9106 2.0076
4.4667 2.3046 2.0384
4.2650 2.6541 2.0384
4.0359 2.9860 2.0384
3.7808 3.2981 2.0384
3.5015 3.5883 2.0384
3.1998 3.8549 2.0384
2.8778 4.0961 2.0384
2.5376 4.3104 2.0384
0.7966 1.6418 0.7443
0.6622 1.7005 0.7450
0.5235 1.7482 0.7456
3.8855 -2.5552 2.0384
4.0793 -2.2361 2.0384
4.2467 -1.9022 2.0384
4.3864 -1.5558 2.0384
4.4977 -1.1992 2.0384
4.5797 -0.8347 2.0384
4.6319 -0.4647 2.0384
4.6540 -0.0918 2.0384
4.6457 0.2817 2.0384
4.6072 0.6533 2.0384
4.5388 1.0204 2.0384
4.4409 1.3807 2.0384
4.3141 1.7318 2.0384
4.1594 2.0713 2.0384
3.9778 2.3971 2.0384
3.7706 2.7070 2.0384
3.5390 2.9990 2.0384
3.2848 3.2711 2.0384
3.0096 3.5217 2.0384
2.7152 3.7492 2.0384
2.4037 3.9520 2.0384
0.7582 1.5073 0.7441
0.6348 1.5633 0.7447
0.5072 1.6092 0.7453
0.3763 1.6447 0.7459
0.2429 1.6694 0.7465
0.1080 1.6834 0.7471
-0.0276 1.6864 0.7476
-0.1630 1.6785 0.7481
-0.2973 1.6596 0.7486
-0.4297 1.6300 0.7490
-0.5592 1.5898 0.7494
-0.6850 1.5394 0.7498
-2.1913 4.0189 2.0384
-2.5058 3.8271 2.0384
-2.8037 3.6109 2.0384
-3.0834 3.3718 2.0384
-3.3429 3.1113 2.0384
-3.5807 2.8309 2.0384
-3.7954 2.5327 2.0384
-3.9855 2.2183 2.0384
-3.9290 1.7893 1.9299
-3.9671 1.4337 1.8860
-4.0696 1.1098 1.8863
-4.1462 0.7788 1.8866
-4.1960 0.4427 1.8869
-4.2186 0.1036 1.8870
-4.2140 -0.2362 1.8871
-4.1822 -0.5747 1.8871
-4.1233 -0.9095 1.8871
-4.0377 -1.2386 1.8869
-3.9260 -1.5599 1.8867
-3.7889 -1.8712 1.8864
-3.6271 -2.1706 1.8860
-3.4523 -2.4635 1.8913
-3.4207 -2.8830 1.9937
-3.2511 -3.2214 2.0384
-2.9835 -3.4748 2.0384
-2.6965 -3.7061 2.0384
-2.3916 -3.9139 2.0384
-0.7547 -1.4930 0.7429
-0.6323 -1.5488 0.7423
-0.5058 -1.5946 0.7417
-0.3760 -1.6302 0.7411
-0.2439 -1.6553 0.7405
-0.1101 -1.6697 0.7399
0.0243 -1.6733 0.7394
0.1587 -1.6662 0.7389
0.2920 -1.6484 0.7384
0.4235 -1.6200 0.7380
0.5523 -1.5811 0.7376
0.6776 -1.5321 0.7372
2.2089 -4.0749 2.0384
2.5305 -3.8871 2.0384
2.8360 -3.6738 2.0384
3.1234 -3.4364 2.0384
3.3907 -3.1764 2.0384
3.6363 -2.8955 2.0384
3.8584 -2.5955 2.0384
4.0555 -2.2785 2.0384
4.2264 -1.9464 2.0384
4.3698 -1.6015 2.0384
4.4849 -1.2461 2.0384
4.5707 -0.8825 2.0384
4.6268 -0.5131 2.0384
4.6528 -0.1404 2.0384
4.6485 0.2332 2.0384
4.6140 0.6051 2.0384
4.5494 0.9729 2.0384
4.4553 1.3343 2.0384
4.3322 1.6867 2.0384
4.1811 2.0278 2.0384
4.0029 2.3555 2.0384
3.7990 2.6676 2.0384
3.5705 2.9620 2.0384
3.3192 3.2369 2.0384
3.0466 3.4904 2.0384
2.7546 3.7209 2.0384
2.4452 3.9270 2.0384
0.7740 1.4993 0.7441
0.6511 1.5566 0.7447
0.5240 1.6038 0.7453
0.3935 1.6407 0.7459
0.2604 1.6668 0.7464
0.1256 1.6822 0.7470
-0.0099 1.6866 0.7475
-0.1454 1.6801 0.7480
-0.2799 1.6627 0.7485
-0.4126 1.6345 0.7490
-0.5425 1.5957 0.7494
-0.6689 1.5465 0.7497
-2.1493 4.0420 2.0384
-2.4657 3.8535 2.0384
-2.7659 3.6404 2.0384
-3.0481 3.4042 2.0384
-3.3103 3.1463 2.0384
-3.5510 2.8685 2.0384
-3.7688 2.5725 2.0384
-3.9622 2.2601 2.0384
-3.9385 1.8438 1.9439
-3.9519 1.4753 1.8860
-4.0577 1.1524 1.8862
-4.1377 0.8222 1.8866
-4.1910 0.4867 1.8868
-4.2172 0.1479 1.8870
-4.2162 -0.1920 1.8871
-4.1878 -0.5308 1.8871
-4.1325 -0.8662 1.8871
-4.0504 -1.1962 1.8870
-3.9420 -1.5186 1.8867
-3.8081 -1.8313 1.8864
-3.6495 -2.1324 1.8861
-3.4679 -2.4202 1.8860
-3.4238 -2.8248 1.9783
-3.2844 -3.1869 2.0384
-3.0195 -3.4430 2.0384
-2.7349 -3.6773 2.0384
-2.4322 -3.8882 2.0384
-0.7703 -1.4850 0.7429
-0.6485 -1.5421 0.7423
-0.5224 -1.5892 0.7417
-0.3931 -1.6262 0.7411
-0.2612 -1.6526 0.7406
-0.1276 -1.6684 0.7400
0.0068 -1.6735 0.7395
0.1412 -1.6678 0.7390
0.2747 -1.6513 0.7385
0.4065 -1.6243 0.7381
0.5357 -1.5868 0.7377
0.6615 -1.5390 0.7373
0.7831 -1.4813 0.7369
2.4895 -3.9130 2.0384
2.7972 -3.7029 2.0384
3.0870 -3.4686 2.0384
3.3571 -3.2114 2.0384
3.6056 -2.9332 2.0384
3.8309 -2.6356 2.0384
4.0313 -2.3207 2.0384
4.2057 -1.9904 2.0384
4.3528 -1.6471 2.0384
4.4715 -1.2929 2.0384
4.5612 -0.9302 2.0384
4.6212 -0.5615 2.0384
4.6512 -0.1890 2.0384
4.6508 0.1846 2.0384
4.6202 0.5568 2.0384
4.5595 0.9254 2.0384
4.4692 1.2877 2.0384
4.3498 1.6414 2.0384
4.2023 1.9841 2.0384
4.0276 2.3137 2.0384
3.8269 2.6279 2.0384
3.6016 2.9248 2.0384
3.3531 3.2023 2.0384
3.0832 3.4586 2.0384
2.7937 3.6923 2.0384
2.4864 3.9016 2.0384
0.7896 1.4911 0.7440
0.6673 1.5497 0.7446
0.5407 1.5983 0.7452
0.4106 1.6365 0.7458
0.2778 1.6640 0.7464
0.1432 1.6808 0.7469
0.0077 1.6867 0.7475
-0.1278 1.6816 0.7480
-0.2625 1.6656 0.7485
-0.3954 1.6388 0.7489
-0.5258 1.6013 0.7493
-0.6527 1.5535 0.7497
-2.1070 4.0646 2.0384
-2.4254 3.8794 2.0384
-2.7278 3.6695 2.0384
-3.0124 3.4362 2.0384
-3.2773 3.1811 2.0384
-3.5210 2.9057 2.0384
-3.7418 2.6120 2.0384
-3.9384 2.3016 2.0384
-3.9482 1.8990 1.9583
-3.9363 1.5167 1.8860
-4.0453 1.1949 1.8862
-4.1288 0.8656 1.8865
-4.1856 0.5306 1.8868
-4.2153 0.1921 1.8870
-4.2178 -0.1478 1.8871
-4.1931 -0.4868 1.8872
-4.1412 -0.8228 1.8871
-4.0625 -1.1536 1.8870
-3.9576 -1.4771 1.8868
-3.8270 -1.7912 1.8865
-3.6715 -2.0939 1.8861
-3.4929 -2.3836 1.8860
-3.4268 -2.7674 1.9634
-3.3173 -3.1520 2.0384
-3.0552 -3.4109 2.0384
-2.7730 -3.6481 2.0384
-2.4726 -3.8621 2.0384
-2.1558 -4.0516 2.0384
-0.6646 -1.5352 0.7424
-0.5391 -1.5837 0.7418
-0.4101 -1.6219 0.7412
-0.2785 -1.6498 0.7406
-0.1450 -1.6670 0.7401
-0.0107 -1.6734 0.7396
0.1238 -1.6691 0.7390
0.2574 -1.6541 0.7386
0.3895 -1.6284 0.7381
0.5190 -1.5922 0.7377
0.6453 -1.5458 0.7373
0.7675 -1.4894 0.7370
2.4482 -3.9385 2.0384
2.7581 -3.7317 2.0384
3.0504 -3.5004 2.0384
3.3231 -3.2462 2.0384
3.5746 -2.9705 2.0384
3.8029 -2.6754 2.0384
4.0067 -2.3626 2.0384
4.1845 -2.0342 2.0384
4.3352 -1.6925 2.0384
4.4577 -1.3396 2.0384
4.5512 -0.9779 2.0384
4.6151 -0.6097 2.0384
4.6490 -0.2376 2.0384
4.6526 0.1359 2.0384
4.6259 0.5085 2.0384
4.5691 0.8777 2.0384
4.4826 1.2409 2.0384
4.3670 1.5959 2.0384
4.2231 1.9402 2.0384
4.0519 2.2716 2.0384
3.8545 2.5880 2.0384
3.6323 2.8872 2.0384
3.3867 3.1673 2.0384
3.1195 3.4265 2.0384
2.8324 3.6632 2.0384
2.5273 3.8758 2.0384
2.2063 4.0630 2.0384
0.6835 1.5426 0.7445
0.5574 1.5925 0.7451
0.4277 1.6321 0.7457
0.2952 1.6610 0.7463
0.1608 1.6792 0.7468
0.0254 1.6865 0.7474
-0.1102 1.6829 0.7479
-0.2450 1.6683 0.7484
-0.3783 1.6429 0.7488
-0.5090 1.6068 0.7493
-0.6364 1.5603 0.7496
-0.7596 1.5037 0.7500
-2.3848 3.9050 2.0384
-2.6894 3.6982 2.0384
-2.9764 3.4679 2.0384
-3.2440 3.2155 2.0384
-3.4905 2.9427 2.0384
-3.7144 2.6512 2.0384
-3.9142 2.3429 2.0384
-3.9580 1.9551 1.9731
-3.9203 1.5579 1.8860
-4.0325 1.2372 1.8861
-4.1194 0.9088 1.8865
-4.1797 0.5745 1.8868
-4.2130 0.2363 1.8870
-4.2190 -0.1035 1.8871
-4.1978 -0.4428 1.8872
-4.1495 -0.7793 1.8871
-4.0743 -1.1109 1.8870
-3.9727 -1.4355 1.8868
-3.8454 -1.7509 1.8865
-3.6932 -2.0552 1.8862
-3.5174 -2.3467 1.8860
-3.4298 -2.7109 1.9488
-3.3499 -3.1168 2.0384
-3.0905 -3.3784 2.0384
-2.8108 -3.6185 2.0384
-2.5127 -3.8356 2.0384
-2.1979 -4.0283 2.0384
-0.6806 -1.5282 0.7425
-0.5556 -1.5779 0.7419
-0.4270 -1.6175 0.7413
-0.2957 -1.6467 0.7407
-0.1625 -1.6653 0.7402
-0.0282 -1.6732 0.7396
0.1063 -1.6703 0.7391
0.2401 -1.6567 0.7386
0.3724 -1.6323 0.7382
0.5024 -1.5975 0.7378
0.6291 -1.5524 0.7374
0.7519 -1.4973 0.7370
2.4067 -3.9635 2.0384
2.7187 -3.7600 2.0384
3.0134 -3.5319 2.0384
3.2888 -3.2805 2.0384
3.5431 -3.0076 2.0384
3.7745 -2.7148 2.0384
3.9816 -2.4042 2.0384
4.1629 -2.0778 2.0384
4.3171 -1.7376 2.0384
4.4434 -1.3861 2.0384
4.5407 -1.0254 2.0384
4.6085 -0.6579 2.0384
4.6463 -0.2862 2.0384
4.6538 0.0873 2.0384
4.6310 0.4602 2.0384
4.5782 0.8299 2.0384
4.4955 1.1941 2.0384
4.3837 1.5502 2.0384
4.2434 1.8961 2.0384
4.0757 2.2293 2.0384
3.8816 2.5477 2.0384
3.6626 2.8492 2.0384
3.4200 3.1320 2.0384
3.1555 3.3940 2.0384
2.8708 3.6337 2.0384
2.5680 3.8495 2.0384
2.2489 4.0401 2.0384
0.6996 1.5354 0.7444
0.5741 1.5866 0.7450
0.4448 1.6275 0.7456
0.3126 1.6579 0.7462
0.1784 1.6775 0.7468
0.0431 1.6862 0.7473
-0.0926 1.6840 0.7478
-0.2276 1.6708 0.7483
-0.3610 1.6468 0.7488
-0.4921 1.6121 0.7492
-0.6200 1.5669 0.7496
-0.7438 1.5116 0.7499
-2.3439 3.9301 2.0384
-2.6507 3.7265 2.0384
-2.9401 3.4991 2.0384
-3.2103 3.2495 2.0384
-3.4597 2.9793 2.0384
-3.6866 2.6901 2.0384
-3.8896 2.3839 2.0384
-3.9678 2.0120 1.9884
-3.9063 1.6000 1.8872
-4.0193 1.2795 1.8860
-4.1096 0.9520 1.8864
-4.1734 0.6183 1.8867
-4.2102 0.2804 1.8870
-4.2198 -0.0593 1.8871
-4.2021 -0.3987 1.8872
-4.1573 -0.7357 1.8871
-4.0856 -1.0681 1.8870
-3.9874 -1.3937 1.8868
-3.8634 -1.7105 1.8866
-3.7144 -2.0163 1.8862
-3.5416 -2.3095 1.8860
-3.4326 -2.6552 1.9347
-3.3821 -3.0812 2.0384
-3.1254 -3.3455 2.0384
-2.8483 -3.5885 2.0384
-2.5525 -3.8087 2.0384
-2.2398 -4.0047 2.0384
-0.6966 -1.5209 0.7426
-0.5721 -1.5720 0.7420
-0.4440 -1.6130 0.7414
-0.3129 -1.6435 0.7408
-0.1799 -1.6635 0.7402
-0.0457 -1.6728 0.7397
0.0888 -1.6713 0.7392
0.2227 -1.6590 0.7387
0.3553 -1.6361 0.7382
0.4856 -1.6026 0.7378
0.6128 -1.5589 0.7374
0.7361 -1.5050 0.7371
2.3649 -3.9881 2.0384
2.6790 -3.7879 2.0384
2.9761 -3.5629 2.0384
3.2541 -3.3145 2.0384
3.5112 -3.0443 2.0384
3.7458 -2.7540 2.0384
3.9561 -2.4456 2.0384
4.1408 -2.1211 2.0384
4.2986 -1.7826 2.0384
4.4286 -1.4324 2.0384
4.5297 -1.0728 2.0384
4.6014 -0.7061 2.0384
4.6431 -0.3348 2.0384
4.6545 0.0386 2.0384
4.6357 0.4117 2.0384
4.5867 0.7820 2.0384
4.5079 1.1470 2.0384
4.3999 1.5044 2.0384
4.2632 1.8517 2.0384
4.0990 2.1867 2.0384
3.9083 2.5071 2.0384
3.6924 2.8110 2.0384
3.4528 3.0963 2.0384
3.1911 3.3611 2.0384
2.9090 3.6038 2.0384
2.6084 3.8228 2.0384
2.2913 4.0168 2.0384
0.7157 1.5280 0.7443
0.5907 1.5805 0.7450
0.4618 1.6228 0.7456
0.3300 1.6545 0.7461
0.1960 1.6755 0.7467
0.0607 1.6857 0.7473
-0.0749 1.6849 0.7478
-0.2100 1.6731 0.7483
-0.3438 1.6505 0.7487
-0.4752 1.6172 0.7492
-0.6036 1.5734 0.7495
-0.7279 1.5194 0.7499
-2.3028 3.9548 2.0384
-2.6117 3.7544 2.0384
-2.9035 3.5300 2.0384
-3.1763 3.2832 2.0384
-3.4284 3.0156 2.0384
-3.6583 2.7288 2.0384
-3.8646 2.4247 2.0384
-3.9778 2.0698 2.0041
-3.9080 1.6488 1.8962
-4.0056 1.3215 1.8860
-4.0993 0.9950 1.8864
-4.1666 0.6620 1.8867
-4.2070 0.3246 1.8869
-4.2201 -0.0150 1.8871
-4.2060 -0.3546 1.8872
-4.1647 -0.6921 1.8871
-4.0964 -1.0251 1.8870
-4.0017 -1.3518 1.8869
-3.8810 -1.6698 1.8866
-3.7352 -1.9772 1.8863
-3.5653 -2.2721 1.8860
-3.4354 -2.6002 1.9209
-3.4134 -3.0449 2.0381
-3.1600 -3.3123 2.0384
-2.8855 -3.5581 2.0384
-2.5920 -3.7814 2.0384
-2.2814 -3.9806 2.0384
-0.7125 -1.5136 0.7426
-0.5885 -1.5659 0.7420
-0.4608 -1.6082 0.7414
-0.3301 -1.6401 0.7409
-0.1973 -1.6615 0.7403
-0.0632 -1.6722 0.7398
0.0713 -1.6721 0.7392
0.2054 -1.6612 0.7387
0.3381 -1.6397 0.7383
0.4688 -1.6076 0.7379
0.5964 -1.5651 0.7375
0.7203 -1.5126 0.7371
2.3228 -4.0123 2.0384
2.6390 -3.8154 2.0384
2.9384 -3.5936 2.0384
3.2190 -3.3481 2.0384
3.4790 -3.0806 2.0384
3.7166 -2.7929 2.0384
3.9301 -2.4867 2.0384
4.1182 -2.1642 2.0384
4.2796 -1.8274 2.0384
4.4133 -1.4786 2.0384
4.5182 -1.1200 2.0384
4.5937 -0.7541 2.0384
4.6393 -0.3833 2.0384
4.6548 -0.0100 2.0384
4.6399 0.3633 2.0384
4.5948 0.7340 2.0384
4.5199 1.0999 2.0384
4.4156 1.4584 2.0384
4.2826 1.8071 2.0384
4.1219 2.1438 2.0384
3.9346 2.4663 2.0384
3.7219 2.7725 2.0384
3.4853 3.0603 2.0384
3.2263 3.3279 2.0384
2.9468 3.5735 2.0384
2.6485 3.7957 2.0384
2.3334 3.9930 2.0384
0.7316 1.5204 0.7443
0.6072 1.5742 0.7449
0.4788 1.6179 0.7455
0.3473 1.6510 0.7461
0.2135 1.6734 0.7466
0.0784 1.6850 0.7472
-0.0573 1.6856 0.7477
-0.1925 1.6753 0.7482
-0.3265 1.6541 0.7487
-0.4583 1.6221 0.7491
-0.5871 1.5797 0.7495
-0.7120 1.5270 0.7499
-2.2614 3.9790 2.0384
-2.5724 3.7818 2.0384
-2.8665 3.5605 2.0384
-3.1419 3.3166 2.0384
-3.3968 3.0516 2.0384
-3.6297 2.7672 2.0384
-3.8391 2.4652 2.0384
-3.9879 2.1285 2.0203
-3.9131 1.6995 1.9072
-3.9916 1.3635 1.8860
-4.0886 1.0379 1.8863
-4.1594 0.7056 1.8867
-4.2032 0.3687 1.8869
-4.2199 0.0293 1.8871
-4.2094 -0.3105 1.8871
-4.1716 -0.6483 1.8871
-4.1068 -0.9821 1.8870
-4.0155 -1.3097 1.8869
-3.8981 -1.6289 1.8866
-3.7555 -1.9378 1.8863
-3.5887 -2.2344 1.8860
-3.4381 -2.5460 1.9075
-3.4153 -2.9829 2.0206
-3.1943 -3.2786 2.0384
-2.9223 -3.5274 2.0384
-2.6312 -3.7537 2.0384
-2.3227 -3.9561 2.0384
-0.7283 -1.5060 0.7427
-0.6049 -1.5597 0.7421
-0.4776 -1.6033 0.7415
-0.3473 -1.6366 0.7409
-0.2147 -1.6593 0.7404
-0.0807 -1.6714 0.7398
0.0538 -1.6727 0.7393
0.1880 -1.6633 0.7388
0.3210 -1.6431 0.7383
0.4519 -1.6124 0.7379
0.5800 -1.5712 0.7375
0.7044 -1.5200 0.7372
2.2805 -4.0360 2.0384
2.5988 -3.8425 2.0384
2.9005 -3.6238 2.0384
3.1836 -3.3813 2.0384
3.4464 -3.1166 2.0384
3.6870 -2.8314 2.0384
3.9037 -2.5276 2.0384
4.0952 -2.2070 2.0384
4.2602 -1.8720 2.0384
4.3975 -1.5246 2.0384
4.5062 -1.1672 2.0384
4.5856 -0.8021 2.0384
4.6351 -0.4318 2.0384
4.6545 -0.0587 2.0384
4.6435 0.3148 2.0384
4.6024 0.6860 2.0384
4.5313 1.0526 2.0384
4.4308 1.4122 2.0384
4.3015 1.7623 2.0384
4.1444 2.1008 2.0384
3.9605 2.4252 2.0384
3.7510 2.7336 2.0384
3.5174 3.0239 2.0384
3.2613 3.2942 2.0384
2.9843 3.5428 2.0384
2.6883 3.7682 2.0384
2.3753 3.9687 2.0384
0.7475 1.5127 0.7442
0.6236 1.5678 0.7448
0.4957 1.6128 0.7454
0.3645 1.6473 0.7460
0.2310 1.6711 0.7466
0.0960 1.6841 0.7471
-0.0396 1.6861 0.7476
-0.1750 1.6772 0.7481
-0.3091 1.6574 0.7486
-0.4413 1.6269 0.7490
-0.5705 1.5858 0.7495
-0.6960 1.5344 0.7498
-2.2198 4.0029 2.0384
-2.5329 3.8089 2.0384
-2.8293 3.5907 2.0384
-3.1072 3.3496 2.0384
-3.3649 3.0872 2.0384
-3.6007 2.8052 2.0384
-3.8132 2.5054 2.0384
-3.9990 2.1886 2.0373
-3.9225 1.7527 1.9205
-3.9772 1.4053 1.8860
-4.0775 1.0807 1.8863
-4.1517 0.7492 1.8866
-4.1991 0.4127 1.8869
-4.2193 0.0735 1.8871
-4.2123 -0.2663 1.8871
-4.1780 -0.6045 1.8871
-4.1168 -0.9389 1.8871
-4.0289 -1.2674 1.8869
-3.9149 -1.5879 1.8867
-3.7755 -1.8983 1.8864
-3.6171 -2.1998 1.8888
-3.4453 -2.4958 1.8971
-3.4185 -2.9231 2.0044
-3.2282 -3.2447 2.0384
-2.9589 -3.4962 2.0384
-2.6702 -3.7255 2.0384
-2.3638 -3.9311 2.0384
-0.7440 -1.4983 0.7428
-0.6212 -1.5533 0.7422
-0.4944 -1.5982 0.7416
-0.3644 -1.6328 0.7410
-0.2321 -1.6570 0.7404
-0.0982 -1.6704 0.7399
0.0363 -1.6732 0.7394
0.1705 -1.6651 0.7389
0.3037 -1.6463 0.7384
0.4350 -1.6170 0.7380
0.5635 -1.5772 0.7376
0.6885 -1.5272 0.7372
2.2380 -4.0593 2.0384
2.5582 -3.8692 2.0384
2.8622 -3.6537 2.0384
3.1479 -3.4142 2.0384
3.4134 -3.1523 2.0384
3.6569 -2.8697 2.0384
3.8769 -2.5681 2.0384
4.0718 -2.2496 2.0384
4.2402 -1.9164 2.0384
4.3812 -1.5704 2.0384
4.4937 -1.2142 2.0384
4.5769 -0.8500 2.0384
4.6304 -0.4802 2.0384
4.6537 -0.1073 2.0384
4.6467 0.2662 2.0384
4.6094 0.6379 2.0384
4.5422 1.0052 2.0384
4.4455 1.3659 2.0384
4.3199 1.7174 2.0384
4.1664 2.0574 2.0384
3.9859 2.3838 2.0384
3.7797 2.6944 2.0384
3.5491 2.9872 2.0384
3.2958 3.2602 2.0384
3.0215 3.5118 2.0384
2.7278 3.7402 2.0384
2.4170 3.9441 2.0384
0.7633 1.5048 0.7441
0.6400 1.5612 0.7447
0.5125 1.6075 0.7453
0.3818 1.6434 0.7459
0.2485 1.6686 0.7465
0.1136 1.6830 0.7470
-0.0220 1.6865 0.7476
-0.1574 1.6790 0.7481
-0.2918 1.6606 0.7486
-0.4242 1.6315 0.7490
-0.5539 1.5917 0.7494
-0.6799 1.5417 0.7498
-2.1779 4.0263 2.0384
-2.4930 3.8356 2.0384
-2.7917 3.6204 2.0384
-3.0721 3.3822 2.0384
-3.3325 3.1225 2.0384
-3.5713 2.8430 2.0384
-3.7869 2.5454 2.0384
-3.9781 2.2317 2.0384
-3.9320 1.8066 1.9343
-3.9623 1.4470 1.8860
-4.0658 1.1235 1.8862
-4.1435 0.7927 1.8866
-4.1944 0.4567 1.8869
-4.2182 0.1178 1.8870
-4.2147 -0.2221 1.8871
-4.1840 -0.5606 1.8871
-4.1263 -0.8957 1.8871
-4.0418 -1.2251 1.8869
-3.9312 -1.5467 1.8867
-3.7951 -1.8585 1.8864
-3.6343 -2.1584 1.8860
-3.4555 -2.4484 1.8886
-3.4217 -2.8643 1.9888
-3.2617 -3.2104 2.0384
-2.9951 -3.4647 2.0384
-2.7088 -3.6970 2.0384
-2.4046 -3.9057 2.0384
-0.7597 -1.4904 0.7429
-0.6374 -1.5467 0.7423
-0.5111 -1.5929 0.7417
-0.3815 -1.6289 0.7411
-0.2494 -1.6544 0.7405
-0.1157 -1.6693 0.7400
0.0187 -1.6734 0.7394
0.1531 -1.6668 0.7389
0.2865 -1.6494 0.7385
0.4181 -1.6214 0.7380
0.5470 -1.5829 0.7376
0.6724 -1.5343 0.7372
2.1952 -4.0821 2.0384
2.5174 -3.8954 2.0384
2.8236 -3.6831 2.0384
3.1118 -3.4467 2.0384
3.3800 -3.1876 2.0384
3.6265 -2.9076 2.0384
3.8496 -2.6084 2.0384
4.0479 -2.2920 2.0384
4.2198 -1.9605 2.0384
4.3644 -1.6161 2.0384
4.4807 -1.2611 2.0384
4.5677 -0.8978 2.0384
4.6251 -0.5286 2.0384
4.6523 -0.1560 2.0384
4.6493 0.2176 2.0384
4.6160 0.5897 2.0384
4.5527 0.9577 2.0384
4.4598 1.3194 2.0384
4.3379 1.6722 2.0384
4.1879 2.0139 2.0384
4.0109 2.3422 2.0384
3.8079 2.6550 2.0384
3.5805 2.9501 2.0384
3.3301 3.2258 2.0384
3.0583 3.4803 2.0384
2.7671 3.7118 2.0384
2.4584 3.9190 2.0384
0.7790 1.4967 0.7440
0.6563 1.5544 0.7446
0.5293 1.6021 0.7452
0.3989 1.6393 0.7458
0.2660 1.6660 0.7464
0.1313 1.6818 0.7470
-0.0043 1.6867 0.7475
-0.1398 1.6806 0.7480
-0.2744 1.6636 0.7485
-0.4071 1.6359 0.7489
-0.5372 1.5975 0.7493
-0.6637 1.5488 0.7497
-2.1358 4.0492 2.0384
-2.4529 3.8618 2.0384
-2.7538 3.6498 2.0384
-3.0367 3.4145 2.0384
-3.2998 3.1575 2.0384
-3.5415 2.8804 2.0384
-3.7602 2.5851 2.0384
-3.9546 2.2734 2.0384
-3.9416 1.8613 1.9485
-3.9470 1.4885 1.8860
-4.0538 1.1660 1.8862
-4.1349 0.8361 1.8866
-4.1893 0.5007 1.8868
-4.2167 0.1620 1.8870
-4.2167 -0.1779 1.8871
-4.1896 -0.5167 1.8871
-4.1353 -0.8524 1.8871
-4.0543 -1.1826 1.8870
-3.9470 -1.5054 1.8867
-3.8142 -1.8185 1.8865
-3.6566 -2.1201 1.8861
-3.4760 -2.4085 1.8860
-3.4248 -2.8063 1.9735
-3.2949 -3.1758 2.0384
-3.0309 -3.4328 2.0384
-2.7471 -3.6680 2.0384
-2.4452 -3.8799 2.0384
-0.7753 -1.4824 0.7430
-0.6536 -1.5399 0.7424
-0.5278 -1.5875 0.7418
-0.3985 -1.6248 0.7412
-0.2667 -1.6517 0.7406
-0.1332 -1.6680 0.7400
0.0012 -1.6735 0.7395
0.1356 -1.6682 0.7390
0.2692 -1.6522 0.7385
0.4011 -1.6256 0.7381
0.5304 -1.5885 0.7377
0.6563 -1.5412 0.7373
0.7781 -1.4839 0.7370
2.4763 -3.9212 2.0384
2.7847 -3.7122 2.0384
3.0754 -3.4788 2.0384
3.3463 -3.2226 2.0384
3.5957 -2.9451 2.0384
3.8220 -2.6483 2.0384
4.0235 -2.3341 2.0384
4.1990 -2.0045 2.0384
4.3472 -1.6616 2.0384
4.4672 -1.3078 2.0384
4.5581 -0.9455 2.0384
4.6193 -0.5769 2.0384
4.6505 -0.2046 2.0384
4.6514 0.1690 2.0384
4.6220 0.5414 2.0384
4.5626 0.9101 2.0384
4.4735 1.2727 2.0384
4.3554 1.6268 2.0384
4.2090 1.9701 2.0384
4.0354 2.3003 2.0384
3.8358 2.6152 2.0384
3.6114 2.9128 2.0384
3.3639 3.1911 2.0384
3.0948 3.4484 2.0384
2.8061 3.6830 2.0384
2.4995 3.8934 2.0384
0.7946 1.4885 0.7439
0.6725 1.5475 0.7446
0.5461 1.5964 0.7452
0.4161 1.6351 0.7458
0.2834 1.6631 0.7463
0.1489 1.6803 0.7469
0.0134 1.6866 0.7474
-0.1222 1.6820 0.7479
-0.2569 1.6665 0.7484
-0.3900 1.6401 0.7489
-0.5204 1.6031 0.7493
-0.6475 1.5557 0.7497
-0.7703 1.4982 0.7500
-2.4125 3.8876 2.0384
-2.7156 3.6787 2.0384
-3.0010 3.4464 2.0384
-3.2667 3.1921 2.0384
-3.5113 2.9176 2.0384
-3.7331 2.6245 2.0384
-3.9307 2.3149 2.0384
-3.9513 1.9169 1.9630
-3.9313 1.5299 1.8860
-4.0413 1.2084 1.8861
-4.1258 0.8794 1.8865
-4.1838 0.5446 1.8868
-4.2146 0.2062 1.8870
-4.2183 -0.1336 1.8871
-4.1946 -0.4727 1.8872
-4.1439 -0.8089 1.8871
-4.0663 -1.1400 1.8870
-3.9625 -1.4638 1.8868
-3.8329 -1.7784 1.8865
-3.6785 -2.0816 1.8861
-3.5008 -2.3718 1.8860
-3.4278 -2.7493 1.9587
-3.3277 -3.1408 2.0384
-3.0665 -3.4005 2.0384
-2.7851 -3.6387 2.0384
-2.4854 -3.8537 2.0384
-2.1693 -4.0442 2.0384
-0.6697 -1.5330 0.7424
-0.5444 -1.5819 0.7418
-0.4155 -1.6206 0.7412
-0.2840 -1.6488 0.7407
-0.1506 -1.6665 0.7401
-0.0163 -1.6734 0.7396
0.1182 -1.6695 0.7391
0.2519 -1.6549 0.7386
0.3840 -1.6297 0.7381
0.5137 -1.5939 0.7377
0.6402 -1.5479 0.7373
0.7625 -1.4919 0.7370
2.4350 -3.9465 2.0384
2.7455 -3.7408 2.0384
3.0386 -3.5105 2.0384
3.3122 -3.2572 2.0384
3.5645 -2.9824 2.0384
3.7939 -2.6880 2.0384
3.9987 -2.3759 2.0384
4.1777 -2.0482 2.0384
4.3295 -1.7069 2.0384
4.4532 -1.3544 2.0384
4.5479 -0.9930 2.0384
4.6131 -0.6252 2.0384
4.6482 -0.2532 2.0384
4.6530 0.1204 2.0384
4.6276 0.4931 2.0384
4.5720 0.8624 2.0384
4.4868 1.2260 2.0384
4.3724 1.5813 2.0384
4.2296 1.9261 2.0384
4.0595 2.2581 2.0384
3.8632 2.5751 2.0384
3.6420 2.8751 2.0384
3.3974 3.1560 2.0384
3.1310 3.4162 2.0384
2.8447 3.6538 2.0384
2.5403 3.8674 2.0384
2.2199 4.0557 2.0384
0.6887 1.5403 0.7445
0.5628 1.5907 0.7451
0.4332 1.6306 0.7457
0.3008 1.6601 0.7463
0.1664 1.6787 0.7468
0.0310 1.6864 0.7474
-0.1046 1.6832 0.7479
-0.2395 1.6691 0.7484
-0.3728 1.6441 0.7488
-0.5036 1.6085 0.7492
-0.6312 1.5624 0.7496
-0.7545 1.5062 0.7500
-2.3718 3.9130 2.0384
-2.6771 3.7073 2.0384
-2.9649 3.4779 2.0384
-3.2333 3.2264 2.0384
-3.4807 2.9544 2.0384
-3.7055 2.6637 2.0384
-3.9064 2.3560 2.0384
-3.9611 1.9732 1.9780
-3.9151 1.5710 1.8860
-4.0283 1.2508 1.8861
-4.1163 0.9226 1.8865
-4.1777 0.5885 1.8868
-4.2122 0.2504 1.8870
-4.2193 -0.0894 1.8871
-4.1993 -0.4287 1.8872
-4.1520 -0.7654 1.8871
-4.0779 -1.0972 1.8870
-3.9775 -1.4222 1.8868
-3.8512 -1.7380 1.8865
-3.7000 -2.0428 1.8862
-3.5252 -2.3348 1.8860
-3.4307 -2.6930 1.9442
-3.3602 -3.1055 2.0384
-3.1017 -3.3679 2.0384
-2.8228 -3.6090 2.0384
-2.5254 -3.8271 2.0384
-2.2113 -4.0208 2.0384
-0.6857 -1.5259 0.7425
-0.5609 -1.5761 0.7419
-0.4325 -1.6161 0.7413
-0.3012 -1.6457 0.7407
-0.1681 -1.6648 0.7402
-0.0338 -1.6731 0.7396
0.1007 -1.6706 0.7391
0.2345 -1.6574 0.7386
0.3669 -1.6336 0.7382
0.4970 -1.5992 0.7378
0.6239 -1.5545 0.7374
0.7468 -1.4998 0.7370
2.3933 -3.9714 2.0384
2.7060 -3.7690 2.0384
3.0015 -3.5418 2.0384
3.2778 -3.2914 2.0384
3.5329 -3.0193 2.0384
3.7654 -2.7274 2.0384
3.9735 -2.4175 2.0384
4.1559 -2.0916 2.0384
4.3113 -1.7520 2.0384
4.4387 -1.4009 2.0384
4.5372 -1.0405 2.0384
4.6063 -0.6733 2.0384
4.6453 -0.3017 2.0384
4.6541 0.0717 2.0384
4.6326 0.4447 2.0384
4.5810 0.8146 2.0384
4.4995 1.1790 2.0384
4.3889 1.5356 2.0384
4.2498 1.8819 2.0384
4.0832 2.2157 2.0384
3.8902 2.5348 2.0384
3.6721 2.8371 2.0384
3.4305 3.1206 2.0384
3.1669 3.3835 2.0384
2.8831 3.6242 2.0384
2.5809 3.8410 2.0384
2.2625 4.0327 2.0384
0.7048 1.5331 0.7444
0.5794 1.5847 0.7450
0.4502 1.6260 0.7456
0.3181 1.6568 0.7462
0.1840 1.6769 0.7468
0.0487 1.6861 0.7473
-0.0869 1.6843 0.7478
-0.2220 1.6716 0.7483
-0.3555 1.6480 0.7488
-0.4867 1.6137 0.7492
-0.6148 1.5690 0.7496
-0.7387 1.5141 0.7499
-2.3308 3.9380 2.0384
-2.6383 3.7354 2.0384
-2.9285 3.5090 2.0384
-3.1995 3.2603 2.0384
-3.4497 2.9909 2.0384
-3.6776 2.7025 2.0384
-3.8817 2.3970 2.0384
-3.9710 2.0304 1.9934
-3.9069 1.6155 1.8900
-4.0150 1.2929 1.8860
-4.1064 0.9657 1.8864
-4.1713 0.6322 1.8867
-4.2092 0.2946 1.8870
-4.2199 -0.0451 1.8871
-4.2034 -0.3846 1.8872
-4.1597 -0.7218 1.8871
-4.0891 -1.0544 1.8870
-3.9920 -1.3803 1.8868
-3.8691 -1.6975 1.8866
-3.7211 -2.0038 1.8862
-3.5492 -2.2976 1.8860
-3.4335 -2.6375 1.9302
-3.3923 -3.0698 2.0384
-3.1365 -3.3349 2.0384
-2.8602 -3.5788 2.0384
-2.5652 -3.8000 2.0384
-2.2531 -3.9970 2.0384
-0.7017 -1.5186 0.7426
-0.5774 -1.5701 0.7420
-0.4493 -1.6115 0.7414
-0.3184 -1.6425 0.7408
-0.1855 -1.6629 0.7403
-0.0513 -1.6726 0.7397
0.0832 -1.6716 0.7392
0.2172 -1.6598 0.7387
0.3498 -1.6373 0.7382
0.4802 -1.6042 0.7378
0.6076 -1.5609 0.7374
0.7311 -1.5075 0.7371
2.3515 -3.9959 2.0384
2.6663 -3.7968 2.0384
2.9641 -3.5728 2.0384
3.2429 -3.3253 2.0384
3.5010 -3.0559 2.0384
3.7365 -2.7665 2.0384
3.9478 -2.4588 2.0384
4.1336 -2.1349 2.0384
4.2926 -1.7969 2.0384
4.4237 -1.4472 2.0384
4.5261 -1.0879 2.0384
4.5990 -0.7215 2.0384
4.6419 -0.3503 2.0384
4.6547 0.0231 2.0384
4.6371 0.3962 2.0384
4.5894 0.7667 2.0384
4.5118 1.1320 2.0384
4.4049 1.4897 2.0384
4.2695 1.8375 2.0384
4.1064 2.1730 2.0384
3.9168 2.4941 2.0384
3.7019 2.7987 2.0384
3.4633 3.0848 2.0384
3.2024 3.3505 2.0384
2.9211 3.5942 2.0384
2.6212 3.8142 2.0384
2.3048 4.0092 2.0384
0.7208 1.5256 0.7443
0.5959 1.5785 0.7449
0.4672 1.6212 0.7455
0.3355 1.6534 0.7461
0.2016 1.6749 0.7467
0.0663 1.6855 0.7472
-0.0693 1.6851 0.7478
-0.2044 1.6738 0.7482
-0.3383 1.6517 0.7487
-0.4698 1.6188 0.7491
-0.5983 1.5754 0.7495
-0.7229 1.5218 0.7499
-2.2896 3.9626 2.0384
-2.5992 3.7632 2.0384
-2.8917 3.5398 2.0384
-3.1654 3.2939 2.0384
-3.4184 3.0271 2.0384
-3.6492 2.7411 2.0384
-3.8565 2.4377 2.0384
-3.9810 2.0885 2.0092
-3.9086 1.6644 1.8991
-4.0058 1.3365 1.8882
-4.0960 1.0088 1.8864
-4.1643 0.6759 1.8867
-4.2058 0.3387 1.8869
-4.2201 -0.0009 1.8871
-4.2071 -0.3405 1.8872
-4.1669 -0.6781 1.8871
-4.0998 -1.0114 1.8870
-4.0061 -1.3383 1.8869
-3.8865 -1.6568 1.8866
-3.7417 -1.9646 1.8863
-3.5728 -2.2601 1.8860
-3.4363 -2.5828 1.9166
-3.4140 -3.0250 2.0324
-3.1710 -3.3016 2.0384
-2.8973 -3.5483 2.0384
-2.6046 -3.7726 2.0384
-2.2946 -3.9728 2.0384
-0.7175 -1.5112 0.7427
-0.5938 -1.5640 0.7421
-0.4662 -1.6067 0.7415
-0.3356 -1.6390 0.7409
-0.2029 -1.6608 0.7403
-0.0688 -1.6720 0.7398
0.0657 -1.6723 0.7393
0.1998 -1.6619 0.7388
0.3326 -1.6408 0.7383
0.4634 -1.6091 0.7379
0.5912 -1.5671 0.7375
0.7153 -1.5150 0.7371
2.3094 -4.0199 2.0384
2.6262 -3.8241 2.0384
2.9263 -3.6033 2.0384
3.2078 -3.3588 2.0384
3.4686 -3.0922 2.0384
3.7071 -2.8052 2.0384
3.9217 -2.4998 2.0384
4.1109 -2.1779 2.0384
4.2735 -1.8417 2.0384
4.4083 -1.4933 2.0384
4.5144 -1.1351 2.0384
4.5912 -0.7695 2.0384
4.6380 -0.3988 2.0384
4.6547 -0.0256 2.0384
4.6411 0.3478 2.0384
4.5973 0.7187 2.0384
4.5236 1.0848 2.0384
4.4205 1.4436 2.0384
4.2887 1.7928 2.0384
4.1292 2.1301 2.0384
3.9429 2.4532 2.0384
3.7313 2.7601 2.0384
3.4956 3.0487 2.0384
3.2376 3.3171 2.0384
2.9588 3.5638 2.0384
2.6613 3.7869 2.0384
2.3468 3.9853 2.0384
0.7367 1.5180 0.7442
0.6124 1.5722 0.7449
0.4842 1.6163 0.7455
3.6061 -2.3711 2.0384
3.7858 -2.0749 2.0384
3.9410 -1.7651 2.0384
4.0707 -1.4437 2.0384
4.1739 -1.1128 2.0384
4.2500 -0.7746 2.0384
4.2984 -0.4313 2.0384
4.3189 -0.0852 2.0384
4.3113 0.2613 2.0384
4.2756 0.6061 2.0384
4.2122 0.9468 2.0384
4.1214 1.2811 2.0384
4.0038 1.6069 2.0384
3.8604 1.9220 2.0384
3.6920 2.2244 2.0384
3.4998 2.5121 2.0384
3.2850 2.7832 2.0384
3.0492 3.0359 2.0384
2.7939 3.2686 2.0384
2.5208 3.4799 2.0384
2.2317 3.6683 2.0384
0.7040 1.3991 0.7441
0.5894 1.4511 0.7447
0.4709 1.4936 0.7452
0.3494 1.5265 0.7458
0.2257 1.5495 0.7463
0.1004 1.5625 0.7468
-0.0254 1.5653 0.7473
-0.1511 1.5579 0.7478
-0.2758 1.5404 0.7482
-0.3986 1.5130 0.7486
-0.5188 1.4757 0.7490
-0.6357 1.4288 0.7493
-0.7483 1.3727 0.7496
-2.3269 3.5547 2.0384
-2.6038 3.3541 2.0384
-2.8635 3.1320 2.0384
-3.1048 2.8901 2.0384
-3.3258 2.6298 2.0384
-3.5253 2.3527 2.0384
-3.7020 2.0608 2.0384
-3.8548 1.7557 2.0384
-3.8352 1.3862 1.9629
-3.7920 1.0342 1.8921
-3.8502 0.7232 1.8860
-3.8961 0.4110 1.8861
-3.9171 0.0962 1.8863
-3.9128 -0.2194 1.8863
-3.8831 -0.5337 1.8863
-3.8284 -0.8447 1.8863
-3.7489 -1.1503 1.8861
-3.6452 -1.4486 1.8860
-3.5184 -1.7380 1.8860
-3.4514 -2.0658 1.9323
-3.4215 -2.4420 2.0182
-3.2479 -2.7380 2.0384
-3.0191 -2.9922 2.0384
-2.7705 -3.2274 2.0384
-2.5037 -3.4421 2.0384
-2.2205 -3.6349 2.0384
-0.7007 -1.3866 0.7429
-0.5870 -1.4384 0.7423
-0.4695 -1.4810 0.7418
-0.3490 -1.5140 0.7412
-0.2263 -1.5373 0.7407
-0.1021 -1.5507 0.7402
0.0228 -1.5541 0.7397
0.1476 -1.5475 0.7392
0.2714 -1.5310 0.7388
0.3935 -1.5046 0.7384
0.5131 -1.4684 0.7380
0.6295 -1.4229 0.7377
0.7418 -1.3681 0.7374
2.3490 -3.6076 2.0384
2.6325 -3.4095 2.0384
2.8991 -3.1890 2.0384
3.1471 -2.9477 2.0384
3.3749 -2.6870 2.0384
3.5809 -2.4086 2.0384
3.7638 -2.1143 2.0384
3.9222 -1.8062 2.0384
4.0553 -1.4861 2.0384
4.1620 -1.1563 2.0384
4.2416 -0.8189 2.0384
4.2937 -0.4762 2.0384
4.3178 -0.1304 2.0384
4.3138 0.2163 2.0384
4.2818 0.5614 2.0384
4.2220 0.9027 2.0384
4.1347 1.2380 2.0384
4.0206 1.5651 2.0384
3.8805 1.8817 2.0384
3.7153 2.1859 2.0384
3.5261 2.4755 2.0384
3.3142 2.7489 2.0384
3.0811 3.0041 2.0384
2.8282 3.2395 2.0384
2.5573 3.4536 2.0384
2.2702 3.6451 2.0384
0.7186 1.3916 0.7440
0.6045 1.4448 0.7446
0.4866 1.4886 0.7451
0.3654 1.5228 0.7457
0.2419 1.5471 0.7462
0.1168 1.5614 0.7467
-0.0090 1.5655 0.7472
-0.1348 1.5594 0.7477
-0.2596 1.5433 0.7481
-0.3828 1.5171 0.7486
-0.5034 1.4811 0.7489
-0.6207 1.4355 0.7493
-0.7339 1.3805 0.7496
-2.2897 3.5792 2.0384
-2.5687 3.3814 2.0384
-2.8308 3.1621 2.0384
-3.0745 2.9227 2.0384
-3.2982 2.6646 2.0384
-3.5006 2.3897 2.0384
-3.6803 2.0996 2.0384
-3.8363 1.7961 2.0384
-3.8423 1.4345 1.9740
-3.7929 1.0773 1.8981
-3.8424 0.7636 1.8860
-3.8915 0.4519 1.8861
-3.9158 0.1372 1.8862
-3.9148 -0.1784 1.8863
-3.8884 -0.4930 1.8863
-3.8369 -0.8044 1.8863
-3.7607 -1.1109 1.8862
-3.6658 -1.4125 1.8889
-3.5362 -1.7009 1.8860
-3.4550 -2.0191 1.9224
-3.4256 -2.3912 2.0059
-3.2762 -2.7036 2.0384
-3.0500 -2.9601 2.0384
-2.8039 -3.1979 2.0384
-2.5394 -3.4154 2.0384
-2.2583 -3.6111 2.0384
-0.7152 -1.3791 0.7430
-0.6020 -1.4322 0.7424
-0.4850 -1.4760 0.7419
-0.3649 -1.5103 0.7413
-0.2424 -1.5349 0.7408
-0.1183 -1.5495 0.7403
0.0065 -1.5543 0.7398
0.1314 -1.5490 0.7393
0.2554 -1.5337 0.7389
0.3777 -1.5085 0.7384
0.4977 -1.4737 0.7381
0.6145 -1.4293 0.7377
0.7275 -1.3758 0.7374
2.3110 -3.6316 2.0384
2.5965 -3.4366 2.0384
2.8654 -3.2190 2.0384
3.1159 -2.9802 2.0384
3.3464 -2.7219 2.0384
3.5554 -2.4457 2.0384
3.7413 -2.1535 2.0384
3.9030 -1.8470 2.0384
4.0394 -1.5284 2.0384
4.1496 -1.1997 2.0384
4.2328 -0.8632 2.0384
4.2885 -0.5210 2.0384
4.3162 -0.1755 2.0384
4.3159 0.1712 2.0384
4.2876 0.5166 2.0384
4.2313 0.8586 2.0384
4.1476 1.1948 2.0384
4.0370 1.5230 2.0384
3.9002 1.8411 2.0384
3.7382 2.1470 2.0384
3.5521 2.4387 2.0384
3.3431 2.7143 2.0384
3.1126 2.9719 2.0384
2.8622 3.2100 2.0384
2.5936 3.4270 2.0384
2.3084 3.6215 2.0384
0.7331 1.3840 0.7439
0.6196 1.4384 0.7445
0.5021 1.4835 0.7451
0.3813 1.5189 0.7456
0.2581 1.5445 0.7462
0.1332 1.5601 0.7467
0.0074 1.5655 0.7472
-0.1184 1.5608 0.7476
-0.2434 1.5459 0.7481
-0.3668 1.5211 0.7485
-0.4878 1.4863 0.7489
-0.6056 1.4419 0.7492
-0.7194 1.3882 0.7496
-2.2522 3.6033 2.0384
-2.5332 3.4084 2.0384
-2.7977 3.1918 2.0384
-3.0439 2.9549 2.0384
-3.2703 2.6992 2.0384
-3.4755 2.4264 2.0384
-3.6582 2.1381 2.0384
-3.8174 1.8363 2.0384
-3.8498 1.4835 1.9857
-3.7959 1.1213 1.9053
-3.8342 0.8039 1.8860
-3.8865 0.4927 1.8860
-3.9140 0.1783 1.8862
-3.9163 -0.1373 1.8863
-3.8933 -0.4521 1.8863
-3.8451 -0.7641 1.8863
-3.7720 -1.0713 1.8862
-3.6745 -1.3717 1.8860
-3.5536 -1.6636 1.8860
-3.4585 -1.9727 1.9129
-3.4297 -2.3409 1.9940
-3.3041 -2.6689 2.0384
-3.0806 -2.9277 2.0384
-2.8370 -3.1681 2.0384
-2.5749 -3.3883 2.0384
-2.2957 -3.5869 2.0384
-0.7296 -1.3716 0.7430
-0.6170 -1.4258 0.7425
-0.5004 -1.4708 0.7419
-0.3806 -1.5064 0.7414
-0.2584 -1.5322 0.7408
-0.1345 -1.5482 0.7403
-0.0097 -1.5542 0.7398
0.1151 -1.5502 0.7394
0.2393 -1.5362 0.7389
0.3619 -1.5124 0.7385
0.4823 -1.4788 0.7381
0.5995 -1.4356 0.7378
0.7130 -1.3832 0.7374
2.2727 -3.6553 2.0384
2.5602 -3.4633 2.0384
2.8314 -3.2485 2.0384
3.0844 -3.0125 2.0384
3.3176 -2.7566 2.0384
3.5294 -2.4827 2.0384
3.7184 -2.1924 2.0384
3.8834 -1.8876 2.0384
4.0231 -1.5705 2.0384
4.1368 -1.2430 2.0384
4.2235 -0.9074 2.0384
4.2828 -0.5658 2.0384
4.3142 -0.2206 2.0384
4.3176 0.1261 2.0384
4.2929 0.4718 2.0384
4.2402 0.8143 2.0384
4.1601 1.1514 2.0384
4.0529 1.4808 2.0384
3.9195 1.8004 2.0384
3.7607 2.1080 2.0384
3.5776 2.4016 2.0384
3.3715 2.6794 2.0384
3.1438 2.9395 2.0384
2.8959 3.1802 2.0384
2.6295 3.4000 2.0384
2.3464 3.5975 2.0384
0.7476 1.3763 0.7439
0.6347 1.4319 0.7444
0.5176 1.4782 0.7450
0.3972 1.5149 0.7455
0.2742 1.5417 0.7461
0.1495 1.5586 0.7466
0.0238 1.5654 0.7471
-0.1021 1.5620 0.7476
-0.2272 1.5484 0.7480
-0.3509 1.5249 0.7485
-0.4722 1.4914 0.7488
-0.5905 1.4482 0.7492
-0.7048 1.3957 0.7495
-2.2145 3.6270 2.0384
-2.4976 3.4350 2.0384
-2.7642 3.2212 2.0384
-3.0129 2.9869 2.0384
-3.2420 2.7335 2.0384
-3.4500 2.4628 2.0384
-3.6357 2.1765 2.0384
-3.7980 1.8763 2.0384
-3.8586 1.5335 1.9984
-3.8024 1.1667 1.9146
-3.8256 0.8440 1.8860
-3.8810 0.5334 1.8860
-3.9119 0.2194 1.8862
-3.9175 -0.0962 1.8863
-3.8977 -0.4113 1.8863
-3.8528 -0.7237 1.8863
-3.7829 -1.0317 1.8862
-3.6885 -1.3331 1.8860
-3.5707 -1.6262 1.8860
-3.4619 -1.9269 1.9036
-3.4337 -2.2913 1.9824
-3.3317 -2.6339 2.0384
-3.1109 -2.8951 2.0384
-2.8698 -3.1379 2.0384
-2.6100 -3.3608 2.0384
-2.3330 -3.5623 2.0384
-0.7439 -1.3639 0.7431
-0.6319 -1.4193 0.7426
-0.5158 -1.4655 0.7420
-0.3964 -1.5023 0.7415
-0.2744 -1.5294 0.7409
-0.1507 -1.5467 0.7404
-0.0260 -1.5540 0.7399
0.0989 -1.5513 0.7394
0.2232 -1.5386 0.7390
0.3461 -1.5160 0.7386
0.4667 -1.4837 0.7382
0.5845 -1.4418 0.7378
0.6985 -1.3906 0.7375
2.2342 -3.6786 2.0384
2.5237 -3.4896 2.0384
2.7971 -3.2777 2.0384
3.0525 -3.0444 2.0384
3.2884 -2.7910 2.0384
3.5031 -2.5193 2.0384
3.6952 -2.2310 2.0384
3.8633 -1.9281 2.0384
4.0064 -1.6124 2.0384
4.1235 -1.2862 2.0384
4.2138 -0.9515 2.0384
4.2767 -0.6106 2.0384
4.3117 -0.2657 2.0384
4.3187 0.0809 2.0384
4.2977 0.4269 2.0384
4.2486 0.7700 2.0384
4.1720 1.1079 2.0384
4.0683 1.4384 2.0384
3.9383 1.7594 2.0384
3.7828 2.0687 2.0384
3.6028 2.3642 2.0384
3.3996 2.6442 2.0384
3.1746 2.9066 2.0384
2.9292 3.1500 2.0384
2.6652 3.3726 2.0384
2.3842 3.5731 2.0384
0.7619 1.3684 0.7438
0.6496 1.4251 0.7444
0.5331 1.4727 0.7449
0.4131 1.5106 0.7455
0.2904 1.5388 0.7460
0.1658 1.5570 0.7465
0.0402 1.5651 0.7470
-0.0857 1.5630 0.7475
-0.2110 1.5508 0.7480
-0.3349 1.5285 0.7484
-0.4566 1.4963 0.7488
-0.5753 1.4544 0.7492
-0.6902 1.4031 0.7495
-2.1766 3.6503 2.0384
-2.4616 3.4613 2.0384
-2.7305 3.2502 2.0384
-2.9816 3.0185 2.0384
-3.2133 2.7675 2.0384
-3.4242 2.4990 2.0384
-3.6129 2.2146 2.0384
-3.7783 1.9161 2.0384
-3.8675 1.5842 2.0115
-3.8093 1.2127 1.9243
-3.8166 0.8841 1.8860
-3.8780 0.5745 1.8874
-3.9093 0.2604 1.8862
-3.9182 -0.0551 1.8863
-3.9017 -0.3703 1.8863
-3.8600 -0.6833 1.8863
-3.7934 -0.9919 1.8862
-3.7022 -1.2943 1.8861
-3.5873 -1.5885 1.8860
-3.4691 -1.8835 1.8968
-3.4376 -2.2421 1.9711
-3.3588 -2.5986 2.0384
-3.1408 -2.8621 2.0384
-2.9023 -3.1074 2.0384
-2.6448 -3.3329 2.0384
-2.3700 -3.5373 2.0384
-0.7582 -1.3560 0.7432
-0.6467 -1.4126 0.7426
-0.5311 -1.4600 0.7421
-0.4121 -1.4980 0.7415
-0.2904 -1.5264 0.7410
-0.1669 -1.5450 0.7405
-0.0423 -1.5536 0.7400
0.0827 -1.5522 0.7395
0.2071 -1.5408 0.7390
0.3302 -1.5195 0.7386
0.4512 -1.4884 0.7382
0.5693 -1.4478 0.7379
0.6839 -1.3978 0.7375
2.1954 -3.7014 2.0384
2.4868 -3.5155 2.0384
2.7624 -3.3066 2.0384
3.0204 -3.0759 2.0384
3.2589 -2.8251 2.0384
3.4764 -2.5556 2.0384
3.6715 -2.2694 2.0384
3.8428 -1.9683 2.0384
3.9892 -1.6542 2.0384
4.1097 -1.3292 2.0384
4.2036 -0.9955 2.0384
4.2700 -0.6552 2.0384
4.3087 -0.3107 2.0384
4.3194 0.0358 2.0384
4.3020 0.3820 2.0384
4.2566 0.7256 2.0384
4.1836 1.0643 2.0384
4.0834 1.3959 2.0384
3.9567 1.7182 2.0384
3.8044 2.0291 2.0384
3.6276 2.3266 2.0384
3.4273 2.6087 2.0384
3.2051 2.8735 2.0384
2.9623 3.1194 2.0384
2.7005 3.3448 2.0384
2.4217 3.5483 2.0384
0.7762 1.3603 0.7437
0.6645 1.4183 0.7443
0.5485 1.4670 0.7448
0.4289 1.5062 0.7454
0.3065 1.5357 0.7459
0.1821 1.5552 0.7465
0.0566 1.5646 0.7470
-0.0693 1.5638 0.7475
-0.1948 1.5529 0.7479
-0.3189 1.5320 0.7484
-0.4409 1.5010 0.7487
-0.5600 1.4604 0.7491
-0.6755 1.4103 0.7494
-2.1383 3.6732 2.0384
-2.4254 3.4872 2.0384
-2.6965 3.2789 2.0384
-2.9500 3.0498 2.0384
-3.1843 2.8012 2.0384
-3.3979 2.5349 2.0384
-3.5896 2.2524 2.0384
-3.7581 1.9557 2.0384
-3.8765 1.6356 2.0249
-3.8163 1.2592 1.9344
-3.8071 0.9241 1.8860
-3.8690 0.6147 1.8860
-3.9063 0.3014 1.8862
-3.9185 -0.0140 1.8863
-3.9053 -0.3294 1.8863
-3.8669 -0.6427 1.8863
-3.8035 -0.9520 1.8862
-3.7154 -1.2553 1.8861
-3.6036 -1.5507 1.8860
-3.4780 -1.8414 1.8911
-3.4415 -2.1936 1.9601
-3.3856 -2.5631 2.0384
-3.1704 -2.8287 2.0384
-2.9345 -3.0765 2.0384
-2.6794 -3.3047 2.0384
-2.4067 -3.5120 2.0384
-0.7723 -1.3480 0.7433
-0.6615 -1.4057 0.7427
-0.5464 -1.4543 0.7421
-0.4278 -1.4936 0.7416
-0.3064 -1.5233 0.7411
-0.1831 -1.5431 0.7405
-0.0585 -1.5530 0.7400
0.0664 -1.5530 0.7395
0.1909 -1.5429 0.7391
0.3142 -1.5229 0.7387
0.4356 -1.4930 0.7383
0.5541 -1.4536 0.7379
0.6692 -1.4048 0.7376
0.7800 -1.3469 0.7373
2.4498 -3.5411 2.0384
2.7275 -3.3350 2.0384
2.9878 -3.1071 2.0384
3.2290 -2.8588 2.0384
3.4493 -2.5917 2.0384
3.6474 -2.3076 2.0384
3.8219 -2.0083 2.0384
3.9716 -1.6957 2.0384
4.0956 -1.3720 2.0384
4.1929 -1.0393 2.0384
4.2629 -0.6998 2.0384
4.3053 -0.3557 2.0384
4.3196 -0.0094 2.0384
4.3058 0.3370 2.0384
4.2641 0.6810 2.0384
4.1946 1.0205 2.0384
4.0979 1.3532 2.0384
3.9746 1.6769 2.0384
3.8256 1.9894 2.0384
3.6519 2.2887 2.0384
3.4547 2.5729 2.0384
3.2352 2.8401 2.0384
2.9950 3.0886 2.0384
2.7356 3.3167 2.0384
2.4589 3.5231 2.0384
0.7904 1.3521 0.7436
0.6793 1.4112 0.7442
0.5638 1.4612 0.7448
0.4446 1.5017 0.7453
0.3225 1.5324 0.7459
0.1984 1.5532 0.7464
0.0729 1.5639 0.7469
-0.0530 1.5645 0.7474
-0.1785 1.5549 0.7479
-0.3028 1.5353 0.7483
-0.4252 1.5056 0.7487
-0.5447 1.4662 0.7491
-0.6607 1.4173 0.7494
-2.0999 3.6957 2.0384
-2.3889 3.5127 2.0384
-2.6621 3.3073 2.0384
-2.9180 3.0808 2.0384
-3.1549 2.8346 2.0384
-3.3713 2.5705 2.0384
-3.5659 2.2901 2.0384
-3.7375 1.9951 2.0384
-3.8850 1.6874 2.0384
-3.8233 1.3061 1.9448
-3.7973 0.9640 1.8860
-3.8623 0.6553 1.8860
-3.9028 0.3423 1.8861
-3.9183 0.0271 1.8863
-3.9084 -0.2884 1.8863
-3.8733 -0.6021 1.8863
-3.8131 -0.9121 1.8863
-3.7283 -1.2162 1.8861
-3.6195 -1.5128 1.8860
-3.4875 -1.7999 1.8860
-3.4452 -2.1455 1.9495
-3.4121 -2.5272 2.0384
-3.1996 -2.7951 2.0384
-2.9663 -3.0453 2.0384
-2.7136 -3.2762 2.0384
-2.4431 -3.4862 2.0384
-2.1565 -3.6740 2.0384
-0.6762 -1.3987 0.7428
-0.5616 -1.4485 0.7422
-0.4434 -1.4891 0.7417
-0.3223 -1.5200 0.7411
-0.1992 -1.5411 0.7406
-0.0748 -1.5523 0.7401
0.0502 -1.5535 0.7396
0.1748 -1.5448 0.7391
0.2983 -1.5260 0.7387
0.4199 -1.4975 0.7383
0.5389 -1.4593 0.7379
0.6544 -1.4117 0.7376
0.7658 -1.3550 0.7373
2.4124 -3.5662 2.0384
2.6923 -3.3631 2.0384
2.9550 -3.1380 2.0384
3.1987 -2.8922 2.0384
3.4219 -2.6275 2.0384
3.6229 -2.3455 2.0384
3.8006 -2.0480 2.0384
3.9536 -1.7371 2.0384
4.0809 -1.4147 2.0384
4.1817 -1.0831 2.0384
4.2554 -0.7443 2.0384
4.3013 -0.4007 2.0384
4.3193 -0.0545 2.0384
4.3092 0.2920 2.0384
4.2711 0.6365 2.0384
4.2052 0.9767 2.0384
4.1120 1.3103 2.0384
3.9922 1.6353 2.0384
3.8465 1.9494 2.0384
3.6759 2.2505 2.0384
3.4816 2.5368 2.0384
3.2650 2.8063 2.0384
3.0274 3.0573 2.0384
2.7704 3.2882 2.0384
2.4958 3.4975 2.0384
2.2054 3.6838 2.0384
0.6940 1.4041 0.7441
0.5790 1.4552 0.7447
0.4603 1.4970 0.7453
0.3386 1.5290 0.7458
0.2146 1.5511 0.7463
0.0893 1.5631 0.7468
-0.0366 1.5650 0.7473
-0.1622 1.5568 0.7478
-0.2867 1.5384 0.7482
-0.4094 1.5100 0.7486
-0.5293 1.4719 0.7490
-0.6458 1.4242 0.7494
-0.7581 1.3673 0.7497
-2.3521 3.5378 2.0384
-2.6275 3.3352 2.0384
-2.8857 3.1114 2.0384
-3.1252 2.8677 2.0384
-3.3444 2.6059 2.0384
-3.5419 2.3274 2.0384
-3.7165 2.0342 2.0384
-3.8672 1.7281 2.0384
-3.8304 1.3536 1.9554
-3.7914 1.0050 1.8882
-3.8552 0.6957 1.8860
-3.8990 0.3832 1.8861
-3.9177 0.0682 1.8863
-3.9112 -0.2474 1.8863
-3.8793 -0.5614 1.8863
-3.8224 -0.8720 1.8863
-3.7407 -1.1770 1.8861
-3.6349 -1.4747 1.8860
-3.5060 -1.7631 1.8860
-3.4489 -2.0979 1.9391
-3.4186 -2.4770 2.0268
-3.2285 -2.7612 2.0384
-2.9978 -3.0138 2.0384
-2.7476 -3.2473 2.0384
-2.4793 -3.4601 2.0384
-2.1947 -3.6509 2.0384
-0.6908 -1.3915 0.7429
-0.5767 -1.4426 0.7423
-0.4589 -1.4843 0.7417
-0.3382 -1.5165 0.7412
-0.2153 -1.5389 0.7407
