ply
format ascii 1.0
element vertex 2130
property float32 x
property float32 y
property float32 z
end_header
-6.4664 17.1939 2.0383
-7.7833 16.5230 2.0383
-9.0373 15.7571 2.0383
-10.2222 14.9020 2.0383
-11.3321 13.9630 2.0382
-12.3631 12.9482 2.0382
-13.3102 11.8633 2.0382
-14.1693 10.7148 2.0382
-14.9370 9.5093 2.0382
-15.6100 8.2537 2.0382
-16.1858 6.9549 2.0383
-15.4184 5.2002 1.8862
-15.7940 3.9446 1.8897
-16.0591 2.6609 1.8913
-13.1867 1.1057 1.5381
-11.4038 0.0354 1.3254
-13.5703 -1.0530 1.5810
-13.4559 -2.1438 1.5810
-13.2604 -3.2245 1.5810
-12.9842 -4.2896 1.5810
-12.6285 -5.3336 1.5810
-10.7416 -5.5943 1.3927
-9.4081 -5.9075 1.2731
-9.5962 -7.1630 1.3671
-9.8186 -8.6420 1.4871
-9.7107 -10.0440 1.5810
-8.9153 -10.8459 1.5810
-8.0565 -11.5886 1.5810
-5.9839 -10.2836 1.3254
-5.7959 -12.1065 1.4865
-6.1487 -16.0425 1.8913
-4.8632 -16.5675 1.8889
-3.8181 -18.3597 2.0383
-2.3451 -18.7291 2.0383
-0.8375 -18.9821 2.0383
0.6955 -19.1146 2.0383
2.2443 -19.1234 2.0383
3.7989 -19.0060 2.0383
5.3485 -18.7607 2.0383
6.8823 -18.3868 2.0383
8.3889 -17.8844 2.0383
9.1202 -15.9647 1.8859
10.4435 -15.2832 1.8879
8.5730 -10.6043 1.3834
13.0173 -13.6881 1.9067
4.9349 -4.4172 0.6654
7.0874 -5.3843 0.8906
7.9132 -5.0641 0.9365
17.2009 -9.1499 1.9358
17.9743 -7.7796 1.9407
18.6224 -6.3386 1.9449
12.1615 -3.0753 1.2382
19.4673 -3.2871 1.9466
6.9172 -0.6025 0.6843
7.1327 -0.0462 0.7030
19.5858 1.4503 1.9368
19.3393 3.0082 1.9325
18.9549 4.5325 1.9278
18.4378 6.0103 1.9227
17.7945 7.4295 1.9173
17.0325 8.7792 1.9117
7.8676 4.8924 0.9279
15.1878 11.2311 1.8999
14.1244 12.3170 1.8939
12.9808 13.3007 1.8878
11.7943 14.2088 1.8859
11.4067 16.2380 2.0383
10.0049 16.9996 2.0383
6.1035 12.5865 1.4545
5.1389 13.2072 1.4830
5.5452 18.5399 2.0383
4.0107 18.8010 2.0383
2.4702 18.9363 2.0383
0.9340 18.9473 2.0383
-0.5442 17.4281 1.8859
-1.9309 17.2155 1.8859
-3.2877 16.8965 1.8859
-4.6068 16.4748 1.8859
-6.3564 17.2442 2.0383
-7.6781 16.5813 2.0383
-8.9375 15.8230 2.0383
-10.1284 14.9750 2.0383
-11.2444 14.0425 2.0382
-12.2821 13.0338 2.0382
-13.2362 11.9543 2.0382
-14.1026 10.8107 2.0382
-14.8779 9.6096 2.0382
-15.5587 8.3579 2.0382
-16.1425 7.0623 2.0383
-15.4024 5.3078 1.8882
-15.7669 4.0481 1.8894
-16.0422 2.7665 1.8913
-13.3164 1.2047 1.5541
-11.4621 0.1109 1.3323
-13.5761 -0.9638 1.5810
-13.4683 -2.0551 1.5810
-13.2793 -3.1368 1.5810
-13.0097 -4.2034 1.5810
-12.6604 -5.2493 1.5810
-10.8792 -5.5755 1.4061
-9.3939 -5.8129 1.2664
-9.5797 -7.0532 1.3586
-9.7988 -8.5110 1.4761
-9.7726 -9.9761 1.5810
-8.9826 -10.7826 1.5810
-8.1288 -11.5303 1.5810
-6.0485 -10.2393 1.3254
-5.7716 -11.8552 1.4610
-6.2507 -15.9938 1.8913
-4.9701 -16.5293 1.8892
-3.9364 -18.3245 2.0383
-2.4667 -18.7033 2.0383
-0.9616 -18.9659 2.0383
0.5697 -19.1084 2.0383
2.1176 -19.1274 2.0383
3.6721 -19.0203 2.0383
5.2225 -18.7855 2.0383
6.7580 -18.4221 2.0383
8.2673 -17.9302 2.0383
9.0110 -16.0166 1.8859
10.3340 -15.3381 1.8872
8.5278 -10.6911 1.3880
12.9171 -13.7623 1.9060
4.9601 -4.4987 0.6731
7.0659 -5.4415 0.8926
7.7563 -5.0357 0.9221
17.1325 -9.2582 1.9354
17.9158 -7.8942 1.9403
18.5744 -6.4585 1.9446
19.0934 -4.9615 1.9474
19.4458 -3.4148 1.9468
6.9317 -0.6496 0.6861
7.0870 -0.0924 0.6985
19.5996 1.3222 1.9371
19.3646 2.8822 1.9329
18.9913 4.4097 1.9282
18.4848 5.8917 1.9231
17.8515 7.3162 1.9178
17.0989 8.6719 1.9122
7.9005 4.8413 0.9277
7.9486 5.7976 0.9892
14.2143 12.2322 1.8944
13.0769 13.2244 1.8883
11.8927 14.1376 1.8859
11.5185 16.1705 2.0383
10.1213 16.9420 2.0383
6.1812 12.5364 1.4526
5.2186 13.1559 1.4803
5.6698 18.5130 2.0383
4.1363 18.7844 2.0383
2.5959 18.9299 2.0383
1.0588 18.9509 2.0383
-0.4300 17.4406 1.8859
-1.8187 17.2369 1.8859
-3.1783 16.9264 1.8859
-4.5008 16.5130 1.8859
-4.7544 13.1637 1.5513
-7.5725 16.6391 2.0383
-8.8372 15.8883 2.0383
-10.0339 15.0474 2.0383
-11.1562 14.1215 2.0382
-12.2005 13.1188 2.0382
-13.1616 12.0448 2.0382
-14.0353 10.9062 2.0382
-14.8181 9.7096 2.0382
-15.5067 8.4617 2.0382
-16.0986 7.1694 2.0383
-15.3508 5.4031 1.8859
-15.7391 4.1514 1.8891
-16.0246 2.8720 1.8913
-13.6402 1.3244 1.5928
-11.5781 0.1881 1.3459
-13.5813 -0.8745 1.5810
-13.4802 -1.9663 1.5810
-13.2978 -3.0490 1.5810
-13.0347 -4.1171 1.5810
-12.6919 -5.1649 1.5810
-11.0195 -5.5563 1.4199
-9.4626 -5.7698 1.2709
-9.5634 -6.9448 1.3502
-9.7794 -8.3820 1.4654
-9.8342 -9.9078 1.5810
-9.0495 -10.7189 1.5810
-8.2008 -11.4717 1.5810
-6.1128 -10.1947 1.3254
-5.7778 -11.6726 1.4439
-6.3524 -15.9444 1.8913
-5.0767 -16.4905 1.8895
-3.7514 -16.9213 1.8859
-2.5880 -18.6767 2.0383
-1.0855 -18.9489 2.0383
0.4440 -19.1013 2.0383
1.9910 -19.1305 2.0383
3.5453 -19.0338 2.0383
5.0965 -18.8095 2.0383
6.6335 -18.4566 2.0383
8.1454 -17.9751 2.0383
8.9014 -16.0678 1.8859
10.2243 -15.3923 1.8864
8.4959 -10.7956 1.3949
12.8164 -13.8358 1.9052
14.0176 -12.8822 1.9142
7.0401 -5.4956 0.8942
16.1555 -10.6401 1.9294
17.0634 -9.3660 1.9349
17.8564 -8.0083 1.9399
18.5255 -6.5780 1.9442
19.0580 -5.0860 1.9474
19.4234 -3.5424 1.9470
6.9643 -0.6987 0.6898
7.0418 -0.1380 0.6941
19.6126 1.1938 1.9375
19.3890 2.7560 1.9332
19.0268 4.2866 1.9286
18.5310 5.7728 1.9236
17.9077 7.2024 1.9182
17.1646 8.5642 1.9126
7.8269 4.7259 0.9151
7.7661 5.5868 0.9616
14.3036 12.1467 1.8949
13.1724 13.1474 1.8888
11.9906 14.0657 1.8859
11.6299 16.1023 2.0383
10.2373 16.8837 2.0383
6.2588 12.4865 1.4508
5.2981 13.1047 1.4777
5.7943 18.4853 2.0383
4.2618 18.7670 2.0383
2.7216 18.9227 2.0383
1.1839 18.9539 2.0383
-0.3157 17.4524 1.8859
-1.7065 17.2576 1.8859
-3.0686 16.9557 1.8859
-4.3944 16.5504 1.8859
-4.6383 13.1112 1.5410
-7.4665 16.6962 2.0383
-8.7366 15.9530 2.0383
-9.9390 15.1192 2.0383
8.4762 -11.7264 1.8859
9.2977 -10.8987 1.8596
10.3866 -10.3597 1.8969
5.0379 -4.2754 0.8514
7.1813 -5.1628 1.1360
12.7848 -7.7145 1.9126
13.4230 -6.6929 1.9166
13.9705 -5.6149 1.9201
14.4215 -4.4892 1.9231
12.0861 -2.7204 1.5755
6.9535 -0.9871 0.8926
6.7677 -0.4109 0.8614
15.1357 0.2987 1.9238
15.0299 1.5097 1.9209
14.8184 2.7040 1.9176
14.5038 3.8719 1.9140
14.0897 5.0039 1.9101
13.5805 6.0914 1.9059
8.2466 4.5269 1.2080
7.7060 5.0754 1.1885
11.5412 9.0093 1.8925
10.7128 9.8451 1.8878
9.8372 10.6195 1.8859
8.9135 11.3259 1.8859
8.5798 12.9160 2.0383
7.4786 13.4986 2.0383
6.3383 13.9863 2.0383
5.1677 14.3770 2.0383
3.9750 14.6694 2.0383
2.7687 14.8632 2.0383
1.5569 14.9584 2.0383
0.3477 14.9561 2.0383
-0.8393 14.6502 2.0099
-1.8805 13.5689 1.8859
-2.9504 13.3063 1.8859
-3.9911 12.9621 1.8859
-4.9968 12.5395 1.8859
-5.9619 12.0421 1.8859
-6.9843 11.6455 1.9142
-8.3765 11.7145 2.0383
-9.2563 10.9608 2.0383
-10.0726 10.1448 2.0383
-10.8214 9.2717 2.0383
-11.4992 8.3469 2.0383
-12.1029 7.3758 2.0383
-12.6297 6.3641 2.0383
-13.0773 5.3176 2.0383
-12.4434 3.9262 1.8867
-12.7245 2.9133 1.8894
-12.9221 1.8805 1.8913
-12.6673 0.8111 1.8389
-11.1289 -0.1851 1.6122
-10.1187 -0.9866 1.4718
-9.3542 -1.6806 1.3745
-8.8723 -2.3443 1.3254
-8.6698 -3.0560 1.3254
-10.0361 -4.4752 1.5810
-9.6673 -5.2813 1.5810
-9.2370 -6.0590 1.5810
-8.7470 -6.8040 1.5810
-6.8739 -6.2971 1.3254
-6.4639 -6.9576 1.3452
-6.2547 -7.9256 1.4243
-6.0391 -9.0669 1.5303
-5.8826 -10.5894 1.6939
-5.6222 -12.3710 1.8913
-4.6297 -12.8397 1.8904
-3.5950 -13.2168 1.8875
-2.7362 -14.6136 2.0383
-1.5607 -14.8636 2.0383
-0.3628 -15.0199 2.0383
0.8501 -15.0799 2.0383
2.0699 -15.0417 2.0383
3.2890 -14.9041 2.0383
4.4991 -14.6663 2.0383
5.6911 -14.3288 2.0383
6.8569 -13.8921 2.0383
7.3904 -12.3594 1.8859
8.3962 -11.7776 1.8859
8.8567 -10.5207 1.7857
10.3123 -10.4214 1.8964
5.0002 -4.3001 0.8500
7.1419 -5.2059 1.1355
12.7290 -7.7951 1.9123
13.3743 -6.7785 1.9163
13.9294 -5.7048 1.9198
14.3884 -4.5826 1.9228
12.0694 -2.7999 1.5758
7.0194 -1.0435 0.9019
6.8274 -0.4595 0.8694
7.0855 0.0934 0.9005
15.0425 1.4114 1.9211
14.8396 2.6074 1.9178
14.5333 3.7778 1.9143
14.1271 4.9131 1.9104
13.6255 6.0046 1.9063
8.3768 4.5271 1.2224
7.7168 5.0103 1.1848
11.6058 8.9379 1.8929
10.7828 9.7797 1.8882
9.9101 10.5584 1.8859
8.9909 11.2713 1.8859
8.6677 12.8643 2.0383
7.5700 13.4546 2.0383
6.4326 13.9501 2.0383
5.2641 14.3488 2.0383
4.0729 14.6493 2.0383
2.8674 14.8511 2.0383
1.6558 14.9544 2.0383
0.4461 14.9599 2.0383
-0.7515 14.8194 2.0315
-1.7921 13.5866 1.8859
-2.8641 13.3309 1.8859
-3.9075 12.9932 1.8859
-4.9162 12.5768 1.8859
-5.8848 12.0854 1.8859
-6.8390 11.5749 1.8945
-8.3020 11.7731 2.0383
-9.1869 11.0247 2.0383
-10.0085 10.2136 2.0383
-10.7629 9.3450 2.0383
-11.4466 8.4241 2.0383
-12.0564 7.4566 2.0383
-12.5896 6.4480 2.0383
-13.0438 5.4041 2.0383
-12.4171 4.0079 1.8864
-12.7044 2.9968 1.8892
-12.9099 1.9654 1.8913
-12.8273 0.9060 1.8629
-11.2324 -0.1130 1.6271
-10.1877 -0.9258 1.4810
-9.4038 -1.6257 1.3803
-8.8864 -2.2857 1.3254
-8.6884 -2.9985 1.3254
-10.0635 -4.4083 1.5810
-9.6997 -5.2165 1.5810
-9.2743 -5.9968 1.5810
-8.7892 -6.7445 1.5810
-6.9131 -6.2500 1.3254
-6.4843 -6.8883 1.3404
-6.2744 -7.8441 1.4175
-6.0532 -8.9600 1.5195
-5.8956 -10.4505 1.6785
-5.7011 -12.3290 1.8913
-4.7126 -12.8054 1.8906
-3.6806 -13.1891 1.8878
-2.8309 -14.5891 2.0383
-1.6575 -14.8467 2.0383
-0.4611 -15.0107 2.0383
0.7507 -15.0786 2.0383
1.9703 -15.0485 2.0383
3.1899 -14.9190 2.0383
4.4009 -14.6895 2.0383
5.5947 -14.3600 2.0383
6.7630 -13.9314 2.0383
7.3065 -12.4030 1.8859
8.3159 -11.8283 1.8859
8.7799 -10.5695 1.7848
10.2377 -10.4826 1.8958
4.9626 -4.3247 0.8487
7.1228 -5.2638 1.1382
12.6725 -7.8753 1.9119
13.3249 -6.8637 1.9159
13.8876 -5.7943 1.9195
14.3547 -4.6757 1.9226
12.0787 -2.8857 1.5796
7.0793 -1.0999 0.9106
6.8332 -0.5049 0.8706
7.0453 0.0466 0.8953
15.0544 1.3130 1.9214
14.8600 2.5107 1.9181
14.5620 3.6835 1.9146
14.1638 4.8220 1.9107
13.6699 5.9173 1.9066
8.6174 4.5843 1.2528
7.7276 4.9455 1.1811
11.6699 8.8659 1.8932
10.8524 9.7139 1.8886
9.9826 10.4968 1.8859
9.0679 11.2161 1.8859
8.7553 12.8121 2.0383
7.6611 13.4100 2.0383
6.5267 13.9133 2.0383
5.3604 14.3199 2.0383
4.1708 14.6284 2.0383
2.9661 14.8383 2.0383
1.7547 14.9496 2.0383
0.5445 14.9631 2.0383
-0.6566 14.8802 2.0383
-1.7036 13.6037 1.8859
-2.7777 13.3548 1.8859
-3.8236 13.0237 1.8859
-4.8354 12.6137 1.8859
-5.8074 12.1282 1.8859
-6.7346 11.5711 1.8859
-8.2272 11.8312 2.0383
-9.1170 11.0882 2.0383
-9.9439 10.2820 2.0383
-10.7040 9.4179 2.0383
-11.3936 8.5011 2.0383
-12.0095 7.5372 2.0383
-12.5490 6.5318 2.0383
-13.0098 5.4905 2.0383
-12.3903 4.0893 1.8862
-12.6839 3.0801 1.8890
-12.8972 2.0503 1.8913
-13.0022 1.0043 1.8892
-11.3378 -0.0395 1.6423
-10.2576 -0.8642 1.4904
-9.4549 -1.5706 1.3864
-8.9001 -2.2269 1.3254
-8.7066 -2.9409 1.3254
-10.0904 -4.3413 1.5810
-9.7317 -5.1516 1.5810
-9.3113 -5.9343 1.5810
-8.8309 -6.6849 1.5810
-6.9520 -6.2026 1.3254
-6.5048 -6.8197 1.3358
-6.2521 -7.7118 1.4015
-6.0432 -8.8197 1.5029
-5.9084 -10.3143 1.6634
-5.7797 -12.2865 1.8913
-4.7952 -12.7705 1.8908
-3.7660 -13.1608 1.8880
-2.9253 -14.5641 2.0383
-1.7542 -14.8291 2.0383
-0.5595 -15.0009 2.0383
0.6514 -15.0767 2.0383
1.8708 -15.0547 2.0383
3.0905 -14.9333 2.0383
4.3026 -14.7120 2.0383
5.4982 -14.3906 2.0383
6.6688 -13.9701 2.0383
7.2222 -12.4461 1.8859
8.2352 -11.8784 1.8859
8.7479 -10.6726 1.7930
10.1626 -10.5433 1.8953
4.9447 -4.3665 0.8507
7.1035 -5.3219 1.1409
7.7935 -4.9144 1.1809
13.2750 -6.9485 1.9156
13.8452 -5.8835 1.9192
14.3203 -4.7686 1.9224
12.0953 -2.9736 1.5844
7.2344 -1.1726 0.9315
6.8355 -0.5502 0.8713
7.0054 0.0004 0.8902
15.0656 1.2145 1.9216
14.8798 2.4138 1.9184
14.5902 3.5890 1.9149
14.2000 4.7307 1.9110
13.7136 5.8298 1.9070
13.1364 6.8783 1.9027
7.7383 4.8812 1.1775
11.7336 8.7935 1.8936
10.9216 9.6475 1.8890
10.0546 10.4346 1.8859
9.1446 11.1604 1.8859
8.8425 12.7592 2.0383
7.7520 13.3647 2.0383
6.6205 13.8759 2.0383
5.4565 14.2904 2.0383
4.2685 14.6070 2.0383
3.0648 14.8249 2.0383
1.8536 14.9442 2.0383
0.6430 14.9656 2.0383
-0.5591 14.8906 2.0383
-1.6149 13.6203 1.8859
-2.6910 13.3782 1.8859
-3.7394 13.0538 1.8859
-4.7542 12.6500 1.8859
-5.7297 12.1705 1.8859
-6.6608 11.6191 1.8859
-8.1519 11.8889 2.0383
-9.0467 11.1512 2.0383
-9.8789 10.3500 2.0383
-10.6446 9.4904 2.0383
-11.3400 8.5777 2.0383
-11.9621 7.6175 2.0383
-12.5080 6.6152 2.0383
-12.9752 5.5766 2.0383
-12.3630 4.1706 1.8860
-12.6628 3.1632 1.8888
-12.8840 2.1351 1.8913
-13.0097 1.0909 1.8913
-11.3956 0.0352 1.6507
-10.3297 -0.8019 1.5001
-9.5065 -1.5151 1.3926
-8.9322 -2.1727 1.3282
-8.7244 -2.8832 1.3254
-10.1169 -4.2741 1.5810
-9.7633 -5.0864 1.5810
-9.3479 -5.8715 1.5810
-8.8723 -6.6249 1.5810
-6.9905 -6.1550 1.3254
-6.5262 -6.7527 1.3314
-6.2729 -7.6345 1.3954
-6.0598 -8.7206 1.4933
-5.9210 -10.1808 1.6488
-5.7958 -12.1135 1.8712
-4.8776 -12.7352 1.8911
-3.8513 -13.1320 1.8882
-2.9089 -14.0051 1.9636
-1.8508 -14.8110 2.0383
-0.6575 -14.9904 2.0383
0.5523 -15.0742 2.0383
1.7711 -15.0602 2.0383
2.9913 -14.9470 2.0383
4.2042 -14.7338 2.0383
5.4015 -14.4206 2.0383
6.5745 -14.0081 2.0383
7.1378 -12.4885 1.8859
8.1542 -11.9280 1.8859
9.1331 -11.2928 1.8878
10.0872 -10.6033 1.8947
4.9345 -4.4154 0.8542
7.0842 -5.3803 1.1438
7.6894 -4.9195 1.1703
13.2245 -7.0329 1.9153
13.8022 -5.9724 1.9190
14.2852 -4.8613 1.9221
12.1611 -3.0745 1.5958
14.9477 -2.5236 1.9269
6.8378 -0.5955 0.8721
6.9656 -0.0452 0.8851
15.0762 1.1159 1.9219
14.8989 2.3167 1.9187
14.6176 3.4943 1.9152
14.2355 4.6390 1.9114
13.7568 5.7419 1.9073
13.1868 6.7948 1.9030
7.7774 4.8348 1.1783
11.7968 8.7206 1.8940
10.9903 9.5806 1.8893
10.1263 10.3719 1.8859
9.2210 11.1042 1.8859
8.9294 12.7057 2.0383
7.8426 13.3188 2.0383
6.7142 13.8377 2.0383
5.5525 14.2602 2.0383
4.3661 14.5848 2.0383
3.1634 14.8108 2.0383
1.9525 14.9381 2.0383
0.7416 14.9675 2.0383
-0.4616 14.9002 2.0383
-1.5261 13.6364 1.8859
-2.6042 13.4011 1.8859
-3.6551 13.0832 1.8859
-4.6728 12.6858 1.8859
-5.6518 12.2124 1.8859
-6.5866 11.6667 1.8859
-8.0763 11.9461 2.0383
-8.9760 11.2139 2.0383
-9.8135 10.4177 2.0383
-10.5847 9.5626 2.0383
-11.2860 8.6541 2.0383
-11.9142 7.6974 2.0383
-12.4663 6.6984 2.0383
-12.9400 5.6626 2.0383
-12.3363 4.2521 1.8859
-12.6412 3.2462 1.8885
-12.8701 2.2199 1.8912
-13.0024 1.1764 1.8913
-11.5052 0.1112 1.6667
-10.4057 -0.7390 1.5105
-9.5585 -1.4590 1.3989
-8.9750 -2.1207 1.3326
-8.7418 -2.8253 1.3254
-10.1429 -4.2068 1.5810
-9.7945 -5.0211 1.5810
-9.3841 -5.8086 1.5810
-8.9133 -6.5648 1.5810
-7.0288 -6.1072 1.3254
-6.5474 -6.6862 1.3272
-6.2936 -7.5578 1.3893
-6.0762 -8.6227 1.4839
-5.9335 -10.0497 1.6344
-5.7714 -11.8617 1.8388
-4.9596 -12.6991 1.8913
-3.9363 -13.1027 1.8885
-2.8809 -13.4271 1.8859
-1.9471 -14.7922 2.0383
-0.7557 -14.9793 2.0383
0.4531 -15.0710 2.0383
1.6716 -15.0650 2.0383
2.8919 -14.9599 2.0383
4.1058 -14.7549 2.0383
5.3046 -14.4499 2.0383
6.4799 -14.0454 2.0383
7.0531 -12.5304 1.8859
8.0729 -11.9770 1.8859
8.8790 -11.1272 1.8509
10.0114 -10.6628 1.8942
4.9557 -4.4933 0.8632
7.0648 -5.4391 1.1467
7.6003 -4.9331 1.1619
13.1733 -7.1169 1.9150
13.7585 -6.0610 1.9187
14.2495 -4.9536 1.9219
14.6410 -3.8038 1.9246
14.9289 -2.6212 1.9267
6.8502 -0.6419 0.8742
6.9220 -0.0904 0.8796
15.0861 1.0172 1.9221
14.9173 2.2195 1.9190
14.6444 3.3993 1.9155
14.2704 4.5470 1.9117
13.7993 5.6537 1.9076
13.2365 6.7110 1.9034
7.8174 4.7888 1.1793
11.8595 8.6473 1.8944
11.0586 9.5132 1.8897
10.1976 10.3088 1.8859
9.2969 11.0474 1.8859
9.0159 12.6516 2.0383
7.9329 13.2723 2.0383
6.8076 13.7990 2.0383
5.6483 14.2294 2.0383
4.4636 14.5621 2.0383
3.2619 14.7961 2.0383
2.0514 14.9314 2.0383
0.8401 14.9688 2.0383
-0.3639 14.9093 2.0383
-1.4371 13.6518 1.8859
-2.5172 13.4235 1.8859
-3.5705 13.1122 1.8859
-4.5912 12.7211 1.8859
-5.5735 12.2538 1.8859
-6.5121 11.7138 1.8859
-8.0003 12.0029 2.0383
-8.9049 11.2761 2.0383
-9.7476 10.4849 2.0383
-10.5243 9.6344 2.0383
-11.2315 8.7300 2.0383
-11.8657 7.7772 2.0383
-12.4242 6.7814 2.0383
-12.9044 5.7483 2.0383
-12.3094 4.3336 1.8859
-12.6191 3.3291 1.8883
-12.8544 2.3042 1.8910
-12.9946 1.2619 1.8913
-11.6217 0.1887 1.6838
-10.4828 -0.6753 1.5211
-9.6788 -1.4123 1.4152
-9.0186 -2.0685 1.3372
-8.7590 -2.7674 1.3254
-10.1686 -4.1393 1.5810
-9.8253 -4.9556 1.5810
-9.4198 -5.7455 1.5810
-8.9539 -6.5044 1.5810
-7.0668 -6.0591 1.3254
-6.5803 -6.6321 1.3254
-6.3140 -7.4819 1.3834
-6.0924 -8.5262 1.4746
-5.9193 -9.8769 1.6132
-5.7776 -11.6789 1.8170
-5.0409 -12.6612 1.8913
-4.0210 -13.0728 1.8887
-2.9678 -13.4023 1.8859
-2.0433 -14.7728 2.0383
-0.8537 -14.9676 2.0383
0.3540 -15.0671 2.0383
1.5721 -15.0692 2.0383
2.7925 -14.9723 2.0383
4.0073 -14.7754 2.0383
5.2075 -14.4785 2.0383
6.3851 -14.0821 2.0383
6.9779 -12.5894 1.8886
7.9913 -12.0253 1.8859
8.7708 -11.1406 1.8442
9.9352 -10.7217 1.8936
10.8422 -9.9608 1.9003
7.0453 -5.4980 1.1496
7.5125 -4.9464 1.1536
13.1216 -7.2006 1.9147
13.7142 -6.1491 1.9184
14.2131 -5.0456 1.9216
14.6129 -3.8989 1.9244
14.9094 -2.7186 1.9266
6.8819 -0.6904 0.8788
6.8789 -0.1349 0.8742
15.0952 0.9184 1.9224
14.9350 2.1221 1.9192
14.6705 3.3041 1.9158
14.3046 4.4549 1.9120
13.8413 5.5652 1.9080
13.2858 6.6268 1.9037
7.8575 4.7428 1.1803
11.9217 8.5734 1.8948
11.1265 9.4453 1.8901
10.2684 10.2451 1.8859
9.3726 10.9901 1.8859
9.1022 12.5969 2.0383
8.0230 13.2252 2.0383
6.9008 13.7596 2.0383
5.7440 14.1980 2.0383
4.5610 14.5386 2.0383
3.3604 14.7806 2.0383
2.1502 14.9241 2.0383
0.9388 14.9693 2.0383
-0.2661 14.9178 2.0383
-1.3497 13.6841 1.8883
-2.4299 13.4452 1.8859
-3.4857 13.1406 1.8859
-4.5093 12.7559 1.8859
-5.4949 12.2947 1.8859
-6.4373 11.7605 1.8859
-7.9239 12.0592 2.0383
6.9468 -9.6065 1.8859
7.7220 -9.0483 1.8859
8.4629 -8.4382 1.8887
5.0382 -4.2744 1.0412
7.2960 -5.2438 1.4122
10.3765 -6.2596 1.9003
10.8852 -5.4262 1.9034
11.3209 -4.5490 1.9062
11.6793 -3.6348 1.9086
11.9569 -2.6908 1.9106
6.8323 -0.9698 1.0752
6.6436 -0.4034 1.0368
7.2592 0.1431 1.1312
12.1979 1.2248 1.9110
12.0361 2.1956 1.9089
11.7888 3.1461 1.9061
11.4607 4.0690 1.9029
11.0562 4.9576 1.8996
10.5789 5.8053 1.8961
7.8515 5.1695 1.4809
9.4249 7.3548 1.8888
8.7631 8.0504 1.8859
8.0610 8.6987 1.8859
7.3100 9.2845 1.8859
7.0424 10.5966 2.0383
6.1441 11.0840 2.0383
5.2123 11.4944 2.0383
4.2540 11.8260 2.0383
3.2758 12.0774 2.0383
2.2847 12.2481 2.0383
1.2873 12.3378 2.0383
0.2901 12.3471 2.0383
-0.7003 12.2768 2.0383
-1.6778 12.1285 2.0383
-2.4832 11.2120 1.9198
-3.3035 10.7380 1.8859
-4.1400 10.3962 1.8859
-5.2164 10.5421 1.9899
-6.1723 10.2965 2.0383
-6.9568 9.7332 2.0383
-7.6927 9.1127 2.0383
-8.3763 8.4392 2.0383
-9.0040 7.7169 2.0383
-9.5726 6.9505 2.0383
-10.0795 6.1444 2.0383
-10.5221 5.3035 2.0383
-10.8983 4.4326 2.0383
-10.4272 3.2908 1.8966
-10.5989 2.4271 1.8877
-10.7663 1.5670 1.8898
-10.8637 0.6956 1.8913
-10.8859 -0.1812 1.8913
-10.1183 -0.9870 1.7652
-9.3811 -1.6860 1.6536
-8.8305 -2.3340 1.5828
-8.3949 -2.9600 1.5403
-7.9966 -3.5669 1.5125
-7.6179 -4.1630 1.4964
-7.3237 -4.8056 1.5064
-7.0318 -5.4716 1.5282
-6.7397 -6.1764 1.5634
-6.5062 -7.0059 1.6300
-6.2540 -7.9282 1.7157
-6.0386 -9.0705 1.8448
-5.4433 -9.8038 1.8913
-4.6534 -10.2457 1.8904
-3.8257 -10.6181 1.8883
-2.9685 -10.9241 1.8861
-2.2582 -12.0774 2.0383
-1.2856 -12.2731 2.0383
-0.2962 -12.3910 2.0383
0.7037 -12.4291 2.0383
1.7077 -12.3864 2.0383
2.7092 -12.2620 2.0383
3.7013 -12.0557 2.0383
4.6771 -11.7679 2.0383
5.6297 -11.3996 2.0383
6.3554 -10.6235 1.9771
6.8816 -9.6490 1.8859
7.6605 -9.0963 1.8859
8.4034 -8.4894 1.8883
5.0005 -4.2990 1.0394
7.2572 -5.2884 1.4116
10.3319 -6.3255 1.9000
10.8463 -5.4959 1.9032
11.2882 -4.6220 1.9060
11.6530 -3.7106 1.9084
11.9374 -2.7688 1.9105
6.9133 -1.0276 1.0890
6.6287 -0.4461 1.0349
7.0466 0.0927 1.0979
12.2073 1.1449 1.9111
12.0527 2.1171 1.9091
11.8120 3.0695 1.9063
11.4905 3.9949 1.9032
11.0920 4.8865 1.8999
10.6205 5.7378 1.8964
7.8610 5.1022 1.4761
9.4768 7.2958 1.8891
8.8181 7.9949 1.8859
8.1202 8.6481 1.8859
7.3730 9.2391 1.8859
7.1140 10.5535 2.0383
6.2187 11.0470 2.0383
5.2894 11.4638 2.0383
4.3330 11.8019 2.0383
3.3562 12.0599 2.0383
2.3659 12.2372 2.0383
1.3687 12.3335 2.0383
0.3713 12.3493 2.0383
-0.6199 12.2855 2.0383
-1.5987 12.1435 2.0383
-2.4301 11.3239 1.9356
-3.2340 10.7630 1.8859
-4.0729 10.4264 1.8859
-5.0935 10.4661 1.9686
-6.1063 10.3398 2.0383
-6.8946 9.7813 2.0383
-7.6346 9.1654 2.0383
-8.3226 8.4960 2.0383
-8.9549 7.7776 2.0383
-9.5285 7.0145 2.0383
-10.0405 6.2115 2.0383
-10.4885 5.3733 2.0383
-10.8702 4.5046 2.0383
-10.6150 3.4270 1.9347
-10.5823 2.4967 1.8875
-10.7551 1.6376 1.8896
-10.8589 0.7670 1.8913
-10.8866 -0.1097 1.8913
-10.1873 -0.9261 1.7762
-9.4672 -1.6373 1.6670
-8.9050 -2.2912 1.5936
-8.4300 -2.9102 1.5434
-8.0270 -3.5174 1.5141
-7.6457 -4.1132 1.4968
-7.3491 -4.7535 1.5055
-7.0547 -5.4154 1.5257
-6.7609 -6.1146 1.5594
-6.5268 -6.9361 1.6241
-6.2738 -7.8467 1.7074
-6.0528 -8.9635 1.8316
-5.5058 -9.7648 1.8913
-4.7195 -10.2125 1.8906
-3.8944 -10.5902 1.8885
-3.0394 -10.9017 1.8863
-2.3366 -12.0581 2.0383
-1.3656 -12.2601 2.0383
-0.3774 -12.3843 2.0383
0.6219 -12.4290 2.0383
1.6258 -12.3929 2.0383
2.6277 -12.2752 2.0383
3.6209 -12.0755 2.0383
4.5982 -11.7944 2.0383
5.5530 -11.4326 2.0383
6.4355 -10.9193 2.0249
6.8162 -9.6912 1.8859
7.5986 -9.1439 1.8859
8.3435 -8.5402 1.8878
4.9629 -4.3236 1.0377
7.2387 -5.3480 1.4151
10.2869 -6.3910 1.8997
10.8070 -5.5653 1.9030
11.2549 -4.6948 1.9058
11.6262 -3.7862 1.9083
11.9173 -2.8466 1.9103
6.8419 -1.0628 1.0788
6.6326 -0.4901 1.0360
6.9537 0.0459 1.0833
12.2162 1.0650 1.9113
12.0687 2.0384 1.9093
11.8347 2.9927 1.9065
11.5196 3.9206 1.9034
11.1273 4.8152 1.9002
10.6616 5.6701 1.8967
7.8705 5.0353 1.4713
9.5283 7.2364 1.8894
8.8710 7.9375 1.8856
8.1791 8.5971 1.8859
7.4356 9.1933 1.8859
7.1854 10.5099 2.0383
6.2931 11.0096 2.0383
5.3663 11.4328 2.0383
4.4119 11.7773 2.0383
3.4365 12.0419 2.0383
2.4470 12.2258 2.0383
1.4502 12.3287 2.0383
0.4526 12.3510 2.0383
-0.5394 12.2936 2.0383
-1.5195 12.1579 2.0383
-2.3760 11.4378 1.9517
-3.1643 10.7876 1.8859
-4.0056 10.4563 1.8859
-4.9693 10.3837 1.9463
-6.0400 10.3827 2.0383
-6.8320 9.8291 2.0383
-7.5762 9.2177 2.0383
-8.2685 8.5525 2.0383
-8.9055 7.8379 2.0383
-9.4840 7.0783 2.0383
-10.0011 6.2784 2.0383
-10.4544 5.4428 2.0383
-10.8416 4.5765 2.0383
-10.8570 3.5841 1.9828
-10.5653 2.5661 1.8873
-10.7435 1.7082 1.8895
-10.8537 0.8384 1.8913
-10.8869 -0.0381 1.8913
-10.2572 -0.8645 1.7874
-9.5187 -1.5818 1.6743
-8.9476 -2.2395 1.5987
-8.4652 -2.8602 1.5466
-8.0575 -3.4677 1.5157
-7.6736 -4.0634 1.4973
-7.3745 -4.7014 1.5046
-7.0775 -5.3593 1.5234
-6.7821 -6.0532 1.5554
-6.5472 -6.8668 1.6183
-6.2698 -7.7369 1.6930
-6.0426 -8.8230 1.8115
-5.5681 -9.7254 1.8913
-4.7854 -10.1788 1.8908
-3.9629 -10.5618 1.8887
-3.1101 -10.8788 1.8864
-2.4149 -12.0382 2.0383
-1.4456 -12.2465 2.0383
-0.4585 -12.3771 2.0383
0.5401 -12.4284 2.0383
1.5439 -12.3989 2.0383
2.5462 -12.2879 2.0383
3.5403 -12.0949 2.0383
4.5193 -11.8203 2.0383
5.4762 -11.4651 2.0383
6.4040 -11.0307 2.0383
6.7505 -9.7328 1.8859
7.5364 -9.1910 1.8859
8.2832 -8.5905 1.8874
4.9444 -4.3648 1.0400
7.2202 -5.4078 1.4187
10.2414 -6.4562 1.8994
10.7672 -5.6344 1.9027
11.2212 -4.7673 1.9056
11.5989 -3.8616 1.9081
11.8966 -2.9242 1.9102
7.3291 -1.1878 1.1569
6.6410 -0.5345 1.0378
6.8635 0.0003 1.0692
12.2245 0.9850 1.9114
12.0839 1.9596 1.9095
11.8568 2.9157 1.9068
11.5483 3.8461 1.9037
11.1621 4.7436 1.9004
10.7022 5.6020 1.8970
7.8799 4.9689 1.4666
9.5794 7.1767 1.8897
8.9267 7.8825 1.8859
8.2376 8.5456 1.8859
7.4980 9.1471 1.8859
7.2564 10.4658 2.0383
6.3673 10.9717 2.0383
5.4431 11.4012 2.0383
4.4906 11.7522 2.0383
3.5167 12.0233 2.0383
2.5281 12.2138 2.0383
1.5316 12.3233 2.0383
0.5338 12.3522 2.0383
-0.4588 12.3013 2.0383
-1.4401 12.1719 2.0383
-2.3211 11.5536 1.9681
-3.0944 10.8117 1.8859
-3.9381 10.4858 1.8859
-4.8477 10.3030 1.9246
-5.9734 10.4252 2.0383
-6.7692 9.8765 2.0383
-7.5173 9.2696 2.0383
-8.2140 8.6087 2.0383
-8.8557 7.8980 2.0383
-9.4390 7.1419 2.0383
-9.9613 6.3451 2.0383
-10.4198 5.5122 2.0383
-10.8125 4.6482 2.0383
-11.1114 3.7492 2.0336
-10.5478 2.6354 1.8871
-10.7314 1.7787 1.8893
-10.8480 0.9097 1.8913
-10.8867 0.0335 1.8913
-10.3293 -0.8022 1.7991
-9.5706 -1.5258 1.6818
-8.9904 -2.1875 1.6039
-8.5018 -2.8105 1.5501
-8.0880 -3.4180 1.5174
-7.7014 -4.0135 1.4978
-7.3998 -4.6495 1.5038
-7.1002 -5.3035 1.5210
-6.8031 -5.9921 1.5516
-6.5684 -6.7990 1.6129
-6.2907 -7.6593 1.6854
-6.0593 -8.7238 1.7998
-5.6301 -9.6856 1.8913
-4.8509 -10.1448 1.8909
-4.0312 -10.5330 1.8888
-3.1807 -10.8555 1.8866
-2.4930 -12.0179 2.0383
-1.5254 -12.2324 2.0383
-0.5395 -12.3694 2.0383
0.4584 -12.4272 2.0383
1.4620 -12.4044 2.0383
2.4647 -12.3000 2.0383
3.4597 -12.1137 2.0383
4.4402 -11.8458 2.0383
5.3991 -11.4971 2.0383
6.3296 -11.0691 2.0383
6.6846 -9.7740 1.8859
7.4739 -9.2377 1.8859
8.2227 -8.6404 1.8870
4.9341 -4.4137 1.0442
7.2016 -5.4680 1.4224
10.1955 -6.5211 1.8992
10.7270 -5.7033 1.9024
11.1870 -4.8396 1.9054
11.5710 -3.9368 1.9079
11.8754 -3.0017 1.9100
12.0970 -2.0419 1.9117
6.6494 -0.5790 1.0397
6.7865 -0.0442 1.0572
12.2322 0.9050 1.9115
12.0985 1.8806 1.9096
11.8784 2.8386 1.9070
11.5765 3.7713 1.9040
11.1964 4.6718 1.9007
10.7424 5.5336 1.8973
7.9113 4.9165 1.4661
9.6301 7.1165 1.8900
8.9820 7.8272 1.8862
8.2958 8.4938 1.8859
7.5601 9.1004 1.8859
7.3272 10.4213 2.0383
6.4412 10.9332 2.0383
5.5196 11.3690 2.0383
4.5692 11.7265 2.0383
3.5968 12.0042 2.0383
2.6092 12.2013 2.0383
1.6131 12.3174 2.0383
0.6151 12.3528 2.0383
-0.3782 12.3084 2.0383
-1.3606 12.1854 2.0383
-2.2650 11.6710 1.9848
-3.0243 10.8354 1.8859
-3.8704 10.5148 1.8859
-4.7288 10.2240 1.9034
-5.9065 10.4673 2.0383
-6.7060 9.9235 2.0383
-7.4582 9.3212 2.0383
-8.1592 8.6645 2.0383
-8.8055 7.9577 2.0383
-9.3937 7.2052 2.0383
-9.9210 6.4115 2.0383
-10.3849 5.5814 2.0383
-10.7830 4.7198 2.0383
-11.1135 3.8315 2.0383
-10.5300 2.7046 1.8870
-10.7189 1.8491 1.8891
-10.8415 0.9810 1.8912
-10.8860 0.1051 1.8913
-10.4053 -0.7393 1.8116
-9.6230 -1.4694 1.6894
-9.0334 -2.1352 1.6092
-8.5391 -2.7607 1.5537
-8.0903 -3.3565 1.5139
-7.7293 -3.9636 1.4984
-7.4251 -4.5976 1.5031
-7.0977 -5.2293 1.5135
-6.8240 -5.9314 1.5478
-6.5897 -6.7320 1.6077
-6.3114 -7.5824 1.6781
-6.0757 -8.6259 1.7883
-5.6919 -9.6454 1.8913
-4.9163 -10.1103 1.8911
-4.0993 -10.5037 1.8890
-3.2511 -10.8317 1.8868
-2.5710 -11.9971 2.0383
-1.6051 -12.2177 2.0383
-0.6205 -12.3612 2.0383
0.3767 -12.4255 2.0383
1.3801 -12.4093 2.0383
2.3831 -12.3116 2.0383
3.3790 -12.1320 2.0383
4.3609 -11.8707 2.0383
5.3218 -11.5285 2.0383
6.2549 -11.1069 2.0383
6.6184 -9.8148 1.8859
7.4111 -9.2840 1.8859
8.1618 -8.6899 1.8865
4.9513 -4.4879 1.0543
7.1830 -5.5284 1.4261
7.8808 -5.1137 1.4745
10.6862 -5.7718 1.9022
11.1522 -4.9117 1.9051
11.5427 -4.0117 1.9077
11.8536 -3.0790 1.9098
12.0821 -2.1210 1.9116
6.6578 -0.6238 1.0417
6.7541 -0.0882 1.0522
12.2393 0.8249 1.9117
12.1126 1.8016 1.9098
11.8995 2.7612 1.9072
11.6041 3.6963 1.9042
11.2302 4.5997 1.9010
10.7821 5.4649 1.8976
7.9524 4.8700 1.4675
9.6804 7.0561 1.8903
9.0370 7.7714 1.8865
8.3537 8.4416 1.8859
7.6219 9.0533 1.8859
7.3977 10.3762 2.0383
6.5149 10.8943 2.0383
5.5960 11.3364 2.0383
4.6477 11.7003 2.0383
3.6768 11.9846 2.0383
2.6902 12.1883 2.0383
1.6945 12.3110 2.0383
0.6964 12.3530 2.0383
-0.2975 12.3150 2.0383
-1.2810 12.1983 2.0383
-2.2076 11.7886 2.0016
-2.9541 10.8587 1.8859
-3.8025 10.5434 1.8859
-4.6215 10.1669 1.8865
-5.8393 10.5089 2.0383
-6.6425 9.9701 2.0383
-7.3987 9.3725 2.0383
-8.1040 8.7201 2.0383
-8.7549 8.0171 2.0383
-9.3480 7.2682 2.0383
-9.8804 6.4777 2.0383
-10.3495 5.6504 2.0383
-10.7530 4.7911 2.0383
-11.0891 3.9048 2.0383
-10.5117 2.7737 1.8868
-10.7060 1.9195 1.8889
-10.8340 1.0522 1.8910
-10.8849 0.1767 1.8913
-10.4824 -0.6756 1.8243
-9.6783 -1.4128 1.6975
-9.0777 -2.0828 1.6148
-8.5767 -2.7107 1.5575
-8.1226 -3.3075 1.5161
-7.7572 -3.9138 1.4990
-7.4504 -4.5457 1.5024
-7.1219 -5.1752 1.5117
-6.8708 -5.8932 1.5499
-6.6109 -6.6654 1.6026
-6.3320 -7.5062 1.6709
-6.0919 -8.5293 1.7771
-5.7533 -9.6048 1.8913
-4.9814 -10.0754 1.8913
-4.1672 -10.4740 1.8892
-3.3214 -10.8075 1.8870
-2.6488 -11.9757 2.0383
-1.6847 -12.2026 2.0383
-0.7014 -12.3524 2.0383
0.2950 -12.4233 2.0383
1.2981 -12.4137 2.0383
2.3014 -12.3226 2.0383
3.2982 -12.1497 2.0383
4.2814 -11.8950 2.0383
5.2444 -11.5594 2.0383
6.1800 -11.1442 2.0383
6.5519 -9.8551 1.8859
7.3480 -9.3298 1.8859
8.1007 -8.7389 1.8861
8.8257 -8.1057 1.8910
7.1977 -5.6153 1.4366
7.6962 -5.0660 1.4464
10.6450 -5.8400 1.9019
11.1170 -4.9834 1.9049
11.5137 -4.0864 1.9075
11.8313 -3.1561 1.9097
12.0666 -2.1999 1.9114
6.6663 -0.6687 1.0437
6.7387 -0.1322 1.0499
12.2457 0.7447 1.9118
12.1261 1.7224 1.9100
11.9200 2.6838 1.9075
11.6312 3.6212 1.9045
11.2635 4.5273 1.9012
10.8213 5.3959 1.8978
7.9936 4.8234 1.4689
9.7304 6.9952 1.8906
9.0916 7.7152 1.8868
8.4112 8.3889 1.8859
7.6834 9.0058 1.8859
7.4679 10.3307 2.0383
6.5884 10.8549 2.0383
5.6722 11.3032 2.0383
4.7260 11.6736 2.0383
3.7567 11.9644 2.0383
2.7711 12.1747 2.0383
1.7759 12.3040 2.0383
0.7778 12.3525 2.0383
-0.2167 12.3210 2.0383
-1.2013 12.2107 2.0383
-2.1491 11.9080 2.0188
-2.8837 10.8815 1.8859
-3.7343 10.5715 1.8859
-4.5547 10.1972 1.8859
-5.7719 10.5502 2.0383
-6.5787 10.0163 2.0383
5.8772 -8.1241 1.8859
6.5295 -7.6482 1.8859
7.1418 -7.1185 1.8859
5.0245 -4.2613 1.2292
7.4990 -5.3881 1.7189
8.7196 -5.2587 1.8918
9.1417 -4.5559 1.8944
9.5028 -3.8175 1.8968
9.7996 -3.0491 1.8987
10.0293 -2.2566 1.9004
7.0461 -1.0000 1.3150
6.7909 -0.4123 1.2568
10.2979 0.2029 1.9030
10.2427 1.0280 1.9029
10.1117 1.8439 1.9014
9.9114 2.6442 1.8997
9.6428 3.4225 1.8975
9.3097 4.1732 1.8951
8.9138 4.8900 1.8922
8.1450 5.3610 1.8188
7.9535 6.2044 1.8861
7.4091 6.8041 1.8859
6.8192 7.3557 1.8859
6.6874 8.4901 2.0383
5.9646 8.9706 2.0383
5.2072 9.3888 2.0383
4.4206 9.7424 2.0383
3.6106 10.0297 2.0383
2.7828 10.2495 2.0383
1.9429 10.4010 2.0383
1.0965 10.4839 2.0383
0.2494 10.4985 2.0383
-0.5932 10.4454 2.0383
-1.4258 10.3256 2.0383
-2.2433 10.1407 2.0383
-3.0167 9.8141 2.0222
-3.7872 9.5168 2.0243
-4.5571 9.2148 2.0383
-5.2672 8.7908 2.0383
-5.9399 8.3139 2.0383
-6.5715 7.7874 2.0383
-7.1586 7.2148 2.0383
-7.6981 6.5998 2.0383
-8.1872 5.9464 2.0383
-8.6235 5.2582 2.0383
-9.0046 4.5397 2.0383
-9.3286 3.7951 2.0383
-9.5940 3.0285 2.0383
-9.0669 2.0767 1.8860
-9.2089 1.3405 1.8877
-9.2934 0.5951 1.8893
-9.3196 -0.1553 1.8909
-9.2827 -0.9058 1.8913
-9.1860 -1.6515 1.8913
-8.8300 -2.3346 1.8490
-8.3943 -2.9607 1.7997
-7.9961 -3.5677 1.7676
-7.6173 -4.1640 1.7494
-7.3231 -4.8068 1.7616
-7.0312 -5.4730 1.7878
-6.7391 -6.1781 1.8298
-6.4466 -6.9444 1.8913
-5.8841 -7.4624 1.8913
-5.2806 -7.9356 1.8911
-4.6365 -8.3553 1.8896
-3.9595 -8.7234 1.8880
-3.2536 -9.0371 1.8863
-2.7290 -10.0526 2.0383
-1.9189 -10.2773 2.0383
-1.0906 -10.4372 2.0383
-0.2490 -10.5307 2.0383
0.6004 -10.5563 2.0383
1.4522 -10.5133 2.0383
2.3007 -10.4010 2.0383
3.1402 -10.2196 2.0383
3.9650 -9.9695 2.0383
4.7692 -9.6518 2.0383
5.5471 -9.2679 2.0383
5.8224 -8.1605 1.8859
6.4778 -7.6891 1.8859
7.0934 -7.1636 1.8859
4.9829 -4.2826 1.2261
8.1989 -5.9729 1.8886
8.6826 -5.3143 1.8916
9.1095 -4.6146 1.8942
9.4757 -3.8790 1.8966
9.7778 -3.1128 1.8986
10.0132 -2.3220 1.9003
10.1794 -1.5128 1.9016
6.7746 -0.4559 1.2544
10.2991 0.1354 1.9030
10.2503 0.9610 1.9030
10.1250 1.7778 1.9015
9.9304 2.5797 1.8998
9.6672 3.3600 1.8977
9.3392 4.1131 1.8953
8.9483 4.8329 1.8924
8.4995 5.5148 1.8895
7.9968 6.1543 1.8864
7.4553 6.7569 1.8859
6.8690 7.3126 1.8859
6.7226 8.4205 2.0316
6.0250 8.9337 2.0383
5.2701 9.3570 2.0383
4.4857 9.7160 2.0383
3.6774 10.0088 2.0383
2.8508 10.2341 2.0383
2.0117 10.3912 2.0383
1.1657 10.4797 2.0383
0.3184 10.4999 2.0383
-0.5247 10.4522 2.0383
-1.3584 10.3379 2.0383
-2.1773 10.1582 2.0383
-2.9764 9.9143 2.0382
-3.7037 9.4878 2.0123
-4.4976 9.2470 2.0383
-5.2106 8.8274 2.0383
-5.8865 8.3547 2.0383
-6.5216 7.8321 2.0383
-7.1124 7.2632 2.0383
-7.6560 6.6515 2.0383
-8.1493 6.0010 2.0383
-8.5900 5.3156 2.0383
-8.9756 4.5994 2.0383
-9.3044 3.8567 2.0383
-9.5746 3.0917 2.0383
-9.0533 2.1364 1.8859
-9.1994 1.4010 1.8876
-9.2886 0.6561 1.8892
-9.3197 -0.0940 1.8907
-9.2880 -0.8447 1.8913
-9.1960 -1.5909 1.8913
-8.9045 -2.2918 1.8615
-8.4295 -2.9109 1.8033
-8.0265 -3.5182 1.7694
-7.6452 -4.1142 1.7498
-7.3486 -4.7547 1.7605
-7.0541 -5.4168 1.7848
-6.7603 -6.1163 1.8250
-6.4906 -6.9003 1.8913
-5.9315 -7.4218 1.8913
-5.3315 -7.8991 1.8912
-4.6903 -8.3229 1.8898
-4.0159 -8.6954 1.8882
-3.3122 -9.0136 1.8865
-2.7861 -10.0028 2.0325
-1.9858 -10.2613 2.0383
-1.1587 -10.4266 2.0383
-0.3181 -10.5256 2.0383
0.5309 -10.5568 2.0383
1.3827 -10.5194 2.0383
2.2317 -10.4128 2.0383
3.0722 -10.2370 2.0383
3.8984 -9.9925 2.0383
4.7045 -9.6802 2.0383
5.4847 -9.3016 2.0383
5.7674 -8.1965 1.8859
6.4257 -7.7296 1.8859
7.0448 -7.2084 1.8859
4.9475 -4.3089 1.2245
8.1570 -6.0246 1.8884
8.6452 -5.3696 1.8913
9.0769 -4.6731 1.8940
9.4482 -3.9402 1.8964
9.7557 -3.1763 1.8984
9.9965 -2.3873 1.9001
10.1685 -1.5793 1.9015
6.7786 -0.5008 1.2557
7.2360 0.0477 1.3369
10.2574 0.8939 1.9031
10.1379 1.7117 1.9017
9.9488 2.5150 1.9000
9.6911 3.2973 1.8979
9.3683 4.0528 1.8955
8.9824 4.7755 1.8927
8.5382 5.4607 1.8897
8.0397 6.1038 1.8866
7.5011 6.7093 1.8859
6.9184 7.2692 1.8859
6.5127 8.0487 1.9517
6.0851 8.8964 2.0383
5.3329 9.3249 2.0383
4.5507 9.6892 2.0383
3.7441 9.9874 2.0383
2.9188 10.2183 2.0383
2.0805 10.3809 2.0383
1.2349 10.4751 2.0383
0.3874 10.5008 2.0383
-0.4562 10.4586 2.0383
-1.2908 10.3497 2.0383
-2.1112 10.1752 2.0383
-2.9123 9.9372 2.0383
-3.6249 9.4690 2.0027
-4.4380 9.2788 2.0383
-5.1538 8.8636 2.0383
-5.8328 8.3951 2.0383
-6.4714 7.8765 2.0383
-7.0660 7.3112 2.0383
-7.6135 6.7029 2.0383
-8.1110 6.0554 2.0383
-8.5560 5.3727 2.0383
-8.9463 4.6589 2.0383
-9.2797 3.9182 2.0383
-9.5548 3.1549 2.0383
-9.0395 2.1960 1.8859
-9.1896 1.4614 1.8874
-9.2835 0.7172 1.8891
-9.3193 -0.0327 1.8906
-9.2930 -0.7836 1.8913
-9.2057 -1.5303 1.8913
-8.9471 -2.2401 1.8675
-8.4647 -2.8610 1.8069
-8.0570 -3.4686 1.7713
-7.6730 -4.0644 1.7503
-7.3739 -4.7026 1.7594
-7.0769 -5.3607 1.7820
-6.7815 -6.0549 1.8203
-6.5343 -6.8560 1.8913
-5.9787 -7.3808 1.8913
-5.3820 -7.8620 1.8913
-4.7439 -8.2902 1.8899
-4.0721 -8.6670 1.8883
-3.3706 -8.9897 1.8866
-2.8081 -9.8315 2.0020
-2.0525 -10.2450 2.0383
-1.2267 -10.4156 2.0383
-0.3870 -10.5200 2.0383
0.4615 -10.5568 2.0383
1.3133 -10.5250 2.0383
2.1627 -10.4241 2.0383
3.0041 -10.2539 2.0383
3.8317 -10.0150 2.0383
4.6396 -9.7082 2.0383
5.4222 -9.3350 2.0383
5.7121 -8.2321 1.8859
6.3734 -7.7698 1.8859
6.9959 -7.2529 1.8859
4.9292 -4.3500 1.2272
8.1148 -6.0761 1.8881
8.6074 -5.4247 1.8911
9.0439 -4.7314 1.8938
9.4202 -4.0012 1.8962
9.7330 -3.2396 1.8983
9.9794 -2.4525 1.9000
10.1571 -1.6458 1.9014
6.7881 -0.5463 1.2581
7.0931 0.0002 1.3105
10.2640 0.8267 1.9032
10.1502 1.6454 1.9018
9.9668 2.4501 1.9001
9.7146 3.2344 1.8980
9.3970 3.9923 1.8957
9.0162 4.7179 1.8929
8.5765 5.4064 1.8900
8.0823 6.0530 1.8869
7.5466 6.6615 1.8859
6.9676 7.2254 1.8859
6.3609 7.7567 1.8905
6.1450 8.8586 2.0383
5.3955 9.2923 2.0383
4.6155 9.6619 2.0383
3.8107 9.9656 2.0383
2.9867 10.2020 2.0383
2.1493 10.3702 2.0383
1.3040 10.4700 2.0383
0.4565 10.5012 2.0383
-0.3877 10.4646 2.0383
-1.2232 10.3610 2.0383
-2.0449 10.1919 2.0383
-2.8477 9.9589 2.0383
-3.5534 9.4682 1.9970
-4.3781 9.3102 2.0383
-5.0967 8.8995 2.0383
-5.7789 8.4353 2.0383
-6.4209 7.9206 2.0383
-7.0192 7.3590 2.0383
-7.5706 6.7541 2.0383
-8.0723 6.1098 2.0383
-8.5218 5.4296 2.0383
-8.9165 4.7182 2.0383
-9.2547 3.9795 2.0383
-9.5346 3.2179 2.0383
-9.0254 2.2555 1.8859
-9.1794 1.5217 1.8873
-9.2780 0.7781 1.8890
-9.3186 0.0285 1.8905
-9.2975 -0.7224 1.8913
-9.2150 -1.4696 1.8913
-8.9899 -2.1881 1.8735
-8.5012 -2.8112 1.8110
-8.0875 -3.4189 1.7733
-7.7009 -4.0145 1.7508
-7.3993 -4.6506 1.7584
-7.0996 -5.3049 1.7793
-6.8025 -5.9938 1.8157
-6.5678 -6.8010 1.8884
-6.0256 -7.3396 1.8913
-5.4321 -7.8245 1.8913
-4.7973 -8.2572 1.8900
-4.1281 -8.6382 1.8885
-3.4288 -8.9654 1.8868
-2.8316 -9.6729 1.9740
-2.1191 -10.2282 2.0383
-1.2948 -10.4042 2.0383
-0.4559 -10.5140 2.0383
0.3921 -10.5564 2.0383
1.2438 -10.5302 2.0383
2.0936 -10.4349 2.0383
2.9359 -10.2704 2.0383
3.7648 -10.0370 2.0383
4.5746 -9.7357 2.0383
5.3594 -9.3678 2.0383
5.7281 -8.3718 1.9098
6.3208 -7.8096 1.8859
6.9467 -7.2971 1.8859
4.9128 -4.3932 1.2306
7.5470 -5.7285 1.7650
8.5693 -5.4795 1.8909
9.0105 -4.7894 1.8936
9.3918 -4.0620 1.8960
9.7100 -3.3028 1.8981
9.9619 -2.5175 1.8999
10.1452 -1.7122 1.9013
6.7977 -0.5919 1.2606
7.0275 -0.0458 1.2984
10.2697 0.7595 1.9032
10.1622 1.5791 1.9019
9.9843 2.3852 1.9003
9.7377 3.1713 1.8982
9.4253 3.9316 1.8959
9.0495 4.6601 1.8932
8.6145 5.3517 1.8902
8.1246 6.0019 1.8871
7.5918 6.6133 1.8859
7.0165 7.1813 1.8859
6.3979 7.6982 1.8859
6.2046 8.8205 2.0383
5.4578 9.2593 2.0383
4.6801 9.6342 2.0383
3.8772 9.9433 2.0383
3.0545 10.1852 2.0383
2.2179 10.3591 2.0383
1.3731 10.4644 2.0383
0.5256 10.5012 2.0383
-0.3191 10.4701 2.0383
-1.1555 10.3720 2.0383
-1.9785 10.2081 2.0383
-2.7831 9.9803 2.0383
-3.4852 9.4753 1.9931
-4.3180 9.3412 2.0383
-5.0394 8.9351 2.0383
-5.7247 8.4751 2.0383
-6.3701 7.9644 2.0383
-6.9721 7.4065 2.0383
-7.5275 6.8050 2.0383
-8.0333 6.1636 2.0383
-8.4871 5.4863 2.0383
-8.8864 4.7773 2.0383
-9.2293 4.0407 2.0383
-9.5140 3.2808 2.0383
-9.1003 2.3379 1.9047
-9.1688 1.5820 1.8872
-9.2722 0.8391 1.8888
-9.3175 0.0898 1.8904
-9.3017 -0.6612 1.8913
-9.2238 -1.4089 1.8913
-9.0329 -2.1358 1.8797
-8.5386 -2.7614 1.8152
-8.0898 -3.3573 1.7691
-7.7288 -3.9646 1.7515
-7.4246 -4.5987 1.7575
-7.0971 -5.2307 1.7703
-6.8235 -5.9330 1.8112
-6.5891 -6.7339 1.8822
-6.0723 -7.2981 1.8913
-5.4820 -7.7866 1.8913
-4.8505 -8.2238 1.8901
-4.1838 -8.6091 1.8886
-3.4869 -8.9408 1.8869
-2.8558 -9.5231 1.9478
-2.1855 -10.2110 2.0383
-1.3626 -10.3922 2.0383
-0.5248 -10.5076 2.0383
0.3227 -10.5555 2.0383
1.1743 -10.5349 2.0383
2.0245 -10.4453 2.0383
2.8676 -10.2864 2.0383
3.6978 -10.0586 2.0383
4.5094 -9.7628 2.0383
5.2965 -9.4003 2.0383
5.7714 -8.5551 1.9434
6.2680 -7.8490 1.8859
6.8972 -7.3408 1.8859
4.9097 -4.4488 1.2373
7.4718 -5.7490 1.7565
8.5308 -5.5340 1.8906
8.9767 -4.8472 1.8934
9.3631 -4.1227 1.8958
9.6865 -3.3658 1.8980
9.9439 -2.5824 1.8998
10.1329 -1.7785 1.9012
6.8073 -0.6377 1.2631
6.9675 -0.0911 1.2873
10.2749 0.6922 1.9032
10.1736 1.5127 1.9020
10.0014 2.3200 1.9004
9.7603 3.1080 1.8984
9.4532 3.8707 1.8961
9.0825 4.6019 1.8934
8.0440 4.9245 1.7576
8.1665 5.9505 1.8874
7.6367 6.5649 1.8859
7.0652 7.1368 1.8859
6.4499 7.6580 1.8859
6.2640 8.7820 2.0383
5.5200 9.2259 2.0383
4.7446 9.6060 2.0383
3.9435 9.9206 2.0383
3.1222 10.1681 2.0383
2.2866 10.3475 2.0383
1.4422 10.4584 2.0383
0.5947 10.5008 2.0383
-0.2504 10.4752 2.0383
-1.0877 10.3825 2.0383
-1.9120 10.2239 2.0383
-2.7182 10.0012 2.0383
-3.4194 9.4881 1.9904
-4.2576 9.3719 2.0383
-4.9818 8.9703 2.0383
-5.6702 8.5146 2.0383
-6.3190 8.0079 2.0383
-6.9247 7.4537 2.0383
-7.4840 6.8556 2.0383
-7.9940 6.2172 2.0383
-8.4521 5.5428 2.0383
-8.8559 4.8362 2.0383
-9.2035 4.1017 2.0383
-9.4929 3.3435 2.0383
-9.2087 2.4304 1.9305
-9.1578 1.6422 1.8870
-9.2659 0.9000 1.8887
-9.3160 0.1511 1.8903
-9.3055 -0.6000 1.8913
-9.2324 -1.3481 1.8913
-9.0772 -2.0833 1.8862
-8.5761 -2.7113 1.8195
-8.1221 -3.3083 1.7716
-7.7566 -3.9147 1.7522
-7.4498 -4.5469 1.7567
-7.1213 -5.1766 1.7681
-6.8702 -5.8948 1.8137
-6.6103 -6.6674 1.8761
-6.1186 -7.2563 1.8913
-5.5317 -7.7484 1.8913
-4.9034 -8.1901 1.8903
-4.2394 -8.5796 1.8887
-3.5448 -8.9158 1.8870
-2.8793 -9.3772 1.9224
-2.2519 -10.1933 2.0383
-1.4304 -10.3799 2.0383
-0.5936 -10.5007 2.0383
0.2533 -10.5541 2.0383
1.1048 -10.5392 2.0383
1.9553 -10.4552 2.0383
2.7993 -10.3019 2.0383
3.6307 -10.0798 2.0383
4.4440 -9.7895 2.0383
5.2333 -9.4323 2.0383
5.8176 -8.7467 1.9787
6.2150 -7.8881 1.8859
6.8474 -7.3843 1.8859
4.9622 -4.5559 1.2583
7.4242 -5.7903 1.7545
8.4919 -5.5882 1.8904
8.9424 -4.9047 1.8932
9.3338 -4.1831 1.8957
9.6625 -3.4286 1.8978
9.9254 -2.6472 1.8996
10.1201 -1.8447 1.9011
6.8170 -0.6837 1.2657
6.9095 -0.1356 1.2767
10.2795 0.6248 1.9032
10.1846 1.4461 1.9022
10.0180 2.2548 1.9006
9.7825 3.0446 1.8986
9.4806 3.8095 1.8963
9.1150 4.5436 1.8936
8.0501 4.8560 1.7516
8.2081 5.8988 1.8876
7.6813 6.5161 1.8859
7.1135 7.0920 1.8859
6.5016 7.6175 1.8859
6.3231 8.7430 2.0383
5.5819 9.1920 2.0383
4.8089 9.5775 2.0383
4.0097 9.8974 2.0383
3.1899 10.1504 2.0383
2.3552 10.3354 2.0383
1.5113 10.4519 2.0383
0.6638 10.4999 2.0383
-0.1812 10.4794 2.0383
-1.0198 10.3925 2.0383
-1.8453 10.2393 2.0383
-2.6532 10.0217 2.0383
-3.3553 9.5058 1.9889
-4.1971 9.4022 2.0383
-4.9241 9.0051 2.0383
-5.6155 8.5537 2.0383
5.4902 -7.5859 2.0357
5.6484 -6.6136 1.8859
6.1756 -6.1534 1.8859
4.9692 -4.2132 1.4063
7.1098 -5.1070 1.8859
7.5082 -4.5269 1.8856
7.8683 -3.9203 1.8879
8.1761 -3.2838 1.8898
8.4289 -2.6220 1.8915
8.6244 -1.9401 1.8929
8.7611 -1.2432 1.8940
6.9341 -0.4210 1.4867
8.8530 0.1742 1.8952
8.8074 0.8836 1.8953
8.7013 1.5862 1.8951
8.5337 2.2759 1.8942
8.3061 2.9471 1.8924
8.0231 3.5953 1.8905
7.6870 4.2157 1.8884
7.3006 4.8036 1.8860
6.8764 5.3623 1.8859
6.4088 5.8832 1.8859
5.9009 6.3626 1.8859
5.7894 7.3468 2.0383
5.1661 7.7658 2.0383
4.5123 8.1314 2.0383
3.8328 8.4416 2.0383
3.1323 8.6945 2.0383
2.4159 8.8893 2.0383
1.6882 9.0250 2.0383
0.9543 9.1013 2.0383
0.2189 9.1183 2.0383
-0.5131 9.0765 2.0383
-1.2372 8.9766 2.0383
-1.9488 8.8199 2.0383
-2.6436 8.6077 2.0383
-3.3175 8.3420 2.0383
-3.9664 8.0248 2.0383
-4.5865 7.6585 2.0383
-5.1745 7.2456 2.0383
-5.7269 6.7891 2.0383
-6.2407 6.2919 2.0383
-6.7132 5.7572 2.0383
-7.1417 5.1885 2.0383
-7.5241 4.5891 2.0383
-7.8582 3.9628 2.0383
-8.1424 3.3133 2.0383
-8.3751 2.6443 2.0383
-8.5552 1.9599 2.0383
-8.0345 1.1698 1.8864
-8.1053 0.5190 1.8873
-8.1270 -0.1356 1.8885
-8.0973 -0.7905 1.8896
-8.0163 -1.4417 1.8906
-7.8838 -2.0851 1.8913
-7.6988 -2.7163 1.8913
-7.4652 -3.3319 1.8913
-7.1840 -3.9284 1.8913
-6.8568 -4.5022 1.8913
-6.4851 -5.0497 1.8913
-6.0710 -5.5677 1.8913
-5.6152 -6.0512 1.8908
-5.1207 -6.4970 1.8898
-4.5911 -6.9028 1.8887
-4.0298 -7.2658 1.8875
-3.4400 -7.5836 1.8861
-3.0198 -8.3943 2.0143
-2.3703 -8.7403 2.0383
-1.6653 -8.9314 2.0383
-0.9450 -9.0662 2.0383
-0.2139 -9.1430 2.0383
0.5234 -9.1609 2.0383
1.2619 -9.1191 2.0383
1.9970 -9.0175 2.0383
2.7236 -8.8561 2.0383
3.4367 -8.6354 2.0383
4.1315 -8.3565 2.0383
4.8029 -8.0207 2.0383
5.4462 -7.6300 2.0383
5.6038 -6.6492 1.8859
6.1340 -6.1926 1.8859
4.9164 -4.2241 1.3994
7.0751 -5.1527 1.8859
7.4787 -4.5762 1.8859
7.8408 -3.9710 1.8877
8.1530 -3.3367 1.8897
8.4103 -2.6769 1.8914
8.6107 -1.9964 1.8928
8.7522 -1.3005 1.8939
6.9163 -0.4654 1.4835
8.8540 0.1162 1.8952
8.8134 0.8259 1.8953
8.7122 1.5292 1.8951
8.5497 2.2203 1.8943
8.3268 2.8932 1.8926
8.0482 3.5434 1.8907
7.7164 4.1662 1.8886
7.3339 4.7570 1.8862
6.9127 5.3181 1.8859
6.4485 5.8422 1.8859
5.9437 6.3251 1.8859
5.8387 7.3103 2.0383
5.2181 7.7336 2.0383
4.5667 8.1037 2.0383
3.8891 8.4184 2.0383
3.1902 8.6761 2.0383
2.4748 8.8756 2.0383
1.7479 9.0161 2.0383
1.0143 9.0973 2.0383
0.2789 9.1192 2.0383
-0.4536 9.0821 2.0383
-1.1785 8.9869 2.0383
-1.8913 8.8347 2.0383
-2.5877 8.6270 2.0383
-3.2634 8.3656 2.0383
-3.9145 8.0526 2.0383
-4.5371 7.6901 2.0383
-5.1278 7.2810 2.0383
-5.6832 6.8279 2.0383
-6.2003 6.3339 2.0383
-6.6763 5.8022 2.0383
-7.1085 5.2361 2.0383
-7.4947 4.6391 2.0383
-7.8328 4.0148 2.0383
-8.1211 3.3670 2.0383
-8.3581 2.6995 2.0383
-8.5425 2.0162 2.0383
-8.0249 1.2223 1.8859
-8.1013 0.5723 1.8872
-8.1271 -0.0821 1.8884
-8.1016 -0.7371 1.8896
-8.0248 -1.3888 1.8905
-7.8967 -2.0331 1.8913
-7.7157 -2.6653 1.8913
-7.4860 -3.2824 1.8913
-7.2087 -3.8806 1.8913
-6.8851 -4.4563 1.8913
-6.5170 -5.0061 1.8913
-6.1063 -5.5267 1.8913
-5.6539 -6.0131 1.8908
-5.1624 -6.4621 1.8899
-4.6356 -6.8713 1.8888
-4.0767 -7.2379 1.8876
-3.4891 -7.5594 1.8862
-3.0435 -8.2888 1.9943
-2.4271 -8.7222 2.0383
-1.7234 -8.9180 2.0383
-1.0042 -9.0573 2.0383
-0.2738 -9.1389 2.0383
0.4631 -9.1616 2.0383
1.2018 -9.1248 2.0383
1.9373 -9.0280 2.0383
2.6648 -8.8715 2.0383
3.3792 -8.6556 2.0383
4.0756 -8.3814 2.0383
4.7491 -8.0502 2.0383
5.3949 -7.6639 2.0383
5.5590 -6.6844 1.8859
6.0922 -6.2315 1.8859
4.8690 -4.2391 1.3940
7.0401 -5.1981 1.8859
7.4476 -4.6245 1.8859
7.8130 -4.0214 1.8875
8.1295 -3.3895 1.8895
8.3915 -2.7315 1.8913
8.5965 -2.0525 1.8927
8.7429 -1.3577 1.8939
6.9204 -0.5113 1.4851
8.8546 0.0582 1.8952
8.8190 0.7682 1.8953
8.7227 1.4722 1.8951
8.5654 2.1646 1.8944
8.3471 2.8391 1.8927
8.0729 3.4913 1.8909
7.7453 4.1165 1.8888
7.3669 4.7101 1.8864
6.9486 5.2736 1.8859
6.4879 5.8010 1.8859
5.9863 6.2873 1.8859
5.8879 7.2735 2.0383
5.2700 7.7011 2.0383
4.6209 8.0755 2.0383
3.9452 8.3948 2.0383
3.2479 8.6572 2.0383
2.5337 8.8615 2.0383
1.8075 9.0069 2.0383
1.0743 9.0929 2.0383
0.3388 9.1196 2.0383
-0.3941 9.0873 2.0383
-1.1198 8.9968 2.0383
-1.8338 8.8493 2.0383
-2.5316 8.6460 2.0383
-3.2091 8.3889 2.0383
-3.8623 8.0800 2.0383
-4.4875 7.7215 2.0383
-5.0809 7.3161 2.0383
-5.6393 6.8665 2.0383
-6.1597 6.3757 2.0383
-6.6390 5.8469 2.0383
-7.0749 5.2835 2.0383
-7.4649 4.6888 2.0383
-7.8071 4.0667 2.0383
-8.0995 3.4207 2.0383
-8.3407 2.7546 2.0383
-8.5295 2.0725 2.0383
-8.0169 1.2751 1.8859
-8.0969 0.6255 1.8871
-8.1269 -0.0287 1.8883
-8.1057 -0.6838 1.8895
-8.0330 -1.3358 1.8904
-7.9091 -1.9809 1.8912
-7.7323 -2.6143 1.8913
-7.5066 -3.2327 1.8913
-7.2331 -3.8325 1.8913
-6.9132 -4.4103 1.8913
-6.5487 -4.9623 1.8913
-6.1414 -5.4854 1.8913
-5.6923 -5.9748 1.8909
-5.2038 -6.4269 1.8900
-4.6798 -6.8394 1.8889
-4.1234 -7.2096 1.8877
-3.5380 -7.5350 1.8864
-3.0667 -8.1854 1.9747
-2.4836 -8.7038 2.0383
-1.7814 -8.9041 2.0383
-1.0634 -9.0481 2.0383
-0.3337 -9.1345 2.0383
0.4028 -9.1620 2.0383
1.1415 -9.1300 2.0383
1.8775 -9.0382 2.0383
2.6058 -8.8865 2.0383
3.3215 -8.6754 2.0383
4.0196 -8.4059 2.0383
4.6952 -8.0793 2.0383
5.3434 -7.6974 2.0383
5.5139 -6.7193 1.8859
6.0500 -6.2701 1.8859
4.8396 -4.2697 1.3938
7.0048 -5.2434 1.8859
7.4161 -4.6726 1.8859
7.7849 -4.0717 1.8873
8.1057 -3.4421 1.8894
8.3722 -2.7861 1.8911
8.5820 -2.1086 1.8926
8.7331 -1.4148 1.8938
6.9312 -0.5577 1.4881
8.8548 0.0002 1.8951
8.8242 0.7104 1.8953
8.7328 1.4152 1.8952
8.5807 2.1087 1.8945
8.3670 2.7848 1.8929
8.0973 3.4390 1.8910
7.7740 4.0666 1.8890
7.3996 4.6629 1.8866
6.9843 5.2289 1.8859
6.5271 5.7594 1.8859
6.0287 6.2493 1.8859
5.9368 7.2364 2.0383
5.3216 7.6681 2.0383
4.6749 8.0470 2.0383
4.0012 8.3709 2.0383
3.3054 8.6380 2.0383
2.5924 8.8471 2.0383
1.8671 8.9972 2.0383
1.1342 9.0881 2.0383
0.3988 9.1196 2.0383
-0.3345 9.0921 2.0383
-1.0609 9.0064 2.0383
-1.7761 8.8634 2.0383
-2.4754 8.6647 2.0383
-3.1547 8.4119 2.0383
-3.8101 8.1071 2.0383
-4.4376 7.7525 2.0383
-5.0338 7.3508 2.0383
-5.5952 6.9047 2.0383
-6.1187 6.4172 2.0383
-6.6015 5.8914 2.0383
-7.0410 5.3306 2.0383
-7.4349 4.7384 2.0383
-7.7810 4.1184 2.0383
-8.0775 3.4742 2.0383
-8.3230 2.8096 2.0383
-8.5160 2.1286 2.0383
-8.0086 1.3278 1.8859
-8.0922 0.6787 1.8870
-8.1264 0.0248 1.8882
-8.1093 -0.6304 1.8894
-8.0408 -1.2828 1.8904
-7.9211 -1.9286 1.8912
-7.7486 -2.5631 1.8913
-7.5268 -3.1829 1.8913
-7.2571 -3.7844 1.8913
-6.9410 -4.3640 1.8913
-6.5801 -4.9183 1.8913
-6.1762 -5.4439 1.8913
-5.7305 -5.9363 1.8910
-5.2450 -6.3915 1.8901
-4.7238 -6.8073 1.8890
-4.1699 -7.1811 1.8878
-3.5868 -7.5102 1.8865
-3.0894 -8.0840 1.9556
-2.5401 -8.6850 2.0383
-1.8394 -8.8898 2.0383
-1.1224 -9.0385 2.0383
-0.3936 -9.1296 2.0383
0.3426 -9.1620 2.0383
1.0813 -9.1349 2.0383
1.8177 -9.0479 2.0383
2.5468 -8.9011 2.0383
3.2637 -8.6949 2.0383
3.9634 -8.4301 2.0383
4.6410 -8.1081 2.0383
5.2916 -7.7306 2.0383
5.4686 -6.7540 1.8859
6.0077 -6.3085 1.8859
4.8359 -4.3231 1.4011
6.9692 -5.2883 1.8859
7.3843 -4.7205 1.8859
7.7564 -4.1217 1.8871
8.0815 -3.4945 1.8892
8.3525 -2.8405 1.8910
8.5670 -2.1646 1.8925
8.7230 -1.4719 1.8937
6.9421 -0.6044 1.4913
8.8546 -0.0578 1.8951
8.8290 0.6526 1.8953
8.7425 1.3580 1.8952
8.5956 2.0527 1.8947
8.3866 2.7304 1.8930
8.1214 3.3866 1.8912
7.8023 4.0165 1.8891
7.4320 4.6156 1.8868
7.0197 5.1839 1.8859
6.5660 5.7176 1.8859
6.0708 6.2109 1.8859
5.9660 7.1755 2.0317
5.3730 7.6349 2.0383
4.7287 8.0181 2.0383
4.0571 8.3466 2.0383
3.3629 8.6183 2.0383
2.6511 8.8322 2.0383
1.9266 8.9872 2.0383
1.1942 9.0829 2.0383
0.4588 9.1193 2.0383
-0.2749 9.0966 2.0383
-1.0020 9.0155 2.0383
-1.7182 8.8772 2.0383
-2.4190 8.6829 2.0383
-3.1001 8.4345 2.0383
-3.7576 8.1338 2.0383
-4.3875 7.7833 2.0383
-4.9864 7.3853 2.0383
-5.5507 6.9427 2.0383
-6.0775 6.4585 2.0383
-6.5637 5.9356 2.0383
-7.0069 5.3776 2.0383
-7.4045 4.7878 2.0383
-7.7546 4.1699 2.0383
-8.0552 3.5275 2.0383
-8.3049 2.8645 2.0383
-8.5023 2.1847 2.0383
-8.0265 1.3851 1.8922
-8.0871 0.7319 1.8869
-8.1255 0.0782 1.8881
-8.1126 -0.5770 1.8893
-8.0483 -1.2298 1.8903
-7.9328 -1.8763 1.8911
-7.7646 -2.5119 1.8913
