ply
format ascii 1.0
element vertex 2181
property float32 x
property float32 y
property float32 z
end_header
-0.1865 -1.5428 0.7404
-0.0618 -1.5528 0.7404
0.0634 -1.5527 0.7404
0.1881 -1.5426 0.7404
0.3116 -1.5225 0.7404
0.4332 -1.4926 0.7405
0.5519 -1.4531 0.7406
0.6671 -1.4041 0.7407
0.7781 -1.3461 0.7408
2.4324 -3.5201 2.0387
2.7078 -3.3129 2.0387
2.9655 -3.0843 2.0387
3.2040 -2.8356 2.0387
3.4217 -2.5685 2.0387
3.6172 -2.2848 2.0387
3.7893 -1.9862 2.0387
3.9367 -1.6748 2.0387
4.0586 -1.3526 2.0387
4.1542 -1.0216 2.0387
4.2228 -0.6839 2.0387
4.2640 -0.3419 2.0387
4.2775 0.0023 2.0387
4.2633 0.3465 2.0387
4.2215 0.6885 2.0387
4.1523 1.0259 2.0387
4.0561 1.3567 2.0387
3.9336 1.6787 2.0387
3.7857 1.9897 2.0387
3.6132 2.2878 2.0387
3.4172 2.5711 2.0387
3.1991 2.8377 2.0387
2.9603 3.0859 2.0387
2.7023 3.3140 2.0387
2.4268 3.5206 2.0387
0.7816 1.3559 0.7462
0.6701 1.4146 0.7463
0.5541 1.4641 0.7464
0.4345 1.5041 0.7465
0.3121 1.5343 0.7465
0.1876 1.5545 0.7466
0.0619 1.5646 0.7466
-0.0642 1.5645 0.7466
-0.1899 1.5542 0.7466
-0.3143 1.5338 0.7465
-0.4367 1.5034 0.7465
-0.5562 1.4632 0.7464
-0.6721 1.4135 0.7463
-2.1408 3.7011 2.0387
-2.4317 3.5168 2.0387
-2.7069 3.3098 2.0387
-2.9646 3.0812 2.0387
-3.2030 2.8327 2.0387
-3.4206 2.5658 2.0387
-3.6161 2.2823 2.0387
-3.7881 1.9839 2.0387
-3.9356 1.6726 2.0387
-4.0576 1.3505 2.0387
-4.1532 1.0197 2.0387
-4.2219 0.6821 2.0387
-4.2100 0.3359 2.0132
-4.1268 -0.0039 1.9671
-4.1041 -0.3352 1.9627
-4.1139 -0.6726 1.9869
-4.1236 -1.0206 2.0247
-4.0561 -1.3585 2.0387
-3.9337 -1.6805 2.0387
-3.7858 -1.9917 2.0387
-3.6134 -2.2899 2.0387
-3.4175 -2.5733 2.0387
-3.1994 -2.8401 2.0387
-2.9606 -3.0884 2.0387
-2.7026 -3.3167 2.0387
-2.4270 -3.5235 2.0387
-0.7760 -1.3472 0.7408
-0.6650 -1.4051 0.7407
-0.5497 -1.4539 0.7406
-0.4309 -1.4933 0.7405
-0.3093 -1.5230 0.7404
-0.1858 -1.5429 0.7404
-0.0610 -1.5528 0.7404
0.0641 -1.5527 0.7404
0.1889 -1.5425 0.7404
0.3124 -1.5224 0.7404
0.4339 -1.4924 0.7405
0.5526 -1.4528 0.7406
0.6678 -1.4038 0.7407
0.7787 -1.3457 0.7408
2.4342 -3.5189 2.0387
2.7094 -3.3116 2.0387
2.9670 -3.0828 2.0387
3.2054 -2.8340 2.0387
3.4230 -2.5668 2.0387
3.6184 -2.2830 2.0387
3.7902 -1.9844 2.0387
3.9375 -1.6729 2.0387
4.0593 -1.3506 2.0387
4.1547 -1.0195 2.0387
4.2231 -0.6819 2.0387
4.2641 -0.3398 2.0387
4.2775 0.0044 2.0387
4.2632 0.3486 2.0387
4.2211 0.6906 2.0387
4.1517 1.0280 2.0387
4.0554 1.3587 2.0387
3.9328 1.6806 2.0387
3.7847 1.9916 2.0387
3.6120 2.2896 2.0387
3.4160 2.5728 2.0387
3.1978 2.8392 2.0387
2.9588 3.0873 2.0387
2.2627 -3.2813 2.0387
2.5194 -3.0886 2.0387
2.7597 -2.8758 2.0387
2.9821 -2.6444 2.0387
3.1851 -2.3958 2.0387
3.3675 -2.1317 2.0387
3.5280 -1.8537 2.0387
3.6657 -1.5638 2.0387
3.7795 -1.2637 2.0387
3.8688 -0.9554 2.0387
3.9331 -0.6410 2.0387
3.9718 -0.3224 2.0387
3.9847 -0.0017 2.0387
3.9718 0.3189 2.0387
3.9331 0.6375 2.0387
3.8690 0.9519 2.0387
3.7797 1.2601 2.0387
3.6659 1.5602 2.0387
3.5284 1.8500 2.0387
3.3679 2.1279 2.0387
3.1857 2.3920 2.0387
2.9828 2.6405 2.0387
2.7605 2.8719 2.0387
2.5204 3.0847 2.0387
2.2639 3.2775 2.0387
0.7292 1.2620 0.7460
0.6253 1.3168 0.7461
0.5174 1.3630 0.7462
0.4061 1.4003 0.7463
0.2921 1.4286 0.7463
0.1762 1.4475 0.7464
0.0591 1.4570 0.7464
-0.0584 1.4570 0.7464
-0.1754 1.4476 0.7464
-0.2913 1.4287 0.7463
-0.4054 1.4005 0.7463
-0.5167 1.3632 0.7462
-0.6247 1.3171 0.7461
-0.7285 1.2624 0.7460
-2.2621 3.2783 2.0387
-2.5187 3.0857 2.0387
-2.7589 2.8730 2.0387
-2.9812 2.6417 2.0387
-3.1842 2.3933 2.0387
-3.3665 2.1293 2.0387
-3.5271 1.8515 2.0387
-3.6647 1.5617 2.0387
-3.7786 1.2618 2.0387
-3.8680 0.9536 2.0387
-3.9323 0.6393 2.0387
-3.9711 0.3208 2.0387
-3.9842 0.0001 2.0387
-3.9714 -0.3205 2.0387
-3.9328 -0.6391 2.0387
-3.8688 -0.9535 2.0387
-3.7796 -1.2618 2.0387
-3.6659 -1.5619 2.0387
-3.5285 -1.8519 2.0387
-3.3681 -2.1299 2.0387
-3.1859 -2.3941 2.0387
-2.9830 -2.6427 2.0387
-2.7607 -2.8743 2.0387
-2.5205 -3.0872 2.0387
-2.2640 -3.2801 2.0387
-0.7243 -1.2546 0.7410
-0.6209 -1.3086 0.7409
-0.5135 -1.3542 0.7408
-0.4029 -1.3910 0.7407
-0.2896 -1.4188 0.7407
-0.1745 -1.4375 0.7406
-0.0583 -1.4468 0.7406
0.0583 -1.4468 0.7406
0.1746 -1.4375 0.7406
0.2897 -1.4188 0.7406
0.4029 -1.3910 0.7407
0.5136 -1.3542 0.7408
0.6210 -1.3086 0.7409
0.7244 -1.2546 0.7410
2.2643 -3.2802 2.0387
2.5209 -3.0874 2.0387
2.7611 -2.8744 2.0387
2.9834 -2.6429 2.0387
3.1863 -2.3942 2.0387
3.3685 -2.1300 2.0387
3.5289 -1.8520 2.0387
3.6664 -1.5620 2.0387
3.7801 -1.2618 2.0387
3.8693 -0.9535 2.0387
3.9334 -0.6391 2.0387
3.9719 -0.3205 2.0387
3.9847 0.0002 2.0387
3.9716 0.3209 2.0387
3.9328 0.6394 2.0387
3.8685 0.9538 2.0387
3.7791 1.2620 2.0387
3.6651 1.5619 2.0387
3.5275 1.8518 2.0387
3.3669 2.1296 2.0387
3.1845 2.3935 2.0387
2.9815 2.6420 2.0387
2.7591 2.8733 2.0387
2.5189 3.0859 2.0387
2.2623 3.2786 2.0387
0.7286 1.2624 0.7460
0.6247 1.3171 0.7461
0.5167 1.3633 0.7462
0.4054 1.4005 0.7463
0.2914 1.4287 0.7463
0.1754 1.4476 0.7464
0.0584 1.4570 0.7464
-0.0591 1.4570 0.7464
-0.1761 1.4475 0.7464
-0.2920 1.4286 0.7463
-0.4060 1.4003 0.7463
-0.5174 1.3630 0.7462
-0.6253 1.3168 0.7461
-0.7292 1.2620 0.7460
-2.2637 3.2772 2.0387
-2.5202 3.0845 2.0387
-2.7603 2.8717 2.0387
-2.9825 2.6403 2.0387
-3.1853 2.3917 2.0387
-3.3676 2.1277 2.0387
-3.5280 1.8498 2.0387
-3.6655 1.5599 2.0387
-3.7792 1.2599 2.0387
-3.8685 0.9517 2.0387
-3.9326 0.6373 2.0387
-3.9713 0.3188 2.0387
-3.9842 -0.0018 2.0387
-3.9712 -0.3224 2.0387
-3.9325 -0.6410 2.0387
-3.8683 -0.9554 2.0387
-3.7790 -1.2636 2.0387
-3.6652 -1.5637 2.0387
-3.5276 -1.8536 2.0387
-3.3671 -2.1315 2.0387
-3.1847 -2.3956 2.0387
-2.9817 -2.6442 2.0387
-2.7593 -2.8756 2.0387
-2.5190 -3.0884 2.0387
-2.2624 -3.2812 2.0387
-0.7237 -1.2549 0.7410
-0.6203 -1.3089 0.7409
-0.5129 -1.3545 0.7408
-0.4022 -1.3912 0.7407
-0.2889 -1.4190 0.7407
-0.1738 -1.4376 0.7406
-0.0576 -1.4468 0.7406
0.0590 -1.4468 0.7406
0.1753 -1.4374 0.7406
0.2904 -1.4187 0.7406
0.4036 -1.3908 0.7407
0.5143 -1.3540 0.7408
0.6216 -1.3083 0.7409
0.7250 -1.2542 0.7410
2.2659 -3.2791 2.0387
2.5224 -3.0861 2.0387
2.7625 -2.8731 2.0387
2.9847 -2.6414 2.0387
3.1875 -2.3927 2.0387
3.3696 -2.1284 2.0387
3.5298 -1.8503 2.0387
3.6672 -1.5602 2.0387
3.7807 -1.2600 2.0387
3.8698 -0.9516 2.0387
3.9337 -0.6371 2.0387
3.9721 -0.3185 2.0387
3.9847 0.0022 2.0387
3.9715 0.3228 2.0387
3.9325 0.6413 2.0387
3.8680 0.9557 2.0387
3.7785 1.2638 2.0387
3.6644 1.5637 2.0387
3.5266 1.8535 2.0387
3.3659 2.1312 2.0387
3.1833 2.3951 2.0387
2.9802 2.6435 2.0387
2.7577 2.8746 2.0387
2.5174 3.0872 2.0387
2.2607 3.2797 2.0387
0.7280 1.2627 0.7460
0.6241 1.3174 0.7461
0.5161 1.3635 0.7462
0.4047 1.4007 0.7463
0.2907 1.4289 0.7463
0.1747 1.4477 0.7464
0.0577 1.4571 0.7464
-0.0598 1.4570 0.7464
-0.1768 1.4474 0.7464
-0.2927 1.4284 0.7463
-0.4067 1.4001 0.7463
-0.5180 1.3627 0.7462
-0.6260 1.3165 0.7461
-0.7298 1.2616 0.7460
-2.2653 3.2761 2.0387
-2.5217 3.0832 2.0387
-2.7617 2.8703 2.0387
-2.9838 2.6388 2.0387
-3.1865 2.3902 2.0387
-3.3686 2.1260 2.0387
-3.5289 1.8481 2.0387
-3.6662 1.5581 2.0387
-3.7798 1.2581 2.0387
-3.8689 0.9498 2.0387
-3.9329 0.6354 2.0387
-3.9714 0.3169 2.0387
-3.9842 -0.0038 2.0387
-3.9711 -0.3244 2.0387
-3.9322 -0.6429 2.0387
-3.8679 -0.9573 2.0387
-3.7784 -1.2655 2.0387
-3.6644 -1.5655 2.0387
-3.5267 -1.8553 2.0387
-3.3660 -2.1332 2.0387
-3.1835 -2.3972 2.0387
-2.9804 -2.6457 2.0387
-2.7579 -2.8770 2.0387
-2.5175 -3.0897 2.0387
-2.2608 -3.2823 2.0387
-0.7231 -1.2553 0.7410
-0.6196 -1.3092 0.7409
-0.5122 -1.3547 0.7408
-0.4015 -1.3914 0.7407
-0.2882 -1.4191 0.7407
-0.1731 -1.4376 0.7406
-0.0569 -1.4469 0.7406
0.0598 -1.4468 0.7406
0.1760 -1.4373 0.7406
0.2911 -1.4185 0.7406
0.4043 -1.3906 0.7407
0.5149 -1.3537 0.7408
0.6223 -1.3080 0.7409
0.7256 -1.2539 0.7410
2.2675 -3.2780 2.0387
2.5239 -3.0849 2.0387
2.7639 -2.8717 2.0387
2.9859 -2.6400 2.0387
3.1886 -2.3911 2.0387
3.3706 -2.1267 2.0387
3.5307 -1.8485 2.0387
3.6679 -1.5584 2.0387
3.7814 -1.2581 2.0387
3.8702 -0.9497 2.0387
3.9340 -0.6352 2.0387
3.9722 -0.3166 2.0387
3.9847 0.0041 2.0387
3.9713 0.3247 2.0387
3.9322 0.6433 2.0387
3.8676 0.9576 2.0387
3.7778 1.2657 2.0387
3.6636 1.5655 2.0387
3.5256 1.8552 2.0387
3.3648 2.1329 2.0387
3.1822 2.3967 2.0387
2.9789 2.6449 2.0387
2.7563 2.8760 2.0387
0.7685 -1.1145 0.7412
2.3535 -2.8853 2.0387
2.5780 -2.6865 2.0387
2.7858 -2.4703 2.0387
2.9754 -2.2381 2.0387
3.1458 -1.9913 2.0387
3.2958 -1.7317 2.0387
3.4244 -1.4608 2.0387
3.5307 -1.1805 2.0387
3.6142 -0.8926 2.0387
3.6742 -0.5988 2.0387
3.7103 -0.3012 2.0387
3.7224 -0.0016 2.0387
3.7104 0.2979 2.0387
3.6743 0.5955 2.0387
3.6143 0.8892 2.0387
3.5309 1.1772 2.0387
3.4246 1.4575 2.0387
3.2962 1.7283 2.0387
3.1463 1.9879 2.0387
2.9760 2.2346 2.0387
2.7865 2.4668 2.0387
2.5789 2.6829 2.0387
2.3545 2.8817 2.0387
0.7736 1.1199 0.7457
0.6811 1.1787 0.7458
0.5841 1.2299 0.7459
0.4832 1.2730 0.7460
0.3792 1.3079 0.7461
0.2728 1.3342 0.7461
0.1645 1.3519 0.7462
0.0552 1.3608 0.7462
-0.0545 1.3608 0.7462
-0.1638 1.3520 0.7462
-0.2721 1.3343 0.7461
-0.3786 1.3080 0.7461
-0.4826 1.2732 0.7460
-0.5834 1.2301 0.7459
-0.6805 1.1790 0.7458
-0.7730 1.1203 0.7457
-2.3529 2.8826 2.0387
-2.5773 2.6840 2.0387
-2.7850 2.4679 2.0387
-2.9746 2.2358 2.0387
-3.1450 1.9892 2.0387
-3.2949 1.7297 2.0387
-3.4235 1.4589 2.0387
-3.5299 1.1787 2.0387
-3.6134 0.8908 2.0387
-3.6735 0.5972 2.0387
-3.7098 0.2996 2.0387
-3.7220 0.0001 2.0387
-3.7100 -0.2994 2.0387
-3.6740 -0.5970 2.0387
-3.6141 -0.8908 2.0387
-3.5308 -1.1788 2.0387
-3.4246 -1.4591 2.0387
-3.2962 -1.7300 2.0387
-3.1464 -1.9897 2.0387
-2.9762 -2.2365 2.0387
-2.7866 -2.4688 2.0387
-2.5790 -2.6851 2.0387
-2.3546 -2.8840 2.0387
-0.7690 -1.1142 0.7413
-0.6768 -1.1723 0.7412
-0.5802 -1.2228 0.7410
-0.4799 -1.2654 0.7410
-0.3764 -1.2998 0.7409
-0.2706 -1.3258 0.7408
-0.1631 -1.3432 0.7408
-0.0544 -1.3519 0.7408
0.0545 -1.3519 0.7408
0.1631 -1.3432 0.7408
0.2707 -1.3258 0.7408
0.3765 -1.2998 0.7409
0.4799 -1.2654 0.7409
0.5802 -1.2228 0.7410
0.6768 -1.1723 0.7411
0.7691 -1.1142 0.7412
2.3549 -2.8841 2.0387
2.5793 -2.6852 2.0387
2.7870 -2.4689 2.0387
2.9765 -2.2366 2.0387
3.1468 -1.9898 2.0387
3.2966 -1.7301 2.0387
3.4251 -1.4592 2.0387
3.5313 -1.1788 2.0387
3.6146 -0.8908 2.0387
3.6745 -0.5970 2.0387
3.7105 -0.2994 2.0387
3.7224 0.0002 2.0387
3.7102 0.2997 2.0387
3.6740 0.5973 2.0387
3.6139 0.8910 2.0387
3.5304 1.1789 2.0387
3.4239 1.4591 2.0387
3.2953 1.7299 2.0387
3.1453 1.9894 2.0387
2.9749 2.2360 2.0387
2.7853 2.4681 2.0387
2.5776 2.6842 2.0387
2.3531 2.8828 2.0387
0.7731 1.1203 0.7457
0.6805 1.1791 0.7458
0.5835 1.2301 0.7459
0.4826 1.2732 0.7460
0.3786 1.3081 0.7461
0.2721 1.3344 0.7461
0.1639 1.3520 0.7462
0.0545 1.3608 0.7462
-0.0552 1.3608 0.7462
-0.1645 1.3519 0.7462
-0.2728 1.3342 0.7461
-0.3792 1.3079 0.7461
-0.4832 1.2730 0.7460
-0.5840 1.2298 0.7459
-0.6810 1.1787 0.7458
-0.7736 1.1199 0.7457
-2.3543 2.8815 2.0387
-2.5786 2.6827 2.0387
-2.7862 2.4665 2.0387
-2.9757 2.2343 2.0387
-3.1460 1.9877 2.0387
-3.2958 1.7281 2.0387
-3.4243 1.4573 2.0387
-3.5305 1.1770 2.0387
-3.6139 0.8891 2.0387
-3.6738 0.5954 2.0387
-3.7099 0.2978 2.0387
-3.7220 -0.0017 2.0387
-3.7099 -0.3012 2.0387
-3.6737 -0.5988 2.0387
-3.6137 -0.8925 2.0387
-3.5303 -1.1805 2.0387
-3.4239 -1.4608 2.0387
-3.2954 -1.7316 2.0387
-3.1454 -1.9912 2.0387
-2.9751 -2.2379 2.0387
-2.7854 -2.4702 2.0387
-2.5777 -2.6864 2.0387
-2.3532 -2.8851 2.0387
-0.7685 -1.1145 0.7413
-0.6762 -1.1726 0.7412
-0.5796 -1.2230 0.7410
-0.4792 -1.2656 0.7410
-0.3758 -1.2999 0.7409
-0.2700 -1.3259 0.7408
-0.1624 -1.3433 0.7408
-0.0538 -1.3519 0.7408
0.0552 -1.3519 0.7408
0.1638 -1.3431 0.7408
0.2713 -1.3256 0.7408
0.3771 -1.2996 0.7409
0.4805 -1.2651 0.7409
0.5808 -1.2225 0.7410
0.6774 -1.1719 0.7411
0.7696 -1.1138 0.7412
2.3563 -2.8830 2.0387
2.5806 -2.6840 2.0387
2.7882 -2.4676 2.0387
2.9776 -2.2352 2.0387
3.1478 -1.9883 2.0387
3.2975 -1.7285 2.0387
3.4258 -1.4575 2.0387
3.5319 -1.1771 2.0387
3.6150 -0.8890 2.0387
3.6748 -0.5952 2.0387
3.7106 -0.2976 2.0387
3.7224 0.0020 2.0387
3.7101 0.3015 2.0387
3.6737 0.5991 2.0387
3.6134 0.8928 2.0387
3.5298 1.1806 2.0387
3.4232 1.4608 2.0387
3.2945 1.7315 2.0387
3.1443 1.9909 2.0387
2.9738 2.2375 2.0387
2.7841 2.4695 2.0387
2.5762 2.6854 2.0387
2.3517 2.8840 2.0387
0.7725 1.1207 0.7457
0.6799 1.1794 0.7458
0.5829 1.2304 0.7459
0.4820 1.2735 0.7460
0.3780 1.3082 0.7461
0.2715 1.3345 0.7461
0.1632 1.3521 0.7462
0.0539 1.3608 0.7462
-0.0558 1.3608 0.7462
-0.1652 1.3518 0.7462
-0.2734 1.3341 0.7461
-0.3799 1.3077 0.7461
-0.4838 1.2727 0.7460
-0.5846 1.2295 0.7459
-0.6816 1.1784 0.7458
-0.7741 1.1195 0.7457
-2.3557 2.8803 2.0387
-2.5799 2.6814 2.0387
-2.7874 2.4652 2.0387
-2.9768 2.2329 2.0387
-3.1469 1.9861 2.0387
-3.2966 1.7265 2.0387
-3.4250 1.4556 2.0387
-3.5311 1.1753 2.0387
-3.6143 0.8873 2.0387
-3.6741 0.5936 2.0387
-3.7101 0.2960 2.0387
-3.7220 -0.0035 2.0387
-3.7097 -0.3031 2.0387
-3.6734 -0.6006 2.0387
-3.6133 -0.8943 2.0387
-3.5297 -1.1822 2.0387
-3.4232 -1.4625 2.0387
-3.2945 -1.7332 2.0387
-3.1444 -1.9928 2.0387
-2.9740 -2.2394 2.0387
-2.7842 -2.4715 2.0387
-2.5764 -2.6876 2.0387
-2.3518 -2.8863 2.0387
-0.7679 -1.1149 0.7413
-0.6756 -1.1729 0.7412
-0.5790 -1.2233 0.7410
-0.4786 -1.2658 0.7410
-0.3752 -1.3001 0.7409
-0.2693 -1.3260 0.7408
-0.1617 -1.3433 0.7408
-0.0531 -1.3520 0.7408
0.0558 -1.3519 0.7408
0.1644 -1.3430 0.7408
0.2720 -1.3255 0.7408
0.3778 -1.2994 0.7409
0.4812 -1.2649 0.7409
0.5814 -1.2222 0.7410
0.6780 -1.1716 0.7411
0.7702 -1.1134 0.7412
2.3577 -2.8818 2.0387
2.5819 -2.6827 2.0387
2.7894 -2.4662 2.0387
2.9787 -2.2337 2.0387
3.1487 -1.9867 2.0387
3.2983 -1.7269 2.0387
3.4265 -1.4558 2.0387
3.5324 -1.1753 2.0387
3.6155 -0.8873 2.0387
3.6750 -0.5934 2.0387
3.7108 -0.2958 2.0387
3.7224 0.0038 2.0387
3.7099 0.3033 2.0387
3.6734 0.6009 2.0387
3.6130 0.8945 2.0387
3.5292 1.1823 2.0387
3.4225 1.4625 2.0387
3.2936 1.7331 2.0387
3.1434 1.9925 2.0387
2.9728 2.2389 2.0387
2.7829 2.4708 2.0387
2.5749 2.6867 2.0387
0.7198 -1.0439 0.7414
2.2039 -2.7018 2.0387
2.4141 -2.5157 2.0387
2.6086 -2.3133 2.0387
2.7863 -2.0958 2.0387
2.9458 -1.8648 2.0387
3.0863 -1.6216 2.0387
3.2067 -1.3680 2.0387
3.3063 -1.1055 2.0387
3.3844 -0.8358 2.0387
3.4406 -0.5608 2.0387
3.4745 -0.2821 2.0387
3.4858 -0.0016 2.0387
3.4745 0.2789 2.0387
3.4407 0.5576 2.0387
3.3846 0.8327 2.0387
3.3065 1.1023 2.0387
3.2070 1.3648 2.0387
3.0867 1.6184 2.0387
2.9463 1.8615 2.0387
2.7869 2.0925 2.0387
2.6094 2.3099 2.0387
2.4150 2.5124 2.0387
2.2049 2.6985 2.0387
0.7243 1.0485 0.7456
0.6376 1.1036 0.7457
0.5468 1.1514 0.7458
0.4524 1.1918 0.7458
0.3551 1.2245 0.7459
0.2554 1.2491 0.7460
0.1540 1.2657 0.7460
0.0517 1.2740 0.7460
-0.0510 1.2740 0.7460
-0.1534 1.2658 0.7460
-0.2548 1.2493 0.7460
-0.3544 1.2246 0.7459
-0.4518 1.1920 0.7459
-0.5462 1.1517 0.7458
-0.6371 1.1039 0.7457
-0.7238 1.0489 0.7456
-2.2034 2.6994 2.0387
-2.4135 2.5134 2.0387
-2.6080 2.3110 2.0387
-2.7856 2.0937 2.0387
-2.9451 1.8627 2.0387
-3.0855 1.6197 2.0387
-3.2060 1.3662 2.0387
-3.3056 1.1038 2.0387
-3.3838 0.8342 2.0387
-3.4400 0.5592 2.0387
-3.4740 0.2806 2.0387
-3.4854 0.0001 2.0387
-3.4742 -0.2804 2.0387
-3.4404 -0.5591 2.0387
-3.3844 -0.8342 2.0387
-3.3064 -1.1038 2.0387
-3.2069 -1.3664 2.0387
-3.0867 -1.6200 2.0387
-2.9464 -1.8632 2.0387
-2.7870 -2.0943 2.0387
-2.6095 -2.3119 2.0387
-2.4150 -2.5144 2.0387
-2.2049 -2.7006 2.0387
-0.7203 -1.0435 0.7414
-0.6339 -1.0980 0.7413
-0.5434 -1.1453 0.7412
-0.4494 -1.1852 0.7411
-0.3526 -1.2174 0.7411
-0.2535 -1.2418 0.7410
-0.1527 -1.2581 0.7410
-0.0510 -1.2663 0.7410
0.0511 -1.2663 0.7409
0.1528 -1.2581 0.7410
0.2535 -1.2418 0.7410
0.3527 -1.2174 0.7410
0.4495 -1.1852 0.7411
0.5435 -1.1453 0.7412
0.6339 -1.0980 0.7413
0.7203 -1.0435 0.7414
2.2052 -2.7008 2.0387
2.4153 -2.5145 2.0387
2.6098 -2.3120 2.0387
2.7873 -2.0944 2.0387
2.9467 -1.8633 2.0387
3.0871 -1.6201 2.0387
3.2073 -1.3664 2.0387
3.3068 -1.1039 2.0387
3.3848 -0.8342 2.0387
3.4409 -0.5591 2.0387
3.4746 -0.2804 2.0387
3.4858 0.0001 2.0387
3.4744 0.2806 2.0387
3.4404 0.5593 2.0387
3.3842 0.8343 2.0387
3.3060 1.1039 2.0387
3.2063 1.3664 2.0387
3.0859 1.6199 2.0387
2.9454 1.8629 2.0387
2.7859 2.0939 2.0387
2.6083 2.3112 2.0387
2.4137 2.5136 2.0387
2.2036 2.6996 2.0387
0.7238 1.0489 0.7456
0.6371 1.1039 0.7457
0.5463 1.1517 0.7458
0.4518 1.1921 0.7458
0.3545 1.2246 0.7459
0.2548 1.2493 0.7460
0.1534 1.2658 0.7460
0.0510 1.2740 0.7460
-0.0517 1.2740 0.7460
-0.1540 1.2657 0.7460
-0.2554 1.2491 0.7460
-0.3550 1.2245 0.7459
-0.4524 1.1918 0.7459
-0.5468 1.1514 0.7458
-0.6376 1.1036 0.7457
-0.7243 1.0485 0.7456
-2.2047 2.6983 2.0387
-2.4147 2.5122 2.0387
-2.6091 2.3098 2.0387
-2.7866 2.0923 2.0387
-2.9460 1.8613 2.0387
-3.0863 1.6182 2.0387
-3.2066 1.3646 2.0387
-3.3061 1.1022 2.0387
-3.3842 0.8326 2.0387
-3.4403 0.5575 2.0387
-3.4741 0.2789 2.0387
-3.4854 -0.0016 2.0387
-3.4740 -0.2821 2.0387
-3.4402 -0.5608 2.0387
-3.3840 -0.8358 2.0387
-3.3058 -1.1055 2.0387
-3.2063 -1.3679 2.0387
-3.0859 -1.6216 2.0387
-2.9455 -1.8647 2.0387
-2.7859 -2.0957 2.0387
-2.6083 -2.3131 2.0387
-2.4138 -2.5156 2.0387
-2.2036 -2.7017 2.0387
-0.7197 -1.0439 0.7414
-0.6333 -1.0983 0.7413
-0.5428 -1.1455 0.7412
-0.4489 -1.1854 0.7411
-0.3520 -1.2176 0.7411
-0.2529 -1.2419 0.7410
-0.1521 -1.2581 0.7410
-0.0504 -1.2663 0.7410
0.0517 -1.2662 0.7409
0.1534 -1.2580 0.7410
0.2541 -1.2416 0.7410
0.3532 -1.2172 0.7410
0.4501 -1.1850 0.7411
0.5440 -1.1450 0.7412
0.6345 -1.0976 0.7413
0.7208 -1.0432 0.7414
2.2065 -2.6997 2.0387
2.4165 -2.5133 2.0387
2.6109 -2.3107 2.0387
2.7883 -2.0931 2.0387
2.9476 -1.8619 2.0387
3.0878 -1.6186 2.0387
3.2080 -1.3649 2.0387
3.3073 -1.1023 2.0387
3.3852 -0.8325 2.0387
3.4412 -0.5574 2.0387
3.4747 -0.2787 2.0387
3.4858 0.0019 2.0387
3.4743 0.2823 2.0387
3.4402 0.5610 2.0387
3.3838 0.8360 2.0387
3.3054 1.1056 2.0387
3.2056 1.3679 2.0387
3.0851 1.6214 2.0387
2.9445 1.8644 2.0387
2.7848 2.0952 2.0387
2.6071 2.3125 2.0387
2.4125 2.5148 2.0387
2.2023 2.7007 2.0387
0.7233 1.0493 0.7456
0.6366 1.1042 0.7457
0.5457 1.1520 0.7458
0.4513 1.1923 0.7458
0.3539 1.2248 0.7459
0.2542 1.2494 0.7460
0.1528 1.2658 0.7460
0.0504 1.2741 0.7460
-0.0523 1.2740 0.7460
-0.1546 1.2656 0.7460
-0.2560 1.2490 0.7460
-0.3556 1.2243 0.7459
-0.4530 1.1916 0.7459
-0.5474 1.1512 0.7458
-0.6382 1.1032 0.7457
-0.7248 1.0482 0.7456
-2.2060 2.6973 2.0387
-2.4160 2.5110 2.0387
-2.6103 2.3085 2.0387
-2.7876 2.0910 2.0387
-2.9469 1.8599 2.0387
-3.0871 1.6167 2.0387
-3.2073 1.3631 2.0387
-3.3067 1.1006 2.0387
-3.3846 0.8309 2.0387
-3.4406 0.5558 2.0387
-3.4742 0.2772 2.0387
-3.4854 -0.0033 2.0387
-3.4739 -0.2838 2.0387
-3.4399 -0.5625 2.0387
-3.3836 -0.8375 2.0387
-3.3053 -1.1071 2.0387
-3.2056 -1.3695 2.0387
-3.0851 -1.6231 2.0387
-2.9445 -1.8661 2.0387
-2.7849 -2.0971 2.0387
-2.6072 -2.3144 2.0387
-2.4126 -2.5168 2.0387
-2.2023 -2.7028 2.0387
-0.7192 -1.0442 0.7414
-0.6328 -1.0986 0.7413
-0.5423 -1.1458 0.7412
-0.4483 -1.1856 0.7411
-0.3514 -1.2177 0.7411
-0.2523 -1.2420 0.7410
-0.1515 -1.2582 0.7410
-0.0498 -1.2663 0.7410
0.0523 -1.2662 0.7409
0.1540 -1.2579 0.7410
0.2547 -1.2415 0.7410
0.3538 -1.2171 0.7410
0.4507 -1.1847 0.7411
0.5446 -1.1447 0.7412
0.6350 -1.0973 0.7413
0.7213 -1.0428 0.7414
2.2078 -2.6986 2.0387
2.4178 -2.5122 2.0387
2.6120 -2.3094 2.0387
2.7893 -2.0917 2.0387
2.9486 -1.8604 2.0387
3.0886 -1.6171 2.0387
3.2087 -1.3633 2.0387
3.3079 -1.1006 2.0387
3.3856 -0.8309 2.0387
3.4414 -0.5557 2.0387
3.4749 -0.2770 2.0387
3.4858 0.0036 2.0387
3.4741 0.2840 2.0387
3.4399 0.5627 2.0387
3.3834 0.8376 2.0387
3.3049 1.1072 2.0387
3.2050 1.3695 2.0387
3.0843 1.6229 2.0387
2.9436 1.8658 2.0387
2.7838 2.0966 2.0387
2.6060 2.3138 2.0387
2.4113 2.5159 2.0387
0.6755 -0.9797 0.7415
0.7523 -0.9223 0.7416
2.2652 -2.3606 2.0387
2.4478 -2.1706 2.0387
2.6145 -1.9666 2.0387
2.7642 -1.7498 2.0387
2.8960 -1.5217 2.0387
3.0090 -1.2837 2.0387
3.1024 -1.0374 2.0387
3.1758 -0.7843 2.0387
3.2285 -0.5262 2.0387
3.2603 -0.2647 2.0387
3.2709 -0.0015 2.0387
3.2603 0.2617 2.0387
3.2286 0.5232 2.0387
3.1759 0.7813 2.0387
3.1027 1.0344 2.0387
3.0093 1.2807 2.0387
2.8964 1.5186 2.0387
2.7647 1.7467 2.0387
2.6151 1.9635 2.0387
2.4486 2.1676 2.0387
2.2661 2.3575 2.0387
0.7564 0.9257 0.7453
0.6795 0.9837 0.7454
0.5982 1.0354 0.7455
0.5130 1.0803 0.7456
0.4245 1.1182 0.7457
0.3331 1.1488 0.7458
0.2396 1.1719 0.7458
0.1445 1.1874 0.7458
0.0485 1.1952 0.7459
-0.0479 1.1953 0.7459
-0.1439 1.1875 0.7459
-0.2390 1.1720 0.7458
-0.3325 1.1489 0.7458
-0.4239 1.1183 0.7457
-0.5125 1.0805 0.7456
-0.5977 1.0356 0.7456
-0.6790 0.9841 0.7455
-0.7559 0.9261 0.7453
-2.2648 2.3585 2.0387
-2.4473 2.1686 2.0387
-2.6139 1.9646 2.0387
-2.7636 1.7479 2.0387
-2.8954 1.5199 2.0387
-3.0083 1.2820 2.0387
-3.1018 1.0357 2.0387
-3.1752 0.7828 2.0387
-3.2280 0.5247 2.0387
-3.2598 0.2632 2.0387
-3.2705 0.0001 2.0387
-3.2600 -0.2631 2.0387
-3.2284 -0.5246 2.0387
-3.1758 -0.7828 2.0387
-3.1026 -1.0358 2.0387
-3.0092 -1.2822 2.0387
-2.8964 -1.5202 2.0387
-2.7647 -1.7484 2.0387
-2.6151 -1.9652 2.0387
-2.4486 -2.1694 2.0387
-2.2661 -2.3594 2.0387
-0.7527 -0.9219 0.7417
-0.6760 -0.9794 0.7415
-0.5949 -1.0304 0.7414
-0.5100 -1.0749 0.7413
-0.4218 -1.1123 0.7413
-0.3309 -1.1426 0.7412
-0.2379 -1.1654 0.7412
-0.1433 -1.1808 0.7411
-0.0479 -1.1884 0.7411
0.0479 -1.1884 0.7411
0.1434 -1.1808 0.7411
0.2380 -1.1654 0.7411
0.3310 -1.1426 0.7412
0.4219 -1.1123 0.7412
0.5101 -1.0749 0.7413
0.5950 -1.0305 0.7414
0.6760 -0.9794 0.7415
0.7527 -0.9219 0.7416
2.2664 -2.3595 2.0387
2.4489 -2.1695 2.0387
2.6155 -1.9653 2.0387
2.7651 -1.7485 2.0387
2.8967 -1.5203 2.0387
3.0096 -1.2822 2.0387
3.1029 -1.0358 2.0387
3.1762 -0.7828 2.0387
3.2288 -0.5246 2.0387
3.2604 -0.2631 2.0387
3.2709 0.0001 2.0387
3.2602 0.2633 2.0387
3.2284 0.5248 2.0387
3.1756 0.7829 2.0387
3.1022 1.0359 2.0387
3.0087 1.2821 2.0387
2.8957 1.5200 2.0387
2.7639 1.7481 2.0387
2.6142 1.9648 2.0387
2.4475 2.1688 2.0387
2.2650 2.3586 2.0387
0.7560 0.9261 0.7453
0.6791 0.9841 0.7454
0.5977 1.0357 0.7455
0.5125 1.0805 0.7456
0.4239 1.1184 0.7457
0.3326 1.1489 0.7458
0.2390 1.1720 0.7458
0.1439 1.1875 0.7458
0.0479 1.1953 0.7459
-0.0485 1.1952 0.7459
-0.1445 1.1874 0.7459
-0.2396 1.1719 0.7458
-0.3331 1.1488 0.7458
-0.4244 1.1181 0.7457
-0.5130 1.0803 0.7456
-0.5982 1.0353 0.7456
-0.6795 0.9837 0.7455
-0.7564 0.9257 0.7453
-2.2659 2.3573 2.0387
-2.4483 2.1674 2.0387
-2.6149 1.9633 2.0387
-2.7644 1.7466 2.0387
-2.8961 1.5185 2.0387
-3.0090 1.2805 2.0387
-3.1023 1.0342 2.0387
-3.1756 0.7812 2.0387
-3.2282 0.5231 2.0387
-3.2600 0.2617 2.0387
-3.2705 -0.0015 2.0387
-3.2599 -0.2647 2.0387
-3.2281 -0.5262 2.0387
-3.1754 -0.7843 2.0387
-3.1021 -1.0373 2.0387
-3.0086 -1.2836 2.0387
-2.8957 -1.5216 2.0387
-2.7639 -1.7497 2.0387
-2.6142 -1.9665 2.0387
-2.4475 -2.1705 2.0387
-2.2650 -2.3605 2.0387
-0.7522 -0.9223 0.7417
-0.6755 -0.9797 0.7415
-0.5944 -1.0307 0.7414
-0.5095 -1.0751 0.7413
-0.4213 -1.1125 0.7413
-0.3304 -1.1427 0.7412
-0.2373 -1.1655 0.7412
-0.1428 -1.1808 0.7411
-0.0473 -1.1885 0.7411
0.0485 -1.1884 0.7411
0.1440 -1.1807 0.7411
0.2385 -1.1653 0.7411
0.3315 -1.1424 0.7412
0.4224 -1.1121 0.7413
0.5106 -1.0746 0.7413
0.5955 -1.0302 0.7414
0.6765 -0.9790 0.7415
0.7532 -0.9215 0.7416
2.2676 -2.3584 2.0387
2.4499 -2.1683 2.0387
2.6164 -1.9640 2.0387
2.7659 -1.7471 2.0387
2.8975 -1.5188 2.0387
3.0102 -1.2807 2.0387
3.1034 -1.0343 2.0387
3.1765 -0.7812 2.0387
3.2290 -0.5231 2.0387
3.2605 -0.2615 2.0387
3.2709 0.0017 2.0387
3.2601 0.2649 2.0387
3.2281 0.5264 2.0387
3.1752 0.7844 2.0387
3.1017 1.0374 2.0387
3.0080 1.2836 2.0387
2.8949 1.5215 2.0387
2.7630 1.7494 2.0387
2.6132 1.9661 2.0387
2.4464 2.1699 2.0387
2.2638 2.3597 2.0387
0.7555 0.9265 0.7453
0.6786 0.9844 0.7454
0.5972 1.0360 0.7455
0.5120 1.0808 0.7456
0.4234 1.1186 0.7457
0.3320 1.1491 0.7458
0.2385 1.1721 0.7458
0.1433 1.1876 0.7458
0.0473 1.1953 0.7459
-0.0490 1.1952 0.7459
-0.1451 1.1874 0.7459
-0.2401 1.1718 0.7458
-0.3337 1.1486 0.7458
-0.4250 1.1179 0.7457
-0.5135 1.0800 0.7456
-0.5987 1.0351 0.7456
-0.6800 0.9834 0.7455
-0.7568 0.9253 0.7453
-2.2671 2.3562 2.0387
-2.4494 2.1662 2.0387
-2.6158 1.9621 2.0387
-2.7653 1.7452 2.0387
-2.8968 1.5170 2.0387
-3.0096 1.2790 2.0387
-3.1028 1.0327 2.0387
-3.1760 0.7797 2.0387
-3.2285 0.5216 2.0387
-3.2601 0.2601 2.0387
-3.2705 -0.0031 2.0387
-3.2598 -0.2663 2.0387
-3.2278 -0.5278 2.0387
-3.1750 -0.7859 2.0387
-3.1015 -1.0388 2.0387
-3.0080 -1.2851 2.0387
-2.8952 -1.5231 2.0387
-2.7630 -1.7511 2.0387
-2.6132 -1.9678 2.0387
-2.4464 -2.1717 2.0387
-2.2638 -2.3616 2.0387
-0.7518 -0.9226 0.7417
-0.6750 -0.9800 0.7415
-0.5939 -1.0310 0.7414
-0.5089 -1.0754 0.7413
-0.4207 -1.1127 0.7413
-0.3298 -1.1429 0.7412
-0.2368 -1.1657 0.7412
-0.1422 -1.1809 0.7411
-0.0467 -1.1885 0.7411
0.0491 -1.1884 0.7411
0.1446 -1.1806 0.7411
0.2391 -1.1652 0.7411
0.3321 -1.1423 0.7412
0.4230 -1.1119 0.7413
0.5111 -1.0744 0.7413
0.5960 -1.0299 0.7414
0.6770 -0.9787 0.7415
0.7536 -0.9212 0.7416
2.2687 -2.3573 2.0387
2.4510 -2.1671 2.0387
2.6174 -1.9628 2.0387
2.7668 -1.7458 2.0387
2.8982 -1.5174 2.0387
3.0108 -1.2793 2.0387
3.1040 -1.0328 2.0387
3.1769 -0.7797 2.0387
3.2293 -0.5215 2.0387
3.2607 -0.2599 2.0387
3.2709 0.0033 2.0387
3.2600 0.2665 2.0387
3.2278 0.5280 2.0387
3.1748 0.7860 2.0387
3.1012 1.0389 2.0387
3.0074 1.2851 2.0387
2.8942 1.5229 2.0387
2.7622 1.7508 2.0387
2.6122 1.9674 2.0387
2.4454 2.1711 2.0387
2.2627 2.3608 2.0387
0.6351 -0.9210 0.7416
0.7072 -0.8671 0.7417
0.7748 -0.8075 0.7419
2.3009 -2.0404 2.0387
2.4576 -1.8486 2.0387
2.5983 -1.6448 2.0387
2.7222 -1.4304 2.0387
2.8284 -1.2066 2.0387
2.9162 -0.9751 2.0387
2.9852 -0.7373 2.0387
3.0347 -0.4946 2.0387
3.0646 -0.2488 2.0387
3.0746 -0.0014 2.0387
3.0647 0.2460 2.0387
3.0349 0.4918 2.0387
2.9853 0.7344 2.0387
2.9165 0.9723 2.0387
2.8287 1.2038 2.0387
2.7226 1.4275 2.0387
2.5988 1.6419 2.0387
2.4582 1.8457 2.0387
2.3016 2.0375 2.0387
0.7785 0.8099 0.7451
0.7109 0.8701 0.7452
0.6387 0.9246 0.7453
0.5622 0.9731 0.7454
0.4822 1.0153 0.7455
0.3989 1.0509 0.7456
0.3131 1.0796 0.7456
0.2252 1.1014 0.7457
0.1358 1.1160 0.7457
0.0456 1.1233 0.7457
-0.0450 1.1233 0.7457
-0.1352 1.1160 0.7457
-0.2246 1.1015 0.7457
-0.3125 1.0798 0.7456
-0.3984 1.0510 0.7456
-0.4816 1.0155 0.7455
-0.5617 0.9733 0.7454
-0.6382 0.9249 0.7453
-0.7105 0.8704 0.7452
-2.1289 2.2169 2.0387
-2.3004 2.0384 2.0387
-2.4571 1.8467 2.0387
-2.5978 1.6430 2.0387
-2.7216 1.4287 2.0387
-2.8278 1.2050 2.0387
-2.9157 0.9736 2.0387
-2.9847 0.7358 2.0387
-3.0343 0.4932 2.0387
-3.0642 0.2474 2.0387
-3.0743 0.0000 2.0387
-3.0644 -0.2474 2.0387
-3.0346 -0.4932 2.0387
-2.9852 -0.7358 2.0387
-2.9163 -0.9737 2.0387
-2.8286 -1.2052 2.0387
-2.7225 -1.4290 2.0387
-2.5988 -1.6435 2.0387
-2.4582 -1.8473 2.0387
-2.3016 -2.0392 2.0387
-0.7752 -0.8071 0.7419
-0.7076 -0.8667 0.7418
-0.6355 -0.9207 0.7417
-0.5593 -0.9688 0.7416
-0.4795 -1.0105 0.7415
-0.3966 -1.0457 0.7414
-0.3111 -1.0742 0.7413
-0.2237 -1.0957 0.7413
-0.1348 -1.1101 0.7413
-0.0450 -1.1173 0.7412
0.0451 -1.1173 0.7412
0.1348 -1.1101 0.7413
0.2237 -1.0957 0.7413
0.3112 -1.0742 0.7413
0.3966 -1.0457 0.7414
0.4795 -1.0105 0.7415
0.5593 -0.9688 0.7415
0.6355 -0.9207 0.7416
0.7077 -0.8667 0.7417
0.7752 -0.8071 0.7419
2.3019 -2.0392 2.0387
2.4585 -1.8474 2.0387
2.5991 -1.6435 2.0387
2.7229 -1.4290 2.0387
2.8290 -1.2053 2.0387
2.9167 -0.9737 2.0387
2.9855 -0.7358 2.0387
3.0350 -0.4932 2.0387
3.0647 -0.2473 2.0387
3.0746 0.0001 2.0387
3.0646 0.2475 2.0387
3.0346 0.4933 2.0387
2.9850 0.7359 2.0387
2.9160 0.9737 2.0387
2.8281 1.2052 2.0387
2.7219 1.4288 2.0387
2.5980 1.6432 2.0387
2.4573 1.8469 2.0387
2.3006 2.0386 2.0387
0.7781 0.8103 0.7451
0.7105 0.8704 0.7452
0.6382 0.9249 0.7453
0.5618 0.9734 0.7454
0.4817 1.0155 0.7455
0.3984 1.0511 0.7456
0.3125 1.0798 0.7456
0.2246 1.1015 0.7457
0.1353 1.1160 0.7457
0.0450 1.1233 0.7457
-0.0455 1.1233 0.7457
-0.1358 1.1160 0.7457
-0.2252 1.1014 0.7457
-0.3131 1.0796 0.7456
-0.3989 1.0509 0.7456
-0.4821 1.0152 0.7455
-0.5622 0.9731 0.7454
-0.6386 0.9245 0.7453
-0.7109 0.8700 0.7452
-2.1300 2.2159 2.0387
-2.3014 2.0373 2.0387
-2.4580 1.8455 2.0387
-2.5986 1.6417 2.0387
-2.7223 1.4273 2.0387
-2.8284 1.2036 2.0387
-2.9162 0.9721 2.0387
-2.9850 0.7343 2.0387
-3.0345 0.4917 2.0387
-3.0643 0.2459 2.0387
-3.0743 -0.0015 2.0387
-3.0643 -0.2489 2.0387
-3.0344 -0.4947 2.0387
-2.9848 -0.7373 2.0387
-2.9159 -0.9751 2.0387
-2.8280 -1.2066 2.0387
-2.7218 -1.4303 2.0387
-2.5980 -1.6447 2.0387
-2.4573 -1.8485 2.0387
-2.3006 -2.0403 2.0387
-0.7748 -0.8075 0.7419
-0.7072 -0.8671 0.7418
-0.6350 -0.9210 0.7417
-0.5588 -0.9690 0.7416
-0.4790 -1.0108 0.7415
-0.3960 -1.0459 0.7414
-0.3106 -1.0743 0.7413
-0.2231 -1.0958 0.7413
-0.1342 -1.1102 0.7413
-0.0444 -1.1173 0.7412
0.0456 -1.1173 0.7412
0.1354 -1.1100 0.7413
0.2242 -1.0956 0.7413
0.3117 -1.0740 0.7413
0.3971 -1.0456 0.7414
0.4800 -1.0103 0.7415
0.5598 -0.9685 0.7415
0.6360 -0.9204 0.7416
0.7081 -0.8664 0.7417
0.7756 -0.8067 0.7419
2.3029 -2.0381 2.0387
2.4594 -1.8462 2.0387
2.5999 -1.6423 2.0387
2.7236 -1.4277 2.0387
2.8295 -1.2039 2.0387
2.9172 -0.9723 2.0387
2.9859 -0.7343 2.0387
3.0352 -0.4917 2.0387
3.0649 -0.2458 2.0387
3.0746 0.0016 2.0387
3.0644 0.2490 2.0387
3.0344 0.4948 2.0387
2.9846 0.7373 2.0387
2.9155 0.9751 2.0387
2.8275 1.2065 2.0387
2.7212 1.4301 2.0387
2.5972 1.6444 2.0387
2.4564 1.8481 2.0387
2.2996 2.0397 2.0387
0.7777 0.8107 0.7451
0.7101 0.8708 0.7452
0.6378 0.9252 0.7453
0.5613 0.9736 0.7454
0.4812 1.0157 0.7455
0.3979 1.0513 0.7456
0.3120 1.0799 0.7456
0.2241 1.1016 0.7457
0.1347 1.1161 0.7457
0.0445 1.1233 0.7457
-0.0461 1.1233 0.7457
-0.1363 1.1159 0.7457
-0.2257 1.1013 0.7457
-0.3136 1.0795 0.7456
-0.3994 1.0507 0.7456
-0.4826 1.0150 0.7455
-0.5627 0.9728 0.7454
-0.6391 0.9242 0.7453
-0.7113 0.8697 0.7452
-2.1310 2.2148 2.0387
-2.3024 2.0362 2.0387
-2.4589 1.8443 2.0387
-2.5994 1.6405 2.0387
-2.7230 1.4260 2.0387
-2.8290 1.2023 2.0387
-2.9166 0.9707 2.0387
-2.9854 0.7329 2.0387
-3.0348 0.4902 2.0387
-3.0644 0.2444 2.0387
-3.0743 -0.0030 2.0387
-3.0641 -0.2504 2.0387
-3.0341 -0.4961 2.0387
-2.9844 -0.7387 2.0387
-2.9154 -0.9765 2.0387
-2.8274 -1.2080 2.0387
-2.7211 -1.4316 2.0387
-2.5972 -1.6460 2.0387
-2.4564 -1.8497 2.0387
-2.2996 -2.0414 2.0387
-0.7744 -0.8078 0.7419
-0.7068 -0.8674 0.7418
-0.6346 -0.9213 0.7417
-0.5583 -0.9693 0.7416
-0.4785 -1.0110 0.7415
-0.3955 -1.0461 0.7414
-0.3101 -1.0745 0.7413
-0.2226 -1.0959 0.7413
-0.1337 -1.1102 0.7413
-0.0439 -1.1174 0.7412
0.0461 -1.1173 0.7412
0.1359 -1.1100 0.7413
0.2248 -1.0955 0.7413
0.3122 -1.0739 0.7413
0.3976 -1.0454 0.7414
0.4805 -1.0101 0.7415
0.5603 -0.9682 0.7415
0.6364 -0.9201 0.7416
0.7085 -0.8660 0.7417
0.7760 -0.8063 0.7419
2.3039 -2.0370 2.0387
2.4603 -1.8450 2.0387
2.6007 -1.6410 2.0387
2.7243 -1.4264 2.0387
2.8301 -1.2025 2.0387
2.9176 -0.9708 2.0387
2.9862 -0.7329 2.0387
3.0354 -0.4902 2.0387
3.0650 -0.2443 2.0387
3.0746 0.0031 2.0387
3.0643 0.2505 2.0387
3.0341 0.4963 2.0387
2.9843 0.7388 2.0387
2.9151 0.9765 2.0387
2.8269 1.2079 2.0387
2.7205 1.4315 2.0387
2.5964 1.6457 2.0387
2.4555 1.8493 2.0387
2.2986 2.0408 2.0387
0.7773 0.8110 0.7451
0.5979 -0.8671 0.7417
0.6658 -0.8163 0.7418
0.7295 -0.7602 0.7419
2.1659 -1.9207 2.0387
2.3134 -1.7402 2.0387
2.4459 -1.5483 2.0387
2.5625 -1.3465 2.0387
2.6625 -1.1359 2.0387
2.7452 -0.9179 2.0387
2.8101 -0.6940 2.0387
2.8567 -0.4657 2.0387
2.8849 -0.2343 2.0387
2.8943 -0.0013 2.0387
2.8849 0.2316 2.0387
2.8569 0.4630 2.0387
2.8103 0.6913 2.0387
2.7455 0.9152 2.0387
2.6628 1.1332 2.0387
2.5629 1.3438 2.0387
2.4464 1.5456 2.0387
2.3141 1.7374 2.0387
0.7916 0.7008 0.7449
0.7328 0.7623 0.7450
0.6691 0.8189 0.7451
0.6011 0.8702 0.7452
0.5292 0.9159 0.7453
0.4538 0.9556 0.7454
0.3755 0.9891 0.7454
0.2947 1.0162 0.7455
0.2119 1.0366 0.7455
0.1278 1.0503 0.7456
0.0429 1.0572 0.7456
-0.0423 1.0573 0.7456
-0.1273 1.0504 0.7456
-0.2114 1.0367 0.7456
-0.2941 1.0163 0.7455
-0.3750 0.9893 0.7455
-0.4533 0.9558 0.7454
-0.5287 0.9161 0.7453
-0.6007 0.8705 0.7452
-0.6687 0.8192 0.7451
-0.7324 0.7626 0.7450
-2.1655 1.9189 2.0387
-2.3130 1.7384 2.0387
-2.4454 1.5467 2.0387
-2.5620 1.3449 2.0387
-2.6620 1.1343 2.0387
-2.7447 0.9164 2.0387
-2.8096 0.6926 2.0387
-2.8563 0.4643 2.0387
-2.8845 0.2329 2.0387
-2.8940 0.0000 2.0387
-2.8847 -0.2329 2.0387
-2.8566 -0.4643 2.0387
-2.8101 -0.6927 2.0387
-2.7453 -0.9166 2.0387
-2.6627 -1.1346 2.0387
-2.5629 -1.3452 2.0387
-2.4464 -1.5471 2.0387
-2.3140 -1.7390 2.0387
-2.1666 -1.9196 2.0387
-0.7298 -0.7598 0.7420
-0.6662 -0.8160 0.7419
-0.5983 -0.8669 0.7418
-0.5265 -0.9121 0.7417
-0.4514 -0.9514 0.7416
-0.3734 -0.9846 0.7415
-0.2929 -1.0114 0.7415
-0.2106 -1.0316 0.7414
-0.1269 -1.0452 0.7414
-0.0424 -1.0520 0.7414
0.0424 -1.0520 0.7414
0.1269 -1.0452 0.7414
0.2106 -1.0316 0.7414
0.2930 -1.0114 0.7415
0.3734 -0.9846 0.7415
0.4515 -0.9514 0.7416
0.5266 -0.9121 0.7416
0.5984 -0.8669 0.7417
0.6662 -0.8160 0.7418
0.7298 -0.7598 0.7419
2.1669 -1.9196 2.0387
2.3143 -1.7390 2.0387
2.4466 -1.5471 2.0387
2.5632 -1.3452 2.0387
2.6630 -1.1346 2.0387
2.7456 -0.9166 2.0387
2.8104 -0.6927 2.0387
2.8570 -0.4643 2.0387
2.8850 -0.2328 2.0387
2.8943 0.0001 2.0387
2.8848 0.2330 2.0387
2.8566 0.4644 2.0387
2.8099 0.6927 2.0387
2.7450 0.9166 2.0387
2.6623 1.1345 2.0387
2.5623 1.3450 2.0387
2.4457 1.5468 2.0387
2.3132 1.7386 2.0387
0.7913 0.7012 0.7449
0.7324 0.7627 0.7450
0.6687 0.8192 0.7451
0.6007 0.8705 0.7452
0.5288 0.9161 0.7453
0.4534 0.9558 0.7454
0.3750 0.9893 0.7454
0.2942 1.0163 0.7455
0.2114 1.0367 0.7455
0.1273 1.0504 0.7456
0.0424 1.0573 0.7456
-0.0429 1.0572 0.7456
-0.1278 1.0503 0.7456
-0.2119 1.0366 0.7456
-0.2946 1.0161 0.7455
-0.3754 0.9891 0.7455
-0.4538 0.9556 0.7454
-0.5292 0.9159 0.7453
-0.6011 0.8702 0.7452
-0.6691 0.8189 0.7451
-0.7327 0.7623 0.7450
-2.1665 1.9178 2.0387
-2.3138 1.7373 2.0387
-2.4462 1.5455 2.0387
-2.5627 1.3436 2.0387
-2.6626 1.1330 2.0387
-2.7452 0.9151 2.0387
-2.8100 0.6912 2.0387
-2.8566 0.4629 2.0387
-2.8846 0.2315 2.0387
-2.8940 -0.0014 2.0387
-2.8845 -0.2343 2.0387
-2.8564 -0.4657 2.0387
-2.8098 -0.6940 2.0387
-2.7449 -0.9179 2.0387
-2.6622 -1.1359 2.0387
-2.5622 -1.3464 2.0387
-2.4456 -1.5483 2.0387
-2.3131 -1.7401 2.0387
-2.1657 -1.9206 2.0387
-0.7294 -0.7602 0.7420
-0.6658 -0.8163 0.7419
-0.5979 -0.8671 0.7418
-0.5261 -0.9123 0.7417
-0.4509 -0.9516 0.7416
-0.3729 -0.9848 0.7415
-0.2924 -1.0115 0.7415
-0.2101 -1.0317 0.7414
-0.1264 -1.0452 0.7414
-0.0418 -1.0520 0.7414
0.0429 -1.0520 0.7414
0.1274 -1.0451 0.7414
0.2111 -1.0315 0.7414
0.2935 -1.0112 0.7415
0.3739 -0.9844 0.7415
0.4519 -0.9512 0.7416
0.5271 -0.9118 0.7416
0.5988 -0.8666 0.7417
0.6666 -0.8157 0.7418
0.7302 -0.7595 0.7419
2.1678 -1.9186 2.0387
2.3151 -1.7379 2.0387
2.4474 -1.5460 2.0387
2.5638 -1.3440 2.0387
2.6636 -1.1333 2.0387
2.7461 -0.9153 2.0387
2.8108 -0.6913 2.0387
2.8572 -0.4629 2.0387
2.8851 -0.2314 2.0387
2.8943 0.0015 2.0387
2.8847 0.2344 2.0387
2.8564 0.4657 2.0387
2.8096 0.6941 2.0387
2.7446 0.9179 2.0387
2.6617 1.1358 2.0387
2.5616 1.3462 2.0387
2.4449 1.5480 2.0387
2.3124 1.7397 2.0387
0.7909 0.7015 0.7449
0.7320 0.7630 0.7450
0.6683 0.8196 0.7451
0.6003 0.8708 0.7452
0.5283 0.9164 0.7453
0.4529 0.9560 0.7454
0.3745 0.9894 0.7454
0.2937 1.0164 0.7455
0.2109 1.0368 0.7455
0.1268 1.0505 0.7456
0.0418 1.0573 0.7456
-0.0434 1.0572 0.7456
-0.1283 1.0503 0.7456
-0.2124 1.0365 0.7456
-0.2951 1.0160 0.7455
-0.3759 0.9889 0.7455
-0.4543 0.9553 0.7454
-0.5296 0.9156 0.7453
-0.6015 0.8699 0.7452
-0.6695 0.8186 0.7451
-0.7331 0.7619 0.7450
-2.1674 1.9168 2.0387
-2.3147 1.7362 2.0387
-2.4469 1.5443 2.0387
-2.5633 1.3424 2.0387
-2.6631 1.1317 2.0387
-2.7456 0.9138 2.0387
-2.8103 0.6899 2.0387
-2.8568 0.4615 2.0387
-2.8847 0.2301 2.0387
-2.8940 -0.0028 2.0387
-2.8844 -0.2357 2.0387
-2.8562 -0.4671 2.0387
-2.8094 -0.6954 2.0387
-2.7444 -0.9193 2.0387
-2.6616 -1.1372 2.0387
-2.5615 -1.3477 2.0387
-2.4448 -1.5495 2.0387
-2.3123 -1.7412 2.0387
-2.1647 -1.9217 2.0387
-0.7290 -0.7606 0.7420
-0.6654 -0.8166 0.7419
-0.5974 -0.8674 0.7418
-0.5257 -0.9126 0.7417
-0.4505 -0.9518 0.7416
-0.3724 -0.9849 0.7415
-0.2919 -1.0116 0.7415
-0.2096 -1.0318 0.7414
-0.1259 -1.0453 0.7414
-0.0413 -1.0520 0.7414
0.0434 -1.0519 0.7414
0.1280 -1.0450 0.7414
0.2116 -1.0314 0.7414
0.2940 -1.0111 0.7415
0.3744 -0.9842 0.7415
0.4524 -0.9510 0.7416
0.5275 -0.9116 0.7416
0.5992 -0.8663 0.7417
0.6670 -0.8153 0.7418
0.7306 -0.7591 0.7419
2.1687 -1.9175 2.0387
2.3160 -1.7368 2.0387
2.4482 -1.5448 2.0387
2.5645 -1.3427 2.0387
2.6641 -1.1320 2.0387
2.7465 -0.9139 2.0387
2.8111 -0.6899 2.0387
2.8574 -0.4615 2.0387
2.8852 -0.2300 2.0387
2.8943 0.0029 2.0387
2.8846 0.2358 2.0387
2.8562 0.4671 2.0387
2.8093 0.6955 2.0387
2.7441 0.9192 2.0387
2.6612 1.1371 2.0387
2.5610 1.3475 2.0387
2.4442 1.5492 2.0387
2.3115 1.7408 2.0387
0.7906 0.7019 0.7449
0.7317 0.7634 0.7450
0.5636 -0.8174 0.7418
0.6276 -0.7695 0.7419
0.6876 -0.7166 0.7420
0.7431 -0.6590 0.7421
2.1804 -1.6401 2.0387
2.3052 -1.4593 2.0387
2.4151 -1.2691 2.0387
2.5093 -1.0706 2.0387
2.5873 -0.8652 2.0387
2.6485 -0.6541 2.0387
2.6924 -0.4389 2.0387
2.7190 -0.2208 2.0387
2.7278 -0.0013 2.0387
2.7190 0.2182 2.0387
2.6926 0.4363 2.0387
2.6487 0.6516 2.0387
2.5876 0.8626 2.0387
2.5097 1.0680 2.0387
2.4156 1.2665 2.0387
2.3057 1.4567 2.0387
2.1810 1.6375 2.0387
0.7460 0.6604 0.7448
0.6906 0.7184 0.7449
0.6306 0.7717 0.7450
0.5665 0.8201 0.7451
0.4987 0.8631 0.7452
0.4277 0.9005 0.7453
0.3538 0.9321 0.7453
0.2777 0.9576 0.7454
0.1997 0.9769 0.7454
0.1205 0.9898 0.7455
0.0404 0.9963 0.7455
-0.0399 0.9963 0.7455
-0.1200 0.9898 0.7455
-0.1992 0.9769 0.7454
-0.2772 0.9577 0.7454
-0.3533 0.9322 0.7453
-0.4272 0.9007 0.7453
-0.4983 0.8633 0.7452
-0.5661 0.8203 0.7451
-0.6302 0.7720 0.7450
-0.6902 0.7187 0.7449
-0.7457 0.6607 0.7448
-2.1800 1.6384 2.0387
-2.3048 1.4577 2.0387
-2.4147 1.2675 2.0387
-2.5089 1.0691 2.0387
-2.5869 0.8637 2.0387
-2.6481 0.6528 2.0387
-2.6921 0.4376 2.0387
-2.7186 0.2195 2.0387
-2.7275 -0.0000 2.0387
-2.7188 -0.2195 2.0387
-2.6924 -0.4376 2.0387
-2.6485 -0.6529 2.0387
-2.5874 -0.8639 2.0387
-2.5096 -1.0693 2.0387
-2.4154 -1.2678 2.0387
-2.3058 -1.4581 2.0387
-2.1809 -1.6390 2.0387
-0.7434 -0.6586 0.7422
-0.6879 -0.7162 0.7421
-0.6279 -0.7692 0.7420
-0.5640 -0.8171 0.7419
-0.4963 -0.8597 0.7418
-0.4255 -0.8968 0.7417
-0.3519 -0.9281 0.7416
-0.2761 -0.9533 0.7416
-0.1985 -0.9724 0.7415
-0.1196 -0.9852 0.7415
-0.0399 -0.9916 0.7415
0.0400 -0.9916 0.7415
0.1197 -0.9852 0.7415
0.1985 -0.9724 0.7415
0.2762 -0.9533 0.7416
0.3520 -0.9281 0.7416
0.4256 -0.8968 0.7417
0.4964 -0.8597 0.7418
0.5640 -0.8171 0.7418
0.6280 -0.7692 0.7419
0.6879 -0.7162 0.7420
0.7435 -0.6586 0.7421
2.1812 -1.6390 2.0387
2.3059 -1.4582 2.0387
2.4157 -1.2679 2.0387
2.5099 -1.0693 2.0387
2.5877 -0.8639 2.0387
2.6488 -0.6529 2.0387
2.6927 -0.4376 2.0387
2.7191 -0.2195 2.0387
2.7278 0.0000 2.0387
2.7189 0.2196 2.0387
2.6924 0.4376 2.0387
2.6483 0.6529 2.0387
2.5872 0.8638 2.0387
2.5092 1.0692 2.0387
2.4149 1.2676 2.0387
2.3050 1.4578 2.0387
2.1802 1.6386 2.0387
0.7457 0.6608 0.7448
0.6902 0.7187 0.7449
0.6302 0.7720 0.7450
0.5661 0.8203 0.7451
0.4983 0.8633 0.7452
0.4272 0.9007 0.7453
0.3534 0.9322 0.7453
0.2772 0.9577 0.7454
0.1992 0.9770 0.7454
0.1200 0.9898 0.7455
0.0399 0.9963 0.7455
-0.0404 0.9963 0.7455
-0.1204 0.9898 0.7455
-0.1997 0.9768 0.7454
-0.2777 0.9576 0.7454
-0.3538 0.9320 0.7453
-0.4276 0.9005 0.7453
-0.4987 0.8631 0.7452
-0.5665 0.8200 0.7451
-0.6305 0.7717 0.7450
-0.6905 0.7184 0.7449
-0.7460 0.6604 0.7448
-2.1808 1.6374 2.0387
-2.3055 1.4566 2.0387
-2.4153 1.2663 2.0387
-2.5094 1.0679 2.0387
-2.5873 0.8625 2.0387
-2.6484 0.6515 2.0387
-2.6923 0.4362 2.0387
-2.7187 0.2182 2.0387
-2.7275 -0.0013 2.0387
-2.7187 -0.2208 2.0387
-2.6921 -0.4389 2.0387
-2.6482 -0.6541 2.0387
-2.5870 -0.8651 2.0387
-2.5091 -1.0705 2.0387
-2.4148 -1.2690 2.0387
-2.3049 -1.4592 2.0387
-2.1801 -1.6400 2.0387
-0.7431 -0.6590 0.7422
-0.6875 -0.7166 0.7421
-0.6276 -0.7695 0.7420
-0.5636 -0.8174 0.7419
-0.4959 -0.8600 0.7418
-0.4251 -0.8970 0.7417
-0.3515 -0.9283 0.7416
-0.2756 -0.9535 0.7416
-0.1980 -0.9725 0.7415
-0.1191 -0.9853 0.7415
-0.0394 -0.9916 0.7415
0.0405 -0.9916 0.7415
0.1201 -0.9852 0.7415
0.1990 -0.9723 0.7415
0.2766 -0.9532 0.7416
0.3524 -0.9279 0.7416
0.4260 -0.8966 0.7417
0.4968 -0.8595 0.7418
0.5644 -0.8168 0.7418
0.6284 -0.7689 0.7419
0.6883 -0.7159 0.7420
0.7438 -0.6583 0.7422
2.1820 -1.6380 2.0387
2.3066 -1.4570 2.0387
2.4164 -1.2667 2.0387
2.5104 -1.0681 2.0387
2.5881 -0.8626 2.0387
2.6491 -0.6516 2.0387
2.6929 -0.4363 2.0387
2.7192 -0.2181 2.0387
2.7278 0.0014 2.0387
2.7188 0.2209 2.0387
2.6922 0.4389 2.0387
2.6480 0.6541 2.0387
2.5867 0.8651 2.0387
2.5087 1.0704 2.0387
2.4143 1.2688 2.0387
2.3043 1.4590 2.0387
2.1794 1.6396 2.0387
0.7454 0.6611 0.7448
0.6899 0.7191 0.7449
0.6298 0.7723 0.7450
0.5657 0.8206 0.7451
0.4979 0.8636 0.7452
0.4268 0.9009 0.7453
0.3529 0.9324 0.7453
0.2767 0.9578 0.7454
0.1988 0.9770 0.7454
0.1195 0.9899 0.7455
0.0394 0.9963 0.7455
-0.0409 0.9963 0.7455
-0.1209 0.9897 0.7455
-0.2002 0.9767 0.7454
-0.2781 0.9574 0.7454
-0.3543 0.9319 0.7453
-0.4281 0.9003 0.7453
-0.4991 0.8628 0.7452
-0.5669 0.8198 0.7451
-0.6309 0.7714 0.7450
-0.6909 0.7180 0.7449
-0.7463 0.6600 0.7448
-2.1816 1.6363 2.0387
-2.3062 1.4555 2.0387
-2.4159 1.2652 2.0387
-2.5100 1.0666 2.0387
-2.5877 0.8612 2.0387
-2.6487 0.6502 2.0387
-2.6925 0.4349 2.0387
-2.7188 0.2168 2.0387
-2.7275 -0.0027 2.0387
-2.7186 -0.2222 2.0387
-2.6919 -0.4402 2.0387
-2.6478 -0.6554 2.0387
-2.5866 -0.8664 2.0387
-2.5085 -1.0718 2.0387
-2.4142 -1.2702 2.0387
-2.3042 -1.4604 2.0387
-2.1793 -1.6411 2.0387
-0.7427 -0.6594 0.7422
-0.6872 -0.7169 0.7421
-0.6272 -0.7698 0.7420
-0.5632 -0.8177 0.7419
-0.4955 -0.8602 0.7418
-0.4246 -0.8972 0.7417
-0.3510 -0.9284 0.7416
-0.2752 -0.9536 0.7416
-0.1975 -0.9726 0.7415
-0.1186 -0.9853 0.7415
-0.0390 -0.9917 0.7415
0.0410 -0.9916 0.7415
0.1206 -0.9851 0.7415
0.1995 -0.9722 0.7415
0.2771 -0.9531 0.7416
0.3529 -0.9277 0.7416
0.4264 -0.8964 0.7417
0.4972 -0.8593 0.7418
0.5648 -0.8166 0.7418
0.6288 -0.7685 0.7419
0.6886 -0.7156 0.7420
0.7441 -0.6579 0.7422
2.1828 -1.6369 2.0387
2.3073 -1.4559 2.0387
2.4170 -1.2655 2.0387
2.5109 -1.0669 2.0387
2.5886 -0.8614 2.0387
2.6494 -0.6503 2.0387
2.6931 -0.4349 2.0387
2.7193 -0.2168 2.0387
2.7278 0.0027 2.0387
2.7187 0.2222 2.0387
2.6919 0.4403 2.0387
2.6477 0.6554 2.0387
2.5863 0.8664 2.0387
2.5081 1.0717 2.0387
2.4137 1.2700 2.0387
2.3036 1.4601 2.0387
2.1786 1.6407 2.0387
0.7451 0.6615 0.7448
0.6895 0.7194 0.7449
0.5318 -0.7712 0.7419
0.5922 -0.7260 0.7420
0.6488 -0.6761 0.7421
0.7011 -0.6218 0.7422
0.7490 -0.5634 0.7423
2.1748 -1.3767 2.0387
2.2784 -1.1972 2.0387
2.3673 -1.0100 2.0387
2.4409 -0.8162 2.0387
2.4986 -0.6171 2.0387
2.5401 -0.4141 2.0387
2.5651 -0.2083 2.0387
2.5735 -0.0012 2.0387
2.5652 0.2059 2.0387
2.5402 0.4116 2.0387
2.4988 0.6147 2.0387
2.4412 0.8137 2.0387
2.3677 1.0075 2.0387
2.2789 1.1948 2.0387
2.1753 1.3743 2.0387
0.7515 0.5642 0.7446
0.7038 0.6230 0.7447
0.6514 0.6777 0.7448
0.5948 0.7280 0.7449
0.5344 0.7736 0.7450
0.4704 0.8141 0.7451
0.4034 0.8494 0.7452
0.3338 0.8792 0.7452
0.2619 0.9033 0.7453
0.1884 0.9214 0.7453
0.1136 0.9336 0.7453
0.0381 0.9398 0.7454
-0.0376 0.9398 0.7454
-0.1132 0.9337 0.7453
-0.1879 0.9215 0.7453
-0.2615 0.9034 0.7453
-0.3333 0.8793 0.7452
-0.4030 0.8496 0.7452
-0.4700 0.8144 0.7451
-0.5340 0.7738 0.7450
-0.5944 0.7282 0.7449
-0.6510 0.6780 0.7448
-0.7034 0.6233 0.7447
-0.7512 0.5646 0.7446
-2.1744 1.3752 2.0387
-2.2781 1.1958 2.0387
-2.3670 1.0086 2.0387
-2.4405 0.8148 2.0387
-2.4982 0.6158 2.0387
-2.5397 0.4128 2.0387
-2.5648 0.2071 2.0387
-2.5732 -0.0000 2.0387
-2.5649 -0.2071 2.0387
-2.5400 -0.4128 2.0387
-2.4986 -0.6159 2.0387
-2.4410 -0.8150 2.0387
-2.3676 -1.0088 2.0387
-2.2788 -1.1961 2.0387
-2.1752 -1.3756 2.0387
-0.7492 -0.5631 0.7424
-0.7014 -0.6214 0.7423
-0.6490 -0.6758 0.7421
-0.5925 -0.7257 0.7420
-0.5321 -0.7710 0.7419
-0.4683 -0.8112 0.7419
-0.4015 -0.8462 0.7418
-0.3321 -0.8757 0.7417
-0.2605 -0.8995 0.7417
-0.1873 -0.9175 0.7417
-0.1128 -0.9296 0.7416
-0.0377 -0.9357 0.7416
0.0377 -0.9357 0.7416
0.1129 -0.9296 0.7416
0.1873 -0.9175 0.7416
0.2606 -0.8995 0.7417
0.3321 -0.8757 0.7417
0.4015 -0.8462 0.7418
0.4684 -0.8112 0.7419
0.5322 -0.7710 0.7419
0.5925 -0.7257 0.7420
0.6491 -0.6758 0.7421
0.7014 -0.6214 0.7422
0.7493 -0.5631 0.7423
2.1754 -1.3757 2.0387
2.2790 -1.1961 2.0387
2.3678 -1.0089 2.0387
2.4413 -0.8150 2.0387
2.4989 -0.6159 2.0387
2.5403 -0.4128 2.0387
2.5652 -0.2071 2.0387
2.5735 0.0000 2.0387
2.5651 0.2071 2.0387
2.5400 0.4128 2.0387
2.4985 0.6159 2.0387
2.4408 0.8149 2.0387
2.3672 1.0087 2.0387
2.2783 1.1959 2.0387
2.1746 1.3753 2.0387
0.7512 0.5646 0.7446
0.7034 0.6233 0.7447
0.6511 0.6780 0.7448
0.5945 0.7283 0.7449
0.5340 0.7738 0.7450
0.4700 0.8144 0.7451
0.4030 0.8496 0.7452
0.3333 0.8794 0.7452
0.2615 0.9034 0.7453
0.1879 0.9215 0.7453
0.1132 0.9337 0.7453
0.0377 0.9398 0.7454
-0.0381 0.9398 0.7454
-0.1136 0.9336 0.7453
-0.1884 0.9214 0.7453
-0.2619 0.9032 0.7453
-0.3337 0.8792 0.7452
-0.4034 0.8494 0.7452
-0.4704 0.8141 0.7451
-0.5343 0.7735 0.7450
-0.5948 0.7280 0.7449
-0.6514 0.6776 0.7448
-0.7037 0.6229 0.7447
-0.7515 0.5642 0.7446
-2.1751 1.3741 2.0387
-2.2787 1.1947 2.0387
-2.3675 1.0074 2.0387
-2.4409 0.8137 2.0387
-2.4985 0.6146 2.0387
-2.5399 0.4115 2.0387
-2.5649 0.2058 2.0387
-2.5732 -0.0013 2.0387
-2.5648 -0.2084 2.0387
-2.5398 -0.4141 2.0387
-2.4983 -0.6171 2.0387
-2.4406 -0.8162 2.0387
-2.3671 -1.0100 2.0387
-2.2782 -1.1972 2.0387
-2.1745 -1.3767 2.0387
-0.7489 -0.5634 0.7424
-0.7011 -0.6218 0.7423
-0.6487 -0.6761 0.7421
-0.5921 -0.7260 0.7420
-0.5317 -0.7712 0.7419
-0.4679 -0.8114 0.7419
-0.4011 -0.8464 0.7418
-0.3316 -0.8758 0.7417
-0.2601 -0.8996 0.7417
-0.1868 -0.9176 0.7417
-0.1124 -0.9297 0.7416
-0.0372 -0.9357 0.7416
0.0382 -0.9356 0.7416
0.1134 -0.9295 0.7416
0.1878 -0.9174 0.7416
0.2610 -0.8994 0.7417
0.3325 -0.8755 0.7417
0.4019 -0.8460 0.7418
0.4688 -0.8110 0.7419
0.5325 -0.7707 0.7419
0.5929 -0.7254 0.7420
0.6494 -0.6755 0.7421
0.7017 -0.6211 0.7422
0.7496 -0.5627 0.7423
2.1761 -1.3746 2.0387
2.2796 -1.1950 2.0387
2.3683 -1.0077 2.0387
2.4417 -0.8138 2.0387
2.4992 -0.6147 2.0387
2.5405 -0.4116 2.0387
2.5653 -0.2058 2.0387
2.5735 0.0013 2.0387
2.5650 0.2084 2.0387
2.5398 0.4141 2.0387
2.4982 0.6171 2.0387
2.4404 0.8161 2.0387
2.3667 1.0098 2.0387
2.2777 1.1970 2.0387
2.1739 1.3764 2.0387
0.7510 0.5650 0.7446
0.7031 0.6236 0.7447
0.6508 0.6783 0.7448
0.5941 0.7286 0.7449
0.5336 0.7741 0.7450
0.4696 0.8146 0.7451
0.4026 0.8498 0.7452
0.3329 0.8795 0.7452
0.2611 0.9035 0.7453
0.1875 0.9216 0.7453
0.1127 0.9338 0.7453
0.0372 0.9398 0.7454
-0.0386 0.9397 0.7454
-0.1141 0.9336 0.7453
-0.1888 0.9213 0.7453
-0.2624 0.9031 0.7453
-0.3342 0.8790 0.7452
-0.4038 0.8492 0.7452
-0.4708 0.8139 0.7451
-0.5347 0.7733 0.7450
-0.5952 0.7277 0.7449
-0.6517 0.6773 0.7448
-0.7040 0.6226 0.7447
-0.7517 0.5638 0.7446
-2.1757 1.3731 2.0387
-2.2792 1.1936 2.0387
-2.3679 1.0063 2.0387
-2.4413 0.8125 2.0387
-2.4988 0.6134 2.0387
-2.5401 0.4103 2.0387
-2.5650 0.2045 2.0387
-2.5732 -0.0025 2.0387
-2.5647 -0.2096 2.0387
-2.5396 -0.4153 2.0387
-2.4980 -0.6184 2.0387
-2.4402 -0.8174 2.0387
-2.3666 -1.0111 2.0387
-2.2776 -1.1983 2.0387
-2.1738 -1.3778 2.0387
-0.7487 -0.5638 0.7424
-0.7008 -0.6221 0.7423
-0.6484 -0.6764 0.7421
-0.5918 -0.7263 0.7420
-0.5313 -0.7715 0.7419
-0.4675 -0.8117 0.7419
-0.4006 -0.8466 0.7418
-0.3312 -0.8760 0.7417
-0.2596 -0.8998 0.7417
-0.1864 -0.9177 0.7417
-0.1119 -0.9297 0.7416
-0.0368 -0.9357 0.7416
0.0386 -0.9356 0.7416
0.1138 -0.9295 0.7416
0.1882 -0.9173 0.7416
0.2614 -0.8993 0.7417
0.3330 -0.8754 0.7417
0.4024 -0.8458 0.7418
0.4691 -0.8107 0.7419
0.5329 -0.7704 0.7419
0.5932 -0.7251 0.7420
0.6497 -0.6751 0.7421
0.7021 -0.6207 0.7422
0.7498 -0.5623 0.7423
2.1768 -1.3735 2.0387
2.2802 -1.1939 2.0387
2.3688 -1.0065 2.0387
2.4421 -0.8126 2.0387
2.4995 -0.6135 2.0387
2.5407 -0.4103 2.0387
2.5654 -0.2046 2.0387
2.5735 0.0025 2.0387
2.5649 0.2096 2.0387
2.5396 0.4153 2.0387
2.4979 0.6183 2.0387
2.4400 0.8173 2.0387
2.3662 1.0110 2.0387
2.2771 1.1981 2.0387
2.1733 1.3775 2.0387
0.7507 0.5653 0.7446
0.7028 0.6240 0.7447
0.6504 0.6786 0.7448
0.5021 -0.7282 0.7420
0.5592 -0.6855 0.7421
0.6126 -0.6384 0.7422
0.6620 -0.5871 0.7423
0.7072 -0.5320 0.7424
0.7478 -0.4734 0.7425
0.7836 -0.4118 0.7426
2.2351 -0.9536 2.0387
2.3045 -0.7706 2.0387
2.3590 -0.5827 2.0387
2.3982 -0.3910 2.0387
2.4218 -0.1967 2.0387
2.4297 -0.0012 2.0387
2.4219 0.1943 2.0387
2.3983 0.3886 2.0387
