ply
format ascii 1.0
element vertex 2176
property float32 x
property float32 y
property float32 z
end_header
-6.2459 2.0292 1.8861
-6.3873 1.5206 1.8861
-6.4880 1.0024 1.8861
-6.5473 0.4779 1.8861
-6.5649 -0.0496 1.8861
-6.5406 -0.5769 1.8861
-6.4747 -1.1007 1.8861
-6.3675 -1.6178 1.8861
-6.7222 -2.2967 2.0385
-6.5193 -2.8307 2.0385
-6.2746 -3.3472 2.0385
-5.9896 -3.8430 2.0385
-5.6659 -4.3149 2.0385
-5.3054 -4.7599 2.0385
-4.9104 -5.1752 2.0385
-4.4833 -5.5581 2.0385
-4.0266 -5.9060 2.0385
-3.5431 -6.2168 2.0385
-3.0360 -6.4883 2.0385
-2.5082 -6.7187 2.0385
-1.9631 -6.9063 2.0385
-1.4041 -7.0499 2.0385
-0.8348 -7.1484 2.0385
-0.2588 -7.2009 2.0385
0.3202 -7.2070 2.0385
0.8985 -7.1666 2.0385
1.4722 -7.0796 2.0385
2.0377 -6.9466 2.0385
2.5912 -6.7683 2.0385
3.1291 -6.5456 2.0385
3.6476 -6.2800 2.0385
4.1435 -5.9730 2.0385
4.6132 -5.6266 2.0385
4.9673 -5.1533 2.0037
5.0572 -4.4670 1.8875
5.3990 -4.0471 1.8861
5.7095 -3.6034 1.8861
5.9831 -3.1357 1.8861
6.2179 -2.6471 1.8861
6.4123 -2.1409 1.8861
6.5649 -1.6204 1.8861
6.6746 -1.0891 1.8861
6.7408 -0.5506 1.8861
6.7629 -0.0085 1.8861
6.7409 0.5335 1.8861
6.6748 1.0719 1.8861
6.5652 1.6030 1.8861
6.4128 2.1232 1.8861
6.2188 2.6291 1.8861
5.9844 3.1173 1.8861
5.9115 3.7103 1.9523
5.8378 4.3534 2.0385
5.4654 4.8035 2.0385
5.0581 5.2216 2.0385
4.6186 5.6050 2.0385
4.1501 5.9513 2.0385
3.6555 6.2583 2.0385
3.1382 6.5242 2.0385
2.6018 6.7472 2.0385
2.0498 6.9261 2.0385
1.4857 7.0599 2.0385
0.9134 7.1478 2.0385
0.3364 7.1895 2.0385
-0.2413 7.1847 2.0385
-0.8162 7.1337 2.0385
-1.3846 7.0370 2.0385
-1.9428 6.8954 2.0385
-2.4873 6.7098 2.0385
-3.0148 6.4815 2.0385
-3.5219 6.2123 2.0385
-3.9941 5.8869 2.0327
-4.1291 5.1425 1.8861
-4.5250 4.7904 1.8861
-4.8914 4.4081 1.8861
-5.2261 3.9983 1.8861
-5.5270 3.5634 1.8861
-5.7924 3.1063 1.8861
-6.0206 2.6299 1.8861
-6.2103 2.1370 1.8861
-6.3603 1.6308 1.8861
-6.4698 1.1144 1.8861
-6.5380 0.5910 1.8861
-6.5646 0.0639 1.8861
-6.5494 -0.4638 1.8861
-6.4924 -0.9886 1.8861
-6.3940 -1.5074 1.8861
-6.7602 -2.1800 2.0385
-6.5665 -2.7173 2.0385
-6.3307 -3.2379 2.0385
-6.0542 -3.7384 2.0385
-5.7386 -4.2156 2.0385
-5.3859 -4.6667 2.0385
-4.9981 -5.0886 2.0385
-4.5776 -5.4786 2.0385
-4.1271 -5.8343 2.0385
-3.6492 -6.1533 2.0385
-3.1468 -6.4334 2.0385
-2.6232 -6.6727 2.0385
-2.0815 -6.8697 2.0385
-1.5252 -7.0228 2.0385
-0.9578 -7.1310 2.0385
-0.3829 -7.1935 2.0385
0.1957 -7.2096 2.0385
0.7745 -7.1792 2.0385
1.3495 -7.1022 2.0385
1.9171 -6.9791 2.0385
2.4735 -6.8104 2.0385
3.0149 -6.5971 2.0385
3.5380 -6.3406 2.0385
4.0390 -6.0424 2.0385
4.5146 -5.7042 2.0385
4.9617 -5.3284 2.0385
4.9751 -4.5496 1.8861
5.3276 -4.1390 1.8861
5.6458 -3.7009 1.8861
5.9275 -3.2381 1.8861
6.1708 -2.7538 1.8861
6.3740 -2.2510 1.8861
6.5356 -1.7333 1.8861
6.6547 -1.2040 1.8861
6.7303 -0.6668 1.8861
6.7619 -0.1251 1.8861
6.7493 0.4172 1.8861
6.6927 0.9567 1.8861
6.5924 1.4896 1.8861
6.4491 2.0125 1.8861
6.2639 2.5218 1.8861
6.0381 3.0141 1.8861
5.8827 3.5523 1.9219
5.9131 4.2528 2.0385
5.5485 4.7094 2.0385
5.1485 5.1346 2.0385
4.7157 5.5257 2.0385
4.2531 5.8801 2.0385
3.7638 6.1958 2.0385
3.2511 6.4706 2.0385
2.7186 6.7030 2.0385
2.1695 6.8915 2.0385
1.6078 7.0350 2.0385
1.0369 7.1328 2.0385
0.4606 7.1844 2.0385
-0.1173 7.1896 2.0385
-0.6931 7.1486 2.0385
-1.2632 7.0617 2.0385
-1.8239 6.9296 2.0385
-2.3716 6.7533 2.0385
-2.9031 6.5341 2.0385
-3.4148 6.2735 2.0385
-3.9038 5.9733 2.0385
-4.0404 5.2141 1.8861
-4.4423 4.8687 1.8861
-4.8153 4.4927 1.8861
-5.1570 4.0885 1.8861
-5.4653 3.6589 1.8861
-5.7385 3.2063 1.8861
-5.9748 2.7338 1.8861
-6.1729 2.2442 1.8861
-6.3315 1.7406 1.8861
-6.4497 1.2261 1.8861
-6.5269 0.7039 1.8861
-6.5624 0.1773 1.8861
-6.5562 -0.3505 1.8861
-6.5082 -0.8762 1.8861
-6.4186 -1.3966 1.8861
-6.2881 -1.9085 1.8861
-6.6117 -2.6032 2.0385
-6.3848 -3.1276 2.0385
-6.1169 -3.6326 2.0385
-5.8096 -4.1152 2.0385
-5.4647 -4.5721 2.0385
-5.0843 -5.0005 2.0385
-4.6706 -5.3976 2.0385
-4.2263 -5.7609 2.0385
-3.7540 -6.0879 2.0385
-3.2567 -6.3766 2.0385
-2.7373 -6.6248 2.0385
-2.1993 -6.8310 2.0385
-1.6458 -6.9937 2.0385
-1.0805 -7.1116 2.0385
-0.5069 -7.1840 2.0385
0.0712 -7.2101 2.0385
0.6503 -7.1897 2.0385
1.2264 -7.1227 2.0385
1.7959 -7.0094 2.0385
2.3550 -6.8504 2.0385
2.9000 -6.6467 2.0385
3.4273 -6.3993 2.0385
3.9333 -6.1099 2.0385
4.4147 -5.7802 2.0385
4.8682 -5.4122 2.0385
4.9195 -4.6571 1.8955
5.2547 -4.2297 1.8861
5.5805 -3.7972 1.8861
5.8702 -3.3395 1.8861
6.1219 -2.8595 1.8861
6.3338 -2.3604 1.8861
6.5045 -1.8457 1.8861
6.6327 -1.3186 1.8861
6.7177 -0.7827 1.8861
6.7588 -0.2417 1.8861
6.7557 0.3008 1.8861
6.7086 0.8412 1.8861
6.6176 1.3758 1.8861
6.4835 1.9012 1.8861
6.3072 2.4137 1.8861
6.0900 2.9099 1.8861
5.8604 3.4023 1.8949
5.9865 4.1509 2.0385
5.6299 4.6138 2.0385
5.2373 5.0460 2.0385
4.8113 5.4446 2.0385
4.3548 5.8072 2.0385
3.8710 6.1313 2.0385
3.3631 6.4151 2.0385
2.8345 6.6567 2.0385
2.2887 6.8547 2.0385
1.7294 7.0080 2.0385
1.1601 7.1157 2.0385
0.5847 7.1773 2.0385
0.0069 7.1924 2.0385
-0.5697 7.1613 2.0385
-1.1413 7.0842 2.0385
-1.7043 6.9617 2.0385
-2.2552 6.7948 2.0385
-2.7904 6.5848 2.0385
-3.3067 6.3329 2.0385
-3.8008 6.0410 2.0385
-3.9505 5.2841 1.8861
-4.3583 4.9455 1.8861
-4.7377 4.5759 1.8861
-5.0863 4.1776 1.8861
-5.4019 3.7532 1.8861
-5.6828 3.3054 1.8861
-5.9272 2.8369 1.8861
-6.1336 2.3507 1.8861
-6.3008 1.8498 1.8861
-6.4278 1.3374 1.8861
-6.5138 0.8166 1.8861
-6.5583 0.2907 1.8861
-6.5610 -0.2371 1.8861
-6.5220 -0.7636 1.8861
-6.4413 -1.2854 1.8861
-6.3196 -1.7993 1.8861
-6.6550 -2.4882 2.0385
-6.4371 -3.0164 2.0385
-6.1779 -3.5259 2.0385
-5.8789 -4.0135 2.0385
-5.5419 -4.4762 2.0385
-5.1689 -4.9110 2.0385
-4.7622 -5.3151 2.0385
-4.3243 -5.6858 2.0385
-3.8577 -6.0208 2.0385
-3.3655 -6.3179 2.0385
-2.8506 -6.5749 2.0385
-2.3163 -6.7903 2.0385
-1.7659 -6.9624 2.0385
-1.2028 -7.0901 2.0385
-0.6307 -7.1723 2.0385
-0.0532 -7.2084 2.0385
0.5260 -7.1980 2.0385
1.1030 -7.1410 2.0385
1.6743 -7.0376 2.0385
2.2359 -6.8884 2.0385
2.7843 -6.6942 2.0385
3.3157 -6.4561 2.0385
3.8266 -6.1755 2.0385
4.3135 -5.8543 2.0385
4.7733 -5.4944 2.0385
4.9298 -4.8308 1.9316
5.1802 -4.3190 1.8861
5.5134 -3.8924 1.8861
5.8111 -3.4398 1.8861
6.0711 -2.9644 1.8861
6.2917 -2.4691 1.8861
6.4713 -1.9574 1.8861
6.6088 -1.4327 1.8861
6.7031 -0.8984 1.8861
6.7537 -0.3582 1.8861
6.7601 0.1843 1.8861
6.7224 0.7254 1.8861
6.6408 1.2616 1.8861
6.5159 1.7892 1.8861
6.3486 2.3048 1.8861
6.1401 2.8048 1.8861
5.8917 3.2859 1.8861
5.9637 3.9845 2.0067
5.7097 4.5168 2.0385
5.3246 4.9558 2.0385
4.9055 5.3619 2.0385
4.4553 5.7324 2.0385
3.9772 6.0650 2.0385
3.4741 6.3576 2.0385
2.9497 6.6084 2.0385
2.4073 6.8159 2.0385
1.8506 6.9789 2.0385
1.2831 7.0964 2.0385
0.7087 7.1679 2.0385
0.1311 7.1931 2.0385
-0.4461 7.1719 2.0385
-1.0191 7.1046 2.0385
-1.5842 6.9918 2.0385
-5.6727 1.7354 1.8861
-5.7927 1.2738 1.8861
-5.8757 0.8041 1.8861
-5.9212 0.3294 1.8861
-5.9290 -0.1474 1.8861
-5.8989 -0.6233 1.8861
-5.8312 -1.0955 1.8861
-5.7262 -1.5610 1.8861
-5.5845 -2.0168 1.8861
-5.8440 -2.6588 2.0385
-5.6147 -3.1215 2.0385
-5.3492 -3.5647 2.0385
-5.0492 -3.9856 2.0385
-4.7164 -4.3817 2.0385
-4.3529 -4.7502 2.0385
-3.9609 -5.0890 2.0385
-3.5428 -5.3956 2.0385
-3.1012 -5.6682 2.0385
-2.6388 -5.9049 2.0385
-2.1586 -6.1040 2.0385
-1.6634 -6.2643 2.0385
-1.1565 -6.3845 2.0385
-0.6412 -6.4638 2.0385
-0.1205 -6.5015 2.0385
0.4019 -6.4973 2.0385
0.9229 -6.4511 2.0385
1.4390 -6.3631 2.0385
1.9468 -6.2336 2.0385
2.4429 -6.0635 2.0385
2.9241 -5.8537 2.0385
3.3873 -5.6055 2.0385
3.8292 -5.3205 2.0385
4.2469 -5.0004 2.0385
4.6376 -4.6473 2.0385
4.8332 -4.1223 1.9711
4.9293 -3.5635 1.8861
5.2019 -3.1585 1.8861
5.4408 -2.7327 1.8861
5.6445 -2.2886 1.8861
5.8115 -1.8294 1.8861
5.9406 -1.3580 1.8861
6.0310 -0.8776 1.8861
6.0821 -0.3914 1.8861
6.0936 0.0973 1.8861
6.0653 0.5853 1.8861
5.9974 1.0693 1.8861
5.8905 1.5461 1.8861
5.7453 2.0125 1.8861
5.6547 2.5061 1.9173
5.7693 3.1325 2.0362
5.5025 3.5868 2.0385
5.1935 4.0135 2.0385
4.8512 4.4135 2.0385
4.4780 4.7843 2.0385
4.0763 5.1234 2.0385
3.6489 5.4287 2.0385
3.1986 5.6982 2.0385
2.7284 5.9304 2.0385
2.2416 6.1237 2.0385
1.7412 6.2771 2.0385
1.2307 6.3896 2.0385
0.7132 6.4607 2.0385
0.1923 6.4899 2.0385
-0.3288 6.4773 2.0385
-0.8467 6.4231 2.0385
-1.3582 6.3277 2.0385
-1.8598 6.1919 2.0385
-2.3486 6.0165 2.0385
-2.8213 5.8029 2.0385
-3.2752 5.5525 2.0385
-3.7073 5.2670 2.0385
-3.9408 4.7388 1.9522
-4.1597 4.2546 1.8861
-4.4849 3.9040 1.8861
-4.7811 3.5290 1.8861
-5.0464 3.1318 1.8861
-5.2793 2.7151 1.8861
-5.4783 2.2813 1.8861
-5.6422 1.8333 1.8861
-5.7700 1.3737 1.8861
-5.8610 0.9056 1.8861
-5.9146 0.4317 1.8861
-5.9305 -0.0449 1.8861
-5.9085 -0.5213 1.8861
-5.8489 -0.9945 1.8861
-5.7518 -1.4616 1.8861
-5.6180 -1.9198 1.8861
-5.8884 -2.5572 2.0385
-5.6671 -3.0236 2.0385
-5.4093 -3.4712 2.0385
-5.1165 -3.8972 2.0385
-4.7906 -4.2988 2.0385
-4.4335 -4.6735 2.0385
-4.0475 -5.0188 2.0385
-3.6348 -5.3325 2.0385
-3.1980 -5.6126 2.0385
-2.7398 -5.8571 2.0385
-2.2631 -6.0644 2.0385
-1.7709 -6.2332 2.0385
-1.2663 -6.3621 2.0385
-0.7525 -6.4502 2.0385
-0.2327 -6.4969 2.0385
0.2897 -6.5018 2.0385
0.8112 -6.4646 2.0385
1.3287 -6.3854 2.0385
1.8385 -6.2649 2.0385
2.3374 -6.1034 2.0385
2.8221 -5.9021 2.0385
3.2894 -5.6620 2.0385
3.7361 -5.3847 2.0385
4.1593 -5.0720 2.0385
4.5561 -4.7259 2.0385
4.8465 -4.2802 2.0066
4.8665 -3.6475 1.8861
5.1461 -3.2474 1.8861
5.3924 -2.8258 1.8861
5.6038 -2.3854 1.8861
5.7787 -1.9292 1.8861
5.9161 -1.4602 1.8861
6.0149 -0.9814 1.8861
6.0745 -0.4962 1.8861
6.0945 -0.0077 1.8861
6.0747 0.4807 1.8861
6.0153 0.9658 1.8861
5.9167 1.4444 1.8861
5.7797 1.9133 1.8861
5.6357 2.3822 1.8964
5.7437 2.9915 2.0084
5.5643 3.4918 2.0385
5.2628 3.9240 2.0385
4.9275 4.3299 2.0385
4.5607 4.7072 2.0385
4.1649 5.0533 2.0385
3.7427 5.3660 2.0385
3.2971 5.6434 2.0385
2.8310 5.8837 2.0385
2.3475 6.0855 2.0385
1.8497 6.2475 2.0385
1.3411 6.3689 2.0385
0.8248 6.4489 2.0385
0.3043 6.4872 2.0385
-0.2170 6.4836 2.0385
-0.7359 6.4383 2.0385
-1.2490 6.3517 2.0385
-1.7530 6.2244 2.0385
-2.2448 6.0575 2.0385
-2.7212 5.8520 2.0385
-3.1794 5.6094 2.0385
-3.6164 5.3313 2.0385
-3.9181 4.8806 1.9821
-4.0862 4.3265 1.8861
-4.4174 3.9815 1.8861
-4.7200 3.6116 1.8861
-4.9921 3.2189 1.8861
-5.2321 2.8062 1.8861
-5.4384 2.3758 1.8861
-5.6100 1.9306 1.8861
-5.7457 1.4733 1.8861
-5.8446 1.0068 1.8861
-5.9063 0.5339 1.8861
-5.9303 0.0576 1.8861
-5.9164 -0.4191 1.8861
-5.8649 -0.8932 1.8861
-5.7758 -1.3619 1.8861
-5.6498 -1.8222 1.8861
-5.9311 -2.4548 2.0385
-5.7178 -2.9248 2.0385
-5.4677 -3.3767 2.0385
-5.1823 -3.8076 2.0385
-4.8634 -4.2147 2.0385
-4.5128 -4.5953 2.0385
-4.1328 -4.9472 2.0385
-3.7256 -5.2679 2.0385
-3.2937 -5.5553 2.0385
-2.8399 -5.8076 2.0385
-2.3670 -6.0231 2.0385
-1.8779 -6.2002 2.0385
-1.3756 -6.3378 2.0385
-0.8635 -6.4348 2.0385
-0.3447 -6.4904 2.0385
0.1774 -6.5043 2.0385
0.6994 -6.4761 2.0385
1.2180 -6.4060 2.0385
1.7297 -6.2943 2.0385
2.2313 -6.1415 2.0385
2.7193 -5.9486 2.0385
3.1906 -5.7168 2.0385
3.6420 -5.4474 2.0385
4.0705 -5.1421 2.0385
4.4732 -4.8030 2.0385
4.8473 -4.4321 2.0385
4.8210 -3.7449 1.8935
5.0888 -3.3353 1.8861
5.3424 -2.9181 1.8861
5.5614 -2.4815 1.8861
5.7443 -2.0284 1.8861
5.8898 -1.5619 1.8861
5.9970 -1.0850 1.8861
6.0650 -0.6009 1.8861
6.0935 -0.1128 1.8861
6.0823 0.3759 1.8861
6.0314 0.8620 1.8861
5.9412 1.3423 1.8861
5.8123 1.8135 1.8861
5.6457 2.2725 1.8861
5.7187 2.8542 1.9819
5.6245 3.3958 2.0385
5.3305 3.8332 2.0385
5.0023 4.2450 2.0385
4.6420 4.6287 2.0385
4.2522 4.9817 2.0385
3.8355 5.3018 2.0385
3.3947 5.5869 2.0385
2.9327 5.8353 2.0385
2.4527 6.0455 2.0385
1.9577 6.2161 2.0385
1.4512 6.3463 2.0385
0.9363 6.4352 2.0385
0.4164 6.4825 2.0385
-0.1051 6.4879 2.0385
-0.6247 6.4515 2.0385
-1.1394 6.3737 2.0385
-1.6456 6.2551 2.0385
-2.1403 6.0966 2.0385
-2.6203 5.8993 2.0385
-3.0826 5.6646 2.0385
-3.5244 5.3939 2.0385
-3.8946 5.0269 2.0136
-4.0114 4.3971 1.8861
-4.3486 4.0578 1.8861
-4.6575 3.6931 1.8861
-4.9363 3.3051 1.8861
-5.1833 2.8964 1.8861
-5.3970 2.4697 1.8861
-5.5761 2.0274 1.8861
-5.7196 1.5725 1.8861
-5.8265 1.1077 1.8861
-5.8962 0.6359 1.8861
-5.9283 0.1601 1.8861
-5.9226 -0.3167 1.8861
-5.8791 -0.7917 1.8861
-5.7981 -1.2618 1.8861
-5.6800 -1.7242 1.8861
-5.9720 -2.3517 2.0385
-5.7668 -2.8253 2.0385
-5.5245 -3.2813 2.0385
-5.2465 -3.7169 2.0385
-4.9346 -4.1293 2.0385
-4.5907 -4.5159 2.0385
-4.2168 -4.8741 2.0385
-3.8152 -5.2017 2.0385
-3.3885 -5.4965 2.0385
-2.9392 -5.7565 2.0385
-2.4701 -5.9800 2.0385
-1.9842 -6.1655 2.0385
-1.4845 -6.3116 2.0385
-0.9742 -6.4174 2.0385
-0.4566 -6.4820 2.0385
0.0651 -6.5048 2.0385
0.5874 -6.4857 2.0385
1.1070 -6.4246 2.0385
1.6205 -6.3218 2.0385
2.1245 -6.1778 2.0385
2.6157 -5.9934 2.0385
3.0909 -5.7698 2.0385
3.5468 -5.5084 2.0385
3.9805 -5.2107 2.0385
4.3889 -4.8786 2.0385
4.7694 -4.5143 2.0385
4.8212 -3.8802 1.9198
5.0299 -3.4222 1.8861
5.2908 -3.0095 1.8861
5.5173 -2.5768 1.8861
5.7081 -2.1270 1.8861
5.8617 -1.6631 1.8861
5.9772 -1.1882 1.8861
6.0537 -0.7053 1.8861
6.0908 -0.2179 1.8861
6.0881 0.2710 1.8861
6.0457 0.7579 1.8861
5.9639 1.2397 1.8861
5.8432 1.7132 1.8861
5.6846 2.1751 1.8861
5.6942 2.7203 1.9566
5.6830 3.2988 2.0385
5.3967 3.7413 2.0385
5.0756 4.1588 2.0385
4.7220 4.5488 2.0385
4.3384 4.9085 2.0385
3.9272 5.2359 2.0385
3.4913 5.5287 2.0385
3.0337 5.7851 2.0385
2.5572 6.0036 2.0385
2.0652 6.1828 2.0385
1.5608 6.3218 2.0385
1.0474 6.4196 2.0385
0.5284 6.4759 2.0385
0.0070 6.4902 2.0385
-0.5134 6.4628 2.0385
-1.0294 6.3939 2.0385
-1.5377 6.2840 2.0385
-2.0351 6.1340 2.0385
-2.5185 5.9449 2.0385
-2.9849 5.7181 2.0385
-3.4313 5.4550 2.0385
-3.8551 5.1575 2.0385
-3.9767 4.5132 1.9059
-4.2784 4.1330 1.8861
-4.5936 3.7735 1.8861
-4.8790 3.3903 1.8861
-5.1330 2.9859 1.8861
-5.3539 2.5628 1.8861
-5.5406 2.1236 1.8861
-5.6918 1.6712 1.8861
-5.8066 1.2083 1.8861
-5.8844 0.7378 1.8861
-5.9246 0.2626 1.8861
-5.9270 -0.2143 1.8861
-5.8916 -0.6899 1.8861
-5.8187 -1.1613 1.8861
-5.7085 -1.6256 1.8861
-5.5618 -2.0798 1.8861
-5.8141 -2.7249 2.0385
-5.5796 -3.1849 2.0385
-5.3092 -3.6252 2.0385
-5.0044 -4.0428 2.0385
-4.6672 -4.4351 2.0385
-4.2996 -4.7996 2.0385
-3.9038 -5.1340 2.0385
-3.4822 -5.4360 2.0385
-3.0375 -5.7036 2.0385
-2.5724 -5.9351 2.0385
-2.0899 -6.1289 2.0385
-1.5929 -6.2836 2.0385
-1.0846 -6.3981 2.0385
-0.5683 -6.4716 2.0385
-0.0472 -6.5035 2.0385
0.4752 -6.4934 2.0385
0.9957 -6.4413 2.0385
1.5108 -6.3474 2.0385
2.0172 -6.2121 2.0385
2.5114 -6.0364 2.0385
2.9903 -5.8211 2.0385
3.4506 -5.5677 2.0385
3.8893 -5.2776 2.0385
4.3034 -4.9528 2.0385
4.6901 -4.5952 2.0385
4.8280 -4.0248 1.9501
4.9696 -3.5080 1.8861
5.2375 -3.1000 1.8861
5.4716 -2.6714 1.8861
5.6702 -2.2250 1.8861
5.8319 -1.7639 1.8861
5.9557 -1.2910 1.8861
6.0406 -0.8096 1.8861
6.0862 -0.3229 1.8861
6.0920 0.1660 1.8861
6.0581 0.6536 1.8861
5.9847 1.1368 1.8861
5.8724 1.6123 1.8861
5.7319 2.0806 1.8894
5.6701 2.5897 1.9325
5.7398 3.2007 2.0385
5.4612 3.6482 2.0385
5.1474 4.0713 2.0385
4.8007 4.4674 2.0385
4.4232 4.8339 2.0385
4.0178 5.1684 2.0385
3.5870 5.4687 2.0385
3.1337 5.7331 2.0385
2.6610 5.9599 2.0385
2.1721 6.1477 2.0385
1.6701 6.2954 2.0385
1.1584 6.4021 2.0385
0.6402 6.4673 2.0385
0.1190 6.4907 2.0385
-0.4018 6.4722 2.0385
-0.9190 6.4122 2.0385
-1.4292 6.3111 2.0385
-5.1645 1.5801 1.8861
-5.2739 1.1598 1.8861
-5.3495 0.7322 1.8861
-5.3909 0.2999 1.8861
-5.3979 -0.1342 1.8861
-5.3705 -0.5676 1.8861
-5.3087 -0.9975 1.8861
-5.2130 -1.4213 1.8861
-5.0838 -1.8362 1.8861
-4.9221 -2.2398 1.8861
-5.1108 -2.8418 2.0385
-4.8689 -3.2451 2.0385
-4.5955 -3.6281 2.0385
-4.2923 -3.9884 2.0385
-3.9612 -4.3236 2.0385
-3.6041 -4.6315 2.0385
-3.2234 -4.9102 2.0385
-2.8213 -5.1579 2.0385
-2.4003 -5.3728 2.0385
-0.7145 -2.0212 0.7419
-1.5125 -5.6988 2.0385
-1.0513 -5.8076 2.0385
-0.5824 -5.8792 2.0385
-0.1089 -5.9130 2.0385
0.3662 -5.9087 2.0385
0.8399 -5.8661 2.0385
1.3091 -5.7856 2.0385
1.7706 -5.6674 2.0385
2.2215 -5.5122 2.0385
2.6588 -5.3211 2.0385
3.0795 -5.0951 2.0385
3.4809 -4.8357 2.0385
3.8603 -4.5445 2.0385
4.2152 -4.2233 2.0385
4.5430 -3.8743 2.0385
4.7677 -3.4461 2.0074
4.7527 -2.8854 1.8963
4.9441 -2.4829 1.8861
5.1290 -2.0794 1.8861
5.2806 -1.6621 1.8861
5.3978 -1.2338 1.8861
5.4799 -0.7973 1.8861
5.5263 -0.3556 1.8861
5.5367 0.0884 1.8861
5.5111 0.5317 1.8861
5.4495 0.9715 1.8861
5.4229 1.4231 1.9109
5.5149 1.9315 1.9924
5.4636 2.4210 2.0385
5.2492 2.8496 2.0385
5.0009 3.2593 2.0385
4.7204 3.6473 2.0385
4.4097 4.0111 2.0385
4.0707 4.3484 2.0385
3.7059 4.6569 2.0385
3.3177 4.9348 2.0385
2.9086 5.1803 2.0385
2.4814 5.3918 2.0385
2.0389 5.5680 2.0385
1.5841 5.7080 2.0385
1.1199 5.8108 2.0385
0.6494 5.8760 2.0385
0.1756 5.9031 2.0385
-0.2984 5.8922 2.0385
-0.7696 5.8434 2.0385
-1.2350 5.7571 2.0385
-1.6915 5.6340 2.0385
-2.1365 5.4749 2.0385
-2.5669 5.2809 2.0385
-2.9801 5.0535 2.0385
-3.3736 4.7939 2.0385
-3.7450 4.5041 2.0385
-4.0093 4.1014 1.9974
-4.0969 3.5668 1.8929
-4.3521 3.2128 1.8861
-4.5938 2.8513 1.8861
-4.8060 2.4720 1.8861
-4.9873 2.0771 1.8861
-5.1367 1.6692 1.8861
-5.2532 1.2508 1.8861
-5.3361 0.8245 1.8861
-5.3849 0.3931 1.8861
-5.3993 -0.0409 1.8861
-5.3793 -0.4747 1.8861
-5.3249 -0.9056 1.8861
-5.2364 -1.3309 1.8861
-5.1144 -1.7479 1.8861
-4.9596 -2.1541 1.8861
-5.1586 -2.7527 2.0385
-4.9236 -3.1601 2.0385
-4.6568 -3.5476 2.0385
-4.3599 -3.9130 2.0385
-4.0346 -4.2537 2.0385
-3.6829 -4.5677 2.0385
-3.3071 -4.8529 2.0385
-2.9093 -5.1073 2.0385
-2.4922 -5.3294 2.0385
-0.7493 -2.0085 0.7421
-1.6104 -5.6706 2.0385
-1.1512 -5.7874 2.0385
-0.6837 -5.8670 2.0385
-0.2109 -5.9090 2.0385
0.2641 -5.9129 2.0385
0.7384 -5.8785 2.0385
1.2088 -5.8061 2.0385
1.6722 -5.6959 2.0385
0.7677 -2.0038 0.7362
2.5661 -5.3652 2.0385
2.9907 -5.1465 2.0385
3.3964 -4.8942 2.0385
3.7808 -4.6096 2.0385
4.1411 -4.2947 2.0385
4.4750 -3.9515 2.0385
4.7737 -3.5774 2.0358
4.7522 -2.9985 1.9167
4.9002 -2.5676 1.8861
5.0920 -2.1674 1.8861
5.2509 -1.7528 1.8861
5.3755 -1.3266 1.8861
5.4653 -0.8917 1.8861
5.5194 -0.4508 1.8861
5.5375 -0.0071 1.8861
5.5196 0.4367 1.8861
5.4658 0.8774 1.8861
5.4081 1.3200 1.8973
5.4938 1.8184 1.9730
5.5051 2.3267 2.0385
5.2982 2.7590 2.0385
5.0571 3.1730 2.0385
4.7833 3.5659 2.0385
4.4789 3.9351 2.0385
4.1458 4.2783 2.0385
3.7864 4.5932 2.0385
3.4029 4.8778 2.0385
2.9981 5.1303 2.0385
2.5746 5.3493 2.0385
2.1351 5.5332 2.0385
1.6827 5.6810 2.0385
1.2203 5.7919 2.0385
0.7509 5.8652 2.0385
0.2775 5.9005 2.0385
-0.1967 5.8978 2.0385
-0.6687 5.8571 2.0385
-1.1356 5.7788 2.0385
-1.5943 5.6635 2.0385
-2.0419 5.5120 2.0385
-2.4758 5.3255 2.0385
-2.8929 5.1051 2.0385
-3.2909 4.8523 2.0385
-3.6672 4.5689 2.0385
-3.9895 4.2248 2.0234
-4.0749 3.6733 1.9115
-4.2964 3.2879 1.8861
-4.5443 2.9306 1.8861
-4.7630 2.5549 1.8861
-4.9510 2.1631 1.8861
-5.1073 1.7578 1.8861
-5.2310 1.3415 1.8861
-5.3211 0.9167 1.8861
-5.3773 0.4861 1.8861
-5.3992 0.0524 1.8861
-5.3865 -0.3816 1.8861
-5.3394 -0.8133 1.8861
-5.2582 -1.2401 1.8861
-5.1434 -1.6591 1.8861
-4.9956 -2.0679 1.8861
-5.2048 -2.6628 2.0385
-4.9768 -3.0741 2.0385
-4.7168 -3.4661 2.0385
-4.4262 -3.8365 2.0385
-4.1068 -4.1827 2.0385
-3.7606 -4.5026 2.0385
-3.3898 -4.7941 2.0385
-2.9965 -5.0553 2.0385
-2.5834 -5.2845 2.0385
-0.7839 -1.9953 0.7422
-1.7077 -5.6408 2.0385
-1.2507 -5.7654 2.0385
-0.7847 -5.8531 2.0385
-0.3128 -5.9032 2.0385
0.1620 -5.9152 2.0385
0.6367 -5.8891 2.0385
1.1082 -5.8248 2.0385
1.5734 -5.7227 2.0385
0.7329 -2.0167 0.7363
2.4727 -5.4076 2.0385
2.9009 -5.1964 2.0385
3.3110 -4.9512 2.0385
3.7001 -4.6734 2.0385
4.0658 -4.3649 2.0385
4.4056 -4.0276 2.0385
4.7170 -3.6637 2.0385
4.7558 -3.1166 1.9397
4.8547 -2.6514 1.8861
5.0535 -2.2547 1.8861
5.2196 -1.8430 1.8861
5.3517 -1.4191 1.8861
5.4490 -0.9858 1.8861
5.5108 -0.5459 1.8861
5.5367 -0.1025 1.8861
5.5265 0.3415 1.8861
5.4804 0.7831 1.8861
5.3990 1.2196 1.8863
5.4730 1.7074 1.9545
5.5450 2.2316 2.0385
5.3456 2.6676 2.0385
5.1117 3.0857 2.0385
4.8448 3.4834 2.0385
4.5468 3.8579 2.0385
4.2197 4.2068 2.0385
3.8657 4.5280 2.0385
3.4872 4.8192 2.0385
3.0868 5.0788 2.0385
2.6670 5.3051 2.0385
2.2308 5.4967 2.0385
1.7809 5.6523 2.0385
1.3204 5.7712 2.0385
0.8522 5.8526 2.0385
0.3794 5.8961 2.0385
-0.0948 5.9016 2.0385
-0.5676 5.8690 2.0385
-1.0359 5.7987 2.0385
-1.4966 5.6914 2.0385
-1.9469 5.5476 2.0385
-2.3838 5.3685 2.0385
-2.8048 5.1552 2.0385
-3.2071 4.9093 2.0385
-3.5882 4.6323 2.0385
-3.9459 4.3260 2.0385
-4.0583 3.7876 1.9339
-4.2394 3.3620 1.8861
-4.4934 3.0090 1.8861
-4.7185 2.6370 1.8861
-4.9133 2.2485 1.8861
-5.0765 1.8459 1.8861
-5.2072 1.4317 1.8861
-5.3046 1.0085 1.8861
-5.3681 0.5790 1.8861
-5.3974 0.1458 1.8861
-5.3921 -0.2884 1.8861
-5.3524 -0.7209 1.8861
-5.2786 -1.1489 1.8861
-5.1709 -1.5699 1.8861
-5.0301 -1.9811 1.8861
-5.2494 -2.5722 2.0385
-5.0286 -2.9872 2.0385
-4.7753 -3.3836 2.0385
-4.4911 -3.7588 2.0385
-4.1778 -4.1104 2.0385
-3.8372 -4.4362 2.0385
-3.4714 -4.7340 2.0385
-3.0828 -5.0018 2.0385
-2.6737 -5.2380 2.0385
-2.2467 -5.4410 2.0385
-1.8045 -5.6092 2.0385
-1.3497 -5.7417 2.0385
-0.8855 -5.8374 2.0385
-0.4146 -5.8956 2.0385
0.0599 -5.9159 2.0385
0.5349 -5.8979 2.0385
1.0073 -5.8419 2.0385
1.4741 -5.7478 2.0385
0.6980 -2.0289 0.7364
2.3786 -5.4484 2.0385
2.8103 -5.2447 2.0385
3.2245 -5.0067 2.0385
3.6184 -4.7358 2.0385
3.9893 -4.4337 2.0385
4.3349 -4.1024 2.0385
4.6526 -3.7440 2.0385
4.7593 -3.2376 1.9638
4.8079 -2.7345 1.8861
5.0135 -2.3413 1.8861
5.1867 -1.9326 1.8861
5.3262 -1.5110 1.8861
5.4310 -1.0795 1.8861
5.5005 -0.6409 1.8861
5.5342 -0.1980 1.8861
5.5317 0.2461 1.8861
5.4933 0.6885 1.8861
5.4191 1.1263 1.8861
5.4533 1.5986 1.9371
5.5504 2.1234 2.0266
5.3914 2.5753 2.0385
5.1648 2.9975 2.0385
4.9049 3.3998 2.0385
4.6134 3.7794 2.0385
4.2924 4.1341 2.0385
3.9440 4.4614 2.0385
3.5705 4.7593 2.0385
3.1746 5.0258 2.0385
2.7587 5.2594 2.0385
2.3258 5.4585 2.0385
1.8786 5.6220 2.0385
1.4201 5.7488 2.0385
0.9533 5.8383 2.0385
0.4813 5.8900 2.0385
0.0071 5.9036 2.0385
-0.4663 5.8792 2.0385
-0.9358 5.8170 2.0385
-1.3983 5.7175 2.0385
-1.8510 5.5815 2.0385
-2.2912 5.4099 2.0385
-2.7158 5.2039 2.0385
-3.1223 4.9648 2.0385
-3.5082 4.6943 2.0385
-3.8711 4.3942 2.0385
-4.0406 3.9038 1.9571
-4.1812 3.4352 1.8861
-4.4412 3.0865 1.8861
-4.6727 2.7185 1.8861
-4.8740 2.3333 1.8861
-5.0441 1.9335 1.8861
-5.1819 1.5216 1.8861
-5.2865 1.1001 1.8861
-5.3574 0.6717 1.8861
-5.3940 0.2390 1.8861
-5.3962 -0.1952 1.8861
-5.3639 -0.6282 1.8861
-5.2973 -1.0575 1.8861
-5.1968 -1.4801 1.8861
-5.0631 -1.8936 1.8861
-5.2925 -2.4808 2.0385
-5.0788 -2.8995 2.0385
-4.8324 -3.3001 2.0385
-4.5547 -3.6801 2.0385
-4.2475 -4.0370 2.0385
-3.9126 -4.3685 2.0385
-3.5520 -4.6724 2.0385
-3.1682 -4.9469 2.0385
-2.7632 -5.1900 2.0385
-2.3399 -5.4002 2.0385
-0.6916 -2.0291 0.7418
-1.4484 -5.7163 2.0385
-0.9859 -5.8200 2.0385
-0.5162 -5.8863 2.0385
-0.0422 -5.9147 2.0385
0.4329 -5.9050 2.0385
0.9061 -5.8571 2.0385
1.3744 -5.7712 2.0385
1.8346 -5.6478 2.0385
2.2838 -5.4875 2.0385
2.7189 -5.2914 2.0385
3.1371 -5.0607 2.0385
3.5356 -4.7967 2.0385
3.9117 -4.5011 2.0385
4.2629 -4.1759 2.0385
4.5868 -3.8232 2.0385
4.7638 -3.3623 1.9895
4.7595 -2.8167 1.8861
4.9720 -2.4272 1.8861
5.1523 -2.0216 1.8861
5.2991 -1.6026 1.8861
5.4115 -1.1730 1.8861
5.4886 -0.7356 1.8861
5.5300 -0.2934 1.8861
5.5353 0.1507 1.8861
5.5046 0.5938 1.8861
5.4380 1.0327 1.8861
5.4348 1.4919 1.9210
5.5288 2.0065 2.0056
5.4356 2.4822 2.0385
5.2164 2.9083 2.0385
4.9635 3.3151 2.0385
4.6786 3.6999 2.0385
4.3638 4.0601 2.0385
4.0210 4.3935 2.0385
3.6528 4.6978 2.0385
3.2614 4.9713 2.0385
2.8496 5.2120 2.0385
2.4201 5.4187 2.0385
1.9757 5.5899 2.0385
1.5194 5.7247 2.0385
1.0542 5.8222 2.0385
0.5830 5.8821 2.0385
0.1090 5.9039 2.0385
-0.3648 5.8876 2.0385
-0.8354 5.8335 2.0385
-1.2997 5.7420 2.0385
-4.7322 1.4479 1.8861
-4.8324 1.0628 1.8861
-4.9017 0.6709 1.8861
-4.9397 0.2748 1.8861
-4.9461 -0.1231 1.8861
-4.9209 -0.5202 1.8861
-4.8642 -0.9142 1.8861
-4.7764 -1.3025 1.8861
-4.6579 -1.6827 1.8861
-4.5975 -2.0924 1.9229
-4.6823 -2.6039 2.0385
-4.4604 -2.9733 2.0385
-4.2097 -3.3241 2.0385
-3.9317 -3.6540 2.0385
-3.6281 -3.9608 2.0385
-3.3008 -4.2427 2.0385
-2.9518 -4.4977 2.0385
-2.5833 -4.7242 2.0385
-2.1976 -4.9207 2.0385
-0.6542 -1.8513 0.7420
-0.5035 -1.8978 0.7414
-0.3495 -1.9322 0.7407
-0.1933 -1.9541 0.7400
-0.0359 -1.9635 0.7394
0.1217 -1.9603 0.7388
0.2787 -1.9445 0.7382
0.4338 -1.9163 0.7377
0.5863 -1.8757 0.7372
0.7350 -1.8231 0.7367
2.4337 -4.8694 2.0385
2.8186 -4.6623 2.0385
3.1857 -4.4246 2.0385
3.5326 -4.1579 2.0385
3.8571 -3.8639 2.0385
4.1568 -3.5444 2.0385
4.4299 -3.2015 2.0385
4.6744 -2.8375 2.0385
4.7331 -2.3767 1.9737
4.7887 -1.9412 1.9249
4.8552 -1.5281 1.8957
4.9379 -1.1286 1.8861
5.0129 -0.7293 1.8861
5.0793 -0.3269 1.8951
5.1517 0.0822 1.9184
5.2295 0.5045 1.9565
5.3086 0.9462 2.0084
5.2924 1.3887 2.0385
5.1622 1.8077 2.0385
4.9986 2.2146 2.0385
4.8027 2.6068 2.0385
4.5758 2.9817 2.0385
4.3194 3.3369 2.0385
4.0353 3.6699 2.0385
3.7254 3.9787 2.0385
3.3918 4.2613 2.0385
3.0367 4.5159 2.0385
2.6626 4.7409 2.0385
2.2718 4.9348 2.0385
0.6821 1.8622 0.7448
0.5306 1.9109 0.7455
0.3755 1.9472 0.7462
0.2181 1.9710 0.7469
0.1614 5.4048 2.0385
-0.2726 5.3952 2.0385
-0.2586 1.9653 0.7487
-0.4155 1.9379 0.7493
-0.5696 1.8978 0.7498
-0.7199 1.8455 0.7503
-2.3506 4.8373 2.0385
-2.7293 4.6292 2.0385
-3.0900 4.3917 2.0385
-3.4303 4.1264 2.0385
-3.7483 3.8350 2.0385
-4.0419 3.5194 2.0385
-4.1340 3.0522 1.9556
-4.2088 2.6127 1.8861
-4.4034 2.2651 1.8861
-4.5697 1.9033 1.8861
-4.7066 1.5296 1.8861
-4.8135 1.1462 1.8861
-4.8895 0.7556 1.8861
-4.9342 0.3602 1.8861
-4.9474 -0.0375 1.8861
-4.9290 -0.4351 1.8861
-4.8790 -0.8299 1.8861
-4.7979 -1.2196 1.8861
-4.6859 -1.6018 1.8861
-4.5439 -1.9739 1.8861
-4.7260 -2.5223 2.0385
-4.5106 -2.8954 2.0385
-4.2659 -3.2504 2.0385
-3.9937 -3.5849 2.0385
-3.6954 -3.8969 2.0385
-3.3731 -4.1843 2.0385
-3.0286 -4.4452 2.0385
-2.6641 -4.6780 2.0385
-2.2819 -4.8810 2.0385
-0.6861 -1.8397 0.7422
-0.5362 -1.8888 0.7415
-0.3828 -1.9258 0.7408
-0.2270 -1.9505 0.7402
-0.0698 -1.9626 0.7395
0.0879 -1.9621 0.7389
0.2451 -1.9490 0.7383
0.4007 -1.9234 0.7378
0.5538 -1.8855 0.7373
0.7034 -1.8354 0.7368
2.3489 -4.9098 2.0385
2.7373 -4.7094 2.0385
3.1084 -4.4782 2.0385
3.4599 -4.2176 2.0385
3.7894 -3.9293 2.0385
4.0946 -3.6151 2.0385
4.3735 -3.2771 2.0385
4.6243 -2.9174 2.0385
4.7226 -2.4742 1.9869
4.7765 -2.0328 1.9339
4.8377 -1.6147 1.8995
4.9175 -1.2135 1.8861
4.9995 -0.8156 1.8861
5.0659 -0.4138 1.8924
5.1350 -0.0066 1.9120
5.2127 0.4123 1.9472
5.2914 0.8493 1.9960
5.3159 1.2973 2.0385
5.1931 1.7185 2.0385
5.0366 2.1283 2.0385
4.8475 2.5239 2.0385
4.6271 2.9028 2.0385
4.3769 3.2623 2.0385
4.0986 3.6003 2.0385
3.7941 3.9145 2.0385
3.4654 4.2029 2.0385
3.1147 4.4636 2.0385
2.7445 4.6951 2.0385
2.3570 4.8958 2.0385
0.7142 1.8501 0.7447
0.5635 1.9014 0.7454
0.4091 1.9405 0.7461
0.2521 1.9669 0.7467
0.2548 5.4023 2.0385
-0.1794 5.4002 2.0385
-0.2246 1.9696 0.7486
-0.3819 1.9448 0.7492
-0.5367 1.9075 0.7497
-0.6880 1.8578 0.7502
-2.2671 4.8780 2.0385
-2.6493 4.6764 2.0385
-3.0141 4.4451 2.0385
-3.3590 4.1857 2.0385
-3.6819 3.8998 2.0385
-3.9809 3.5892 2.0385
-4.1197 3.1531 1.9741
-4.1869 2.7004 1.8968
-4.3639 2.3411 1.8861
-4.5364 1.9822 1.8861
-4.6797 1.6108 1.8861
-4.7931 1.2293 1.8861
-4.8758 0.8400 1.8861
-4.9273 0.4454 1.8861
-4.9473 0.0480 1.8861
-4.9356 -0.3498 1.8861
-4.8924 -0.7454 1.8861
-4.8179 -1.1364 1.8861
-4.7125 -1.5204 1.8861
-4.5769 -1.8949 1.8861
-4.7684 -2.4400 2.0385
-4.5594 -2.8167 2.0385
-4.3209 -3.1758 2.0385
-4.0544 -3.5149 2.0385
-3.7616 -3.8319 2.0385
-3.4443 -4.1247 2.0385
-3.1044 -4.3915 2.0385
-2.7440 -4.6304 2.0385
-2.3654 -4.8400 2.0385
-0.7177 -1.8276 0.7423
-0.5687 -1.8793 0.7416
-0.4160 -1.9189 0.7410
-0.2607 -1.9462 0.7403
-0.1037 -1.9610 0.7397
0.0540 -1.9632 0.7390
0.2114 -1.9529 0.7385
0.3674 -1.9299 0.7379
0.5211 -1.8946 0.7374
0.6716 -1.8472 0.7369
2.2635 -4.9487 2.0385
2.6552 -4.7551 2.0385
3.0302 -4.5304 2.0385
3.3861 -4.2760 2.0385
3.7205 -3.9935 2.0385
4.0311 -3.6847 2.0385
4.3159 -3.3516 2.0385
4.5729 -2.9964 2.0385
4.7119 -2.5731 2.0010
4.7640 -2.1253 1.9436
4.8214 -1.7022 1.9045
4.8996 -1.2991 1.8876
4.9846 -0.9017 1.8861
5.0521 -0.5005 1.8902
5.1184 -0.0948 1.9061
5.1959 0.3209 1.9385
5.2744 0.7535 1.9843
5.3378 1.2055 2.0385
5.2223 1.6289 2.0385
5.0730 2.0414 2.0385
4.8908 2.4402 2.0385
4.6770 2.8229 2.0385
4.4331 3.1868 2.0385
4.1607 3.5296 2.0385
3.8617 3.8491 2.0385
3.5380 4.1432 2.0385
3.1918 4.4100 2.0385
2.8256 4.6479 2.0385
2.4416 4.8553 2.0385
0.7460 1.8375 0.7445
0.5962 1.8914 0.7452
0.4425 1.9331 0.7459
0.2860 1.9623 0.7466
0.3481 5.3982 2.0385
-0.0862 5.4036 2.0385
-0.1906 1.9732 0.7485
-0.3483 1.9512 0.7490
-0.5037 1.9166 0.7496
-0.6558 1.8695 0.7501
-2.1828 4.9173 2.0385
-2.5686 4.7223 2.0385
-2.9373 4.4973 2.0385
-3.2867 4.2437 2.0385
-3.6145 3.9634 2.0385
-3.9188 3.6579 2.0385
-4.1049 3.2558 1.9935
-4.1705 2.7931 1.9107
-4.3232 2.4164 1.8861
-4.5017 2.0604 1.8861
-4.6514 1.6915 1.8861
-4.7713 1.3120 1.8861
-4.8606 0.9242 1.8861
-4.9188 0.5306 1.8861
-4.9456 0.1335 1.8861
-4.9408 -0.2644 1.8861
-4.9044 -0.6607 1.8861
-4.8366 -1.0529 1.8861
-4.7378 -1.4386 1.8861
-4.6086 -1.8153 1.8861
-4.8094 -2.3570 2.0385
-4.6068 -2.7372 2.0385
-4.3745 -3.1002 2.0385
-4.1140 -3.4438 2.0385
-3.8267 -3.7657 2.0385
-3.5144 -4.0639 2.0385
-3.1792 -4.3364 2.0385
-2.8230 -4.5815 2.0385
-2.4482 -4.7975 2.0385
-0.7492 -1.8149 0.7425
-0.6011 -1.8692 0.7418
-0.4491 -1.9114 0.7411
-0.2942 -1.9414 0.7404
-0.1375 -1.9589 0.7398
0.0201 -1.9638 0.7392
0.1776 -1.9562 0.7386
0.3340 -1.9359 0.7380
0.4883 -1.9033 0.7375
0.6396 -1.8584 0.7370
2.1774 -4.9861 2.0385
2.5724 -4.7993 2.0385
2.9511 -4.5813 2.0385
3.3114 -4.3331 2.0385
3.6506 -4.0565 2.0385
3.9665 -3.7532 2.0385
4.2570 -3.4251 2.0385
4.5201 -3.0745 2.0385
4.7120 -2.6796 2.0205
4.7514 -2.2186 1.9539
4.8084 -1.7914 1.9114
4.8833 -1.3853 1.8903
4.9683 -0.9874 1.8861
5.0374 -0.5869 1.8883
5.1021 -0.1826 1.9009
5.1792 0.2304 1.9304
5.2574 0.6588 1.9733
5.3372 1.1091 2.0306
5.2500 1.5387 2.0385
5.1079 1.9538 2.0385
4.9327 2.3558 2.0385
4.7256 2.7421 2.0385
4.4880 3.1103 2.0385
4.2216 3.4578 2.0385
3.9281 3.7825 2.0385
3.6095 4.0822 2.0385
3.2680 4.3551 2.0385
2.9059 4.5993 2.0385
2.5255 4.8134 2.0385
0.7776 1.8243 0.7444
0.6287 1.8809 0.7451
0.4758 1.9252 0.7458
0.3198 1.9571 0.7465
0.4413 5.3925 2.0385
0.0071 5.4054 2.0385
-0.4263 5.3835 2.0385
-0.3146 1.9570 0.7489
-0.4706 1.9251 0.7495
-0.6235 1.8807 0.7500
-2.0979 4.9552 2.0385
-2.4870 4.7668 2.0385
-2.8596 4.5481 2.0385
-3.2133 4.3006 2.0385
-3.5460 4.0258 2.0385
-3.8555 3.7256 2.0385
-4.0898 3.3606 2.0138
-4.1570 2.8894 1.9270
-4.2811 2.4910 1.8861
-4.4658 2.1381 1.8861
-4.6217 1.7718 1.8861
-4.7481 1.3943 1.8861
-4.8440 1.0081 1.8861
-4.9090 0.6155 1.8861
-4.9425 0.2190 1.8861
-4.9445 -0.1789 1.8861
-4.9149 -0.5758 1.8861
-4.8538 -0.9691 1.8861
-4.7616 -1.3564 1.8861
-4.6473 -1.7384 1.8895
-4.7350 -2.2199 1.9906
-4.6529 -2.6568 2.0385
-4.4269 -3.0237 2.0385
-4.1723 -3.3717 2.0385
-3.8906 -3.6985 2.0385
-3.5836 -4.0019 2.0385
-3.2531 -4.2801 2.0385
-2.9012 -4.5312 2.0385
-2.5302 -4.7536 2.0385
-0.7804 -1.8018 0.7426
-0.6332 -1.8585 0.7419
-0.4820 -1.9034 0.7413
-0.3277 -1.9360 0.7406
-0.1713 -1.9562 0.7399
-0.0138 -1.9638 0.7393
0.1438 -1.9589 0.7387
0.3006 -1.9413 0.7381
0.4554 -1.9113 0.7376
0.6074 -1.8690 0.7371
0.7555 -1.8148 0.7366
2.4888 -4.8421 2.0385
2.8712 -4.6307 2.0385
3.2357 -4.3889 2.0385
3.5796 -4.1183 2.0385
3.9007 -3.8205 2.0385
4.1968 -3.4976 2.0385
4.4659 -3.1516 2.0385
4.7063 -2.7849 2.0385
4.7398 -2.3136 1.9654
4.7965 -1.8818 1.9194
4.8664 -1.4716 1.8934
4.9504 -1.0729 1.8861
5.0217 -0.6730 1.8864
5.0883 -0.2700 1.8972
5.1626 0.1405 1.9230
5.2405 0.5651 1.9629
5.3199 1.0101 2.0170
5.2761 1.4481 2.0385
5.1413 1.8656 2.0385
4.9731 2.2706 2.0385
4.7727 2.6606 2.0385
4.5415 3.0328 2.0385
4.2812 3.3850 2.0385
3.9933 3.7148 2.0385
3.6800 4.0200 2.0385
3.3432 4.2988 2.0385
2.9853 4.5493 2.0385
2.6086 4.7700 2.0385
2.2157 4.9594 2.0385
0.6611 1.8697 0.7449
0.5090 1.9167 0.7456
0.3536 1.9513 0.7463
0.1958 1.9733 0.7470
0.1005 5.4056 2.0385
-0.3334 5.3911 2.0385
-0.2807 1.9622 0.7488
-0.4373 1.9330 0.7493
-4.3593 1.3340 1.8861
-4.4517 0.9791 1.8861
-4.5156 0.6181 1.8861
-4.5506 0.2531 1.8861
-4.5565 -0.1134 1.8861
-4.5332 -0.4793 1.8861
-4.4832 -0.8427 1.8871
-4.4757 -1.2207 1.9186
-4.4706 -1.6153 1.9652
-4.4895 -2.0436 2.0385
-4.3128 -2.3988 2.0385
-4.1082 -2.7390 2.0385
-3.8771 -3.0620 2.0385
-3.6209 -3.3657 2.0385
-3.3411 -3.6482 2.0385
-3.0394 -3.9076 2.0385
-2.7179 -4.1422 2.0385
-2.3784 -4.3506 2.0385
-0.7372 -1.6511 0.7428
-0.6022 -1.7049 0.7422
-0.4634 -1.7478 0.7415
-0.3217 -1.7794 0.7409
-0.1778 -1.7997 0.7403
-0.0329 -1.8083 0.7397
0.1124 -1.8054 0.7392
0.2569 -1.7908 0.7386
0.3998 -1.7648 0.7381
0.5401 -1.7274 0.7377
0.6771 -1.6789 0.7372
2.2401 -4.4808 2.0385
2.5941 -4.2900 2.0385
2.9318 -4.0711 2.0385
3.2508 -3.8256 2.0385
3.5492 -3.5549 2.0385
3.8248 -3.2608 2.0385
4.0758 -2.9453 2.0385
4.3006 -2.6103 2.0385
4.4976 -2.2581 2.0385
4.6655 -1.8911 2.0385
4.8032 -1.5115 2.0385
4.8914 -1.1179 2.0310
4.9716 -0.7233 2.0333
5.0264 -0.3235 2.0385
5.0359 0.0803 2.0385
5.0127 0.4834 2.0385
4.9569 0.8833 2.0385
4.8689 1.2773 2.0385
4.7493 1.6628 2.0385
4.5990 2.0372 2.0385
4.4189 2.3981 2.0385
4.2103 2.7431 2.0385
3.9746 3.0700 2.0385
3.7134 3.3765 2.0385
3.4285 3.6609 2.0385
3.1217 3.9211 2.0385
2.7951 4.1556 2.0385
2.4509 4.3628 2.0385
0.7634 1.6577 0.7441
0.6280 1.7136 0.7447
0.4885 1.7585 0.7454
0.3458 1.7919 0.7460
0.2009 1.8137 0.7466
0.0547 1.8238 0.7472
-0.0918 1.8221 0.7478
-0.2377 1.8085 0.7483
-0.3821 1.7833 0.7488
-0.5239 1.7465 0.7493
-0.6623 1.6984 0.7497
-2.1642 4.4549 2.0385
-2.5131 4.2635 2.0385
-2.8454 4.0450 2.0385
-3.1590 3.8009 2.0385
-3.4521 3.5326 2.0385
-3.7227 3.2420 2.0385
-3.9692 2.9310 2.0385
-4.1701 2.5890 2.0288
-4.2227 2.1724 1.9635
-4.2702 1.7788 1.9133
-4.3357 1.4092 1.8861
-4.4342 1.0560 1.8861
-4.5043 0.6961 1.8861
-4.5455 0.3318 1.8861
-4.5577 -0.0346 1.8861
-4.5407 -0.4009 1.8861
-4.4946 -0.7647 1.8861
-4.4752 -1.1378 1.9098
-4.4722 -1.5290 1.9542
-4.4900 -1.9508 2.0233
-4.3531 -2.3237 2.0385
-4.1545 -2.6673 2.0385
-3.9289 -2.9942 2.0385
-3.6780 -3.3022 2.0385
-3.4031 -3.5894 2.0385
-3.1060 -3.8539 2.0385
-2.7886 -4.0939 2.0385
-2.4528 -4.3081 2.0385
-0.7656 -1.6381 0.7429
-0.6316 -1.6943 0.7423
-0.4935 -1.7395 0.7417
-0.3523 -1.7736 0.7410
-0.2089 -1.7963 0.7404
-0.0641 -1.8074 0.7398
0.0812 -1.8070 0.7393
0.2259 -1.7949 0.7387
0.3692 -1.7713 0.7382
0.5102 -1.7364 0.7378
0.6480 -1.6903 0.7373
0.7816 -1.6333 0.7369
2.5194 -4.3334 2.0385
2.8607 -4.1205 2.0385
3.1839 -3.8805 2.0385
3.4869 -3.6151 2.0385
3.7676 -3.3259 2.0385
4.0240 -3.0148 2.0385
4.2546 -2.6838 2.0385
4.4577 -2.3352 2.0385
4.6320 -1.9711 2.0385
4.7762 -1.5940 2.0385
4.8766 -1.2033 2.0331
4.9545 -0.8082 2.0318
5.0201 -0.4101 2.0385
5.0367 -0.0065 2.0385
5.0205 0.3970 2.0385
4.9716 0.7978 2.0385
4.8905 1.1933 2.0385
4.7777 1.5808 2.0385
4.6338 1.9578 2.0385
4.4601 2.3218 2.0385
4.2575 2.6704 2.0385
4.0275 3.0014 2.0385
3.7716 3.3125 2.0385
3.4916 3.6017 2.0385
3.1893 3.8673 2.0385
2.8668 4.1074 2.0385
2.5263 4.3207 2.0385
0.7919 1.6443 0.7439
0.6574 1.7025 0.7446
0.5188 1.7498 0.7452
0.3767 1.7857 0.7459
0.2322 1.8100 0.7465
0.0862 1.8226 0.7471
-0.0604 1.8235 0.7476
-0.2065 1.8124 0.7482
-0.3512 1.7897 0.7487
-0.4937 1.7553 0.7492
-0.6329 1.7096 0.7496
-0.7680 1.6529 0.7500
-2.4395 4.3070 2.0385
-2.7755 4.0942 2.0385
-3.0934 3.8554 2.0385
-3.3910 3.5922 2.0385
-3.6666 3.3063 2.0385
-3.9184 2.9994 2.0385
-4.1448 2.6737 2.0385
-4.2118 2.2598 1.9762
-4.2603 1.8618 1.9229
-4.3141 1.4851 1.8875
-4.4154 1.1325 1.8861
-4.4917 0.7739 1.8861
-4.5391 0.4103 1.8861
-4.5575 0.0442 1.8861
-4.5468 -0.3223 1.8861
-4.5069 -0.6868 1.8861
-4.4745 -1.0556 1.9016
-4.4737 -1.4436 1.9438
-4.4694 -1.8507 1.9995
-4.3922 -2.2478 2.0385
-4.1995 -2.5948 2.0385
-3.9796 -2.9254 2.0385
-3.7340 -3.2377 2.0385
-3.4641 -3.5295 2.0385
-3.1716 -3.7990 2.0385
-2.8584 -4.0445 2.0385
-2.5264 -4.2643 2.0385
-2.1776 -4.4570 2.0385
-0.6607 -1.6831 0.7424
-0.5235 -1.7307 0.7418
-0.3829 -1.7672 0.7412
-0.2398 -1.7924 0.7406
-0.0953 -1.8060 0.7400
0.0500 -1.8081 0.7394
0.1949 -1.7985 0.7389
0.3386 -1.7774 0.7383
0.4802 -1.7449 0.7379
0.6187 -1.7011 0.7374
0.7533 -1.6464 0.7370
2.4439 -4.3756 2.0385
2.7888 -4.1686 2.0385
3.1161 -3.9343 2.0385
3.4236 -3.6742 2.0385
3.7092 -3.3899 2.0385
3.9711 -3.0834 2.0385
4.2073 -2.7565 2.0385
4.4164 -2.4115 2.0385
4.5970 -2.0505 2.0385
4.7478 -1.6760 2.0385
4.8624 -1.2891 2.0363
4.9374 -0.8931 2.0308
5.0123 -0.4965 2.0385
5.0359 -0.0934 2.0385
5.0267 0.3104 2.0385
4.9849 0.7120 2.0385
4.9106 1.1089 2.0385
4.8046 1.4983 2.0385
4.6673 1.8778 2.0385
4.4999 2.2448 2.0385
4.3034 2.5969 2.0385
4.0791 2.9318 2.0385
3.8287 3.2474 2.0385
3.5537 3.5415 2.0385
3.2561 3.8123 2.0385
2.9378 4.0580 2.0385
2.6008 4.2772 2.0385
2.2477 4.4683 2.0385
0.6867 1.6909 0.7445
0.5489 1.7406 0.7451
0.4075 1.7789 0.7457
0.2634 1.8058 0.7463
0.1176 1.8209 0.7469
-0.0289 1.8243 0.7475
-0.1752 1.8158 0.7481
-0.3203 1.7956 0.7486
-0.4633 1.7637 0.7491
-0.6033 1.7204 0.7495
-0.7393 1.6660 0.7499
-2.3651 4.3492 2.0385
-2.7048 4.1422 2.0385
-3.0267 3.9089 2.0385
-3.3288 3.6508 2.0385
-3.6093 3.3696 2.0385
-3.8663 3.0670 2.0385
-4.0984 2.7452 2.0385
-4.2008 2.3483 1.9896
-4.2503 1.9456 1.9332
-4.3012 1.5644 1.8933
-4.3953 1.2087 1.8861
-4.4777 0.8515 1.8861
-4.5314 0.4888 1.8861
-4.5560 0.1230 1.8861
-4.5516 -0.2436 1.8861
-4.5179 -0.6087 1.8861
-4.4780 -0.9750 1.8957
-4.4751 -1.3591 1.9340
-4.4677 -1.7601 1.9850
-4.4300 -2.1714 2.0385
-4.2432 -2.5215 2.0385
-4.0291 -2.8559 2.0385
-3.7889 -3.1722 2.0385
-3.5241 -3.4686 2.0385
-3.2363 -3.7431 2.0385
-2.9274 -3.9938 2.0385
-2.5992 -4.2193 2.0385
-2.2538 -4.4180 2.0385
-0.6897 -1.6714 0.7426
-0.5533 -1.7214 0.7419
-0.4134 -1.7603 0.7413
-0.2708 -1.7879 0.7407
-0.1264 -1.8041 0.7401
0.0188 -1.8086 0.7395
0.1638 -1.8015 0.7390
0.3079 -1.7829 0.7385
0.4500 -1.7528 0.7380
0.5892 -1.7114 0.7375
0.7247 -1.6591 0.7371
2.3676 -4.4163 2.0385
2.7161 -4.2154 2.0385
3.0474 -3.9869 2.0385
3.3593 -3.7322 2.0385
3.6498 -3.4530 2.0385
3.9169 -3.1510 2.0385
4.1588 -2.8284 2.0385
4.3739 -2.4870 2.0385
4.5607 -2.1293 2.0385
4.7180 -1.7575 2.0385
4.8446 -1.3742 2.0385
4.9201 -0.9778 2.0304
4.9996 -0.5824 2.0372
5.0336 -0.1801 2.0385
5.0314 0.2237 2.0385
4.9966 0.6260 2.0385
4.9293 1.0241 2.0385
4.8300 1.4154 2.0385
4.6994 1.7972 2.0385
4.5384 2.1671 2.0385
4.3480 2.5226 2.0385
4.1296 2.8614 2.0385
3.8846 3.1813 2.0385
3.6148 3.4802 2.0385
3.3219 3.7562 2.0385
3.0078 4.0074 2.0385
2.6747 4.2324 2.0385
2.3248 4.4297 2.0385
0.7158 1.6788 0.7443
0.5788 1.7308 0.7450
0.4381 1.7717 0.7456
0.2945 1.8010 0.7462
0.1491 1.8187 0.7468
0.0026 1.8246 0.7474
-0.1438 1.8186 0.7480
-0.2893 1.8009 0.7485
-0.4328 1.7715 0.7490
-0.5735 1.7307 0.7494
-0.7105 1.6786 0.7499
-2.2899 4.3901 2.0385
-2.6332 4.1889 2.0385
-2.9591 3.9611 2.0385
-3.2657 3.7082 2.0385
-3.5509 3.4319 2.0385
-3.8132 3.1338 2.0385
-4.0507 2.8159 2.0385
-4.1895 2.4379 2.0038
-4.2401 2.0303 1.9441
-4.2874 1.6438 1.8994
-4.3740 1.2846 1.8861
-4.4624 0.9288 1.8861
-4.5223 0.5671 1.8861
-4.5532 0.2017 1.8861
-4.5550 -0.1649 1.8861
-4.5276 -0.5305 1.8861
-4.4813 -0.8949 1.8904
-4.4761 -1.2753 1.9248
-4.4695 -1.6722 1.9728
-4.4664 -2.0943 2.0385
-4.2857 -2.4475 2.0385
-4.0773 -2.7854 2.0385
-3.8426 -3.1059 2.0385
-3.5830 -3.4067 2.0385
-3.3000 -3.6860 2.0385
-2.9955 -3.9420 2.0385
-2.6713 -4.1731 2.0385
-2.3294 -4.3776 2.0385
-0.7185 -1.6593 0.7427
-0.5829 -1.7116 0.7421
-0.4437 -1.7529 0.7414
-0.3016 -1.7830 0.7408
-0.1575 -1.8016 0.7402
-0.0125 -1.8086 0.7396
0.1327 -1.8040 0.7391
0.2770 -1.7879 0.7386
0.4196 -1.7602 0.7381
0.5596 -1.7213 0.7376
0.6960 -1.6713 0.7372
2.2907 -4.4558 2.0385
2.6426 -4.2610 2.0385
2.9777 -4.0382 2.0385
3.2940 -3.7890 2.0385
3.5893 -3.5150 2.0385
3.8615 -3.2178 2.0385
4.1090 -2.8994 2.0385
4.3300 -2.5619 2.0385
4.5230 -2.2075 2.0385
4.6867 -1.8385 2.0385
4.8200 -1.4574 2.0385
4.9028 -1.0625 2.0306
4.9827 -0.6677 2.0347
5.0297 -0.2669 2.0385
5.0347 0.1370 2.0385
5.0068 0.5398 2.0385
4.9465 0.9391 2.0385
4.8540 1.3320 2.0385
4.7301 1.7161 2.0385
4.5755 2.0888 2.0385
4.3913 2.4475 2.0385
4.1788 2.7901 2.0385
3.9394 3.1143 2.0385
3.6748 3.4178 2.0385
3.3867 3.6989 2.0385
3.0770 3.9556 2.0385
2.7478 4.1863 2.0385
2.4013 4.3897 2.0385
0.7447 1.6662 0.7442
0.6086 1.7206 0.7448
0.4686 1.7638 0.7455
0.3256 1.7957 0.7461
0.1804 1.8159 0.7467
0.0341 1.8243 0.7473
-0.1124 1.8209 0.7478
-0.2581 1.8057 0.7484
-0.4022 1.7788 0.7489
-4.2950 1.3144 2.0082
-4.3308 0.9526 1.9829
-4.3638 0.5974 1.9697
-4.3934 0.2444 1.9678
-4.4170 -0.1100 1.9758
-4.4349 -0.4690 1.9940
-4.4463 -0.8359 2.0225
-4.4004 -1.2004 2.0385
-4.2910 -1.5506 2.0385
-4.1541 -1.8912 2.0385
-3.9904 -2.2199 2.0385
-3.8010 -2.5346 2.0385
-3.5870 -2.8334 2.0385
-3.3498 -3.1143 2.0385
-3.0907 -3.3755 2.0385
-2.8115 -3.6154 2.0385
-2.5139 -3.8323 2.0385
-2.1997 -4.0248 2.0385
-0.6818 -1.5275 0.7428
-0.5569 -1.5773 0.7423
-0.4285 -1.6170 0.7417
-0.2974 -1.6463 0.7411
-0.1643 -1.6650 0.7405
-0.0302 -1.6730 0.7400
0.1042 -1.6703 0.7395
0.2379 -1.6568 0.7390
0.3701 -1.6327 0.7385
0.4999 -1.5981 0.7381
0.6266 -1.5533 0.7377
0.7493 -1.4984 0.7373
2.3988 -3.9660 2.0385
2.7108 -3.7635 2.0385
3.0056 -3.5363 2.0385
3.2812 -3.2859 2.0385
3.5359 -3.0140 2.0385
3.7678 -2.7223 2.0385
3.9754 -2.4126 2.0385
4.1574 -2.0871 2.0385
4.3125 -1.7478 2.0385
4.4397 -1.3970 2.0385
4.5380 -1.0370 2.0385
4.6069 -0.6702 2.0385
4.6459 -0.2990 2.0385
4.6547 0.0741 2.0385
4.6333 0.4467 2.0385
4.5818 0.8163 2.0385
4.5005 1.1805 2.0385
4.3901 1.5368 2.0385
4.2513 1.8829 2.0385
4.0849 2.2165 2.0385
3.8923 2.5355 2.0385
3.6745 2.8377 2.0385
3.4332 3.1212 2.0385
3.1700 3.3842 2.0385
2.8865 3.6249 2.0385
2.5847 3.8419 2.0385
2.2666 4.0337 2.0385
0.7060 1.5326 0.7440
0.5808 1.5843 0.7446
0.4518 1.6258 0.7452
0.3199 1.6567 0.7458
0.1860 1.6768 0.7464
0.0508 1.6862 0.7469
-0.0847 1.6846 0.7474
-0.2196 1.6720 0.7479
-0.3530 1.6487 0.7484
-0.4842 1.6147 0.7488
-0.6121 1.5702 0.7492
-0.7361 1.5156 0.7496
-2.3246 3.9447 2.0385
-2.6322 3.7427 2.0385
-2.9225 3.5169 2.0385
-3.1938 3.2688 2.0385
-3.4443 3.0001 2.0385
-3.6726 2.7123 2.0385
-3.8770 2.4074 2.0385
-4.0565 2.0872 2.0385
-4.2099 1.7539 2.0385
-4.2869 1.3935 2.0153
-4.3234 1.0297 1.9873
-4.3570 0.6734 1.9716
-4.3874 0.3202 1.9673
-4.4122 -0.0336 1.9732
-4.4320 -0.3914 1.9894
-4.4447 -0.7563 2.0156
-4.4202 -1.1240 2.0385
-4.3169 -1.4761 2.0385
-4.1858 -1.8189 2.0385
-4.0278 -2.1504 2.0385
-3.8438 -2.4683 2.0385
-3.6350 -2.7707 2.0385
-3.4026 -3.0555 2.0385
-3.1482 -3.3211 2.0385
-2.8732 -3.5657 2.0385
-2.5793 -3.7877 2.0385
-2.2685 -3.9856 2.0385
-0.7080 -1.5155 0.7430
-0.5841 -1.5674 0.7424
-0.4564 -1.6093 0.7418
-0.3257 -1.6409 0.7412
-0.1930 -1.6619 0.7407
-0.0591 -1.6722 0.7401
0.0753 -1.6718 0.7396
0.2092 -1.6606 0.7391
0.3418 -1.6388 0.7386
0.4722 -1.6064 0.7382
0.5997 -1.5638 0.7378
0.7233 -1.5110 0.7374
2.3297 -4.0062 2.0385
2.6451 -3.8091 2.0385
2.9438 -3.5871 2.0385
3.2237 -3.3416 2.0385
3.4830 -3.0742 2.0385
3.7200 -2.7865 2.0385
3.9329 -2.4806 2.0385
4.1206 -2.1583 2.0385
4.2815 -1.8218 2.0385
4.4148 -1.4733 2.0385
4.5194 -1.1150 2.0385
4.5946 -0.7495 2.0385
4.6401 -0.3790 2.0385
4.6554 -0.0061 2.0385
4.6404 0.3668 2.0385
4.5954 0.7373 2.0385
4.5205 1.1028 2.0385
4.4163 1.4610 2.0385
4.2834 1.8095 2.0385
4.1229 2.1460 2.0385
3.9358 2.4683 2.0385
3.7234 2.7742 2.0385
3.4870 3.0619 2.0385
3.2283 3.3295 2.0385
2.9490 3.5751 2.0385
2.6510 3.7973 2.0385
2.3363 3.9947 2.0385
0.7323 1.5202 0.7439
0.6081 1.5741 0.7445
0.4798 1.6177 0.7451
0.3485 1.6509 0.7457
0.2149 1.6734 0.7463
0.0799 1.6851 0.7468
-0.0556 1.6858 0.7473
-0.1907 1.6756 0.7478
-0.3245 1.6546 0.7483
-0.4562 1.6229 0.7487
-0.5849 1.5806 0.7492
-0.7098 1.5282 0.7495
-2.2564 3.9849 2.0385
-2.5675 3.7882 2.0385
-2.8617 3.5674 2.0385
-3.1372 3.3240 2.0385
-3.3923 3.0595 2.0385
-3.6255 2.7756 2.0385
-3.8352 2.4742 2.0385
-4.0201 2.1572 2.0385
-4.1792 1.8265 2.0385
-4.2786 1.4730 2.0230
-4.3158 1.1071 1.9923
-4.3500 0.7495 1.9739
-4.3813 0.3961 1.9673
-4.4073 0.0427 1.9710
-4.4290 -0.3140 1.9854
-4.4421 -0.6771 2.0089
-4.4387 -1.0474 2.0385
-4.3414 -1.4012 2.0385
-4.2163 -1.7462 2.0385
-4.0640 -2.0802 2.0385
-3.8855 -2.4012 2.0385
-3.6819 -2.7071 2.0385
-3.4545 -2.9959 2.0385
-3.2046 -3.2658 2.0385
-2.9339 -3.5150 2.0385
-2.6440 -3.7419 2.0385
-2.3366 -3.9451 2.0385
-0.7341 -1.5030 0.7431
-0.6111 -1.5571 0.7425
-0.4841 -1.6012 0.7419
-0.3540 -1.6350 0.7413
-0.2217 -1.6582 0.7408
-0.0879 -1.6709 0.7402
0.0465 -1.6728 0.7397
0.1805 -1.6639 0.7392
0.3135 -1.6444 0.7387
0.4444 -1.6143 0.7383
0.5726 -1.5738 0.7379
0.6971 -1.5232 0.7375
2.2599 -4.0452 2.0385
2.5787 -3.8536 2.0385
2.8811 -3.6369 2.0385
3.1652 -3.3963 2.0385
3.4291 -3.1334 2.0385
3.6710 -2.8500 2.0385
3.8893 -2.5478 2.0385
4.0824 -2.2288 2.0385
4.2492 -1.8952 2.0385
4.3885 -1.5490 2.0385
4.4993 -1.1927 2.0385
4.5810 -0.8286 2.0385
4.6329 -0.4589 2.0385
4.6546 -0.0863 2.0385
4.6462 0.2868 2.0385
4.6076 0.6580 2.0385
4.5391 1.0248 2.0385
4.4411 1.3848 2.0385
4.3144 1.7355 2.0385
4.1597 2.0748 2.0385
3.9782 2.4003 2.0385
3.7711 2.7100 2.0385
3.5398 3.0017 2.0385
3.2857 3.2738 2.0385
3.0107 3.5243 2.0385
2.7166 3.7516 2.0385
2.4052 3.9544 2.0385
0.7585 1.5074 0.7438
0.6351 1.5634 0.7444
0.5077 1.6092 0.7450
0.3769 1.6447 0.7456
0.2437 1.6695 0.7461
0.1090 1.6835 0.7467
-0.0265 1.6866 0.7472
-0.1617 1.6788 0.7477
-0.2959 1.6600 0.7482
-0.4281 1.6306 0.7487
-0.5576 1.5906 0.7491
-0.6833 1.5403 0.7495
-2.1876 4.0239 2.0385
-2.5020 3.8325 2.0385
-2.8000 3.6168 2.0385
-3.0797 3.3781 2.0385
-3.3393 3.1180 2.0385
-3.5773 2.8382 2.0385
-3.7921 2.5404 2.0385
-3.9825 2.2266 2.0385
-4.1473 1.8986 2.0385
-4.2701 1.5532 2.0313
-4.3081 1.1848 1.9978
-4.3429 0.8259 1.9769
-4.3750 0.4719 1.9679
-4.4023 0.1188 1.9694
-4.4248 -0.2369 1.9815
-4.4395 -0.5983 2.0028
-4.4475 -0.9686 2.0347
-4.3647 -1.3258 2.0385
-4.2455 -1.6729 2.0385
-4.0989 -2.0095 2.0385
-3.9260 -2.3334 2.0385
-3.7277 -2.6427 2.0385
-3.5053 -2.9354 2.0385
-3.2602 -3.2095 2.0385
-2.9938 -3.4633 2.0385
-2.7078 -3.6951 2.0385
-2.4041 -3.9035 2.0385
-0.7600 -1.4901 0.7432
-0.6379 -1.5463 0.7426
-0.5117 -1.5926 0.7420
-0.3822 -1.6286 0.7415
-0.2503 -1.6541 0.7409
-0.1167 -1.6691 0.7403
0.0176 -1.6733 0.7398
0.1518 -1.6667 0.7393
0.2850 -1.6495 0.7388
0.4165 -1.6216 0.7384
0.5453 -1.5833 0.7380
0.6707 -1.5349 0.7376
2.1895 -4.0829 2.0385
2.5115 -3.8970 2.0385
2.8176 -3.6855 2.0385
3.1058 -3.4499 2.0385
3.3742 -3.1917 2.0385
3.6210 -2.9125 2.0385
3.8444 -2.6142 2.0385
4.0431 -2.2987 2.0385
4.2157 -1.9680 2.0385
4.3609 -1.6244 2.0385
4.4780 -1.2700 2.0385
4.5659 -0.9073 2.0385
4.6242 -0.5387 2.0385
4.6525 -0.1665 2.0385
4.6506 0.2067 2.0385
4.6184 0.5785 2.0385
4.5563 0.9465 2.0385
4.4646 1.3081 2.0385
4.3440 1.6610 2.0385
4.1953 2.0029 2.0385
4.0194 2.3316 2.0385
3.8177 2.6449 2.0385
3.5914 2.9406 2.0385
3.3421 3.2171 2.0385
3.0715 3.4723 2.0385
2.7813 3.7048 2.0385
2.4735 3.9130 2.0385
0.7843 1.4941 0.7437
0.6620 1.5522 0.7443
0.5354 1.6002 0.7448
0.4053 1.6380 0.7454
0.2725 1.6651 0.7460
0.1380 1.6814 0.7466
0.0027 1.6868 0.7471
-0.1327 1.6814 0.7476
-0.2672 1.6650 0.7481
-0.3999 1.6378 0.7486
-0.5300 1.6001 0.7490
-0.6567 1.5519 0.7494
-2.1180 4.0617 2.0385
-2.4358 3.8757 2.0385
-2.7374 3.6651 2.0385
-3.0212 3.4313 2.0385
-3.2853 3.1756 2.0385
-3.5281 2.8999 2.0385
-3.7480 2.6058 2.0385
-3.9437 2.2953 2.0385
-4.1141 1.9702 2.0385
-4.2580 1.6327 2.0385
-4.3002 1.2631 2.0039
-4.3356 0.9024 1.9803
-4.3683 0.5478 1.9688
-4.3972 0.1948 1.9684
-4.4201 -0.1601 1.9779
-4.4367 -0.5200 1.9973
-4.4468 -0.8882 2.0271
-4.3867 -1.2500 2.0385
-4.2734 -1.5991 2.0385
-4.1327 -1.9381 2.0385
-3.9653 -2.2650 2.0385
-3.7724 -2.5776 2.0385
-3.5551 -2.8740 2.0385
-3.3147 -3.1522 2.0385
-3.0527 -3.4105 2.0385
-2.7708 -3.6472 2.0385
-2.4707 -3.8608 2.0385
-2.1544 -4.0498 2.0385
-0.6645 -1.5351 0.7428
-0.5391 -1.5835 0.7422
-0.4103 -1.6217 0.7416
-0.2788 -1.6495 0.7410
-0.1455 -1.6668 0.7405
-0.0113 -1.6733 0.7399
0.1230 -1.6690 0.7394
0.2565 -1.6541 0.7389
0.3884 -1.6285 0.7385
0.5179 -1.5924 0.7380
0.6441 -1.5462 0.7377
0.7662 -1.4899 0.7373
2.4435 -3.9391 2.0385
2.7532 -3.7330 2.0385
3.0455 -3.5025 2.0385
3.3183 -3.2490 2.0385
3.5698 -2.9742 2.0385
3.7984 -2.6798 2.0385
4.0026 -2.3678 2.0385
4.1808 -2.0402 2.0385
4.3321 -1.6992 2.0385
4.4552 -1.3470 2.0385
4.5495 -0.9859 2.0385
4.6142 -0.6183 2.0385
4.6490 -0.2467 2.0385
4.6535 0.1265 2.0385
4.6279 0.4989 2.0385
4.5722 0.8678 2.0385
