ply
format ascii 1.0
element vertex 2173
property float32 x
property float32 y
property float32 z
end_header
-0.4069 -1.9217 0.7387
-0.2512 -1.9481 0.7386
-0.0940 -1.9619 0.7386
0.0639 -1.9631 0.7385
0.2213 -1.9517 0.7386
0.3773 -1.9278 0.7386
0.5309 -1.8914 0.7387
0.6812 -1.8429 0.7388
2.2816 -4.9174 2.0383
2.6690 -4.7181 2.0383
3.0390 -4.4883 2.0383
3.3894 -4.2295 2.0383
3.7178 -3.9434 2.0383
4.0221 -3.6318 2.0383
4.3003 -3.2967 2.0383
4.5506 -2.9404 2.0383
4.7714 -2.5652 2.0383
4.9614 -2.1735 2.0383
5.1192 -1.7678 2.0383
5.2439 -1.3508 2.0383
5.3346 -0.9252 2.0383
5.3908 -0.4937 2.0383
5.4122 -0.0591 2.0383
5.3986 0.3756 2.0383
5.3501 0.8079 2.0383
5.2671 1.2348 2.0383
5.1500 1.6535 2.0383
4.9998 2.0615 2.0383
4.8172 2.4560 2.0383
4.6037 2.8346 2.0383
4.3604 3.1947 2.0383
4.0891 3.5341 2.0383
3.7915 3.8506 2.0383
3.4695 4.1421 2.0383
-4.4496 2.2234 2.0383
-4.6144 1.8591 2.0383
-4.7495 1.4826 2.0383
-4.8539 1.0964 2.0383
-4.9270 0.7031 2.0383
-4.9683 0.3051 2.0383
-4.9775 -0.0949 2.0383
-4.9546 -0.4945 2.0383
-4.8996 -0.8910 2.0383
-4.8130 -1.2818 2.0383
-4.6952 -1.6645 2.0383
-4.5470 -2.0365 2.0383
-4.3695 -2.3955 2.0383
-4.1636 -2.7390 2.0383
-3.9308 -3.0650 2.0383
-3.6724 -3.3712 2.0383
-3.3903 -3.6557 2.0383
-3.0862 -3.9167 2.0383
-2.7620 -4.1523 2.0383
-2.4199 -4.3612 2.0383
-0.7481 -1.6477 0.7395
-0.6133 -1.7022 0.7393
-0.4746 -1.7458 0.7392
-0.3328 -1.7781 0.7391
-0.1890 -1.7991 0.7390
-0.0439 -1.8084 0.7390
0.1014 -1.8061 0.7389
0.2461 -1.7922 0.7390
0.3893 -1.7668 0.7390
0.5299 -1.7300 0.7391
0.6672 -1.6820 0.7392
2.2063 -4.4755 2.0383
2.5584 -4.2837 2.0383
2.8939 -4.0643 2.0383
3.2107 -3.8185 2.0383
3.5067 -3.5481 2.0383
3.7799 -3.2548 2.0383
4.0287 -2.9405 2.0383
4.2513 -2.6072 2.0383
4.4465 -2.2571 2.0383
4.6128 -1.8925 2.0383
4.7492 -1.5158 2.0383
4.8550 -1.1294 2.0383
4.9293 -0.7357 2.0383
4.9717 -0.3374 2.0383
4.9820 0.0629 2.0383
4.9601 0.4628 2.0383
4.9061 0.8595 2.0383
4.8205 1.2506 2.0383
4.7037 1.6334 2.0383
4.5566 2.0057 2.0383
4.3801 2.3648 2.0383
4.1754 2.7086 2.0383
3.9438 3.0348 2.0383
3.6868 3.3413 2.0383
3.4060 3.6262 2.0383
3.1033 3.8876 2.0383
2.7807 4.1238 2.0383
2.4401 4.3334 2.0383
0.7642 1.6558 0.7475
0.6288 1.7120 0.7477
0.4893 1.7572 0.7478
0.3466 1.7909 0.7479
0.2016 1.8131 0.7480
0.0553 1.8234 0.7480
-0.0914 1.8220 0.7481
-0.2374 1.8087 0.7480
-0.3820 1.7836 0.7480
-0.5240 1.7470 0.7479
-0.6626 1.6991 0.7478
-2.1722 4.4712 2.0383
-2.5245 4.2825 2.0383
-2.8605 4.0660 2.0383
-3.1781 3.8233 2.0383
-3.4753 3.5559 2.0383
-3.7500 3.2655 2.0383
-4.0006 2.9540 2.0383
-4.2254 2.6234 2.0383
-4.4230 2.2757 2.0383
-4.5921 1.9133 2.0383
-4.7316 1.5384 2.0383
-4.8405 1.1536 2.0383
-4.9183 0.7611 2.0383
-4.9642 0.3637 2.0383
-4.9782 -0.0362 2.0383
-4.9599 -0.4360 2.0383
-4.9096 -0.8331 2.0383
-4.8276 -1.2249 2.0383
-4.7144 -1.6090 2.0383
-4.5706 -1.9827 2.0383
-4.3973 -2.3437 2.0383
-4.1955 -2.6897 2.0383
-3.9665 -3.0184 2.0383
-3.7118 -3.3276 2.0383
-3.4331 -3.6155 2.0383
-3.1321 -3.8800 2.0383
-2.8107 -4.1194 2.0383
-2.4711 -4.3323 2.0383
-0.7675 -1.6388 0.7395
-0.6333 -1.6949 0.7393
-0.4951 -1.7401 0.7392
-0.3538 -1.7741 0.7391
-0.2102 -1.7967 0.7390
-0.0652 -1.8078 0.7390
0.0801 -1.8072 0.7389
0.2250 -1.7950 0.7389
0.3684 -1.7712 0.7390
0.5095 -1.7361 0.7391
0.6473 -1.6897 0.7392
0.7810 -1.6325 0.7393
2.5077 -4.3136 2.0383
2.8458 -4.0981 2.0383
3.1655 -3.8561 2.0383
3.4647 -3.5892 2.0383
3.7414 -3.2992 2.0383
3.9938 -2.9878 2.0383
4.2204 -2.6572 2.0383
4.4196 -2.3094 2.0383
4.5902 -1.9468 2.0383
4.7311 -1.5717 2.0383
4.8414 -1.1865 2.0383
4.9203 -0.7938 2.0383
4.9675 -0.3960 2.0383
4.9825 0.0042 2.0383
4.9653 0.4043 2.0383
4.9160 0.8016 2.0383
4.8350 1.1937 2.0383
4.7228 1.5779 2.0383
4.5801 1.9518 2.0383
4.4078 2.3131 2.0383
4.2072 2.6592 2.0383
3.9794 2.9881 2.0383
3.7260 3.2977 2.0383
3.4486 3.5858 2.0383
3.1490 3.8508 2.0383
2.8292 4.0908 2.0383
2.4911 4.3044 2.0383
0.7837 1.6466 0.7475
0.6490 1.7045 0.7477
0.5100 1.7513 0.7478
0.3677 1.7867 0.7479
0.2230 1.8106 0.7480
0.0768 1.8227 0.7480
-0.0699 1.8229 0.7481
-0.2161 1.8114 0.7480
-0.3609 1.7880 0.7480
-0.5033 1.7531 0.7479
-0.6425 1.7068 0.7478
-2.1193 4.4965 2.0383
-2.4738 4.3119 2.0383
-2.8123 4.0994 2.0383
-3.1328 3.8605 2.0383
-3.4330 3.5966 2.0383
-3.7112 3.3095 2.0383
-3.9654 3.0009 2.0383
-4.1941 2.6730 2.0383
-4.3958 2.3277 2.0383
-4.5691 1.9673 2.0383
-4.7130 1.5941 2.0383
-4.8265 1.2105 2.0383
-4.9088 0.8191 2.0383
-4.9595 0.4222 2.0383
-4.9781 0.0225 2.0383
-4.9646 -0.3775 2.0383
-4.9190 -0.7752 2.0383
-4.8416 -1.1679 2.0383
-4.7329 -1.5532 2.0383
-4.5936 -1.9286 2.0383
-4.4245 -2.2917 2.0383
-4.2268 -2.6400 2.0383
-4.0018 -2.9714 2.0383
-3.7507 -3.2836 2.0383
-3.4754 -3.5747 2.0383
-3.1775 -3.8427 2.0383
-2.8590 -4.0859 2.0383
-2.5220 -4.3028 2.0383
-2.1686 -4.4919 2.0383
-0.6533 -1.6873 0.7393
-0.5156 -1.7342 0.7392
-0.3747 -1.7698 0.7391
-0.2314 -1.7941 0.7390
-0.0865 -1.8069 0.7390
0.0588 -1.8080 0.7389
0.2038 -1.7975 0.7389
0.3475 -1.7754 0.7390
0.4890 -1.7419 0.7390
0.6273 -1.6972 0.7391
0.7617 -1.6416 0.7393
2.4567 -4.3429 2.0383
2.7974 -4.1314 2.0383
3.1199 -3.8932 2.0383
3.4222 -3.6299 2.0383
3.7023 -3.3431 2.0383
3.9584 -3.0347 2.0383
4.1888 -2.7068 2.0383
4.3922 -2.3614 2.0383
4.5670 -2.0008 2.0383
4.7124 -1.6274 2.0383
4.8272 -1.2436 2.0383
4.9108 -0.8518 2.0383
4.9626 -0.4546 2.0383
4.9823 -0.0546 2.0383
4.9698 0.3457 2.0383
4.9252 0.7436 2.0383
4.8488 1.1366 2.0383
4.7412 1.5221 2.0383
4.6029 1.8977 2.0383
4.4349 2.2610 2.0383
4.2383 2.6095 2.0383
4.0144 2.9411 2.0383
3.7647 3.2536 2.0383
3.4907 3.5450 2.0383
3.1943 3.8134 2.0383
-4.1155 2.0564 2.0383
-4.2679 1.7194 2.0383
-4.3928 1.3711 2.0383
-4.4893 1.0140 2.0383
-4.5569 0.6502 2.0383
-4.5950 0.2821 2.0383
-4.6035 -0.0879 2.0383
-4.5822 -0.4574 2.0383
-4.5314 -0.8241 2.0383
-4.4512 -1.1856 2.0383
-4.3422 -1.5395 2.0383
-4.2052 -1.8835 2.0383
-4.0409 -2.2155 2.0383
-3.8505 -2.5332 2.0383
-3.6351 -2.8346 2.0383
-3.3962 -3.1178 2.0383
-3.1353 -3.3809 2.0383
-2.8540 -3.6221 2.0383
-2.5542 -3.8400 2.0383
-2.2378 -4.0332 2.0383
-0.6921 -1.5244 0.7398
-0.5674 -1.5748 0.7396
-0.4390 -1.6152 0.7395
-0.3079 -1.6451 0.7394
-0.1748 -1.6644 0.7393
-0.0406 -1.6731 0.7393
0.0938 -1.6710 0.7393
0.2277 -1.6581 0.7393
0.3601 -1.6346 0.7393
0.4903 -1.6005 0.7394
0.6172 -1.5561 0.7395
0.7403 -1.5018 0.7396
2.3659 -3.9614 2.0383
2.6762 -3.7585 2.0383
2.9691 -3.5313 2.0383
3.2428 -3.2812 2.0383
3.4955 -3.0100 2.0383
3.7256 -2.7193 2.0383
3.9315 -2.4111 2.0383
4.1120 -2.0874 2.0383
4.2658 -1.7503 2.0383
4.3921 -1.4019 2.0383
4.4899 -1.0445 2.0383
4.5586 -0.6805 2.0383
4.5979 -0.3122 2.0383
4.6075 0.0581 2.0383
4.5872 0.4279 2.0383
4.5374 0.7948 2.0383
4.4582 1.1565 2.0383
4.3503 1.5106 2.0383
4.2143 1.8549 2.0383
4.0511 2.1871 2.0383
3.8618 2.5050 2.0383
3.6476 2.8068 2.0383
3.4099 3.0903 2.0383
3.1503 3.3538 2.0383
2.8703 3.5956 2.0383
2.5719 3.8141 2.0383
2.2570 4.0080 2.0383
0.7066 1.5308 0.7472
0.5814 1.5828 0.7474
0.4524 1.6246 0.7475
0.3204 1.6558 0.7476
0.1864 1.6762 0.7477
0.0511 1.6858 0.7477
-0.0845 1.6844 0.7477
-0.2195 1.6722 0.7477
-0.3531 1.6490 0.7477
-0.4844 1.6152 0.7476
-0.6126 1.5709 0.7475
-0.7367 1.5164 0.7474
-2.3350 3.9610 2.0383
-2.6458 3.7608 2.0383
-2.9396 3.5363 2.0383
-3.2144 3.2889 2.0383
-3.4685 3.0203 2.0383
-3.7003 2.7322 2.0383
-3.9082 2.4263 2.0383
-4.0909 2.1048 2.0383
-4.2473 1.7695 2.0383
-4.3762 1.4228 2.0383
-4.4770 1.0668 2.0383
-4.5488 0.7039 2.0383
-4.5913 0.3363 2.0383
-4.6041 -0.0336 2.0383
-4.5872 -0.4034 2.0383
-4.5407 -0.7706 2.0383
-4.4648 -1.1330 2.0383
-4.3600 -1.4881 2.0383
-4.2270 -1.8338 2.0383
-4.0667 -2.1676 2.0383
-3.8800 -2.4876 2.0383
-3.6682 -2.7915 2.0383
-3.4327 -3.0775 2.0383
-3.1748 -3.3436 2.0383
-2.8964 -3.5882 2.0383
-2.5992 -3.8096 2.0383
-2.2852 -4.0064 2.0383
-0.7100 -1.5161 0.7398
-0.5859 -1.5681 0.7396
-0.4581 -1.6099 0.7395
-0.3273 -1.6414 0.7394
-0.1944 -1.6623 0.7393
-0.0603 -1.6725 0.7393
0.0741 -1.6720 0.7393
0.2082 -1.6607 0.7393
0.3408 -1.6387 0.7393
0.4713 -1.6061 0.7394
0.5988 -1.5633 0.7395
0.7225 -1.5103 0.7396
2.3190 -3.9891 2.0383
2.6317 -3.7898 2.0383
2.9273 -3.5660 2.0383
3.2040 -3.3192 2.0383
3.4599 -3.0510 2.0383
3.6933 -2.7631 2.0383
3.9029 -2.4574 2.0383
4.0872 -2.1358 2.0383
4.2450 -1.8005 2.0383
4.3753 -1.4536 2.0383
4.4773 -1.0974 2.0383
4.5504 -0.7342 2.0383
4.5940 -0.3663 2.0383
4.6079 0.0038 2.0383
4.5921 0.3738 2.0383
4.5465 0.7413 2.0383
4.4717 1.1039 2.0383
4.3679 1.4592 2.0383
4.2360 1.8051 2.0383
4.0767 2.1392 2.0383
3.8912 2.4594 2.0383
3.6805 2.7636 2.0383
3.4462 3.0499 2.0383
3.1897 3.3165 2.0383
2.9126 3.5616 2.0383
2.6168 3.7836 2.0383
2.3041 3.9812 2.0383
0.7246 1.5224 0.7472
0.6000 1.5758 0.7473
0.4715 1.6191 0.7475
0.3399 1.6519 0.7476
0.2062 1.6739 0.7476
0.0710 1.6851 0.7477
-0.0646 1.6853 0.7477
-0.1998 1.6746 0.7477
-0.3337 1.6531 0.7477
-0.4653 1.6208 0.7476
-0.5940 1.5780 0.7475
-0.7188 1.5250 0.7474
-2.2881 3.9882 2.0383
-2.6012 3.7917 2.0383
-2.8976 3.5707 2.0383
-3.1753 3.3266 2.0383
-3.4326 3.0610 2.0383
-3.6677 2.7756 2.0383
-3.8793 2.4722 2.0383
-4.0658 2.1528 2.0383
-4.2260 1.8195 2.0383
-4.3591 1.4743 2.0383
-4.4640 1.1195 2.0383
-4.5401 0.7574 2.0383
-4.5869 0.3904 2.0383
-4.6041 0.0207 2.0383
-4.5916 -0.3492 2.0383
-4.5493 -0.7170 2.0383
-4.4777 -1.0802 2.0383
-4.3771 -1.4366 2.0383
-4.2483 -1.7838 2.0383
-4.0919 -2.1195 2.0383
-3.9090 -2.4416 2.0383
-3.7008 -2.7480 2.0383
-3.4686 -3.0367 2.0383
-3.2140 -3.3059 2.0383
-2.9385 -3.5537 2.0383
-2.6439 -3.7786 2.0383
-2.3322 -3.9792 2.0383
-0.7278 -1.5077 0.7398
-0.6044 -1.5611 0.7397
-0.4770 -1.6044 0.7395
-0.3466 -1.6374 0.7394
-0.2140 -1.6599 0.7393
-0.0801 -1.6717 0.7393
0.0544 -1.6727 0.7393
0.1886 -1.6630 0.7393
0.3215 -1.6426 0.7393
0.4524 -1.6116 0.7394
0.5804 -1.5702 0.7395
0.7047 -1.5187 0.7396
2.2718 -4.0162 2.0383
2.5868 -3.8206 2.0383
2.8851 -3.6003 2.0383
3.1646 -3.3568 2.0383
3.4237 -3.0916 2.0383
3.6606 -2.8065 2.0383
3.8737 -2.5032 2.0383
4.0618 -2.1839 2.0383
4.2235 -1.8504 2.0383
4.3579 -1.5051 2.0383
4.4642 -1.1501 2.0383
4.5415 -0.7878 2.0383
4.5895 -0.4205 2.0383
4.6077 -0.0506 2.0383
4.5963 0.3196 2.0383
4.5551 0.6876 2.0383
4.4845 1.0511 2.0383
4.3849 1.4076 2.0383
4.2571 1.7550 2.0383
4.1017 2.0910 2.0383
3.9200 2.4134 2.0383
3.7130 2.7201 2.0383
3.4820 3.0091 2.0383
3.2286 3.2787 2.0383
2.9544 3.5270 2.0383
-3.8214 1.9093 2.0383
-3.9628 1.5964 2.0383
-4.0788 1.2730 2.0383
-4.1684 0.9414 2.0383
-4.2311 0.6036 2.0383
-4.2664 0.2618 2.0383
-4.2743 -0.0817 2.0383
-4.2545 -0.4248 2.0383
-4.2072 -0.7653 2.0383
-4.1327 -1.1009 2.0383
-4.0315 -1.4294 2.0383
-3.9043 -1.7488 2.0383
-3.7517 -2.0570 2.0383
-3.5749 -2.3520 2.0383
-3.3749 -2.6318 2.0383
-3.1530 -2.8947 2.0383
-2.9108 -3.1389 2.0383
-2.6496 -3.3629 2.0383
-2.3713 -3.5652 2.0383
-0.7544 -1.3597 0.7402
-0.6427 -1.4157 0.7400
-0.5269 -1.4626 0.7399
-0.4077 -1.5001 0.7398
-0.2860 -1.5279 0.7397
-0.1624 -1.5459 0.7396
-0.0377 -1.5539 0.7396
0.0872 -1.5519 0.7396
0.2115 -1.5400 0.7396
0.3345 -1.5181 0.7396
0.4553 -1.4865 0.7397
0.5733 -1.4453 0.7398
0.6875 -1.3947 0.7399
2.1964 -3.6778 2.0383
2.4845 -3.4894 2.0383
2.7565 -3.2784 2.0383
3.0106 -3.0463 2.0383
3.2452 -2.7945 2.0383
3.4588 -2.5247 2.0383
3.6500 -2.2386 2.0383
3.8176 -1.9380 2.0383
3.9604 -1.6251 2.0383
4.0777 -1.3016 2.0383
4.1685 -0.9698 2.0383
4.2324 -0.6319 2.0383
4.2689 -0.2899 2.0383
4.2778 0.0538 2.0383
4.2590 0.3972 2.0383
4.2128 0.7378 2.0383
4.1393 1.0737 2.0383
4.0392 1.4025 2.0383
3.9129 1.7221 2.0383
3.7614 2.0306 2.0383
3.5857 2.3258 2.0383
3.3869 2.6060 2.0383
3.1662 2.8693 2.0383
2.9251 3.1140 2.0383
2.6652 3.3385 2.0383
2.3881 3.5414 2.0383
0.7678 1.3634 0.7468
0.6559 1.4209 0.7469
0.5397 1.4691 0.7471
0.4199 1.5079 0.7472
0.2974 1.5368 0.7473
0.1730 1.5558 0.7474
0.0475 1.5647 0.7474
-0.0784 1.5634 0.7474
-0.2037 1.5520 0.7474
-0.3278 1.5306 0.7474
-0.4496 1.4992 0.7473
-0.5686 1.4580 0.7472
-0.6838 1.4075 0.7471
-2.1682 3.6779 2.0383
-2.4568 3.4920 2.0383
-2.7295 3.2835 2.0383
-2.9847 3.0538 2.0383
-3.2206 2.8044 2.0383
-3.4358 2.5368 2.0383
-3.6289 2.2528 2.0383
-3.7985 1.9542 2.0383
-3.9437 1.6430 2.0383
-4.0634 1.3210 2.0383
-4.1569 0.9905 2.0383
-4.2236 0.6534 2.0383
-4.2630 0.3121 2.0383
-4.2748 -0.0313 2.0383
-4.2591 -0.3746 2.0383
-4.2159 -0.7156 2.0383
-4.1453 -1.0520 2.0383
-4.0480 -1.3818 2.0383
-3.9245 -1.7026 2.0383
-3.7756 -2.0126 2.0383
-3.6023 -2.3096 2.0383
-3.4056 -2.5918 2.0383
-3.1869 -2.8573 2.0383
-2.9475 -3.1043 2.0383
-2.6890 -3.3314 2.0383
-2.4131 -3.5369 2.0383
-0.7704 -1.3507 0.7402
-0.6594 -1.4081 0.7400
-0.5441 -1.4563 0.7399
-0.4254 -1.4952 0.7398
-0.3040 -1.5244 0.7397
-0.1806 -1.5439 0.7396
-0.0560 -1.5533 0.7396
0.0689 -1.5528 0.7396
0.1933 -1.5423 0.7396
0.3166 -1.5219 0.7396
0.4378 -1.4917 0.7397
0.5562 -1.4519 0.7398
0.6710 -1.4027 0.7399
0.7816 -1.3445 0.7400
2.4432 -3.5184 2.0383
2.7177 -3.3107 2.0383
2.9745 -3.0816 2.0383
3.2121 -2.8326 2.0383
3.4289 -2.5653 2.0383
3.6234 -2.2815 2.0383
3.7945 -1.9830 2.0383
3.9411 -1.6717 2.0383
4.0621 -1.3496 2.0383
4.1568 -1.0189 2.0383
4.2247 -0.6817 2.0383
4.2652 -0.3402 2.0383
4.2782 0.0034 2.0383
4.2635 0.3469 2.0383
4.2213 0.6881 2.0383
4.1518 1.0248 2.0383
4.0555 1.3548 2.0383
3.9330 1.6759 2.0383
3.7852 1.9861 2.0383
3.6130 2.2834 2.0383
3.4174 2.5659 2.0383
3.1999 2.8318 2.0383
2.9617 3.0793 2.0383
2.7044 3.3069 2.0383
2.4298 3.5131 2.0383
0.7838 1.3543 0.7468
0.6726 1.4130 0.7469
0.5569 1.4627 0.7471
0.4377 1.5028 0.7472
0.3155 1.5332 0.7473
0.1914 1.5537 0.7473
0.0659 1.5640 0.7474
-0.0600 1.5643 0.7474
-0.1854 1.5543 0.7474
-0.3097 1.5343 0.7474
-0.4319 1.5044 0.7473
-0.5513 1.4647 0.7472
-0.6672 1.4155 0.7471
-2.1246 3.7032 2.0383
-2.4154 3.5207 2.0383
-2.6906 3.3155 2.0383
-2.9484 3.0888 2.0383
-3.1873 2.8422 2.0383
-3.4056 2.5771 2.0383
-3.6020 2.2954 2.0383
-3.7751 1.9989 2.0383
-3.9240 1.6893 2.0383
-4.0475 1.3688 2.0383
-4.1448 1.0394 2.0383
-4.2155 0.7032 2.0383
-4.2589 0.3624 2.0383
-4.2748 0.0191 2.0383
-4.2631 -0.3244 2.0383
-4.2239 -0.6658 2.0383
-4.1574 -1.0031 2.0383
-4.0640 -1.3339 2.0383
-3.9442 -1.6562 2.0383
-3.7990 -1.9679 2.0383
-3.6292 -2.2669 2.0383
-3.4359 -2.5514 2.0383
-3.2203 -2.8194 2.0383
-2.9839 -3.0693 2.0383
-2.7281 -3.2994 2.0383
-2.4546 -3.5082 2.0383
-2.1652 -3.6943 2.0383
-0.6759 -1.4002 0.7401
-0.5613 -1.4498 0.7399
-0.4430 -1.4901 0.7398
-0.3219 -1.5207 0.7397
-0.1988 -1.5416 0.7396
-0.0743 -1.5526 0.7396
0.0506 -1.5535 0.7396
0.1751 -1.5445 0.7396
0.2986 -1.5255 0.7396
0.4201 -1.4967 0.7397
0.5390 -1.4583 0.7397
0.6544 -1.4105 0.7399
0.7657 -1.3536 0.7400
2.4016 -3.5470 2.0383
2.6785 -3.3426 2.0383
2.9380 -3.1165 2.0383
3.1785 -2.8703 2.0383
3.3984 -2.6056 2.0383
3.5963 -2.3241 2.0383
3.7709 -2.0276 2.0383
3.9212 -1.7180 2.0383
4.0460 -1.3975 2.0383
4.1446 -1.0679 2.0383
4.2165 -0.7315 2.0383
4.2610 -0.3905 2.0383
4.2780 -0.0470 2.0383
4.2674 0.2966 2.0383
4.2292 0.6383 2.0383
4.1637 0.9758 2.0383
4.0713 1.3069 2.0383
3.9526 1.6294 2.0383
3.8084 1.9414 2.0383
3.6397 2.2407 2.0383
3.4475 2.5255 2.0383
3.2331 2.7939 2.0383
2.9978 3.0442 2.0383
2.7433 3.2748 2.0383
-3.5600 1.7786 2.0383
-3.6918 1.4871 2.0383
-3.7997 1.1858 2.0383
-3.8832 0.8769 2.0383
-3.9415 0.5622 2.0383
-3.9745 0.2438 2.0383
-3.9817 -0.0762 2.0383
-3.9633 -0.3958 2.0383
-3.9192 -0.7130 2.0383
-3.8498 -1.0256 2.0383
-3.7555 -1.3316 2.0383
-3.6369 -1.6292 2.0383
-3.4948 -1.9162 2.0383
-3.3300 -2.1910 2.0383
-3.1437 -2.4516 2.0383
-2.9370 -2.6965 2.0383
-2.7113 -2.9240 2.0383
-2.4681 -3.1326 2.0383
-2.2088 -3.3210 2.0383
-0.7029 -1.2670 0.7404
-0.5989 -1.3192 0.7403
-0.4910 -1.3629 0.7401
-0.3799 -1.3978 0.7400
-0.2665 -1.4237 0.7399
-0.1513 -1.4405 0.7399
-0.0351 -1.4479 0.7399
0.0812 -1.4461 0.7398
0.1971 -1.4350 0.7399
0.3117 -1.4146 0.7399
0.4243 -1.3851 0.7399
0.5342 -1.3467 0.7400
0.6406 -1.2996 0.7401
0.7430 -1.2441 0.7403
2.3142 -3.2503 2.0383
2.5676 -3.0538 2.0383
2.8043 -2.8376 2.0383
3.0228 -2.6031 2.0383
3.2218 -2.3518 2.0383
3.3999 -2.0853 2.0383
3.5560 -1.8054 2.0383
3.6891 -1.5138 2.0383
3.7984 -1.2126 2.0383
3.8830 -0.9035 2.0383
3.9425 -0.5887 2.0383
3.9766 -0.2701 2.0383
3.9849 0.0501 2.0383
3.9675 0.3699 2.0383
3.9244 0.6872 2.0383
3.8560 1.0001 2.0383
3.7627 1.3064 2.0383
3.6452 1.6042 2.0383
3.5041 1.8915 2.0383
3.3404 2.1666 2.0383
3.1552 2.4276 2.0383
2.9496 2.6729 2.0383
2.7250 2.9009 2.0383
2.4829 3.1101 2.0383
2.2248 3.2991 2.0383
0.7151 1.2698 0.7466
0.6108 1.3233 0.7467
0.5026 1.3682 0.7468
0.3911 1.4043 0.7469
0.2770 1.4312 0.7470
0.1611 1.4489 0.7471
0.0442 1.4572 0.7471
-0.0730 1.4560 0.7471
-0.1897 1.4454 0.7471
-0.3052 1.4254 0.7471
-0.4187 1.3962 0.7470
-0.5295 1.3579 0.7470
-0.6368 1.3108 0.7469
-0.7400 1.2552 0.7467
-2.2888 3.2532 2.0383
-2.5429 3.0589 2.0383
-2.7806 2.8449 2.0383
-3.0004 2.6126 2.0383
-3.2009 2.3633 2.0383
-3.3807 2.0987 2.0383
-3.5387 1.8205 2.0383
-3.6739 1.5305 2.0383
-3.7854 1.2306 2.0383
-3.8725 0.9226 2.0383
-3.9346 0.6086 2.0383
-3.9712 0.2907 2.0383
-3.9823 -0.0293 2.0383
-3.9676 -0.3491 2.0383
-3.9273 -0.6667 2.0383
-3.8615 -0.9801 2.0383
-3.7709 -1.2873 2.0383
-3.6558 -1.5861 2.0383
-3.5171 -1.8749 2.0383
-3.3556 -2.1515 2.0383
-3.1723 -2.4144 2.0383
-2.9686 -2.6616 2.0383
-2.7456 -2.8917 2.0383
-2.5048 -3.1032 2.0383
-2.2477 -3.2947 2.0383
-0.7178 -1.2586 0.7404
-0.6144 -1.3120 0.7403
-0.5070 -1.3570 0.7402
-0.3964 -1.3932 0.7400
-0.2832 -1.4205 0.7400
-0.1683 -1.4386 0.7399
-0.0522 -1.4474 0.7399
0.0642 -1.4470 0.7398
0.1801 -1.4372 0.7399
0.2950 -1.4181 0.7399
0.4079 -1.3900 0.7399
0.5182 -1.3529 0.7400
0.6252 -1.3070 0.7401
0.7283 -1.2528 0.7402
2.2758 -3.2774 2.0383
2.5314 -3.0839 2.0383
2.7707 -2.8705 2.0383
2.9920 -2.6386 2.0383
3.1939 -2.3896 2.0383
3.3752 -2.1253 2.0383
3.5346 -1.8472 2.0383
3.6711 -1.5572 2.0383
3.7839 -1.2573 2.0383
3.8721 -0.9492 2.0383
3.9354 -0.6351 2.0383
3.9732 -0.3170 2.0383
3.9853 0.0031 2.0383
3.9716 0.3231 2.0383
3.9323 0.6409 2.0383
3.8676 0.9546 2.0383
3.7780 1.2619 2.0383
3.6639 1.5611 2.0383
3.5262 1.8501 2.0383
3.3658 2.1271 2.0383
3.1836 2.3903 2.0383
2.9810 2.6380 2.0383
2.7591 2.8686 2.0383
2.5195 3.0806 2.0383
2.2636 3.2727 2.0383
0.7300 1.2612 0.7465
0.6264 1.3160 0.7467
0.5187 1.3622 0.7468
0.4076 1.3995 0.7469
0.2939 1.4278 0.7470
0.1782 1.4469 0.7471
0.0614 1.4565 0.7471
-0.0558 1.4568 0.7471
-0.1727 1.4475 0.7471
-0.2884 1.4289 0.7471
-0.4022 1.4010 0.7470
-0.5135 1.3640 0.7470
-0.6213 1.3182 0.7469
-0.7251 1.2639 0.7468
-2.2502 3.2799 2.0383
-2.5066 3.0887 2.0383
-2.7468 2.8775 2.0383
-2.9693 2.6477 2.0383
-3.1727 2.4008 2.0383
-3.3556 2.1384 2.0383
-3.5169 1.8621 2.0383
-3.6555 1.5737 2.0383
-3.7706 1.2751 2.0383
-3.8613 0.9682 2.0383
-3.9270 0.6550 2.0383
-3.9675 0.3375 2.0383
-3.9823 0.0177 2.0383
-3.9713 -0.3023 2.0383
-3.9348 -0.6203 2.0383
-3.8728 -0.9345 2.0383
-3.7857 -1.2427 2.0383
-3.6742 -1.5429 2.0383
-3.5389 -1.8332 2.0383
-3.3806 -2.1118 2.0383
-3.2005 -2.3767 2.0383
-2.9997 -2.6264 2.0383
-2.7794 -2.8591 2.0383
-2.5411 -3.0734 2.0383
-2.2864 -3.2679 2.0383
-0.7326 -1.2501 0.7405
-0.6298 -1.3047 0.7403
-0.5230 -1.3509 0.7402
-0.4128 -1.3885 0.7401
-0.2999 -1.4170 0.7400
-0.1852 -1.4365 0.7399
-0.0693 -1.4467 0.7399
0.0471 -1.4476 0.7398
0.1632 -1.4392 0.7398
0.2782 -1.4215 0.7399
0.3915 -1.3947 0.7399
0.5022 -1.3589 0.7400
0.6098 -1.3143 0.7401
0.7134 -1.2612 0.7402
2.2370 -3.3040 2.0383
2.4949 -3.1135 2.0383
2.7367 -2.9030 2.0383
2.9607 -2.6737 2.0383
3.1656 -2.4271 2.0383
3.3499 -2.1649 2.0383
3.5126 -1.8888 2.0383
3.6525 -1.6004 2.0383
3.7688 -1.3018 2.0383
3.8608 -0.9949 2.0383
3.9277 -0.6815 2.0383
3.9692 -0.3639 2.0383
3.9851 -0.0439 2.0383
3.9752 0.2762 2.0383
3.9397 0.5945 2.0383
3.8787 0.9089 2.0383
3.7926 1.2173 2.0383
3.6821 1.5178 2.0383
3.5478 1.8084 2.0383
3.3907 2.0873 2.0383
3.2117 2.3526 2.0383
3.0119 2.6027 2.0383
2.7928 2.8359 2.0383
2.5557 3.0507 2.0383
-3.3258 1.6616 2.0383
-3.4489 1.3892 2.0383
-3.5498 1.1078 2.0383
-3.6277 0.8191 2.0383
-3.6822 0.5251 2.0383
-3.7129 0.2277 2.0383
-3.7197 -0.0713 2.0383
-3.7024 -0.3699 2.0383
-3.6612 -0.6661 2.0383
-3.5964 -0.9582 2.0383
-3.5083 -1.2441 2.0383
-3.3975 -1.5220 2.0383
-3.2647 -1.7902 2.0383
-3.1107 -2.0468 2.0383
-2.9367 -2.2903 2.0383
-2.7436 -2.5190 2.0383
-2.5327 -2.7315 2.0383
-2.3055 -2.9263 2.0383
-0.7498 -1.1274 0.7408
-0.6568 -1.1838 0.7406
-0.5596 -1.2326 0.7405
-0.4587 -1.2735 0.7404
-0.3550 -1.3061 0.7403
-0.2490 -1.3303 0.7402
-0.1414 -1.3460 0.7401
-0.0328 -1.3530 0.7401
0.0759 -1.3513 0.7401
0.1842 -1.3409 0.7401
0.2912 -1.3218 0.7401
0.3964 -1.2943 0.7402
0.4991 -1.2584 0.7403
0.5986 -1.2143 0.7404
0.6942 -1.1625 0.7405
2.1618 -3.0362 2.0383
2.3984 -2.8527 2.0383
2.6195 -2.6507 2.0383
2.8237 -2.4317 2.0383
3.0096 -2.1969 2.0383
3.1760 -1.9480 2.0383
3.3218 -1.6865 2.0383
3.4462 -1.4142 2.0383
3.5482 -1.1328 2.0383
3.6273 -0.8441 2.0383
3.6829 -0.5500 2.0383
3.7148 -0.2525 2.0383
3.7226 0.0467 2.0383
3.7063 0.3455 2.0383
3.6661 0.6419 2.0383
3.6023 0.9342 2.0383
3.5151 1.2203 2.0383
3.4053 1.4985 2.0383
3.2735 1.7670 2.0383
3.1206 2.0240 2.0383
2.9476 2.2678 2.0383
2.7556 2.4970 2.0383
2.5458 2.7100 2.0383
2.3197 2.9054 2.0383
0.7609 1.1283 0.7462
0.6679 1.1859 0.7464
0.5705 1.2359 0.7465
0.4694 1.2778 0.7466
0.3653 1.3115 0.7467
0.2587 1.3367 0.7468
0.1505 1.3532 0.7468
0.0413 1.3609 0.7469
-0.0682 1.3598 0.7469
-0.1772 1.3499 0.7469
-0.2851 1.3312 0.7469
-0.3911 1.3039 0.7468
-0.4945 1.2682 0.7467
-0.5948 1.2242 0.7466
-0.6911 1.1723 0.7465
-2.1383 3.0392 2.0383
-2.3757 2.8577 2.0383
-2.5978 2.6578 2.0383
-2.8031 2.4407 2.0383
-2.9904 2.2078 2.0383
-3.1583 1.9606 2.0383
-3.3060 1.7007 2.0383
-3.4322 1.4297 2.0383
-3.5364 1.1495 2.0383
-3.6177 0.8618 2.0383
-3.6757 0.5685 2.0383
-3.7099 0.2715 2.0383
-3.7202 -0.0274 2.0383
-3.7065 -0.3262 2.0383
-3.6688 -0.6229 2.0383
-3.6074 -0.9157 2.0383
-3.5226 -1.2026 2.0383
-3.4151 -1.4818 2.0383
-3.2855 -1.7515 2.0383
-3.1346 -2.0100 2.0383
-2.9634 -2.2555 2.0383
-2.7731 -2.4864 2.0383
-2.5647 -2.7014 2.0383
-2.3398 -2.8989 2.0383
-0.7631 -1.1185 0.7408
-0.6707 -1.1760 0.7406
-0.5741 -1.2260 0.7405
-0.4737 -1.2680 0.7404
-0.3704 -1.3019 0.7403
-0.2646 -1.3273 0.7402
-0.1572 -1.3442 0.7401
-0.0488 -1.3525 0.7401
0.0600 -1.3521 0.7401
0.1683 -1.3429 0.7401
0.2756 -1.3251 0.7401
0.3811 -1.2988 0.7402
0.4842 -1.2641 0.7402
0.5842 -1.2213 0.7403
0.6805 -1.1706 0.7404
0.7724 -1.1123 0.7406
2.3646 -2.8808 2.0383
2.5881 -2.6815 2.0383
2.7949 -2.4648 2.0383
2.9835 -2.2323 2.0383
3.1529 -1.9853 2.0383
3.3018 -1.7256 2.0383
3.4293 -1.4547 2.0383
3.5347 -1.1746 2.0383
3.6172 -0.8868 2.0383
3.6763 -0.5934 2.0383
3.7116 -0.2962 2.0383
3.7229 0.0028 2.0383
3.7102 0.3017 2.0383
3.6735 0.5987 2.0383
3.6131 0.8916 2.0383
3.5293 1.1788 2.0383
3.4228 1.4583 2.0383
3.2942 1.7283 2.0383
3.1444 1.9871 2.0383
2.9742 2.2329 2.0383
2.7849 2.4644 2.0383
2.5777 2.6798 2.0383
2.3538 2.8779 2.0383
0.7742 1.1192 0.7462
0.6818 1.1779 0.7463
0.5850 1.2290 0.7465
0.4845 1.2722 0.7466
0.3807 1.3071 0.7467
0.2745 1.3335 0.7468
0.1665 1.3513 0.7468
0.0573 1.3603 0.7469
-0.0521 1.3605 0.7469
-0.1613 1.3519 0.7469
-0.2694 1.3345 0.7469
-0.3757 1.3085 0.7468
-0.4796 1.2740 0.7467
-0.5803 1.2312 0.7466
-0.6773 1.1804 0.7465
-0.7698 1.1220 0.7464
-2.3418 2.8855 2.0383
-2.5662 2.6882 2.0383
-2.7741 2.4735 2.0383
-2.9641 2.2429 2.0383
-3.1350 1.9976 2.0383
-3.2856 1.7395 2.0383
-3.4151 1.4701 2.0383
-3.5225 1.1911 2.0383
-3.6072 0.9044 2.0383
-3.6687 0.6118 2.0383
-3.7064 0.3152 2.0383
-3.7202 0.0164 2.0383
-3.7100 -0.2825 2.0383
-3.6758 -0.5796 2.0383
-3.6178 -0.8731 2.0383
-3.5365 -1.1610 2.0383
-3.4323 -1.4414 2.0383
-3.3058 -1.7126 2.0383
-3.1580 -1.9728 2.0383
-2.9898 -2.2203 2.0383
-2.8021 -2.4535 2.0383
-2.5964 -2.6709 2.0383
-2.3737 -2.8711 2.0383
-0.7762 -1.1095 0.7408
-0.6845 -1.1681 0.7406
-0.5885 -1.2191 0.7405
-0.4886 -1.2623 0.7404
-0.3857 -1.2974 0.7403
-0.2803 -1.3241 0.7402
-0.1730 -1.3423 0.7401
-0.0647 -1.3518 0.7401
0.0440 -1.3527 0.7401
0.1525 -1.3448 0.7401
0.2600 -1.3283 0.7401
0.3658 -1.3032 0.7402
0.4693 -1.2697 0.7402
0.5698 -1.2281 0.7403
0.6666 -1.1785 0.7404
0.7592 -1.1213 0.7406
2.3305 -2.9085 2.0383
2.5564 -2.7118 2.0383
2.7657 -2.4976 2.0383
2.9570 -2.2673 2.0383
3.1293 -2.0224 2.0383
3.2812 -1.7644 2.0383
3.4120 -1.4951 2.0383
3.5206 -1.2162 2.0383
3.6065 -0.9294 2.0383
3.6691 -0.6367 2.0383
3.7079 -0.3400 2.0383
3.7228 -0.0411 2.0383
3.7136 0.2580 2.0383
3.6804 0.5553 2.0383
3.6234 0.8490 2.0383
3.5431 1.1371 2.0383
3.4398 1.4179 2.0383
3.3144 1.6894 2.0383
3.1676 1.9499 2.0383
3.0004 2.1978 2.0383
2.8138 2.4314 2.0383
2.6091 2.6493 2.0383
2.3876 2.8500 2.0383
-3.1146 1.5560 2.0383
-3.2298 1.3008 2.0383
-3.3242 1.0373 2.0383
-3.3972 0.7670 2.0383
-3.4482 0.4917 2.0383
-3.4770 0.2131 2.0383
-3.4833 -0.0669 2.0383
-3.4671 -0.3465 2.0383
-3.4285 -0.6239 2.0383
-3.3677 -0.8974 2.0383
-3.2852 -1.1651 2.0383
-3.1814 -1.4253 2.0383
-3.0571 -1.6764 2.0383
-2.9129 -1.9167 2.0383
-2.7499 -2.1447 2.0383
-2.5691 -2.3589 2.0383
-2.3716 -2.5578 2.0383
-2.1588 -2.7403 2.0383
-0.7023 -1.0560 0.7409
-0.6152 -1.1088 0.7408
-0.5241 -1.1545 0.7407
-0.4297 -1.1928 0.7406
-0.3325 -1.2234 0.7405
-0.2332 -1.2461 0.7404
-0.1324 -1.2607 0.7403
-0.0307 -1.2673 0.7403
0.0711 -1.2657 0.7403
0.1725 -1.2559 0.7403
0.2728 -1.2381 0.7403
0.3713 -1.2123 0.7404
0.4675 -1.1786 0.7405
0.5607 -1.1374 0.7405
0.6502 -1.0888 0.7407
0.7357 -1.0333 0.7408
2.2458 -2.6713 2.0383
2.4529 -2.4822 2.0383
2.6441 -2.2770 2.0383
2.8181 -2.0572 2.0383
2.9740 -1.8242 2.0383
3.1105 -1.5793 2.0383
3.2270 -1.3243 2.0383
3.3226 -1.0608 2.0383
3.3966 -0.7905 2.0383
3.4488 -0.5151 2.0383
3.4786 -0.2365 2.0383
3.4859 0.0436 2.0383
3.4707 0.3234 2.0383
3.4331 0.6010 2.0383
3.3733 0.8747 2.0383
3.2917 1.1427 2.0383
3.1889 1.4032 2.0383
3.0655 1.6546 2.0383
2.9224 1.8953 2.0383
2.7604 2.1237 2.0383
2.5806 2.3383 2.0383
2.3841 2.5378 2.0383
2.1723 2.7208 2.0383
0.7124 1.0564 0.7460
0.6253 1.1103 0.7462
0.5342 1.1571 0.7463
0.4395 1.1963 0.7464
0.3420 1.2278 0.7465
0.2422 1.2514 0.7466
0.1409 1.2669 0.7466
0.0387 1.2741 0.7467
-0.0638 1.2731 0.7467
-0.1659 1.2638 0.7467
-0.2669 1.2463 0.7466
-0.3661 1.2208 0.7466
-0.4630 1.1873 0.7465
-0.5569 1.1462 0.7464
-0.6471 1.0976 0.7463
-0.7331 1.0419 0.7462
-2.2248 2.6762 2.0383
-2.4328 2.4889 2.0383
-2.6251 2.2856 2.0383
-2.8004 2.0675 2.0383
-2.9577 1.8360 2.0383
-3.0959 1.5926 2.0383
-3.2142 1.3388 2.0383
-3.3117 1.0764 2.0383
-3.3879 0.8070 2.0383
-3.4421 0.5323 2.0383
-3.4742 0.2541 2.0383
-3.4838 -0.0258 2.0383
-3.4709 -0.3055 2.0383
-3.4356 -0.5834 2.0383
-3.3780 -0.8576 2.0383
-3.2987 -1.1262 2.0383
-3.1980 -1.3877 2.0383
-3.0766 -1.6402 2.0383
-2.9352 -1.8822 2.0383
-2.7749 -2.1121 2.0383
-2.5967 -2.3284 2.0383
-2.4016 -2.5296 2.0383
-2.1909 -2.7146 2.0383
-0.7147 -1.0476 0.7410
-0.6282 -1.1015 0.7408
-0.5377 -1.1483 0.7407
-0.4437 -1.1877 0.7406
-0.3469 -1.2194 0.7405
-0.2479 -1.2432 0.7404
-0.1472 -1.2591 0.7403
-0.0457 -1.2668 0.7403
0.0562 -1.2664 0.7403
0.1577 -1.2579 0.7403
0.2582 -1.2412 0.7403
0.3570 -1.2165 0.7404
0.4536 -1.1840 0.7404
0.5472 -1.1439 0.7405
0.6373 -1.0964 0.7406
0.7234 -1.0418 0.7408
2.2142 -2.6976 2.0383
2.4235 -2.5109 2.0383
2.6171 -2.3081 2.0383
2.7937 -2.0903 2.0383
2.9523 -1.8591 2.0383
3.0918 -1.6159 2.0383
3.2112 -1.3623 2.0383
3.3099 -1.0999 2.0383
3.3871 -0.8305 2.0383
3.4425 -0.5558 2.0383
3.4756 -0.2775 2.0383
3.4862 0.0025 2.0383
3.4743 0.2825 2.0383
3.4400 0.5605 2.0383
3.3834 0.8349 2.0383
3.3050 1.1038 2.0383
3.2053 1.3655 2.0383
3.0849 1.6184 2.0383
2.9446 1.8607 2.0383
2.7853 2.0910 2.0383
2.6080 2.3077 2.0383
2.4139 2.5095 2.0383
2.2043 2.6950 2.0383
0.7248 1.0479 0.7460
0.6384 1.1028 0.7462
0.5478 1.1507 0.7463
0.4536 1.1910 0.7464
0.3564 1.2237 0.7465
0.2570 1.2485 0.7466
0.1559 1.2651 0.7466
0.0537 1.2735 0.7467
-0.0488 1.2737 0.7467
-0.1510 1.2657 0.7467
-0.2522 1.2494 0.7466
-0.3517 1.2250 0.7466
-0.4490 1.1927 0.7465
-0.5433 1.1527 0.7464
-0.6341 1.1052 0.7463
-0.7207 1.0505 0.7462
-2.1931 2.7022 2.0383
-2.4032 2.5174 2.0383
-2.5979 2.3164 2.0383
-2.7758 2.1003 2.0383
-2.9358 1.8707 2.0383
-3.0769 1.6289 2.0383
-3.1981 1.3766 2.0383
-3.2987 1.1154 2.0383
-3.3780 0.8469 2.0383
-3.4355 0.5728 2.0383
-3.4709 0.2951 2.0383
-3.4838 0.0153 2.0383
-3.4742 -0.2646 2.0383
-3.4421 -0.5429 2.0383
-3.3878 -0.8177 2.0383
-3.3116 -1.0872 2.0383
-3.2140 -1.3499 2.0383
-3.0956 -1.6038 2.0383
-2.9572 -1.8475 2.0383
-2.7996 -2.0792 2.0383
-2.6239 -2.2976 2.0383
-2.4312 -2.5011 2.0383
-2.2227 -2.6885 2.0383
-0.7270 -1.0392 0.7410
-0.6411 -1.0941 0.7408
-0.5512 -1.1419 0.7407
-0.4577 -1.1824 0.7406
-0.3612 -1.2152 0.7405
-0.2625 -1.2402 0.7404
-0.1621 -1.2573 0.7404
-0.0606 -1.2662 0.7403
0.0412 -1.2670 0.7403
0.1428 -1.2596 0.7403
0.2435 -1.2441 0.7403
0.3426 -1.2207 0.7404
0.4396 -1.1893 0.7404
0.5337 -1.1503 0.7405
0.6244 -1.1038 0.7406
0.7111 -1.0503 0.7407
2.1823 -2.7235 2.0383
2.3937 -2.5393 2.0383
2.5897 -2.3388 2.0383
2.7689 -2.1231 2.0383
2.9302 -1.8938 2.0383
3.0725 -1.6523 2.0383
3.1950 -1.4001 2.0383
3.2967 -1.1389 2.0383
3.3772 -0.8704 2.0383
3.4358 -0.5963 2.0383
3.4721 -0.3184 2.0383
3.4861 -0.0386 2.0383
3.4775 0.2415 2.0383
3.4464 0.5199 2.0383
3.3931 0.7949 2.0383
3.3179 1.0648 2.0383
3.2213 1.3277 2.0383
3.1038 1.5819 2.0383
2.9664 1.8259 2.0383
2.8098 2.0580 2.0383
2.6351 2.2768 2.0383
2.4434 2.4809 2.0383
2.2360 2.6689 2.0383
-2.9227 1.4600 2.0383
-3.0308 1.2206 2.0383
-3.1194 0.9733 2.0383
-3.1879 0.7196 2.0383
-3.2357 0.4613 2.0383
-3.2627 0.1999 2.0383
-3.2686 -0.0628 2.0383
-3.2534 -0.3252 2.0383
-3.2171 -0.5855 2.0383
-3.1601 -0.8421 2.0383
-3.0826 -1.0933 2.0383
-2.9852 -1.3375 2.0383
-2.8685 -1.5731 2.0383
-2.7333 -1.7986 2.0383
-2.5803 -2.0125 2.0383
-2.4106 -2.2135 2.0383
-2.2253 -2.4001 2.0383
-0.7366 -0.9351 0.7412
-0.6591 -0.9911 0.7411
-0.5773 -1.0407 0.7410
-0.4919 -1.0836 0.7408
-0.4032 -1.1195 0.7407
-0.3120 -1.1482 0.7406
-0.2188 -1.1695 0.7406
-0.1242 -1.1833 0.7405
-0.0288 -1.1894 0.7405
0.0667 -1.1879 0.7405
0.1619 -1.1788 0.7405
0.2560 -1.1620 0.7405
0.3485 -1.1378 0.7406
0.4388 -1.1062 0.7406
0.5262 -1.0675 0.7407
0.6103 -1.0219 0.7408
0.6904 -0.9697 0.7410
0.7661 -0.9113 0.7411
2.3016 -2.3291 2.0383
2.4810 -2.1366 2.0383
2.6443 -1.9304 2.0383
2.7905 -1.7117 2.0383
2.9187 -1.4820 2.0383
3.0280 -1.2427 2.0383
3.1177 -0.9955 2.0383
3.1872 -0.7418 2.0383
3.2361 -0.4834 2.0383
3.2641 -0.2220 2.0383
3.2710 0.0409 2.0383
3.2567 0.3034 2.0383
3.2215 0.5639 2.0383
3.1654 0.8207 2.0383
3.0889 1.0722 2.0383
2.9924 1.3166 2.0383
2.8766 1.5526 2.0383
2.7423 1.7784 2.0383
2.5903 1.9927 2.0383
2.4216 2.1941 2.0383
2.2373 2.3813 2.0383
0.7458 0.9340 0.7457
0.6684 0.9911 0.7459
0.5867 1.0416 0.7460
0.5011 1.0855 0.7461
0.4123 1.1223 0.7462
0.3209 1.1519 0.7463
0.2273 1.1740 0.7464
0.1322 1.1885 0.7464
0.0363 1.1953 0.7465
-0.0599 1.1943 0.7465
-0.1556 1.1856 0.7465
-0.2504 1.1692 0.7464
-0.3435 1.1453 0.7464
-0.4344 1.1139 0.7463
-0.5224 1.0753 0.7462
-0.6071 1.0297 0.7461
-0.6878 0.9775 0.7460
-0.7640 0.9190 0.7459
-2.2829 2.3356 2.0383
-2.4634 2.1447 2.0383
-2.6279 1.9400 2.0383
-2.7755 1.7228 2.0383
-2.9052 1.4944 2.0383
-3.0162 1.2563 2.0383
-3.1077 1.0100 2.0383
-3.1791 0.7572 2.0383
-3.2300 0.4994 2.0383
-3.2601 0.2384 2.0383
-3.2691 -0.0243 2.0383
-3.2569 -0.2868 2.0383
-3.2238 -0.5475 2.0383
-3.1698 -0.8048 2.0383
-3.0953 -1.0569 2.0383
-3.0008 -1.3022 2.0383
-2.8868 -1.5392 2.0383
-2.7542 -1.7662 2.0383
-2.6038 -1.9819 2.0383
-2.4365 -2.1849 2.0383
-2.2534 -2.3737 2.0383
-0.7476 -0.9263 0.7413
-0.6707 -0.9833 0.7411
-0.5896 -1.0338 0.7410
-0.5046 -1.0777 0.7409
-0.4164 -1.1147 0.7407
-0.3256 -1.1445 0.7407
-0.2326 -1.1669 0.7406
-0.1382 -1.1817 0.7405
-0.0429 -1.1890 0.7405
0.0527 -1.1886 0.7405
0.1480 -1.1806 0.7405
0.2423 -1.1649 0.7405
0.3351 -1.1418 0.7406
0.4257 -1.1113 0.7406
0.5136 -1.0736 0.7407
0.5982 -1.0290 0.7408
0.6789 -0.9778 0.7409
0.7553 -0.9203 0.7411
2.2740 -2.3561 2.0383
2.4556 -2.1658 2.0383
2.6214 -1.9615 2.0383
2.7702 -1.7445 2.0383
2.9010 -1.5163 2.0383
3.0131 -1.2784 2.0383
3.1057 -1.0322 2.0383
3.1783 -0.7794 2.0383
3.2302 -0.5216 2.0383
3.2613 -0.2605 2.0383
3.2713 0.0023 2.0383
3.2602 0.2650 2.0383
3.2280 0.5259 2.0383
3.1749 0.7833 2.0383
3.1014 1.0357 2.0383
3.0078 1.2813 2.0383
2.8948 1.5186 2.0383
2.7631 1.7460 2.0383
2.6137 1.9621 2.0383
2.4473 2.1654 2.0383
2.2652 2.3548 2.0383
0.7567 0.9252 0.7457
0.6800 0.9831 0.7458
0.5989 1.0346 0.7460
0.5139 1.0795 0.7461
0.4256 1.1174 0.7462
0.3344 1.1480 0.7463
0.2411 1.1712 0.7464
0.1462 1.1869 0.7464
0.0504 1.1948 0.7465
-0.0458 1.1950 0.7465
-0.1416 1.1874 0.7465
-0.2366 1.1721 0.7465
-0.3300 1.1493 0.7464
-0.4212 1.1189 0.7463
-0.5097 1.0814 0.7463
-0.5949 1.0368 0.7462
-0.6762 0.9856 0.7460
-0.7531 0.9279 0.7459
-2.2552 2.3623 2.0383
-2.4379 2.1736 2.0383
-2.6048 1.9709 2.0383
-2.7550 1.7554 2.0383
-2.8873 1.5285 2.0383
-3.0011 1.2917 2.0383
-3.0955 1.0466 2.0383
-3.1699 0.7946 2.0383
-3.2238 0.5375 2.0383
-3.2570 0.2768 2.0383
-3.2691 0.0143 2.0383
-3.2600 -0.2484 2.0383
-3.2299 -0.5095 2.0383
-3.1790 -0.7673 2.0383
-3.1075 -1.0203 2.0383
-3.0158 -1.2667 2.0383
-2.9047 -1.5050 2.0383
-2.7748 -1.7336 2.0383
-2.6269 -1.9511 2.0383
-2.4620 -2.1559 2.0383
-2.2812 -2.3469 2.0383
-0.7585 -0.9175 0.7413
-0.6823 -0.9753 0.7411
-0.6017 -1.0268 0.7410
-0.5173 -1.0717 0.7409
-0.4295 -1.1097 0.7408
-0.3390 -1.1405 0.7407
-0.2464 -1.1640 0.7406
-0.1521 -1.1800 0.7405
-0.0569 -1.1884 0.7405
0.0387 -1.1892 0.7405
0.1341 -1.1822 0.7405
0.2286 -1.1677 0.7405
0.3216 -1.1456 0.7406
0.4125 -1.1162 0.7406
0.5009 -1.0796 0.7407
0.5860 -1.0360 0.7408
0.6673 -0.9857 0.7409
0.7444 -0.9291 0.7410
2.2461 -2.3827 2.0383
2.4299 -2.1946 2.0383
2.5981 -1.9922 2.0383
2.7495 -1.7771 2.0383
2.8830 -1.5504 2.0383
2.9979 -1.3138 2.0383
3.0934 -1.0687 2.0383
3.1689 -0.8168 2.0383
3.2239 -0.5596 2.0383
3.2581 -0.2989 2.0383
3.2712 -0.0363 2.0383
3.2631 0.2265 2.0383
3.2340 0.4878 2.0383
3.1840 0.7459 2.0383
3.1134 0.9990 2.0383
3.0227 1.2457 2.0383
2.9126 1.4843 2.0383
2.7836 1.7133 2.0383
2.6367 1.9311 2.0383
2.4727 2.1365 2.0383
2.2929 2.3280 2.0383
0.7676 0.9162 0.7457
-2.7474 1.3724 2.0383
-2.8490 1.1473 2.0383
-2.9323 0.9148 2.0383
-2.9966 0.6764 2.0383
-3.0416 0.4335 2.0383
-3.0669 0.1878 2.0383
-3.0725 -0.0591 2.0383
-3.0581 -0.3058 2.0383
-3.0241 -0.5505 2.0383
-2.9704 -0.7917 2.0383
-2.8976 -1.0278 2.0383
-2.8060 -1.2573 2.0383
-2.6963 -1.4788 2.0383
-2.5691 -1.6907 2.0383
-2.4253 -1.8918 2.0383
-2.2658 -2.0806 2.0383
-0.7609 -0.8207 0.7415
-0.6925 -0.8791 0.7414
-0.6196 -0.9318 0.7412
-0.5428 -0.9784 0.7411
-0.4624 -1.0188 0.7410
-0.3791 -1.0525 0.7409
-0.2934 -1.0795 0.7408
-0.2057 -1.0995 0.7408
-0.1168 -1.1125 0.7407
-0.0271 -1.1183 0.7407
0.0628 -1.1169 0.7407
0.1522 -1.1082 0.7407
0.2407 -1.0925 0.7407
0.3276 -1.0697 0.7408
0.4125 -1.0400 0.7408
0.4947 -1.0036 0.7409
0.5737 -0.9608 0.7410
0.6491 -0.9117 0.7411
0.7203 -0.8568 0.7412
2.1633 -2.1893 2.0383
2.3320 -2.0084 2.0383
2.4855 -1.8145 2.0383
2.6229 -1.6090 2.0383
2.7434 -1.3931 2.0383
2.8461 -1.1682 2.0383
2.9305 -0.9358 2.0383
2.9958 -0.6974 2.0383
3.0418 -0.4545 2.0383
3.0682 -0.2087 2.0383
3.0747 0.0383 2.0383
3.0613 0.2851 2.0383
3.0281 0.5300 2.0383
2.9754 0.7714 2.0383
2.9035 1.0077 2.0383
2.8129 1.2376 2.0383
2.7041 1.4593 2.0383
2.5778 1.6716 2.0383
2.4349 1.8731 2.0383
2.2764 2.0624 2.0383
0.7691 0.8186 0.7454
0.7009 0.8778 0.7456
0.6282 0.9314 0.7457
0.5514 0.9790 0.7459
0.4710 1.0202 0.7460
0.3875 1.0548 0.7461
0.3016 1.0826 0.7461
0.2136 1.1033 0.7462
0.1243 1.1169 0.7463
0.0341 1.1233 0.7463
-0.0563 1.1224 0.7463
-0.1463 1.1142 0.7463
-0.2353 1.0988 0.7463
-0.3228 1.0763 0.7462
-0.4082 1.0468 0.7462
-0.4910 1.0106 0.7461
-0.5705 0.9677 0.7460
-0.6464 0.9187 0.7459
-0.7180 0.8637 0.7457
-2.1460 2.1954 2.0383
-2.3156 2.0161 2.0383
-2.4703 1.8236 2.0383
-2.6090 1.6194 2.0383
-2.7310 1.4047 2.0383
-2.8352 1.1808 2.0383
-2.9212 0.9493 2.0383
-2.9884 0.7117 2.0383
-3.0362 0.4694 2.0383
-3.0644 0.2240 2.0383
-3.0729 -0.0229 2.0383
-3.0615 -0.2697 2.0383
-3.0303 -0.5148 2.0383
-2.9795 -0.7566 2.0383
-2.9095 -0.9935 2.0383
-2.8206 -1.2241 2.0383
-2.7135 -1.4469 2.0383
-2.5888 -1.6603 2.0383
-2.4474 -1.8630 2.0383
-2.2902 -2.0537 2.0383
-0.7706 -0.8117 0.7416
-0.7028 -0.8709 0.7414
-0.6306 -0.9244 0.7413
-0.5543 -0.9720 0.7411
-0.4744 -1.0132 0.7410
-0.3915 -1.0480 0.7409
-0.3061 -1.0760 0.7408
-0.2187 -1.0970 0.7408
-0.1299 -1.1110 0.7407
-0.0403 -1.1179 0.7407
0.0496 -1.1175 0.7407
0.1391 -1.1100 0.7407
0.2278 -1.0952 0.7407
0.3150 -1.0735 0.7407
0.4002 -1.0448 0.7408
0.4828 -1.0094 0.7409
0.5624 -0.9674 0.7410
0.6383 -0.9193 0.7411
0.7101 -0.8652 0.7412
0.7774 -0.8055 0.7413
2.3081 -2.0358 2.0383
2.4640 -1.8437 2.0383
2.6038 -1.6398 2.0383
2.7268 -1.4253 2.0383
2.8322 -1.2017 2.0383
2.9193 -0.9703 2.0383
2.9874 -0.7327 2.0383
3.0363 -0.4903 2.0383
3.0655 -0.2449 2.0383
3.0749 0.0021 2.0383
3.0645 0.2490 2.0383
3.0342 0.4942 2.0383
2.9844 0.7362 2.0383
2.9153 0.9734 2.0383
2.8273 1.2043 2.0383
2.7211 1.4274 2.0383
2.5974 1.6411 2.0383
2.4569 1.8443 2.0383
2.3006 2.0355 2.0383
0.7787 0.8094 0.7454
0.7112 0.8695 0.7456
0.6391 0.9239 0.7457
0.5629 0.9724 0.7458
0.4830 1.0145 0.7460
0.4000 1.0501 0.7461
0.3143 1.0789 0.7461
0.2266 1.1007 0.7462
0.1374 1.1154 0.7463
0.0474 1.1228 0.7463
-0.0430 1.1230 0.7463
-0.1331 1.1159 0.7463
-0.2223 1.1015 0.7463
-0.3101 1.0801 0.7462
-0.3959 1.0516 0.7462
-0.4790 1.0163 0.7461
-0.5591 0.9744 0.7460
-0.6355 0.9262 0.7459
-0.7078 0.8721 0.7458
-0.7755 0.8123 0.7456
-2.2917 2.0432 2.0383
-2.4486 1.8526 2.0383
-2.5897 1.6500 2.0383
-2.7142 1.4368 2.0383
-2.8211 1.2142 2.0383
-2.9098 0.9837 2.0383
-2.9797 0.7469 2.0383
-3.0304 0.5051 2.0383
-3.0615 0.2601 2.0383
-3.0729 0.0133 2.0383
-3.0644 -0.2335 2.0383
-3.0361 -0.4790 2.0383
-2.9882 -0.7214 2.0383
-2.9209 -0.9591 2.0383
-2.8348 -1.1908 2.0383
-2.7303 -1.4147 2.0383
-2.6082 -1.6296 2.0383
-2.4692 -1.8340 2.0383
-2.3142 -2.0266 2.0383
-0.7801 -0.8026 0.7416
-0.7130 -0.8626 0.7414
-0.6414 -0.9169 0.7413
-0.5657 -0.9654 0.7411
-0.4863 -1.0076 0.7410
-0.4038 -1.0433 0.7409
-0.3187 -1.0723 0.7408
-0.2316 -1.0944 0.7408
-0.1430 -1.1094 0.7407
-0.0535 -1.1173 0.7407
0.0364 -1.1180 0.7407
0.1260 -1.1115 0.7407
0.2149 -1.0978 0.7407
0.3023 -1.0771 0.7407
0.3879 -1.0494 0.7408
0.4709 -1.0150 0.7409
0.5509 -0.9740 0.7410
0.6274 -0.9267 0.7411
0.6998 -0.8735 0.7412
0.7678 -0.8146 0.7413
2.2840 -2.0628 2.0383
2.4421 -1.8727 2.0383
2.5843 -1.6704 2.0383
2.7099 -1.4574 2.0383
2.8179 -1.2350 2.0383
2.9077 -1.0046 2.0383
2.9786 -0.7678 2.0383
3.0304 -0.5261 2.0383
3.0625 -0.2810 2.0383
3.0748 -0.0342 2.0383
3.0673 0.2128 2.0383
3.0399 0.4584 2.0383
2.9929 0.7010 2.0383
2.9266 0.9390 2.0383
2.8414 1.1709 2.0383
2.7378 1.3952 2.0383
2.6166 1.6104 2.0383
2.4785 1.8152 2.0383
2.3244 2.0082 2.0383
0.7882 0.8002 0.7454
0.7214 0.8610 0.7455
-2.5863 1.2919 2.0383
-2.6820 1.0800 2.0383
-2.7604 0.8611 2.0383
-2.8209 0.6367 2.0383
-2.8633 0.4080 2.0383
-2.8871 0.1767 2.0383
-2.8923 -0.0557 2.0383
-2.8788 -0.2879 2.0383
-2.8467 -0.5183 2.0383
-2.7962 -0.7453 2.0383
-2.7276 -0.9676 2.0383
-2.6414 -1.1836 2.0383
-2.5381 -1.3921 2.0383
-2.4184 -1.5916 2.0383
-2.2830 -1.7809 2.0383
-0.7762 -0.7128 0.7418
-0.7164 -0.7727 0.7416
-0.6520 -0.8277 0.7415
-0.5833 -0.8773 0.7414
-0.5110 -0.9212 0.7412
-0.4353 -0.9592 0.7411
-0.3569 -0.9910 0.7410
-0.2762 -1.0164 0.7410
-0.1937 -1.0353 0.7409
-0.1100 -1.0474 0.7409
-0.0255 -1.0529 0.7408
0.0591 -1.0516 0.7408
0.1433 -1.0434 0.7408
0.2266 -1.0286 0.7409
0.3085 -1.0072 0.7409
0.3884 -0.9792 0.7410
0.4658 -0.9449 0.7410
0.5402 -0.9046 0.7411
0.6111 -0.8584 0.7412
0.6781 -0.8066 0.7414
0.7408 -0.7497 0.7415
2.1951 -1.8906 2.0383
2.3396 -1.7081 2.0383
2.4690 -1.5146 2.0383
2.5824 -1.3114 2.0383
2.6792 -1.0997 2.0383
2.7585 -0.8810 2.0383
2.8201 -0.6565 2.0383
2.8634 -0.4279 2.0383
2.8882 -0.1966 2.0383
2.8943 0.0360 2.0383
2.8818 0.2683 2.0383
2.8506 0.4988 2.0383
2.8010 0.7260 2.0383
2.7333 0.9486 2.0383
2.6480 1.1649 2.0383
2.5455 1.3737 2.0383
2.4267 1.5736 2.0383
2.2922 1.7632 2.0383
0.7834 0.7097 0.7451
0.7239 0.7705 0.7453
0.6598 0.8262 0.7455
0.5913 0.8766 0.7456
0.5190 0.9214 0.7457
0.4433 0.9602 0.7458
0.3648 0.9927 0.7459
0.2838 1.0189 0.7460
0.2010 1.0384 0.7461
0.1170 1.0512 0.7461
0.0321 1.0572 0.7461
-0.0529 1.0564 0.7461
-0.1377 1.0487 0.7461
-0.2215 1.0342 0.7461
-0.3038 1.0130 0.7461
-0.3842 0.9853 0.7460
-0.4621 0.9511 0.7459
-0.5370 0.9108 0.7458
-0.6084 0.8647 0.7457
-0.6758 0.8129 0.7456
-0.7389 0.7559 0.7455
-2.1799 1.8978 2.0383
-2.3255 1.7167 2.0383
-2.4561 1.5244 2.0383
-2.5709 1.3223 2.0383
-2.6690 1.1115 2.0383
-2.7500 0.8936 2.0383
-2.8132 0.6699 2.0383
-2.8582 0.4418 2.0383
-2.8848 0.2108 2.0383
-2.8927 -0.0216 2.0383
-2.8819 -0.2539 2.0383
-2.8526 -0.4846 2.0383
-2.8048 -0.7123 2.0383
-2.7388 -0.9353 2.0383
-2.6551 -1.1524 2.0383
-2.5543 -1.3621 2.0383
-2.4370 -1.5630 2.0383
-2.3038 -1.7538 2.0383
-2.1558 -1.9333 2.0383
-0.7255 -0.7642 0.7417
-0.6617 -0.8199 0.7415
-0.5937 -0.8703 0.7414
-0.5218 -0.9151 0.7413
-0.4466 -0.9540 0.7412
-0.3686 -0.9867 0.7411
-0.2882 -1.0131 0.7410
-0.2059 -1.0329 0.7409
-0.1223 -1.0461 0.7409
-0.0379 -1.0525 0.7408
0.0467 -1.0522 0.7408
0.1310 -1.0451 0.7408
0.2145 -1.0312 0.7409
0.2966 -1.0107 0.7409
0.3768 -0.9837 0.7410
0.4546 -0.9503 0.7410
0.5295 -0.9109 0.7411
0.6009 -0.8655 0.7412
0.6686 -0.8146 0.7413
0.7319 -0.7584 0.7415
2.1727 -1.9164 2.0383
2.3194 -1.7356 2.0383
2.4510 -1.5437 2.0383
2.5668 -1.3418 2.0383
2.6660 -1.1312 2.0383
2.7480 -0.9134 2.0383
2.8122 -0.6897 2.0383
2.8582 -0.4617 2.0383
2.8857 -0.2306 2.0383
2.8946 0.0019 2.0383
2.8848 0.2343 2.0383
2.8563 0.4652 2.0383
2.8094 0.6930 2.0383
2.7443 0.9163 2.0383
2.6616 1.1336 2.0383
2.5616 1.3436 2.0383
2.4451 1.5449 2.0383
2.3129 1.7361 2.0383
0.7917 0.7004 0.7451
0.7329 0.7619 0.7453
0.6694 0.8184 0.7454
0.6016 0.8696 0.7456
0.5298 0.9152 0.7457
0.4546 0.9549 0.7458
0.3764 0.9884 0.7459
0.2958 1.0155 0.7460
0.2133 1.0360 0.7460
0.1294 1.0498 0.7461
0.0446 1.0568 0.7461
-0.0405 1.0569 0.7461
-0.1253 1.0503 0.7461
-0.2093 1.0368 0.7461
-0.2919 1.0165 0.7461
-0.3726 0.9897 0.7460
-0.4509 0.9565 0.7459
-0.5262 0.9171 0.7459
-0.5982 0.8718 0.7457
-0.6662 0.8208 0.7456
-0.7299 0.7645 0.7455
-2.1574 1.9234 2.0383
-2.3051 1.7440 2.0383
-2.4379 1.5532 2.0383
-2.5551 1.3525 2.0383
-2.6557 1.1429 2.0383
-2.7392 0.9260 2.0383
-2.8050 0.7030 2.0383
-2.8527 0.4754 2.0383
-2.8820 0.2448 2.0383
-2.8927 0.0125 2.0383
-2.8847 -0.2199 2.0383
-2.8580 -0.4510 2.0383
-2.8129 -0.6791 2.0383
-2.7496 -0.9030 2.0383
-2.6685 -1.1210 2.0383
-2.5702 -1.3318 2.0383
-2.4552 -1.5341 2.0383
-2.3243 -1.7265 2.0383
-2.1784 -1.9077 2.0383
-0.7344 -0.7557 0.7417
-0.6713 -0.8121 0.7415
-0.6039 -0.8633 0.7414
-0.5326 -0.9089 0.7413
-0.4578 -0.9487 0.7412
-0.3802 -0.9823 0.7411
-0.3001 -1.0096 0.7410
-0.2180 -1.0304 0.7409
-0.1346 -1.0446 0.7409
-0.0503 -1.0520 0.7408
0.0343 -1.0527 0.7408
0.1187 -1.0465 0.7408
0.2023 -1.0337 0.7409
0.2847 -1.0141 0.7409
0.3652 -0.9881 0.7410
0.4433 -0.9556 0.7410
0.5187 -0.9170 0.7411
0.5907 -0.8725 0.7412
0.6589 -0.8224 0.7413
0.7229 -0.7669 0.7415
0.7822 -0.7065 0.7416
2.2988 -1.7628 2.0383
2.4327 -1.5725 2.0383
2.5509 -1.3720 2.0383
2.6526 -1.1626 2.0383
2.7371 -0.9458 2.0383
2.8039 -0.7229 2.0383
2.8526 -0.4953 2.0383
2.8828 -0.2646 2.0383
2.8945 -0.0323 2.0383
2.8874 0.2003 2.0383
2.8616 0.4315 2.0383
2.8174 0.6598 2.0383
2.7550 0.8839 2.0383
2.6748 1.1022 2.0383
2.5773 1.3133 2.0383
2.4632 1.5159 2.0383
2.3332 1.7087 2.0383
2.1882 1.8904 2.0383
0.7419 0.7531 0.7453
0.6790 0.8104 0.7454
-2.4377 1.2175 2.0383
-2.5278 1.0179 2.0383
-2.6017 0.8116 2.0383
-2.6587 0.6000 2.0383
-2.6986 0.3845 2.0383
-2.7211 0.1665 2.0383
-2.7260 -0.0526 2.0383
-2.7132 -0.2714 2.0383
-2.6830 -0.4885 2.0383
-2.6354 -0.7025 2.0383
-2.5707 -0.9120 2.0383
-2.4895 -1.1156 2.0383
-2.3921 -1.3121 2.0383
-2.2793 -1.5001 2.0383
-2.1517 -1.6785 2.0383
-0.7316 -0.6719 0.7419
-0.6753 -0.7284 0.7418
-0.6145 -0.7802 0.7416
-0.5499 -0.8269 0.7415
-0.4817 -0.8684 0.7414
-0.4104 -0.9042 0.7413
-0.3364 -0.9341 0.7412
-0.2603 -0.9581 0.7411
-0.1826 -0.9759 0.7411
-0.1036 -0.9874 0.7410
-0.0240 -0.9925 0.7410
0.0557 -0.9913 0.7410
0.1351 -0.9836 0.7410
0.2136 -0.9696 0.7410
0.2908 -0.9494 0.7411
0.3661 -0.9230 0.7411
0.4390 -0.8907 0.7412
0.5092 -0.8527 0.7413
0.5760 -0.8091 0.7414
0.6392 -0.7604 0.7415
0.6983 -0.7067 0.7416
0.7528 -0.6484 0.7417
2.2050 -1.6099 2.0383
2.3270 -1.4276 2.0383
2.4339 -1.2360 2.0383
2.5250 -1.0365 2.0383
2.5998 -0.8303 2.0383
2.6579 -0.6188 2.0383
2.6987 -0.4034 2.0383
2.7221 -0.1853 2.0383
2.7279 0.0338 2.0383
2.7160 0.2528 2.0383
2.6866 0.4700 2.0383
2.6399 0.6842 2.0383
2.5761 0.8939 2.0383
2.4957 1.0978 2.0383
2.3992 1.2946 2.0383
2.2872 1.4830 2.0383
0.7895 0.6073 0.7449
0.7383 0.6688 0.7451
0.6822 0.7260 0.7452
0.6217 0.7786 0.7453
0.5572 0.8261 0.7455
0.4891 0.8683 0.7456
0.4178 0.9048 0.7457
0.3437 0.9355 0.7458
0.2675 0.9601 0.7458
0.1895 0.9785 0.7459
0.1102 0.9906 0.7459
0.0303 0.9963 0.7460
-0.0499 0.9955 0.7460
-0.1297 0.9882 0.7460
-0.2087 0.9746 0.7460
-0.2863 0.9546 0.7459
-0.3621 0.9284 0.7459
-0.4355 0.8963 0.7458
-0.5061 0.8583 0.7457
-0.5733 0.8148 0.7456
-0.6369 0.7660 0.7455
-0.6963 0.7123 0.7454
-0.7512 0.6540 0.7452
-2.1919 1.6179 2.0383
-2.3149 1.4367 2.0383
-2.4231 1.2462 2.0383
-2.5156 1.0476 2.0383
-2.5919 0.8422 2.0383
-2.6514 0.6313 2.0383
-2.6939 0.4163 2.0383
-2.7189 0.1986 2.0383
-2.7264 -0.0205 2.0383
-2.7162 -0.2394 2.0383
-2.6885 -0.4569 2.0383
-2.6434 -0.6714 2.0383
-2.5813 -0.8816 2.0383
-2.5024 -1.0862 2.0383
-2.4074 -1.2838 2.0383
-2.2967 -1.4731 2.0383
-2.1713 -1.6530 2.0383
-0.7395 -0.6632 0.7419
-0.6838 -0.7204 0.7418
-0.6237 -0.7729 0.7416
-0.5596 -0.8204 0.7415
-0.4919 -0.8626 0.7414
-0.4210 -0.8993 0.7413
-0.3474 -0.9301 0.7412
-0.2716 -0.9550 0.7411
-0.1941 -0.9737 0.7411
-0.1153 -0.9861 0.7410
-0.0357 -0.9922 0.7410
0.0440 -0.9918 0.7410
0.1235 -0.9851 0.7410
0.2022 -0.9721 0.7410
0.2796 -0.9527 0.7411
0.3552 -0.9273 0.7411
0.4285 -0.8958 0.7412
0.4991 -0.8586 0.7413
0.5665 -0.8159 0.7414
0.6302 -0.7678 0.7415
0.6899 -0.7148 0.7416
0.7451 -0.6572 0.7417
2.1859 -1.6358 2.0383
2.3100 -1.4549 2.0383
2.4192 -1.2646 2.0383
2.5127 -1.0662 2.0383
2.5899 -0.8610 2.0383
2.6504 -0.6501 2.0383
2.6938 -0.4352 2.0383
2.7197 -0.2174 2.0383
2.7281 0.0017 2.0383
2.7189 0.2207 2.0383
2.6920 0.4383 2.0383
2.6478 0.6531 2.0383
2.5865 0.8635 2.0383
2.5085 1.0684 2.0383
2.4143 1.2663 2.0383
2.3046 1.4560 2.0383
2.1799 1.6362 2.0383
0.7461 0.6601 0.7450
0.6907 0.7179 0.7452
0.6309 0.7712 0.7453
0.5669 0.8194 0.7455
0.4993 0.8624 0.7456
0.4284 0.8998 0.7457
0.3548 0.9314 0.7458
0.2788 0.9569 0.7458
0.2010 0.9762 0.7459
0.1219 0.9892 0.7459
0.0420 0.9958 0.7460
-0.0381 0.9960 0.7460
-0.1180 0.9897 0.7460
-0.1972 0.9770 0.7460
-0.2750 0.9579 0.7459
-0.3511 0.9327 0.7459
-0.4249 0.9014 0.7458
-0.4959 0.8642 0.7457
-0.5637 0.8215 0.7456
-0.6278 0.7735 0.7455
-0.6879 0.7205 0.7454
-0.7434 0.6628 0.7452
-2.1726 1.6437 2.0383
-2.2978 1.4639 2.0383
-2.4082 1.2747 2.0383
-2.5030 1.0772 2.0383
-2.5817 0.8727 2.0383
-2.6438 0.6625 2.0383
-2.6887 0.4480 2.0383
-2.7163 0.2306 2.0383
-2.7264 0.0117 2.0383
-2.7188 -0.2074 2.0383
-2.6937 -0.4251 2.0383
-2.6511 -0.6402 2.0383
-2.5914 -0.8511 2.0383
-2.5150 -1.0566 2.0383
-2.4223 -1.2553 2.0383
-2.3139 -1.4459 2.0383
-2.1906 -1.6272 2.0383
-0.7473 -0.6545 0.7419
-0.6923 -0.7123 0.7418
-0.6328 -0.7655 0.7417
-0.5692 -0.8138 0.7415
-0.5020 -0.8568 0.7414
-0.4316 -0.8943 0.7413
-0.3584 -0.9260 0.7412
-0.2829 -0.9517 0.7411
-0.2055 -0.9713 0.7411
-0.1269 -0.9847 0.7410
-0.0474 -0.9917 0.7410
0.0323 -0.9923 0.7410
0.1119 -0.9865 0.7410
0.1907 -0.9744 0.7410
0.2683 -0.9560 0.7410
0.3442 -0.9314 0.7411
0.4179 -0.9008 0.7412
0.4889 -0.8644 0.7412
0.5568 -0.8225 0.7413
0.6211 -0.7752 0.7414
0.6814 -0.7229 0.7416
0.7373 -0.6660 0.7417
2.1665 -1.6615 2.0383
2.2927 -1.4821 2.0383
2.4041 -1.2931 2.0383
2.5000 -1.0958 2.0383
2.5796 -0.8914 2.0383
2.6426 -0.6814 2.0383
2.6885 -0.4669 2.0383
2.7170 -0.2495 2.0383
2.7280 -0.0305 2.0383
2.7213 0.1887 2.0383
2.6971 0.4066 2.0383
2.6554 0.6218 2.0383
2.5966 0.8330 2.0383
2.5210 1.0387 2.0383
2.4292 1.2377 2.0383
2.3216 1.4287 2.0383
2.1991 1.6104 2.0383
0.7538 0.6512 0.7450
0.6991 0.7097 0.7452
0.6399 0.7637 0.7453
-2.2998 1.1486 2.0383
-2.3848 0.9602 2.0383
-2.4545 0.7656 2.0383
-2.5083 0.5660 2.0383
-2.5459 0.3627 2.0383
-2.5671 0.1570 2.0383
-2.5717 -0.0497 2.0383
-2.5597 -0.2561 2.0383
-2.5311 -0.4610 2.0383
