ply
format ascii 1.0
element vertex 2172
property float32 x
property float32 y
property float32 z
end_header
-4.6183 -0.1475 2.0370
-4.5923 -0.5182 2.0370
-4.5366 -0.8856 2.0370
-4.4513 -1.2475 2.0370
-4.3371 -1.6012 2.0370
-4.1948 -1.9447 2.0370
-4.0251 -2.2755 2.0370
-3.8294 -2.5916 2.0370
-3.6087 -2.8909 2.0370
-3.3646 -3.1713 2.0370
-3.0987 -3.4312 2.0370
-2.8128 -3.6687 2.0370
-2.5086 -3.8823 2.0370
-2.1882 -4.0707 2.0370
-0.6718 -1.5340 0.7383
-0.5463 -1.5828 0.7383
-0.4173 -1.6214 0.7384
-0.2856 -1.6495 0.7385
-0.1521 -1.6670 0.7386
-0.0177 -1.6737 0.7388
0.1169 -1.6696 0.7390
0.2507 -1.6548 0.7392
0.3829 -1.6293 0.7395
0.5127 -1.5933 0.7398
0.6392 -1.5470 0.7401
0.7615 -1.4908 0.7404
2.4173 -3.9184 2.0370
2.7235 -3.7100 2.0370
3.0119 -3.4778 2.0370
3.2806 -3.2232 2.0370
3.5280 -2.9478 2.0370
3.7523 -2.6537 2.0370
3.9523 -2.3425 2.0370
4.1265 -2.0164 2.0370
4.2364 -1.6626 2.0191
4.1927 -1.2670 1.9438
4.1585 -0.8991 1.8887
4.2073 -0.5603 1.8846
4.2377 -0.2200 1.8846
4.2408 0.1217 1.8846
4.2165 0.4624 1.8846
4.1650 0.8000 1.8846
4.0866 1.1324 1.8846
3.9818 1.4574 1.8846
3.8514 1.7729 1.8846
3.7160 2.0881 1.8948
3.6470 2.4551 1.9543
3.5747 2.8500 2.0323
3.3418 3.1358 2.0370
3.0788 3.3947 2.0370
2.7960 3.6318 2.0370
2.4950 3.8455 2.0370
2.1779 4.0344 2.0370
0.6787 1.5427 0.7487
0.5525 1.5926 0.7487
0.4226 1.6321 0.7486
0.2900 1.6610 0.7485
0.1554 1.6791 0.7484
0.0199 1.6862 0.7482
-0.1158 1.6824 0.7480
-0.2508 1.6677 0.7478
-0.3841 1.6421 0.7475
-0.5149 1.6058 0.7472
-0.6423 1.5591 0.7469
-0.7656 1.5023 0.7466
-2.4124 3.9191 2.0370
-2.7207 3.7138 2.0370
-3.0116 3.4843 2.0370
-3.2831 3.2320 2.0370
-3.5336 2.9587 2.0370
-3.7613 2.6660 2.0370
-3.9647 2.3558 2.0370
-4.1426 2.0302 2.0370
-4.2937 1.6912 2.0370
-4.4170 1.3410 2.0370
-4.5117 0.9820 2.0370
-4.5772 0.6164 2.0370
-4.6130 0.2466 2.0370
-4.6189 -0.1249 2.0370
-4.5948 -0.4957 2.0370
-4.5408 -0.8634 2.0370
-4.4573 -1.2256 2.0370
-4.3449 -1.5800 2.0370
-4.2042 -1.9241 2.0370
-4.0362 -2.2558 2.0370
-3.8420 -2.5728 2.0370
-3.6228 -2.8732 2.0370
-3.3802 -3.1548 2.0370
-3.1155 -3.4160 2.0370
-2.8307 -3.6549 2.0370
-2.5276 -3.8700 2.0370
-2.2081 -4.0600 2.0370
-0.6793 -1.5307 0.7383
-0.5541 -1.5801 0.7383
-0.4252 -1.6193 0.7384
-0.2937 -1.6481 0.7385
-0.1603 -1.6662 0.7386
-0.0259 -1.6736 0.7388
0.1087 -1.6702 0.7390
0.2426 -1.6560 0.7392
0.3750 -1.6312 0.7395
0.5049 -1.5958 0.7397
0.6316 -1.5502 0.7400
0.7542 -1.4945 0.7404
2.3981 -3.9303 2.0370
2.7054 -3.7234 2.0370
2.9949 -3.4926 2.0370
3.2649 -3.2393 2.0370
3.5136 -2.9652 2.0370
3.7393 -2.6721 2.0370
3.9408 -2.3619 2.0370
4.1167 -2.0366 2.0370
4.2391 -1.6877 2.0243
4.1954 -1.2903 1.9479
4.1593 -0.9207 1.8910
4.2046 -0.5810 1.8846
4.2367 -0.2408 1.8846
4.2414 0.1008 1.8846
4.2188 0.4417 1.8846
4.1689 0.7796 1.8846
4.0921 1.1123 1.8846
3.9889 1.4378 1.8846
3.8600 1.7540 1.8846
3.7214 2.0672 1.8924
3.6512 2.4320 1.9502
3.5794 2.8250 2.0270
3.3571 3.1193 2.0370
3.0954 3.3796 2.0370
2.8137 3.6180 2.0370
2.5138 3.8332 2.0370
2.1976 4.0236 2.0370
0.6863 1.5394 0.7487
0.5603 1.5898 0.7487
0.4306 1.6300 0.7486
0.2981 1.6595 0.7485
0.1637 1.6783 0.7484
0.0281 1.6861 0.7482
-0.1076 1.6830 0.7480
-0.2426 1.6689 0.7478
-0.3760 1.6440 0.7475
-0.5070 1.6084 0.7473
-0.6347 1.5623 0.7470
-0.7582 1.5061 0.7466
-2.3931 3.9308 2.0370
-2.7024 3.7270 2.0370
-2.9944 3.4989 2.0370
-3.2672 3.2480 2.0370
-3.5189 2.9759 2.0370
-3.7481 2.6843 2.0370
-3.9530 2.3752 2.0370
-4.1325 2.0504 2.0370
-4.2853 1.7122 2.0370
-4.4103 1.3626 2.0370
-4.5068 1.0041 2.0370
-4.5741 0.6388 2.0370
-4.6117 0.2692 2.0370
-4.6194 -0.1022 2.0370
-4.5971 -0.4732 2.0370
-4.5449 -0.8412 2.0370
-4.4633 -1.2038 2.0370
-4.3526 -1.5587 2.0370
-4.2136 -1.9035 2.0370
-4.0472 -2.2360 2.0370
-3.8546 -2.5540 2.0370
-3.6369 -2.8554 2.0370
-3.3956 -3.1383 2.0370
-3.1322 -3.4007 2.0370
-2.8486 -3.6410 2.0370
-2.5465 -3.8576 2.0370
-2.2280 -4.0492 2.0370
-0.6868 -1.5274 0.7383
-0.5618 -1.5774 0.7383
-0.4332 -1.6173 0.7384
-0.3018 -1.6466 0.7385
-0.1685 -1.6654 0.7386
-0.0341 -1.6735 0.7388
0.1006 -1.6707 0.7390
0.2345 -1.6572 0.7392
0.3670 -1.6330 0.7394
0.4971 -1.5983 0.7397
0.6240 -1.5532 0.7400
0.7469 -1.4982 0.7403
2.3789 -3.9421 2.0370
2.6871 -3.7367 2.0370
2.9778 -3.5073 2.0370
3.2490 -3.2553 2.0370
3.4991 -2.9824 2.0370
3.7263 -2.6904 2.0370
3.9293 -2.3812 2.0370
4.1067 -2.0568 2.0370
4.2418 -1.7129 2.0295
4.1980 -1.3136 1.9520
4.1600 -0.9423 1.8934
4.2017 -0.6016 1.8846
4.2355 -0.2615 1.8846
4.2419 0.0801 1.8846
4.2209 0.4210 1.8846
4.1727 0.7591 1.8846
4.0976 1.0922 1.8846
3.9960 1.4182 1.8846
3.8686 1.7350 1.8846
3.7269 2.0464 1.8900
3.6553 2.4090 1.9460
3.5840 2.8002 2.0218
3.3723 3.1028 2.0370
3.1120 3.3643 2.0370
2.8314 3.6041 2.0370
2.5326 3.8207 2.0370
2.2173 4.0127 2.0370
0.6938 1.5360 0.7487
0.5681 1.5871 0.7487
0.4386 1.6278 0.7486
0.3063 1.6580 0.7485
0.1719 1.6774 0.7484
0.0364 1.6860 0.7482
-0.0993 1.6835 0.7480
-0.2344 1.6701 0.7478
-0.3680 1.6458 0.7476
-0.4991 1.6108 0.7473
-0.6270 1.5654 0.7470
-0.7508 1.5098 0.7466
-2.3738 3.9424 2.0370
-2.6840 3.7401 2.0370
-2.9771 3.5135 2.0370
-3.2511 3.2639 2.0370
-3.5042 2.9931 2.0370
-3.7348 2.7026 2.0370
-3.9413 2.3945 2.0370
-4.1223 2.0706 2.0370
-4.2767 1.7331 2.0370
-4.4035 1.3842 2.0370
-4.5017 1.0261 2.0370
-4.5708 0.6612 2.0370
-4.6102 0.2918 2.0370
-4.6198 -0.0796 2.0370
-4.5993 -0.4506 2.0370
-4.5490 -0.8189 2.0370
-4.4691 -1.1819 2.0370
-4.3601 -1.5373 2.0370
-4.2228 -1.8828 2.0370
-4.0581 -2.2161 2.0370
-3.8670 -2.5351 2.0370
-3.6508 -2.8375 2.0370
-3.4109 -3.1216 2.0370
-3.1489 -3.3853 2.0370
-2.8664 -3.6270 2.0370
-2.5654 -3.8452 2.0370
-2.2478 -4.0382 2.0370
-0.6943 -1.5241 0.7383
-0.5695 -1.5747 0.7383
-0.4411 -1.6151 0.7384
-0.3098 -1.6452 0.7385
-0.1766 -1.6646 0.7386
-0.0423 -1.6733 0.7388
0.0924 -1.6712 0.7390
0.2264 -1.6583 0.7392
0.3589 -1.6348 0.7394
0.4892 -1.6007 0.7397
0.6163 -1.5563 0.7400
0.7395 -1.5018 0.7403
2.3595 -3.9538 2.0370
2.6688 -3.7499 2.0370
2.9607 -3.5219 2.0370
3.2331 -3.2712 2.0370
3.4845 -2.9996 2.0370
3.7131 -2.7087 2.0370
3.9176 -2.4005 2.0370
4.0967 -2.0770 2.0370
4.2445 -1.7383 2.0348
4.2006 -1.3371 1.9562
4.1608 -0.9639 1.8958
4.1988 -0.6222 1.8846
4.2342 -0.2823 1.8846
4.2423 0.0592 1.8846
4.2230 0.4003 1.8846
4.1764 0.7386 1.8846
4.1029 1.0721 1.8846
4.0029 1.3986 1.8846
3.8771 1.7160 1.8846
3.7323 2.0256 1.8877
3.6594 2.3860 1.9420
3.5885 2.7756 2.0167
3.3875 3.0862 2.0370
3.1284 3.3490 2.0370
2.8491 3.5902 2.0370
2.5513 3.8082 2.0370
2.2369 4.0018 2.0370
0.7013 1.5325 0.7487
0.5758 1.5842 0.7487
0.4466 1.6257 0.7486
0.3144 1.6565 0.7485
0.1801 1.6766 0.7484
0.0447 1.6857 0.7482
-0.0911 1.6840 0.7480
-0.2262 1.6712 0.7478
-0.3599 1.6476 0.7476
-0.4912 1.6133 0.7473
-0.6193 1.5684 0.7470
-0.7434 1.5134 0.7467
-2.3544 3.9539 2.0370
-2.6656 3.7531 2.0370
-2.9598 3.5279 2.0370
-3.2350 3.2797 2.0370
-3.4895 3.0101 2.0370
-3.7214 2.7208 2.0370
-3.9294 2.4137 2.0370
-4.1121 2.0907 2.0370
-4.2681 1.7540 2.0370
-4.3966 1.4057 2.0370
-4.4966 1.0481 2.0370
-4.5674 0.6836 2.0370
-4.6087 0.3144 2.0370
-4.6200 -0.0570 2.0370
-4.6014 -0.4281 2.0370
-4.5529 -0.7966 2.0370
-4.4748 -1.1600 2.0370
-4.3676 -1.5159 2.0370
-4.2320 -1.8621 2.0370
-4.0689 -2.1962 2.0370
-3.8794 -2.5161 2.0370
-3.6647 -2.8196 2.0370
-3.4262 -3.1048 2.0370
-3.1654 -3.3699 2.0370
-2.8842 -3.6130 2.0370
-2.5842 -3.8326 2.0370
-2.2676 -4.0272 2.0370
-0.7018 -1.5206 0.7383
-0.5772 -1.5719 0.7383
-0.4490 -1.6130 0.7384
-0.3179 -1.6436 0.7385
-0.1848 -1.6637 0.7386
-0.0505 -1.6731 0.7388
0.0842 -1.6716 0.7389
0.2183 -1.6594 0.7392
0.3509 -1.6365 0.7394
0.4814 -1.6031 0.7397
0.6087 -1.5593 0.7400
0.7321 -1.5054 0.7403
2.3402 -3.9654 2.0370
2.6505 -3.7630 2.0370
2.9434 -3.5365 2.0370
3.2171 -3.2871 2.0370
3.4698 -3.0167 2.0370
3.6999 -2.7270 2.0370
3.9059 -2.4197 2.0370
4.0865 -2.0971 2.0370
4.2406 -1.7610 2.0370
4.2033 -1.3607 1.9605
4.1614 -0.9856 1.8983
4.1957 -0.6428 1.8846
4.2328 -0.3031 1.8846
4.2426 0.0384 1.8846
4.2250 0.3796 1.8846
4.1800 0.7181 1.8846
4.1081 1.0520 1.8846
4.0097 1.3790 1.8846
3.8854 1.6972 1.8846
3.7376 2.0048 1.8854
3.6635 2.3631 1.9380
3.5931 2.7510 2.0116
3.4026 3.0695 2.0370
3.1448 3.3336 2.0370
2.8666 3.5762 2.0370
2.5699 3.7956 2.0370
2.2565 3.9907 2.0370
0.7088 1.5291 0.7487
0.5836 1.5814 0.7487
0.4545 1.6234 0.7486
0.3225 1.6549 0.7485
0.1883 1.6757 0.7484
0.0529 1.6855 0.7482
-0.0828 1.6844 0.7481
-0.2180 1.6723 0.7478
-0.3518 1.6493 0.7476
-0.4833 1.6157 0.7473
-0.6116 1.5715 0.7470
-0.7360 1.5171 0.7467
-2.3349 3.9653 2.0370
-2.6471 3.7661 2.0370
-2.9424 3.5423 2.0370
-3.2189 3.2955 2.0370
-3.4746 3.0271 2.0370
-3.7080 2.7390 2.0370
-3.9175 2.4329 2.0370
-4.1017 2.1108 2.0370
-4.2594 1.7749 2.0370
-4.3896 1.4272 2.0370
-4.4913 1.0701 2.0370
-4.5640 0.7059 2.0370
-4.6070 0.3370 2.0370
-4.6202 -0.0343 2.0370
-4.6034 -0.4055 2.0370
-4.5567 -0.7743 2.0370
-4.4804 -1.1380 2.0370
-4.3749 -1.4945 2.0370
-4.2410 -1.8413 2.0370
-4.0796 -2.1763 2.0370
-3.8917 -2.4971 2.0370
-3.6785 -2.8016 2.0370
-3.4414 -3.0880 2.0370
-3.1819 -3.3543 2.0370
-2.9019 -3.5988 2.0370
-2.6030 -3.8199 2.0370
-2.2873 -4.0161 2.0370
-0.7092 -1.5172 0.7383
-0.5849 -1.5690 0.7383
-0.4569 -1.6107 0.7384
-0.3259 -1.6421 0.7385
-0.1929 -1.6628 0.7386
-0.0586 -1.6728 0.7387
0.0760 -1.6720 0.7389
-4.1972 0.8704 2.0370
-4.2546 0.5304 2.0370
-4.2844 0.1869 2.0370
-4.2864 -0.1580 2.0370
-4.2606 -0.5020 2.0370
-4.2071 -0.8429 2.0370
-4.1263 -1.1783 2.0370
-4.0187 -1.5061 2.0370
-3.8850 -1.8243 2.0370
-3.7260 -2.1306 2.0370
-3.5428 -2.4231 2.0370
-3.3367 -2.6998 2.0370
-3.1088 -2.9591 2.0370
-2.8609 -3.1990 2.0370
-2.5943 -3.4182 2.0370
-2.3110 -3.6152 2.0370
-0.7299 -1.3738 0.7386
-0.6170 -1.4278 0.7387
-0.5002 -1.4725 0.7387
-0.3802 -1.5078 0.7388
-0.2578 -1.5333 0.7389
-0.1338 -1.5489 0.7390
-0.0089 -1.5545 0.7391
0.1161 -1.5502 0.7393
0.2403 -1.5358 0.7395
0.3630 -1.5115 0.7398
0.4833 -1.4775 0.7400
0.6006 -1.4339 0.7403
0.7139 -1.3811 0.7406
2.2619 -3.6271 2.0370
2.5453 -3.4323 2.0370
2.8121 -3.2154 2.0370
3.0605 -2.9778 2.0370
3.2889 -2.7212 2.0370
3.4960 -2.4470 2.0370
3.6803 -2.1572 2.0370
3.8407 -1.8537 2.0370
3.9762 -1.5383 2.0370
4.0860 -1.2132 2.0370
4.1217 -0.8702 2.0138
4.0798 -0.5231 1.9668
4.0374 -0.1899 1.9331
3.9941 0.1341 1.9117
3.9494 0.4525 1.9019
3.9028 0.7694 1.9035
3.8538 1.0882 1.9164
3.8018 1.4126 1.9412
3.7460 1.7467 1.9784
3.6856 2.0949 2.0293
3.5184 2.3938 2.0370
3.3144 2.6691 2.0370
3.0890 2.9273 2.0370
2.8436 3.1666 2.0370
2.5799 3.3854 2.0370
2.2994 3.5825 2.0370
0.7362 1.3800 0.7483
0.6229 1.4350 0.7483
0.5055 1.4807 0.7483
0.3848 1.5168 0.7482
0.2615 1.5430 0.7481
0.1366 1.5591 0.7480
0.0107 1.5652 0.7479
-0.1152 1.5610 0.7477
-0.2404 1.5467 0.7475
-0.3640 1.5224 0.7472
-0.4853 1.4881 0.7470
-0.6034 1.4442 0.7467
-0.7175 1.3909 0.7464
-2.2579 3.6277 2.0370
-2.5432 3.4356 2.0370
-2.8121 3.2211 2.0370
-3.0630 2.9856 2.0370
-3.2942 2.7306 2.0370
-3.5042 2.4578 2.0370
-3.6916 2.1689 2.0370
-3.8552 1.8657 2.0370
-3.9938 1.5503 2.0370
-4.1066 1.2247 2.0370
-4.1929 0.8909 2.0370
-4.2519 0.5512 2.0370
-4.2834 0.2078 2.0370
-4.2871 -0.1370 2.0370
-4.2630 -0.4812 2.0370
-4.2112 -0.8222 2.0370
-4.1320 -1.1581 2.0370
-4.0260 -1.4864 2.0370
-3.8938 -1.8052 2.0370
-3.7364 -2.1123 2.0370
-3.5547 -2.4057 2.0370
-3.3499 -2.6835 2.0370
-3.1233 -2.9438 2.0370
-2.8765 -3.1850 2.0370
-2.6111 -3.4055 2.0370
-2.3287 -3.6038 2.0370
-0.7366 -1.3702 0.7386
-0.6240 -1.4247 0.7386
-0.5074 -1.4701 0.7387
-0.3876 -1.5059 0.7388
-0.2653 -1.5320 0.7388
-0.1414 -1.5482 0.7390
-0.0165 -1.5545 0.7391
0.1085 -1.5507 0.7393
0.2328 -1.5369 0.7395
0.3556 -1.5133 0.7398
0.4761 -1.4798 0.7400
0.5935 -1.4368 0.7403
0.7072 -1.3846 0.7406
2.2441 -3.6382 2.0370
2.5285 -3.4448 2.0370
2.7963 -3.2292 2.0370
3.0459 -2.9929 2.0370
3.2756 -2.7373 2.0370
3.4840 -2.4642 2.0370
3.6698 -2.1753 2.0370
3.8316 -1.8725 2.0370
3.9687 -1.5578 2.0370
4.0800 -1.2331 2.0370
4.1242 -0.8919 2.0171
4.0823 -0.5438 1.9692
4.0400 -0.2098 1.9348
3.9967 0.1145 1.9126
3.9521 0.4335 1.9022
3.9057 0.7501 1.9031
3.8569 1.0686 1.9153
3.8050 1.3926 1.9393
3.7495 1.7260 1.9757
3.6894 2.0732 2.0258
3.5301 2.3763 2.0370
3.3275 2.6528 2.0370
3.1033 2.9121 2.0370
2.8591 3.1526 2.0370
2.5964 3.3727 2.0370
2.3169 3.5711 2.0370
0.7430 1.3764 0.7483
0.6299 1.4319 0.7483
0.5127 1.4782 0.7483
0.3922 1.5148 0.7482
0.2691 1.5416 0.7481
0.1442 1.5584 0.7480
0.0184 1.5651 0.7479
-0.1076 1.5616 0.7477
-0.2328 1.5479 0.7475
-0.3566 1.5241 0.7472
-0.4780 1.4905 0.7470
-0.5963 1.4472 0.7467
-0.7107 1.3944 0.7464
-2.2401 3.6386 2.0370
-2.5262 3.4479 2.0370
-2.7962 3.2348 2.0370
-3.0483 3.0005 2.0370
-3.2807 2.7467 2.0370
-3.4921 2.4749 2.0370
-3.6809 2.1869 2.0370
-3.8459 1.8846 2.0370
-3.9861 1.5698 2.0370
-4.1005 1.2447 2.0370
-4.1884 0.9114 2.0370
-4.2491 0.5721 2.0370
-4.2823 0.2288 2.0370
-4.2877 -0.1160 2.0370
-4.2652 -0.4603 2.0370
-4.2151 -0.8016 2.0370
-4.1376 -1.1378 2.0370
-4.0332 -1.4667 2.0370
-3.9026 -1.7861 2.0370
-3.7467 -2.0940 2.0370
-3.5664 -2.3883 2.0370
-3.3630 -2.6670 2.0370
-3.1377 -2.9285 2.0370
-2.8921 -3.1709 2.0370
-2.6277 -3.3927 2.0370
-2.3464 -3.5924 2.0370
-0.7433 -1.3666 0.7386
-0.6310 -1.4217 0.7386
-0.5146 -1.4676 0.7387
-0.3950 -1.5040 0.7387
-0.2728 -1.5307 0.7388
-0.1489 -1.5475 0.7390
-0.0241 -1.5544 0.7391
0.1009 -1.5512 0.7393
0.2253 -1.5381 0.7395
0.3482 -1.5150 0.7397
0.4688 -1.4821 0.7400
0.5865 -1.4397 0.7403
0.7004 -1.3880 0.7406
2.2263 -3.6492 2.0370
2.5116 -3.4572 2.0370
2.7805 -3.2429 2.0370
3.0313 -3.0078 2.0370
3.2622 -2.7534 2.0370
3.4720 -2.4813 2.0370
3.6591 -2.1933 2.0370
3.8225 -1.8913 2.0370
3.9611 -1.5772 2.0370
4.0740 -1.2531 2.0370
4.1268 -0.9136 2.0205
4.0849 -0.5646 1.9717
4.0426 -0.2299 1.9365
3.9994 0.0950 1.9137
3.9549 0.4140 1.9025
3.9086 0.7308 1.9027
3.8599 1.0491 1.9142
3.8083 1.3726 1.9375
3.7530 1.7053 1.9731
3.6933 2.0516 2.0223
3.5417 2.3589 2.0370
3.3404 2.6365 2.0370
3.1176 2.8968 2.0370
2.8745 3.1385 2.0370
2.6129 3.3599 2.0370
2.3344 3.5597 2.0370
0.7497 1.3727 0.7483
0.6369 1.4288 0.7483
0.5200 1.4756 0.7483
0.3996 1.5129 0.7482
0.2766 1.5403 0.7482
0.1519 1.5577 0.7480
0.0261 1.5650 0.7479
-0.0999 1.5621 0.7477
-0.2252 1.5490 0.7475
-0.3491 1.5259 0.7472
-0.4707 1.4928 0.7470
-0.5892 1.4501 0.7467
-0.7038 1.3979 0.7464
-2.2221 3.6495 2.0370
-2.5093 3.4602 2.0370
-2.7803 3.2484 2.0370
-3.0335 3.0154 2.0370
-3.2672 2.7627 2.0370
-3.4798 2.4919 2.0370
-3.6700 2.2049 2.0370
-3.8366 1.9033 2.0370
-3.9783 1.5893 2.0370
-4.0943 1.2648 2.0370
-4.1838 0.9319 2.0370
-4.2462 0.5929 2.0370
-4.2811 0.2498 2.0370
-4.2882 -0.0950 2.0370
-4.2674 -0.4394 2.0370
-4.2190 -0.7809 2.0370
-4.1431 -1.1175 2.0370
-4.0403 -1.4469 2.0370
-3.9113 -1.7670 2.0370
-3.7569 -2.0756 2.0370
-3.5781 -2.3708 2.0370
-3.3760 -2.6505 2.0370
-3.1520 -2.9131 2.0370
-2.9076 -3.1567 2.0370
-2.6443 -3.3798 2.0370
-2.3640 -3.5809 2.0370
-0.7500 -1.3630 0.7386
-0.6380 -1.4186 0.7386
-0.5218 -1.4650 0.7387
-0.4024 -1.5020 0.7387
-0.2803 -1.5293 0.7388
-0.1565 -1.5468 0.7390
-0.0317 -1.5543 0.7391
0.0933 -1.5517 0.7393
0.2177 -1.5391 0.7395
0.3407 -1.5167 0.7397
0.4616 -1.4844 0.7400
0.5794 -1.4426 0.7403
0.6935 -1.3914 0.7406
2.2084 -3.6602 2.0370
2.4947 -3.4696 2.0370
2.7647 -3.2566 2.0370
3.0165 -3.0227 2.0370
3.2488 -2.7694 2.0370
3.4598 -2.4983 2.0370
3.6484 -2.2113 2.0370
3.8132 -1.9100 2.0370
3.9534 -1.5967 2.0370
4.0678 -1.2731 2.0370
4.1293 -0.9355 2.0239
4.0874 -0.5854 1.9743
4.0452 -0.2499 1.9383
4.0021 0.0754 1.9147
3.9576 0.3948 1.9028
3.9114 0.7117 1.9024
3.8630 1.0296 1.9132
3.8115 1.3527 1.9357
3.7565 1.6847 1.9706
3.6970 2.0300 2.0189
3.5532 2.3417 2.0370
3.3533 2.6200 2.0370
3.1317 2.8815 2.0370
2.8899 3.1243 2.0370
2.6294 3.3470 2.0370
2.3518 3.5482 2.0370
0.7564 1.3690 0.7483
0.6439 1.4256 0.7483
0.5272 1.4731 0.7483
0.4070 1.5109 0.7483
0.2842 1.5389 0.7482
0.1595 1.5569 0.7480
0.0337 1.5648 0.7479
-0.0923 1.5625 0.7477
-0.2176 1.5501 0.7475
-0.3416 1.5276 0.7473
-0.4634 1.4951 0.7470
-0.5821 1.4529 0.7467
-0.6970 1.4013 0.7464
-2.2042 3.6603 2.0370
-2.4922 3.4724 2.0370
-2.7643 3.2619 2.0370
-3.0186 3.0301 2.0370
-3.2535 2.7786 2.0370
-3.4675 2.5089 2.0370
-3.6591 2.2228 2.0370
-3.8271 1.9221 2.0370
-3.9704 1.6087 2.0370
-4.0880 1.2848 2.0370
-4.1791 0.9524 2.0370
-4.2432 0.6136 2.0370
-4.2797 0.2707 2.0370
-4.2885 -0.0740 2.0370
-4.2695 -0.4184 2.0370
-4.2227 -0.7602 2.0370
-4.1485 -1.0972 2.0370
-4.0473 -1.4271 2.0370
-3.9199 -1.7478 2.0370
-3.7670 -2.0572 2.0370
-3.5896 -2.3532 2.0370
-3.3889 -2.6340 2.0370
-3.1663 -2.8976 2.0370
-2.9230 -3.1424 2.0370
-2.6609 -3.3668 2.0370
-2.3815 -3.5693 2.0370
-0.7567 -1.3593 0.7386
-0.6449 -1.4155 0.7386
-0.5290 -1.4625 0.7387
-0.4097 -1.5001 0.7387
-0.2878 -1.5280 0.7388
-0.1641 -1.5460 0.7389
-0.0393 -1.5541 0.7391
0.0857 -1.5521 0.7393
0.2102 -1.5402 0.7395
0.3333 -1.5183 0.7397
0.4543 -1.4866 0.7400
0.5723 -1.4454 0.7402
0.6867 -1.3948 0.7405
2.1905 -3.6710 2.0370
2.4777 -3.4818 2.0370
2.7487 -3.2702 2.0370
3.0018 -3.0375 2.0370
3.2352 -2.7853 2.0370
3.4476 -2.5153 2.0370
3.6376 -2.2292 2.0370
3.8039 -1.9288 2.0370
3.9456 -1.6161 2.0370
4.0616 -1.2931 2.0370
4.1318 -0.9574 2.0274
4.0900 -0.6062 1.9769
4.0478 -0.2700 1.9401
4.0047 0.0558 1.9158
3.9604 0.3755 1.9032
3.9144 0.6921 1.9021
3.8660 1.0101 1.9122
3.8148 1.3328 1.9340
3.7600 1.6642 1.9681
3.7008 2.0085 2.0155
3.5647 2.3242 2.0370
3.3661 2.6035 2.0370
3.1458 2.8661 2.0370
2.9052 3.1101 2.0370
2.6457 3.3341 2.0370
2.3691 3.5366 2.0370
0.7631 1.3652 0.7483
0.6509 1.4225 0.7483
0.5344 1.4704 0.7483
0.4144 1.5089 0.7483
0.2917 1.5375 0.7482
0.1671 1.5561 0.7480
0.0414 1.5646 0.7479
-0.0846 1.5630 0.7477
-0.2100 1.5511 0.7475
-0.3341 1.5292 0.7473
-0.4560 1.4974 0.7470
-0.5749 1.4558 0.7467
-0.6901 1.4047 0.7464
-2.1862 3.6709 2.0370
-2.4751 3.4845 2.0370
-2.7482 3.2753 2.0370
-3.0037 3.0448 2.0370
-3.2398 2.7945 2.0370
-3.4551 2.5258 2.0370
-3.6481 2.2406 2.0370
-3.8176 1.9408 2.0370
-3.9624 1.6282 2.0370
-4.0816 1.3048 2.0370
-4.1743 0.9728 2.0370
-4.2401 0.6344 2.0370
-4.2783 0.2917 2.0370
-4.2888 -0.0530 2.0370
-4.2714 -0.3975 2.0370
-4.2263 -0.7395 2.0370
-4.1538 -1.0769 2.0370
-4.0543 -1.4072 2.0370
-3.9284 -1.7286 2.0370
-3.7770 -2.0387 2.0370
-3.6011 -2.3356 2.0370
-3.4018 -2.6173 2.0370
-3.1804 -2.8821 2.0370
-2.9384 -3.1281 2.0370
-2.6774 -3.3538 2.0370
-2.3990 -3.5576 2.0370
-0.7633 -1.3556 0.7386
-0.6518 -1.4123 0.7386
-0.5362 -1.4599 0.7387
-0.4171 -1.4980 0.7387
-0.2953 -1.5265 0.7388
-0.1717 -1.5452 0.7389
-0.0469 -1.5539 0.7391
0.0781 -1.5526 0.7393
0.2026 -1.5412 0.7395
0.3258 -1.5199 0.7397
0.4470 -1.4888 0.7400
0.5652 -1.4482 0.7402
0.6799 -1.3981 0.7405
2.1725 -3.6818 2.0370
2.4607 -3.4940 2.0370
2.7327 -3.2837 2.0370
2.9869 -3.0523 2.0370
3.2216 -2.8012 2.0370
3.4353 -2.5322 2.0370
3.6267 -2.2470 2.0370
3.7945 -1.9474 2.0370
3.9376 -1.6354 2.0370
4.0553 -1.3130 2.0370
4.1344 -0.9793 2.0310
4.0926 -0.6271 1.9796
4.0504 -0.2902 1.9420
4.0074 0.0362 1.9169
3.9632 0.3558 1.9037
3.9172 0.6730 1.9018
3.8690 0.9907 1.9113
3.8180 1.3130 1.9323
3.7634 1.6437 1.9657
3.7046 1.9871 2.0122
3.5761 2.3067 2.0370
3.3789 2.5870 2.0370
3.1598 2.8506 2.0370
2.9204 3.0958 2.0370
2.6620 3.3210 2.0370
2.3864 3.5249 2.0370
0.7698 1.3615 0.7483
0.6579 1.4192 0.7483
0.5416 1.4678 0.7483
0.4218 1.5068 0.7483
0.2993 1.5360 0.7482
0.1747 1.5553 0.7481
0.0491 1.5644 0.7479
-0.0769 1.5634 0.7477
-0.2024 1.5522 0.7475
-0.3266 1.5308 0.7473
-0.4487 1.4996 0.7470
-0.5678 1.4586 0.7468
-0.6832 1.4081 0.7465
-2.1681 3.6815 2.0370
-2.4580 3.4965 2.0370
-2.7321 3.2887 2.0370
-2.9886 3.0595 2.0370
-3.2260 2.8102 2.0370
-3.4426 2.5427 2.0370
-3.6370 2.2585 2.0370
-3.8080 1.9594 2.0370
-3.9543 1.6475 2.0370
-4.0751 1.3248 2.0370
-4.1695 0.9933 2.0370
-4.2368 0.6552 2.0370
-4.2768 0.3127 2.0370
-4.2889 -0.0320 2.0370
-4.2733 -0.3766 2.0370
-4.2299 -0.7188 2.0370
-4.1590 -1.0565 2.0370
-4.0611 -1.3874 2.0370
-3.9368 -1.7093 2.0370
-3.7870 -2.0202 2.0370
-3.6125 -2.3179 2.0370
-3.4146 -2.6007 2.0370
-3.1945 -2.8665 2.0370
-2.9537 -3.1137 2.0370
-2.6938 -3.3406 2.0370
-2.4164 -3.5459 2.0370
-0.7700 -1.3518 0.7386
-0.6587 -1.4091 0.7386
-0.5433 -1.4572 0.7387
-0.4244 -1.4960 0.7387
-0.3028 -1.5251 0.7388
-0.1792 -1.5443 0.7389
-0.0545 -1.5536 0.7391
0.0705 -1.5529 0.7393
-3.9095 0.8105 2.0370
-3.9629 0.4939 2.0370
-3.9906 0.1739 2.0370
-3.9924 -0.1473 2.0370
-3.9683 -0.4677 2.0370
-3.9185 -0.7851 2.0370
-3.8432 -1.0975 2.0370
-3.7429 -1.4029 2.0370
-3.6184 -1.6991 2.0370
-3.4703 -1.9844 2.0370
-3.2997 -2.2568 2.0370
-3.1077 -2.5146 2.0370
-2.8955 -2.7560 2.0370
-2.6646 -2.9795 2.0370
-2.4164 -3.1836 2.0370
-0.7809 -1.2215 0.7390
-0.6801 -1.2801 0.7390
-0.5750 -1.3304 0.7390
-0.4662 -1.3721 0.7390
-0.3544 -1.4049 0.7391
-0.2403 -1.4287 0.7392
-0.1247 -1.4433 0.7393
-0.0083 -1.4486 0.7394
0.1081 -1.4445 0.7396
0.2239 -1.4311 0.7398
0.3382 -1.4084 0.7400
0.4503 -1.3767 0.7403
0.5595 -1.3361 0.7405
0.6652 -1.2869 0.7408
0.7665 -1.2293 0.7411
2.3709 -3.1975 2.0370
2.6195 -2.9955 2.0370
2.8509 -2.7742 2.0370
3.0638 -2.5352 2.0370
3.2568 -2.2798 2.0370
3.4285 -2.0099 2.0370
3.5780 -1.7271 2.0370
3.7043 -1.4333 2.0370
3.8066 -1.1303 2.0370
3.8843 -0.8202 2.0370
3.9367 -0.5050 2.0370
3.9638 -0.1865 2.0370
3.9652 0.1330 2.0370
3.9259 0.4498 2.0292
3.8796 0.7647 2.0309
3.8165 1.0776 2.0370
3.7171 1.3811 2.0370
3.5937 1.6756 2.0370
3.4470 1.9593 2.0370
3.2781 2.2303 2.0370
3.0881 2.4868 2.0370
2.8780 2.7274 2.0370
2.6494 2.9504 2.0370
2.4036 3.1543 2.0370
0.7866 1.2256 0.7480
0.6856 1.2852 0.7480
0.5800 1.3364 0.7480
0.4707 1.3789 0.7480
0.3583 1.4125 0.7479
0.2435 1.4369 0.7478
0.1271 1.4520 0.7477
0.0099 1.4576 0.7476
-0.1074 1.4537 0.7474
-0.2240 1.4404 0.7472
-0.3391 1.4177 0.7470
-0.4520 1.3859 0.7467
-0.5620 1.3450 0.7464
-0.6683 1.2954 0.7462
-0.7702 1.2373 0.7459
-2.3693 3.2002 2.0370
-2.6197 3.0004 2.0370
-2.8534 2.7810 2.0370
-3.0687 2.5434 2.0370
-3.2643 2.2892 2.0370
-3.4387 2.0201 2.0370
-3.5910 1.7377 2.0370
-3.7201 1.4439 2.0370
-3.8251 1.1405 2.0370
-3.9054 0.8297 2.0370
-3.9603 0.5133 2.0370
-3.9896 0.1934 2.0370
-3.9930 -0.1278 2.0370
-3.9705 -0.4483 2.0370
-3.9222 -0.7659 2.0370
-3.8485 -1.0787 2.0370
-3.7497 -1.3845 2.0370
-3.6266 -1.6814 2.0370
-3.4800 -1.9674 2.0370
-3.3107 -2.2406 2.0370
-3.1200 -2.4993 2.0370
-2.9090 -2.7418 2.0370
-2.6792 -2.9664 2.0370
-2.4320 -3.1718 2.0370
-2.1690 -3.3565 2.0370
-0.6864 -1.2768 0.7390
-0.5815 -1.3276 0.7390
-0.4729 -1.3698 0.7390
-0.3613 -1.4032 0.7391
-0.2473 -1.4275 0.7392
-0.1318 -1.4427 0.7393
-0.0154 -1.4485 0.7394
0.1010 -1.4450 0.7396
0.2168 -1.4322 0.7398
0.3313 -1.4101 0.7400
0.4435 -1.3789 0.7403
0.5530 -1.3388 0.7405
0.6588 -1.2901 0.7408
0.7605 -1.2331 0.7411
2.3552 -3.2091 2.0370
2.6048 -3.0084 2.0370
2.8373 -2.7883 2.0370
3.0514 -2.5502 2.0370
3.2456 -2.2958 2.0370
3.4187 -2.0267 2.0370
3.5696 -1.7447 2.0370
3.6973 -1.4514 2.0370
3.8011 -1.1490 2.0370
3.8802 -0.8393 2.0370
3.9343 -0.5243 2.0370
3.9629 -0.2060 2.0370
3.9658 0.1135 2.0370
3.9287 0.4306 2.0295
3.8825 0.7455 2.0304
3.8218 1.0588 2.0370
3.7238 1.3628 2.0370
3.6018 1.6579 2.0370
3.4566 1.9423 2.0370
3.2890 2.2142 2.0370
3.1002 2.4717 2.0370
2.8914 2.7132 2.0370
2.6638 2.9373 2.0370
2.4190 3.1424 2.0370
0.7926 1.2218 0.7480
0.6919 1.2818 0.7480
0.5866 1.3335 0.7480
0.4774 1.3766 0.7480
0.3652 1.4107 0.7479
0.2505 1.4357 0.7478
0.1342 1.4513 0.7477
0.0170 1.4575 0.7476
-0.1003 1.4542 0.7474
-0.2169 1.4415 0.7472
-0.3322 1.4194 0.7470
-0.4452 1.3881 0.7467
-0.5554 1.3477 0.7465
-0.6619 1.2986 0.7462
-0.7642 1.2411 0.7459
-2.3535 3.2118 2.0370
-2.6049 3.0131 2.0370
-2.8397 2.7949 2.0370
-3.0562 2.5584 2.0370
-3.2529 2.3052 2.0370
-3.4287 2.0369 2.0370
-3.5824 1.7552 2.0370
-3.7129 1.4620 2.0370
-3.8194 1.1592 2.0370
-3.9012 0.8488 2.0370
-3.9577 0.5327 2.0370
-3.9886 0.2130 2.0370
-3.9936 -0.1082 2.0370
-3.9726 -0.4288 2.0370
-3.9259 -0.7467 2.0370
-3.8537 -1.0598 2.0370
-3.7564 -1.3661 2.0370
-3.6348 -1.6636 2.0370
-3.4896 -1.9503 2.0370
-3.3217 -2.2244 2.0370
-3.1322 -2.4840 2.0370
-2.9224 -2.7275 2.0370
-2.6937 -2.9533 2.0370
-2.4475 -3.1599 2.0370
-2.1855 -3.3459 2.0370
-0.6927 -1.2734 0.7390
-0.5880 -1.3247 0.7390
-0.4796 -1.3675 0.7390
-0.3681 -1.4014 0.7391
-0.2543 -1.4263 0.7392
-0.1388 -1.4420 0.7393
-0.0225 -1.4484 0.7394
0.0940 -1.4455 0.7396
0.2098 -1.4332 0.7398
0.3243 -1.4117 0.7400
0.4368 -1.3811 0.7402
0.5464 -1.3415 0.7405
0.6525 -1.2933 0.7408
0.7544 -1.2368 0.7411
2.3395 -3.2207 2.0370
2.5901 -3.0212 2.0370
2.8237 -2.8022 2.0370
3.0389 -2.5652 2.0370
3.2344 -2.3118 2.0370
3.4088 -2.0435 2.0370
3.5611 -1.7622 2.0370
3.6902 -1.4696 2.0370
3.7955 -1.1677 2.0370
3.8761 -0.8583 2.0370
3.9317 -0.5436 2.0370
3.9619 -0.2254 2.0370
3.9664 0.0941 2.0370
3.9314 0.4114 2.0299
3.8854 0.7264 2.0300
3.8270 1.0401 2.0370
3.7305 1.3445 2.0370
3.6100 1.6402 2.0370
3.4661 1.9253 2.0370
3.2999 2.1980 2.0370
3.1123 2.4564 2.0370
2.9046 2.6990 2.0370
2.6782 2.9242 2.0370
2.4344 3.1305 2.0370
2.1749 3.3166 2.0370
0.6981 1.2784 0.7480
0.5931 1.3306 0.7480
0.4842 1.3742 0.7480
0.3721 1.4089 0.7479
0.2576 1.4344 0.7478
0.1413 1.4506 0.7477
0.0242 1.4574 0.7476
-0.0931 1.4547 0.7474
-0.2098 1.4425 0.7472
-0.3252 1.4210 0.7470
-0.4384 1.3902 0.7467
-0.5488 1.3504 0.7465
-0.6556 1.3019 0.7462
-0.7581 1.2448 0.7459
-2.3377 3.2232 2.0370
-2.5901 3.0258 2.0370
-2.8259 2.8087 2.0370
-3.0435 2.5733 2.0370
-3.2415 2.3210 2.0370
-3.4187 2.0536 2.0370
-3.5737 1.7727 2.0370
-3.7057 1.4802 2.0370
-3.8137 1.1779 2.0370
-3.8970 0.8679 2.0370
-3.9550 0.5520 2.0370
-3.9874 0.2325 2.0370
-3.9940 -0.0886 2.0370
-3.9746 -0.4093 2.0370
-3.9295 -0.7274 2.0370
-3.8588 -1.0409 2.0370
-3.7631 -1.3477 2.0370
-3.6429 -1.6458 2.0370
-3.4991 -1.9332 2.0370
-3.3325 -2.2081 2.0370
-3.1443 -2.4686 2.0370
-2.9357 -2.7132 2.0370
-2.7081 -2.9401 2.0370
-2.4630 -3.1478 2.0370
-2.2018 -3.3352 2.0370
-0.6989 -1.2700 0.7390
-0.5945 -1.3218 0.7390
-0.4863 -1.3651 0.7390
-0.3750 -1.3996 0.7391
-0.2613 -1.4251 0.7392
-0.1459 -1.4413 0.7393
-0.0296 -1.4483 0.7394
0.0869 -1.4459 0.7396
0.2028 -1.4342 0.7398
0.3174 -1.4133 0.7400
0.4300 -1.3832 0.7402
0.5398 -1.3442 0.7405
0.6462 -1.2965 0.7408
0.7484 -1.2405 0.7411
2.3238 -3.2322 2.0370
2.5753 -3.0339 2.0370
2.8100 -2.8160 2.0370
3.0264 -2.5801 2.0370
3.2231 -2.3276 2.0370
3.3988 -2.0602 2.0370
3.5524 -1.7797 2.0370
3.6830 -1.4877 2.0370
3.7898 -1.1863 2.0370
3.8719 -0.8773 2.0370
3.9290 -0.5629 2.0370
3.9608 -0.2449 2.0370
3.9668 0.0746 2.0370
3.9342 0.3922 2.0302
3.8883 0.7072 2.0297
3.8320 1.0213 2.0370
3.7371 1.3262 2.0370
3.6180 1.6225 2.0370
3.4755 1.9083 2.0370
3.3106 2.1818 2.0370
3.1243 2.4411 2.0370
2.9178 2.6847 2.0370
2.6925 2.9110 2.0370
2.4497 3.1185 2.0370
2.1911 3.3059 2.0370
0.7044 1.2749 0.7480
0.5996 1.3277 0.7480
0.4909 1.3718 0.7480
0.3790 1.4071 0.7479
0.2646 1.4331 0.7478
0.1485 1.4499 0.7477
0.0313 1.4573 0.7476
-0.0860 1.4551 0.7474
-0.2028 1.4436 0.7472
-0.3182 1.4226 0.7470
-0.4316 1.3924 0.7468
-0.5422 1.3531 0.7465
-0.6492 1.3051 0.7462
-0.7520 1.2485 0.7459
-2.3218 3.2345 2.0370
-2.5752 3.0384 2.0370
-2.8120 2.8225 2.0370
-3.0308 2.5881 2.0370
-3.2301 2.3368 2.0370
-3.4085 2.0703 2.0370
-3.5649 1.7902 2.0370
-3.6983 1.4983 2.0370
-3.8078 1.1966 2.0370
-3.8926 0.8869 2.0370
-3.9522 0.5714 2.0370
-3.9862 0.2520 2.0370
-3.9943 -0.0691 2.0370
-3.9766 -0.3898 2.0370
-3.9330 -0.7082 2.0370
-3.8638 -1.0220 2.0370
-3.7696 -1.3292 2.0370
-3.6509 -1.6279 2.0370
-3.5085 -1.9160 2.0370
-3.3433 -2.1917 2.0370
-3.1564 -2.4532 2.0370
-2.9490 -2.6988 2.0370
-2.7225 -2.9268 2.0370
-2.4784 -3.1358 2.0370
-2.2182 -3.3244 2.0370
-0.7051 -1.2666 0.7390
-0.6010 -1.3189 0.7390
-0.4930 -1.3628 0.7390
-0.3818 -1.3978 0.7391
-0.2683 -1.4238 0.7391
-0.1530 -1.4406 0.7393
-0.0367 -1.4481 0.7394
0.0798 -1.4463 0.7396
0.1958 -1.4352 0.7398
0.3105 -1.4148 0.7400
0.4232 -1.3853 0.7402
0.5332 -1.3468 0.7405
0.6398 -1.2997 0.7407
0.7423 -1.2441 0.7410
2.3079 -3.2436 2.0370
2.5604 -3.0465 2.0370
2.7962 -2.8298 2.0370
3.0137 -2.5950 2.0370
3.2117 -2.3434 2.0370
3.3887 -2.0769 2.0370
3.5437 -1.7971 2.0370
3.6758 -1.5058 2.0370
3.7840 -1.2049 2.0370
3.8676 -0.8963 2.0370
3.9263 -0.5821 2.0370
3.9596 -0.2643 2.0370
3.9672 0.0551 2.0370
3.9369 0.3730 2.0306
3.8911 0.6880 2.0294
3.8370 1.0025 2.0370
3.7435 1.3079 2.0370
3.6259 1.6048 2.0370
3.4848 1.8913 2.0370
3.3213 2.1655 2.0370
3.1363 2.4258 2.0370
2.9310 2.6704 2.0370
2.7067 2.8977 2.0370
2.4650 3.1064 2.0370
2.2073 3.2951 2.0370
0.7106 1.2714 0.7480
0.6061 1.3247 0.7480
0.4976 1.3694 0.7480
0.3859 1.4052 0.7479
0.2716 1.4318 0.7478
0.1556 1.4492 0.7477
0.0385 1.4571 0.7476
-0.0789 1.4555 0.7474
-0.1957 1.4445 0.7472
-0.3112 1.4241 0.7470
-0.4248 1.3945 0.7468
-0.5355 1.3557 0.7465
-0.6428 1.3082 0.7462
-0.7458 1.2522 0.7459
-2.3059 3.2458 2.0370
-2.5602 3.0509 2.0370
-2.7981 2.8362 2.0370
-3.0180 2.6029 2.0370
-3.2185 2.3526 2.0370
-3.3983 2.0869 2.0370
-3.5560 1.8076 2.0370
-3.6909 1.5164 2.0370
-3.8018 1.2152 2.0370
-3.8882 0.9060 2.0370
-3.9493 0.5907 2.0370
-3.9849 0.2716 2.0370
-3.9946 -0.0495 2.0370
-3.9784 -0.3703 2.0370
-3.9364 -0.6889 2.0370
-3.8688 -1.0030 2.0370
-3.7761 -1.3107 2.0370
-3.6588 -1.6100 2.0370
-3.5178 -1.8988 2.0370
-3.3540 -2.1753 2.0370
-3.1684 -2.4377 2.0370
-2.9622 -2.6843 2.0370
-2.7368 -2.9134 2.0370
-2.4937 -3.1236 2.0370
-2.2344 -3.3135 2.0370
-0.7113 -1.2631 0.7390
-0.6074 -1.3160 0.7390
-0.4997 -1.3603 0.7390
-0.3887 -1.3959 0.7391
-0.2752 -1.4225 0.7391
-0.1600 -1.4398 0.7392
-0.0438 -1.4479 0.7394
0.0727 -1.4467 0.7396
0.1887 -1.4361 0.7397
0.3036 -1.4163 0.7400
0.4164 -1.3873 0.7402
0.5266 -1.3494 0.7405
0.6334 -1.3028 0.7407
0.7361 -1.2477 0.7410
2.2921 -3.2550 2.0370
2.5455 -3.0591 2.0370
2.7823 -2.8436 2.0370
3.0010 -2.6098 2.0370
3.2002 -2.3592 2.0370
3.3785 -2.0935 2.0370
3.5349 -1.8145 2.0370
3.6684 -1.5238 2.0370
3.7781 -1.2234 2.0370
3.8633 -0.9153 2.0370
3.9235 -0.6014 2.0370
3.9583 -0.2838 2.0370
3.9675 0.0357 2.0370
3.9396 0.3537 2.0311
3.8940 0.6688 2.0291
3.8419 0.9837 2.0370
3.7499 1.2895 2.0370
3.6338 1.5869 2.0370
3.4941 1.8741 2.0370
3.3319 2.1492 2.0370
3.1481 2.4104 2.0370
2.9440 2.6560 2.0370
2.7209 2.8844 2.0370
2.4802 3.0943 2.0370
2.2234 3.2842 2.0370
0.7169 1.2679 0.7480
0.6126 1.3217 0.7480
0.5043 1.3669 0.7480
0.3928 1.4033 0.7479
0.2786 1.4305 0.7478
0.1627 1.4484 0.7477
0.0456 1.4569 0.7476
-0.0717 1.4559 0.7474
-0.1886 1.4455 0.7472
-0.3043 1.4256 0.7470
-0.4179 1.3965 0.7468
-0.5289 1.3584 0.7465
-0.6364 1.3114 0.7463
-0.7397 1.2559 0.7460
-2.2899 3.2570 2.0370
-2.5452 3.0634 2.0370
-2.7841 2.8498 2.0370
-3.0052 2.6176 2.0370
-3.2069 2.3683 2.0370
-3.3879 2.1035 2.0370
-3.5471 1.8249 2.0370
-3.6833 1.5344 2.0370
-3.7958 1.2338 2.0370
-3.8836 0.9250 2.0370
-3.9463 0.6101 2.0370
-3.9834 0.2911 2.0370
-3.9947 -0.0299 2.0370
-3.9801 -0.3509 2.0370
-3.9396 -0.6696 2.0370
-3.8736 -0.9841 2.0370
-3.7824 -1.2922 2.0370
-3.6666 -1.5920 2.0370
-3.5271 -1.8816 2.0370
-3.3646 -2.1589 2.0370
-3.1803 -2.4222 2.0370
-2.9753 -2.6698 2.0370
-2.7511 -2.9000 2.0370
-2.5090 -3.1114 2.0370
-2.2507 -3.3025 2.0370
-0.7175 -1.2596 0.7390
-0.6139 -1.3130 0.7390
-0.5063 -1.3579 0.7390
-0.3955 -1.3940 0.7391
-0.2822 -1.4211 0.7391
-0.1671 -1.4391 0.7392
-0.0509 -1.4477 0.7394
0.0656 -1.4470 0.7395
-3.6518 0.7569 2.0370
-3.7016 0.4612 2.0370
-3.7275 0.1623 2.0370
-3.7291 -0.1377 2.0370
-3.7066 -0.4370 2.0370
-3.6600 -0.7334 2.0370
-3.5897 -1.0252 2.0370
-3.4960 -1.3104 2.0370
-3.3797 -1.5871 2.0370
-3.2414 -1.8535 2.0370
-3.0821 -2.1079 2.0370
-2.9027 -2.3487 2.0370
-2.7046 -2.5742 2.0370
-2.4889 -2.7829 2.0370
-2.2571 -2.9736 2.0370
-0.7297 -1.1414 0.7393
-0.6356 -1.1961 0.7393
-0.5373 -1.2431 0.7393
-0.4357 -1.2821 0.7393
-0.3312 -1.3128 0.7394
-0.2246 -1.3351 0.7395
-0.1166 -1.3487 0.7396
-0.0078 -1.3536 0.7397
0.1010 -1.3498 0.7399
0.2091 -1.3372 0.7400
0.3159 -1.3161 0.7403
0.4207 -1.2864 0.7405
0.5227 -1.2485 0.7407
0.6214 -1.2025 0.7410
0.7161 -1.1487 0.7413
2.2147 -2.9872 2.0370
2.4469 -2.7985 2.0370
2.6632 -2.5919 2.0370
2.8621 -2.3686 2.0370
3.0424 -2.1301 2.0370
3.2030 -1.8779 2.0370
3.3427 -1.6137 2.0370
3.4608 -1.3392 2.0370
3.5564 -1.0562 2.0370
3.6290 -0.7665 2.0370
3.6780 -0.4719 2.0370
3.7033 -0.1744 2.0370
3.7047 0.1241 2.0370
3.6821 0.4217 2.0370
3.6357 0.7166 2.0370
3.5659 1.0067 2.0370
3.4730 1.2903 2.0370
3.3577 1.5655 2.0370
3.2207 1.8306 2.0370
3.0628 2.0838 2.0370
2.8852 2.3236 2.0370
2.6890 2.5483 2.0370
2.4754 2.7566 2.0370
2.2457 2.9471 2.0370
0.7346 1.1447 0.7477
0.6403 1.2003 0.7477
0.5417 1.2481 0.7477
0.4395 1.2878 0.7477
0.3345 1.3192 0.7476
0.2273 1.3420 0.7475
0.1187 1.3560 0.7474
0.0092 1.3613 0.7473
-0.1004 1.3577 0.7471
-0.2093 1.3453 0.7469
-0.3168 1.3241 0.7467
-0.4222 1.2943 0.7465
-0.5250 1.2561 0.7463
-0.6242 1.2098 0.7460
-0.7195 1.1556 0.7457
-2.2135 2.9895 2.0370
-2.4474 2.8027 2.0370
-2.6657 2.5977 2.0370
-2.8668 2.3757 2.0370
-3.0494 2.1383 2.0370
-3.2123 1.8868 2.0370
-3.3545 1.6230 2.0370
-3.4750 1.3485 2.0370
-3.5731 1.0652 2.0370
-3.6480 0.7748 2.0370
-3.6993 0.4793 2.0370
-3.7266 0.1806 2.0370
-3.7297 -0.1195 2.0370
-3.7087 -0.4188 2.0370
-3.6635 -0.7155 2.0370
-3.5946 -1.0076 2.0370
-3.5024 -1.2932 2.0370
-3.3874 -1.5705 2.0370
-3.2504 -1.8376 2.0370
-3.0923 -2.0928 2.0370
-2.9142 -2.3344 2.0370
-2.7172 -2.5609 2.0370
-2.5025 -2.7707 2.0370
-2.2716 -2.9625 2.0370
-0.7353 -1.1378 0.7393
-0.6414 -1.1930 0.7393
-0.5434 -1.2405 0.7393
-0.4419 -1.2800 0.7393
-0.3376 -1.3112 0.7394
-0.2312 -1.3339 0.7394
-0.1232 -1.3481 0.7396
-0.0145 -1.3535 0.7397
0.0943 -1.3502 0.7399
0.2026 -1.3382 0.7400
0.3095 -1.3176 0.7402
0.4144 -1.2885 0.7405
0.5166 -1.2510 0.7407
0.6155 -1.2055 0.7410
0.7105 -1.1522 0.7413
2.2001 -2.9981 2.0370
2.4332 -2.8106 2.0370
2.6505 -2.6050 2.0370
2.8505 -2.3826 2.0370
3.0320 -2.1450 2.0370
3.1938 -1.8936 2.0370
3.3348 -1.6301 2.0370
3.4542 -1.3562 2.0370
3.5512 -1.0736 2.0370
3.6252 -0.7843 2.0370
3.6757 -0.4900 2.0370
3.7025 -0.1926 2.0370
3.7053 0.1059 2.0370
3.6842 0.4037 2.0370
3.6392 0.6987 2.0370
3.5708 0.9892 2.0370
3.4793 1.2733 2.0370
3.3653 1.5490 2.0370
3.2296 1.8148 2.0370
3.0730 2.0688 2.0370
2.8966 2.3094 2.0370
2.7015 2.5351 2.0370
2.4888 2.7444 2.0370
2.2601 2.9361 2.0370
0.7402 1.1411 0.7477
0.6461 1.1971 0.7477
0.5478 1.2454 0.7477
0.4459 1.2857 0.7477
0.3410 1.3175 0.7476
0.2339 1.3408 0.7475
0.1253 1.3554 0.7474
0.0159 1.3612 0.7473
-0.0937 1.3582 0.7471
-0.2027 1.3463 0.7469
-0.3103 1.3256 0.7467
-0.4159 1.2964 0.7465
-0.5188 1.2587 0.7463
-0.6183 1.2128 0.7460
-0.7138 1.1591 0.7457
-2.1988 3.0002 2.0370
-2.4336 2.8146 2.0370
-2.6529 2.6107 2.0370
-2.8550 2.3897 2.0370
-3.0388 2.1531 2.0370
-3.2030 1.9025 2.0370
-3.3465 1.6394 2.0370
-3.4683 1.3655 2.0370
-3.5678 1.0827 2.0370
-3.6441 0.7927 2.0370
-3.6968 0.4974 2.0370
-3.7256 0.1988 2.0370
-3.7302 -0.1012 2.0370
-3.7106 -0.4006 2.0370
-3.6670 -0.6975 2.0370
-3.5995 -0.9900 2.0370
-3.5087 -1.2760 2.0370
-3.3950 -1.5539 2.0370
-3.2594 -1.8217 2.0370
-3.1026 -2.0776 2.0370
-2.9256 -2.3201 2.0370
-2.7297 -2.5476 2.0370
-2.5160 -2.7584 2.0370
-2.2861 -2.9514 2.0370
-0.7409 -1.1342 0.7393
-0.6473 -1.1899 0.7393
-0.5495 -1.2378 0.7393
-0.4482 -1.2778 0.7393
-0.3440 -1.3095 0.7394
-0.2377 -1.3328 0.7394
-0.1298 -1.3475 0.7395
-0.0211 -1.3534 0.7397
0.0877 -1.3507 0.7398
0.1960 -1.3392 0.7400
0.3030 -1.3191 0.7402
0.4080 -1.2905 0.7405
0.5105 -1.2535 0.7407
0.6096 -1.2085 0.7410
0.7048 -1.1556 0.7412
2.1854 -3.0089 2.0370
2.4195 -2.8225 2.0370
2.6378 -2.6180 2.0370
2.8389 -2.3966 2.0370
3.0215 -2.1599 2.0370
3.1845 -1.9093 2.0370
3.3268 -1.6465 2.0370
3.4476 -1.3732 2.0370
3.5459 -1.0911 2.0370
3.6214 -0.8021 2.0370
3.6733 -0.5080 2.0370
3.7015 -0.2108 2.0370
3.7058 0.0878 2.0370
3.6861 0.3856 2.0370
3.6426 0.6809 2.0370
3.5756 0.9717 2.0370
3.4855 1.2562 2.0370
3.3729 1.5325 2.0370
3.2385 1.7989 2.0370
3.0832 2.0536 2.0370
2.9079 2.2951 2.0370
2.7139 2.5218 2.0370
2.5023 2.7322 2.0370
2.2745 2.9249 2.0370
0.7458 1.1374 0.7477
0.6520 1.1939 0.7477
0.5539 1.2427 0.7477
0.4522 1.2834 0.7477
0.3475 1.3158 0.7476
0.2405 1.3397 0.7475
0.1319 1.3548 0.7474
0.0225 1.3611 0.7473
-0.0870 1.3586 0.7471
-0.1961 1.3472 0.7470
-0.3038 1.3271 0.7468
-0.4095 1.2984 0.7465
-0.5126 1.2612 0.7463
-0.6124 1.2159 0.7460
-0.7081 1.1626 0.7457
-2.1840 3.0109 2.0370
-2.4198 2.8265 2.0370
-2.6400 2.6236 2.0370
-2.8432 2.4036 2.0370
-3.0282 2.1680 2.0370
-3.1936 1.9181 2.0370
-3.3383 1.6557 2.0370
-3.4615 1.3825 2.0370
-3.5624 1.1001 2.0370
-3.6401 0.8105 2.0370
-3.6943 0.5155 2.0370
-3.7245 0.2171 2.0370
-3.7306 -0.0829 2.0370
-3.7125 -0.3824 2.0370
-3.6703 -0.6796 2.0370
-3.6043 -0.9723 2.0370
-3.5148 -1.2588 2.0370
-3.4026 -1.5372 2.0370
-3.2683 -1.8057 2.0370
-3.1127 -2.0624 2.0370
-2.9369 -2.3058 2.0370
-2.7421 -2.5342 2.0370
-2.5295 -2.7461 2.0370
-2.3006 -2.9402 2.0370
-0.7464 -1.1306 0.7393
-0.6531 -1.1867 0.7393
-0.5556 -1.2352 0.7393
-0.4545 -1.2756 0.7393
-0.3505 -1.3078 0.7394
-0.2442 -1.3316 0.7394
-0.1364 -1.3468 0.7395
-0.0277 -1.3533 0.7397
0.0811 -1.3511 0.7398
0.1894 -1.3402 0.7400
0.2965 -1.3206 0.7402
0.4017 -1.2925 0.7404
0.5043 -1.2560 0.7407
0.6037 -1.2115 0.7409
0.6992 -1.1591 0.7412
2.1706 -3.0196 2.0370
2.4057 -2.8344 2.0370
2.6250 -2.6309 2.0370
2.8272 -2.4106 2.0370
3.0110 -2.1747 2.0370
3.1752 -1.9249 2.0370
3.3188 -1.6628 2.0370
3.4408 -1.3901 2.0370
3.5406 -1.1085 2.0370
3.6174 -0.8198 2.0370
3.6708 -0.5260 2.0370
3.7005 -0.2289 2.0370
3.7062 0.0696 2.0370
3.6880 0.3675 2.0370
3.6460 0.6630 2.0370
3.5804 0.9541 2.0370
3.4916 1.2391 2.0370
3.3804 1.5159 2.0370
3.2473 1.7830 2.0370
3.0932 2.0385 2.0370
2.9191 2.2808 2.0370
2.7262 2.5084 2.0370
2.5156 2.7198 2.0370
2.2888 2.9137 2.0370
0.7514 1.1337 0.7477
0.6578 1.1907 0.7477
0.5600 1.2400 0.7477
0.4584 1.2812 0.7477
0.3539 1.3141 0.7476
0.2471 1.3385 0.7475
0.1386 1.3541 0.7474
0.0292 1.3610 0.7473
-0.0804 1.3590 0.7472
-0.1894 1.3482 0.7470
-0.2973 1.3286 0.7468
-0.4032 1.3004 0.7465
-0.5064 1.2637 0.7463
-0.6064 1.2189 0.7460
-0.7024 1.1661 0.7458
-2.1692 3.0215 2.0370
-2.4058 2.8382 2.0370
-2.6270 2.6365 2.0370
-2.8314 2.4175 2.0370
-3.0174 2.1827 2.0370
-3.1841 1.9337 2.0370
-3.3301 1.6720 2.0370
-3.4547 1.3994 2.0370
-3.5569 1.1175 2.0370
-3.6361 0.8283 2.0370
-3.6917 0.5336 2.0370
-3.7234 0.2353 2.0370
-3.7310 -0.0646 2.0370
-3.7143 -0.3642 2.0370
-3.6736 -0.6616 2.0370
-3.6090 -0.9547 2.0370
-3.5210 -1.2416 2.0370
-3.4101 -1.5206 2.0370
-3.2770 -1.7897 2.0370
-3.1228 -2.0472 2.0370
-2.9482 -2.2914 2.0370
-2.7545 -2.5207 2.0370
-2.5430 -2.7337 2.0370
-2.3149 -2.9289 2.0370
-0.7520 -1.1269 0.7393
-0.6589 -1.1835 0.7393
-0.5616 -1.2324 0.7393
-0.4607 -1.2734 0.7393
-0.3569 -1.3061 0.7393
-0.2507 -1.3304 0.7394
-0.1430 -1.3462 0.7395
-0.0344 -1.3532 0.7397
0.0745 -1.3515 0.7398
0.1829 -1.3411 0.7400
0.2900 -1.3220 0.7402
0.3954 -1.2944 0.7404
0.4982 -1.2585 0.7407
0.5977 -1.2144 0.7409
0.6935 -1.1625 0.7412
2.1559 -3.0303 2.0370
2.3918 -2.8462 2.0370
2.6121 -2.6438 2.0370
2.8154 -2.4244 2.0370
3.0003 -2.1895 2.0370
3.1658 -1.9405 2.0370
3.3106 -1.6791 2.0370
3.4340 -1.4070 2.0370
3.5352 -1.1258 2.0370
3.6134 -0.8375 2.0370
3.6683 -0.5440 2.0370
3.6994 -0.2471 2.0370
3.7066 0.0514 2.0370
3.6898 0.3494 2.0370
3.6492 0.6451 2.0370
3.5850 0.9366 2.0370
3.4977 1.2219 2.0370
3.3878 1.4993 2.0370
3.2560 1.7670 2.0370
3.1032 2.0233 2.0370
2.9303 2.2665 2.0370
2.7385 2.4950 2.0370
2.5289 2.7075 2.0370
2.3030 2.9024 2.0370
0.7569 1.1300 0.7477
0.6637 1.1875 0.7477
0.5660 1.2372 0.7477
0.4647 1.2789 0.7477
0.3603 1.3123 0.7476
0.2536 1.3372 0.7476
0.1452 1.3534 0.7475
0.0359 1.3608 0.7473
-0.0737 1.3594 0.7472
-0.1828 1.3491 0.7470
-0.2908 1.3300 0.7468
-0.3968 1.3023 0.7466
-0.5002 1.2662 0.7463
-0.6004 1.2218 0.7461
-0.6967 1.1695 0.7458
-2.1543 3.0320 2.0370
-2.3918 2.8499 2.0370
-2.6140 2.6493 2.0370
-2.8194 2.4313 2.0370
-3.0067 2.1975 2.0370
-3.1745 1.9493 2.0370
-3.3218 1.6883 2.0370
-3.4477 1.4163 2.0370
-3.5513 1.1349 2.0370
-3.6319 0.8461 2.0370
-3.6890 0.5517 2.0370
-3.7222 0.2535 2.0370
-3.7312 -0.0464 2.0370
-3.7160 -0.3460 2.0370
-3.6767 -0.6435 2.0370
-3.6136 -0.9370 2.0370
-3.5270 -1.2243 2.0370
-3.4175 -1.5038 2.0370
-3.2858 -1.7736 2.0370
-3.1327 -2.0318 2.0370
-2.9594 -2.2769 2.0370
-2.7668 -2.5072 2.0370
-2.5563 -2.7212 2.0370
-2.3293 -2.9175 2.0370
-0.7575 -1.1233 0.7393
-0.6647 -1.1803 0.7393
-0.5676 -1.2297 0.7393
-0.4669 -1.2711 0.7393
-0.3633 -1.3044 0.7393
-0.2573 -1.3292 0.7394
-0.1496 -1.3454 0.7395
-0.0410 -1.3530 0.7397
0.0679 -1.3518 0.7398
0.1763 -1.3420 0.7400
0.2836 -1.3234 0.7402
0.3890 -1.2964 0.7404
0.4920 -1.2609 0.7407
0.5918 -1.2173 0.7409
0.6878 -1.1659 0.7412
0.7793 -1.1069 0.7415
2.3778 -2.8579 2.0370
2.5991 -2.6566 2.0370
2.8035 -2.4383 2.0370
2.9896 -2.2042 2.0370
3.1563 -1.9560 2.0370
3.3024 -1.6953 2.0370
3.4272 -1.4238 2.0370
3.5297 -1.1432 2.0370
3.6093 -0.8553 2.0370
3.6656 -0.5620 2.0370
3.6982 -0.2652 2.0370
3.7068 0.0332 2.0370
3.6915 0.3313 2.0370
3.6524 0.6272 2.0370
3.5896 0.9190 2.0370
3.5037 1.2048 2.0370
3.3951 1.4827 2.0370
3.2646 1.7510 2.0370
3.1130 2.0081 2.0370
2.9414 2.2521 2.0370
2.7507 2.4815 2.0370
2.5422 2.6950 2.0370
2.3172 2.8911 2.0370
0.7625 1.1263 0.7477
0.6695 1.1842 0.7477
0.5721 1.2344 0.7477
0.4710 1.2766 0.7477
0.3668 1.3105 0.7476
0.2602 1.3360 0.7476
0.1519 1.3527 0.7475
0.0426 1.3606 0.7473
-0.0670 1.3597 0.7472
-0.1762 1.3500 0.7470
-0.2842 1.3314 0.7468
-0.3904 1.3043 0.7466
-0.4940 1.2686 0.7463
-0.5944 1.2247 0.7461
-0.6909 1.1729 0.7458
-2.1393 3.0425 2.0370
-2.3778 2.8616 2.0370
-2.6010 2.6620 2.0370
-2.8074 2.4450 2.0370
-2.9958 2.2121 2.0370
-3.1648 1.9648 2.0370
-3.3135 1.7045 2.0370
-3.4407 1.4331 2.0370
-3.5456 1.1523 2.0370
-3.6277 0.8639 2.0370
-3.6862 0.5697 2.0370
-3.7208 0.2717 2.0370
-3.7313 -0.0281 2.0370
-3.7176 -0.3278 2.0370
-3.6798 -0.6255 2.0370
-3.6181 -0.9192 2.0370
-3.5329 -1.2071 2.0370
-3.4248 -1.4871 2.0370
-3.2944 -1.7575 2.0370
-3.1426 -2.0165 2.0370
-2.9705 -2.2624 2.0370
-2.7791 -2.4936 2.0370
-2.5696 -2.7087 2.0370
-2.3436 -2.9061 2.0370
-0.7630 -1.1195 0.7393
-0.6705 -1.1770 0.7393
-0.5737 -1.2269 0.7393
-0.4732 -1.2688 0.7393
-0.3696 -1.3026 0.7393
-0.2638 -1.3279 0.7394
-0.1562 -1.3447 0.7395
-0.0476 -1.3528 0.7396
0.0612 -1.3522 0.7398
-3.4194 0.7086 2.0370
-3.4660 0.4317 2.0370
-3.4902 0.1518 2.0370
-3.4917 -0.1291 2.0370
-3.4706 -0.4092 2.0370
-3.4269 -0.6868 2.0370
-3.3611 -0.9600 2.0370
-3.2734 -1.2270 2.0370
-3.1644 -1.4860 2.0370
-3.0349 -1.7355 2.0370
-2.8858 -1.9737 2.0370
-2.7179 -2.1991 2.0370
-2.5323 -2.4102 2.0370
-2.3304 -2.6057 2.0370
-0.7673 -1.0109 0.7396
-0.6835 -1.0691 0.7396
-0.5953 -1.1204 0.7395
-0.5033 -1.1644 0.7395
-0.4081 -1.2009 0.7396
-0.3103 -1.2297 0.7396
-0.2104 -1.2505 0.7397
-0.1093 -1.2633 0.7398
-0.0074 -1.2679 0.7399
0.0945 -1.2643 0.7401
0.1958 -1.2525 0.7403
0.2958 -1.2327 0.7405
0.3939 -1.2050 0.7407
0.4895 -1.1694 0.7409
0.5820 -1.1263 0.7412
0.6707 -1.0759 0.7414
0.7551 -1.0186 0.7417
2.2913 -2.6208 2.0370
2.4938 -2.4273 2.0370
2.6802 -2.2183 2.0370
2.8491 -1.9949 2.0370
2.9995 -1.7588 2.0370
3.1304 -1.5114 2.0370
3.2410 -1.2544 2.0370
3.3305 -0.9893 2.0370
3.3986 -0.7180 2.0370
3.4446 -0.4421 2.0370
3.4683 -0.1635 2.0370
3.4696 0.1161 2.0370
3.4485 0.3949 2.0370
3.4051 0.6710 2.0370
3.3396 0.9428 2.0370
3.2526 1.2084 2.0370
3.1446 1.4662 2.0370
3.0163 1.7144 2.0370
2.8685 1.9516 2.0370
2.7022 2.1761 2.0370
2.5184 2.3867 2.0370
2.3183 2.5818 2.0370
0.7716 1.0127 0.7474
0.6878 1.0717 0.7474
0.5994 1.1237 0.7474
0.5071 1.1685 0.7474
0.4115 1.2057 0.7474
0.3131 1.2350 0.7474
0.2128 1.2564 0.7473
0.1110 1.2695 0.7472
0.0085 1.2744 0.7470
-0.0940 1.2711 0.7469
-0.1960 1.2594 0.7467
-0.2967 1.2396 0.7465
-0.3954 1.2117 0.7463
-0.4916 1.1760 0.7461
-0.5845 1.1326 0.7458
-0.6737 1.0819 0.7456
-0.7584 1.0242 0.7453
-2.2920 2.6244 2.0370
-2.4963 2.4324 2.0370
-2.6846 2.2245 2.0370
-2.8555 2.0021 2.0370
-3.0081 1.7666 2.0370
-3.1412 1.5196 2.0370
-3.2540 1.2625 2.0370
-3.3457 0.9972 2.0370
-3.4158 0.7253 2.0370
-3.4638 0.4486 2.0370
-3.4893 0.1689 2.0370
-3.4922 -0.1120 2.0370
-3.4725 -0.3922 2.0370
-3.4302 -0.6700 2.0370
-3.3657 -0.9435 2.0370
-3.2793 -1.2109 2.0370
-3.1716 -1.4705 2.0370
-3.0434 -1.7206 2.0370
-2.8954 -1.9595 2.0370
-2.7286 -2.1857 2.0370
-2.5441 -2.3978 2.0370
-2.3432 -2.5942 2.0370
-0.7723 -1.0071 0.7396
-0.6888 -1.0657 0.7396
-0.6008 -1.1174 0.7395
-0.5090 -1.1619 0.7395
-0.4140 -1.1989 0.7396
-0.3163 -1.2281 0.7396
-0.2166 -1.2495 0.7397
-0.1155 -1.2627 0.7398
-0.0136 -1.2678 0.7399
0.0883 -1.2647 0.7401
0.1897 -1.2535 0.7403
0.2898 -1.2342 0.7404
0.3880 -1.2069 0.7407
0.4838 -1.1718 0.7409
0.5765 -1.1291 0.7411
0.6654 -1.0792 0.7414
0.7501 -1.0223 0.7417
2.2784 -2.6321 2.0370
2.4820 -2.4396 2.0370
2.6693 -2.2314 2.0370
2.8393 -2.0089 2.0370
2.9908 -1.7735 2.0370
3.1230 -1.5268 2.0370
3.2348 -1.2703 2.0370
3.3257 -1.0057 2.0370
3.3950 -0.7347 2.0370
3.4424 -0.4590 2.0370
3.4675 -0.1805 2.0370
3.4702 0.0991 2.0370
3.4504 0.3780 2.0370
3.4083 0.6544 2.0370
3.3442 0.9264 2.0370
3.2586 1.1924 2.0370
3.1518 1.4507 2.0370
3.0247 1.6996 2.0370
2.8781 1.9375 2.0370
2.7128 2.1629 2.0370
2.5301 2.3743 2.0370
2.3309 2.5703 2.0370
0.7766 1.0089 0.7474
0.6930 1.0683 0.7474
0.6049 1.1208 0.7474
0.5128 1.1660 0.7474
0.4174 1.2037 0.7474
0.3192 1.2335 0.7474
0.2189 1.2553 0.7473
0.1172 1.2690 0.7472
0.0148 1.2744 0.7470
-0.0878 1.2715 0.7469
-0.1898 1.2604 0.7467
-0.2906 1.2411 0.7465
-0.3894 1.2137 0.7463
-0.4858 1.1784 0.7461
-0.5790 1.1355 0.7458
-0.6684 1.0852 0.7456
-0.7534 1.0279 0.7453
-2.2791 2.6355 2.0370
-2.4843 2.4445 2.0370
-2.6736 2.2376 2.0370
-2.8456 2.0160 2.0370
-2.9993 1.7813 2.0370
-3.1336 1.5349 2.0370
-3.2477 1.2785 2.0370
-3.3407 1.0136 2.0370
-3.4122 0.7421 2.0370
-3.4615 0.4656 2.0370
-3.4884 0.1860 2.0370
-3.4927 -0.0949 2.0370
-3.4744 -0.3752 2.0370
-3.4334 -0.6532 2.0370
-3.3703 -0.9270 2.0370
-3.2852 -1.1948 2.0370
-3.1788 -1.4550 2.0370
-3.0518 -1.7057 2.0370
-2.9050 -1.9453 2.0370
-2.7393 -2.1724 2.0370
-2.5558 -2.3853 2.0370
-2.3558 -2.5827 2.0370
-0.7772 -1.0034 0.7396
-0.6940 -1.0624 0.7396
-0.6063 -1.1145 0.7395
-0.5147 -1.1594 0.7395
-0.4199 -1.1969 0.7396
-0.3223 -1.2266 0.7396
-0.2227 -1.2484 0.7397
-0.1216 -1.2621 0.7398
-0.0198 -1.2677 0.7399
0.0821 -1.2652 0.7401
0.1835 -1.2544 0.7402
0.2837 -1.2356 0.7404
0.3821 -1.2088 0.7406
0.4781 -1.1741 0.7409
0.5709 -1.1319 0.7411
0.6601 -1.0824 0.7414
0.7450 -1.0259 0.7417
2.2655 -2.6433 2.0370
2.4700 -2.4518 2.0370
2.6584 -2.2445 2.0370
2.8295 -2.0228 2.0370
2.9822 -1.7882 2.0370
3.1155 -1.5421 2.0370
3.2286 -1.2861 2.0370
3.3208 -1.0220 2.0370
3.3914 -0.7513 2.0370
3.4401 -0.4759 2.0370
3.4666 -0.1975 2.0370
3.4706 0.0821 2.0370
3.4522 0.3610 2.0370
3.4115 0.6376 2.0370
3.3488 0.9100 2.0370
3.2644 1.1764 2.0370
3.1589 1.4353 2.0370
3.0330 1.6847 2.0370
2.8875 1.9233 2.0370
2.7234 2.1495 2.0370
2.5417 2.3618 2.0370
2.3435 2.5589 2.0370
0.7815 1.0051 0.7474
0.6982 1.0649 0.7474
0.6104 1.1178 0.7474
0.5185 1.1635 0.7474
0.4233 1.2016 0.7474
0.3252 1.2319 0.7474
0.2251 1.2542 0.7473
0.1235 1.2684 0.7472
0.0210 1.2743 0.7471
-0.0816 1.2719 0.7469
-0.1836 1.2613 0.7467
-0.2845 1.2425 0.7465
-0.3835 1.2156 0.7463
-0.4800 1.1808 0.7461
-0.5734 1.1383 0.7459
-0.6630 1.0885 0.7456
-0.7484 1.0316 0.7453
-2.2661 2.6466 2.0370
-2.4723 2.4566 2.0370
-2.6625 2.2506 2.0370
-2.8357 2.0299 2.0370
-2.9905 1.7959 2.0370
-3.1260 1.5502 2.0370
-3.2413 1.2943 2.0370
-3.3357 1.0299 2.0370
-3.4085 0.7587 2.0370
-3.4592 0.4825 2.0370
-3.4874 0.2031 2.0370
-3.4931 -0.0778 2.0370
-3.4761 -0.3582 2.0370
-3.4366 -0.6364 2.0370
-3.3747 -0.9105 2.0370
-3.2910 -1.1787 2.0370
-3.1859 -1.4394 2.0370
-3.0601 -1.6907 2.0370
-2.9144 -1.9311 2.0370
-2.7499 -2.1589 2.0370
-2.5675 -2.3728 2.0370
-2.3685 -2.5712 2.0370
-0.7821 -0.9995 0.7396
-0.6992 -1.0590 0.7396
-0.6118 -1.1115 0.7395
-0.5204 -1.1569 0.7395
-0.4257 -1.1948 0.7396
-0.3283 -1.2250 0.7396
-0.2288 -1.2473 0.7397
-0.1278 -1.2615 0.7398
-0.0260 -1.2676 0.7399
0.0759 -1.2655 0.7401
0.1774 -1.2553 0.7402
0.2777 -1.2369 0.7404
0.3762 -1.2106 0.7406
0.4723 -1.1765 0.7409
0.5654 -1.1347 0.7411
0.6548 -1.0857 0.7414
0.7400 -1.0296 0.7416
2.2526 -2.6544 2.0370
2.4580 -2.4639 2.0370
2.6474 -2.2576 2.0370
2.8196 -2.0367 2.0370
2.9734 -1.8028 2.0370
3.1079 -1.5574 2.0370
3.2223 -1.3020 2.0370
3.3158 -1.0383 2.0370
3.3878 -0.7680 2.0370
3.4378 -0.4928 2.0370
3.4656 -0.2145 2.0370
3.4710 0.0651 2.0370
3.4540 0.3441 2.0370
3.4146 0.6209 2.0370
3.3532 0.8936 2.0370
3.2701 1.1604 2.0370
3.1659 1.4197 2.0370
3.0413 1.6698 2.0370
2.8970 1.9092 2.0370
2.7339 2.1361 2.0370
