ply
format ascii 1.0
element vertex 2170
property float32 x
property float32 y
property float32 z
end_header
1.8958 -2.2345 0.8961
4.3923 -4.4065 1.9003
4.6948 -4.0096 1.8837
5.0054 -3.6239 1.8837
5.2833 -3.2137 1.8837
5.5265 -2.7818 1.8837
5.7334 -2.3310 1.8837
5.9023 -1.8647 1.8837
6.0322 -1.3859 1.8837
6.1222 -0.8982 1.8837
6.1715 -0.4048 1.8837
6.1800 0.0906 1.8837
6.1476 0.5848 1.8837
6.0747 1.0742 1.8837
5.9619 1.5554 1.8837
5.8101 2.0253 1.8837
5.6205 2.4804 1.8837
5.3946 2.9179 1.8837
5.1340 3.3346 1.8837
5.1368 3.9563 1.9989
4.8824 4.4274 2.0361
4.5020 4.7943 2.0361
4.0938 5.1284 2.0361
3.6608 5.4277 2.0361
3.2059 5.6905 2.0361
2.7324 5.9152 2.0361
2.2434 6.1007 2.0361
1.7421 6.2459 2.0361
1.2320 6.3503 2.0361
0.7162 6.4134 2.0361
0.1982 6.4350 2.0361
-0.3187 6.4154 2.0361
-0.8314 6.3549 2.0361
-1.3367 6.2541 2.0361
-1.8315 6.1139 2.0361
-2.3127 5.9353 2.0361
-2.7776 5.7197 2.0361
-3.2233 5.4685 2.0361
-3.6472 5.1835 2.0361
-4.0469 4.8665 2.0361
-4.4200 4.5195 2.0361
-4.7644 4.1447 2.0361
-5.0781 3.7445 2.0361
-5.3593 3.3212 2.0361
-5.6064 2.8776 2.0361
-5.8180 2.4161 2.0361
-5.9928 1.9396 2.0361
-6.1299 1.4509 2.0361
-6.2283 0.9529 2.0361
-6.2875 0.4486 2.0361
-6.3072 -0.0590 2.0361
-6.2870 -0.5670 2.0361
-6.2271 -1.0723 2.0361
-6.1276 -1.5718 2.0361
-5.9892 -2.0625 2.0361
-5.8124 -2.5414 2.0361
-5.5981 -3.0056 2.0361
-5.3476 -3.4522 2.0361
-5.0622 -3.8784 2.0361
-4.7435 -4.2815 2.0361
-4.3931 -4.6587 2.0361
-4.0133 -5.0077 2.0361
-3.6060 -5.3261 2.0361
-3.1739 -5.6116 2.0361
-2.7193 -5.8624 2.0361
-2.2451 -6.0764 2.0361
-1.7542 -6.2522 2.0361
-1.2497 -6.3883 2.0361
-0.7348 -6.4836 2.0361
-3.8664 4.2744 2.0361
-4.1935 3.9452 2.0361
-4.4935 3.5915 2.0361
-4.7646 3.2156 2.0361
-5.0053 2.8200 2.0361
-5.2141 2.4069 2.0361
-5.3899 1.9788 2.0361
-5.5315 1.5383 2.0361
-5.6383 1.0880 2.0361
-5.7094 0.6306 2.0361
-5.7445 0.1689 2.0361
-5.7432 -0.2944 2.0361
-5.7056 -0.7565 2.0361
-5.6318 -1.2146 2.0361
-5.5221 -1.6659 2.0361
-5.3771 -2.1075 2.0361
-5.1976 -2.5372 2.0361
-4.9844 -2.9517 2.0361
-4.7389 -3.3488 2.0361
-4.4622 -3.7258 2.0361
-4.1561 -4.0803 2.0361
-3.8222 -4.4100 2.0361
-3.4626 -4.7127 2.0361
-3.0792 -4.9864 2.0361
-2.6745 -5.2290 2.0361
-2.2509 -5.4390 2.0361
-1.8109 -5.6147 2.0361
-1.3574 -5.7549 2.0361
-0.8931 -5.8584 2.0361
-0.1461 -2.0559 0.7066
0.0194 -2.0704 0.7082
0.1874 -2.0850 0.7146
0.3603 -2.1001 0.7258
0.5407 -2.1159 0.7424
0.6970 -2.0320 0.7289
0.9364 -2.1505 0.7945
1.1599 -2.1701 0.8321
1.4083 -2.1919 0.8796
1.6895 -2.2166 0.9397
4.0388 -4.5000 2.0361
4.3892 -4.1650 2.0352
4.4610 -3.6001 1.9264
4.6335 -3.1623 1.8837
4.8747 -2.7829 1.8837
5.0840 -2.3847 1.8837
5.2598 -1.9705 1.8837
5.4009 -1.5432 1.8837
5.5064 -1.1057 1.8837
5.5755 -0.6611 1.8837
5.6077 -0.2125 1.8837
5.6029 0.2370 1.8837
5.5613 0.6843 1.8837
5.4830 1.1263 1.8837
5.3689 1.5599 1.8837
5.2198 1.9823 1.8837
5.0368 2.3906 1.8837
5.0466 2.9120 1.9717
4.9451 3.4091 2.0361
4.6474 3.7875 2.0361
4.3205 4.1399 2.0361
3.9666 4.4639 2.0361
3.5883 4.7577 2.0361
3.1882 5.0193 2.0361
2.7692 5.2474 2.0361
2.3339 5.4408 2.0361
1.8854 5.5978 2.0361
1.4267 5.7182 2.0361
0.9607 5.8014 2.0361
0.4905 5.8469 2.0361
0.0191 5.8547 2.0361
-0.4505 5.8250 2.0361
-0.9154 5.7582 2.0361
-1.3727 5.6549 2.0361
-1.8196 5.5159 2.0361
-2.2534 5.3423 2.0361
-2.6715 5.1353 2.0361
-3.0714 4.8962 2.0361
-3.4507 4.6268 2.0361
-3.8072 4.3287 2.0361
-4.1389 4.0038 2.0361
-4.4437 3.6543 2.0361
-4.7199 3.2821 2.0361
-4.9659 2.8897 2.0361
-5.1804 2.4794 2.0361
-5.3619 2.0537 2.0361
-5.5095 1.6151 2.0361
-5.6223 1.1663 2.0361
-5.6997 0.7100 2.0361
-5.7410 0.2488 2.0361
-5.7460 -0.2144 2.0361
-5.7147 -0.6769 2.0361
-5.6471 -1.1358 2.0361
-5.5436 -1.5885 2.0361
-5.4047 -2.0321 2.0361
-5.2310 -2.4639 2.0361
-5.0236 -2.8813 2.0361
-4.7835 -3.2816 2.0361
-4.5122 -3.6622 2.0361
-4.2110 -4.0208 2.0361
-3.8818 -4.3549 2.0361
-3.5265 -4.6625 2.0361
-3.1471 -4.9412 2.0361
-2.7459 -5.1894 2.0361
-2.3253 -5.4051 2.0361
-0.6865 -2.0314 0.7403
-1.4366 -5.7333 2.0361
-0.9739 -5.8432 2.0361
-0.1746 -2.0535 0.7068
-0.0093 -2.0679 0.7076
0.1581 -2.0825 0.7131
0.3300 -2.0975 0.7235
0.5089 -2.1131 0.7392
0.6687 -2.0413 0.7291
0.8998 -2.1473 0.7888
1.1197 -2.1666 0.8249
1.3633 -2.1880 0.8706
1.6381 -2.2121 0.9283
1.9550 -2.2400 1.0013
4.3321 -4.2264 2.0361
4.4493 -3.6937 1.9435
4.5887 -3.2258 1.8837
4.8353 -2.8498 1.8837
5.0502 -2.4547 1.8837
5.2319 -2.0430 1.8837
5.3791 -1.6178 1.8837
5.4908 -1.1819 1.8837
5.5662 -0.7383 1.8837
5.6048 -0.2901 1.8837
5.6064 0.1594 1.8837
5.5711 0.6073 1.8837
5.4991 1.0504 1.8837
5.3911 1.4858 1.8837
5.2480 1.9103 1.8837
5.0708 2.3212 1.8837
5.0413 2.8165 1.9536
4.9934 3.3413 2.0361
4.7010 3.7240 2.0361
4.3789 4.0810 2.0361
4.0295 4.4100 2.0361
3.6553 4.7091 2.0361
3.2588 4.9765 2.0361
2.8428 5.2105 2.0361
2.4101 5.4097 2.0361
1.9637 5.5732 2.0361
1.5065 5.7001 2.0361
1.0416 5.7897 2.0361
0.5719 5.8417 2.0361
0.1005 5.8561 2.0361
-0.3696 5.8328 2.0361
-0.8356 5.7724 2.0361
-1.2944 5.6753 2.0361
-1.7433 5.5425 2.0361
-2.1796 5.3747 2.0361
-2.6006 5.1734 2.0361
-3.0038 4.9398 2.0361
-3.3868 4.6755 2.0361
-3.7474 4.3822 2.0361
-4.0835 4.0618 2.0361
-4.3930 3.7163 2.0361
-4.6743 3.3479 2.0361
-4.9257 2.9589 2.0361
-5.1456 2.5515 2.0361
-5.3329 2.1282 2.0361
-5.4865 1.6917 2.0361
-5.6054 1.2445 2.0361
-5.6889 0.7892 2.0361
-5.7364 0.3287 2.0361
-5.7478 -0.1343 2.0361
-5.7227 -0.5971 2.0361
-5.6614 -1.0569 2.0361
-5.5641 -1.5109 2.0361
-5.4312 -1.9563 2.0361
-5.2635 -2.3903 2.0361
-5.0618 -2.8104 2.0361
-4.8273 -3.2138 2.0361
-4.5612 -3.5980 2.0361
-4.2651 -3.9605 2.0361
-3.9406 -4.2991 2.0361
-3.5896 -4.6113 2.0361
-3.2142 -4.8952 2.0361
-2.8166 -5.1488 2.0361
-2.3992 -5.3702 2.0361
-0.7146 -2.0216 0.7406
-1.5154 -5.7106 2.0361
-1.0545 -5.8269 2.0361
-0.2031 -2.0510 0.7071
-0.0380 -2.0654 0.7071
0.1289 -2.0799 0.7118
0.2999 -2.0949 0.7214
0.4774 -2.1104 0.7361
0.6642 -2.1267 0.7565
0.8637 -2.1442 0.7834
1.0802 -2.1632 0.8181
1.3192 -2.1841 0.8619
1.5880 -2.2077 0.9173
1.8967 -2.2348 0.9874
4.2724 -4.2852 2.0361
4.4373 -3.7888 1.9613
4.5430 -3.2886 1.8837
4.7949 -2.9162 1.8837
5.0154 -2.5242 1.8837
5.2029 -2.1152 1.8837
5.3562 -1.6921 1.8837
5.4740 -1.2578 1.8837
5.5558 -0.8153 1.8837
5.6008 -0.3678 1.8837
5.6088 0.0818 1.8837
5.5798 0.5302 1.8837
5.5142 0.9744 1.8837
5.4123 1.4112 1.8837
5.2752 1.8379 1.8837
5.1037 2.2513 1.8837
5.0360 2.7227 1.9362
5.0408 3.2727 2.0361
4.7537 3.6596 2.0361
4.4366 4.0212 2.0361
4.0917 4.3553 2.0361
3.7216 4.6597 2.0361
3.3287 4.9326 2.0361
2.9159 5.1725 2.0361
2.4859 5.3779 2.0361
2.0417 5.5476 2.0361
1.5862 5.6808 2.0361
1.1223 5.7769 2.0361
0.6533 5.8354 2.0361
0.1819 5.8563 2.0361
-0.2886 5.8395 2.0361
-0.7555 5.7855 2.0361
-1.2158 5.6947 2.0361
-1.6666 5.5679 2.0361
-2.1052 5.4061 2.0361
-2.5290 5.2105 2.0361
-2.9355 4.9823 2.0361
-3.3222 4.7232 2.0361
-3.6868 4.4348 2.0361
-4.0272 4.1190 2.0361
-4.3415 3.7777 2.0361
-4.6278 3.4131 2.0361
-4.8844 3.0275 2.0361
-5.1099 2.6231 2.0361
-5.3030 2.2024 2.0361
-5.4624 1.7679 2.0361
-5.5874 1.3224 2.0361
-5.6770 0.8683 2.0361
-5.7308 0.4085 2.0361
-5.7484 -0.0543 2.0361
-5.7297 -0.5173 2.0361
-5.6746 -0.9778 2.0361
-5.5834 -1.4330 2.0361
-5.4566 -1.8800 2.0361
-5.2949 -2.3162 2.0361
-5.0990 -2.7389 2.0361
-4.8701 -3.1454 2.0361
-4.6094 -3.5331 2.0361
-4.3183 -3.8996 2.0361
-3.9986 -4.2424 2.0361
-3.6521 -4.5594 2.0361
-3.2807 -4.8483 2.0361
-2.8868 -5.1072 2.0361
-2.4726 -5.3344 2.0361
-0.7426 -2.0115 0.7409
-1.5940 -5.6868 2.0361
-1.1349 -5.8094 2.0361
-0.6665 -5.8949 2.0361
-3.5448 3.9200 2.0361
-3.8451 3.6183 2.0361
-4.1205 3.2941 2.0361
-4.3695 2.9496 2.0361
-4.5904 2.5867 2.0361
-4.7822 2.2077 2.0361
-4.9435 1.8150 2.0361
-5.0735 1.4109 2.0361
-5.1713 0.9977 2.0361
-5.2365 0.5781 2.0361
-5.2684 0.1545 2.0361
-5.2670 -0.2703 2.0361
-5.2322 -0.6943 2.0361
-5.1642 -1.1144 2.0361
-5.0631 -1.5282 2.0361
-4.9297 -1.9332 2.0361
-4.7645 -2.3268 2.0361
-4.5685 -2.7067 2.0361
-4.3428 -3.0703 2.0361
-4.0887 -3.4155 2.0361
-3.8075 -3.7399 2.0361
-3.5010 -4.0415 2.0361
-3.1710 -4.3182 2.0361
-2.8193 -4.5682 2.0361
-2.4482 -4.7897 2.0361
-0.7504 -1.8147 0.7418
-0.6024 -1.8694 0.7403
-0.4504 -1.9120 0.7389
-0.2956 -1.9423 0.7375
-0.1388 -1.9602 0.7361
0.0189 -1.9655 0.7348
0.1765 -1.9582 0.7335
0.3330 -1.9382 0.7323
0.4875 -1.9059 0.7312
0.6389 -1.8613 0.7301
0.7862 -1.8048 0.7292
1.1606 -2.1705 0.9103
1.4090 -2.1923 0.9624
1.6903 -2.2170 1.0282
3.6923 -4.1128 2.0361
4.0139 -3.8079 2.0361
4.3096 -3.4774 2.0361
4.4959 -3.0679 1.9998
4.5526 -2.5988 1.9249
4.6460 -2.1793 1.8837
4.8066 -1.8006 1.8837
4.9355 -1.4102 1.8837
5.0319 -1.0105 1.8837
5.0951 -0.6044 1.8837
5.1248 -0.1946 1.8837
5.1207 0.2161 1.8837
5.0829 0.6249 1.8837
5.0119 1.0288 1.8837
4.9314 1.4320 1.8926
4.9555 1.8810 1.9560
4.9781 2.3616 2.0361
4.7658 2.7487 2.0361
4.5229 3.1167 2.0361
4.2514 3.4632 2.0361
3.9529 3.7859 2.0361
3.6299 4.0829 2.0361
3.2843 4.3523 2.0361
2.9188 4.5925 2.0361
2.5357 4.8020 2.0361
0.7822 1.8221 0.7450
0.6334 1.8788 0.7465
0.4804 1.9232 0.7479
0.3243 1.9553 0.7494
0.4507 5.3551 2.0361
0.0189 5.3632 2.0361
-0.4114 5.3368 2.0361
-0.3104 1.9555 0.7546
-0.4665 1.9236 0.7557
-0.6195 1.8792 0.7568
-2.0645 4.8973 2.0361
-2.4481 4.7080 2.0361
-2.8151 4.4894 2.0361
-3.1632 4.2427 2.0361
-3.4905 3.9697 2.0361
-3.7950 3.6721 2.0361
-4.0748 3.3517 2.0361
-4.3284 3.0104 2.0361
-4.5543 2.6506 2.0361
-4.7512 2.2742 2.0361
-4.9178 1.8837 2.0361
-5.0533 1.4814 2.0361
-5.1567 1.0695 2.0361
-5.2276 0.6509 2.0361
-5.2653 0.2279 2.0361
-5.2697 -0.1969 2.0361
-5.2406 -0.6213 2.0361
-5.1783 -1.0422 2.0361
-5.0829 -1.4573 2.0361
-4.9550 -1.8640 2.0361
-4.7953 -2.2598 2.0361
-4.6045 -2.6422 2.0361
-4.3839 -3.0088 2.0361
-4.1345 -3.3573 2.0361
-3.8580 -3.6855 2.0361
-3.5557 -3.9911 2.0361
-3.2296 -4.2722 2.0361
-2.8815 -4.5270 2.0361
-2.5136 -4.7535 2.0361
-0.7756 -1.8041 0.7420
-0.6282 -1.8608 0.7406
-0.4769 -1.9055 0.7391
-0.3225 -1.9380 0.7377
-0.1660 -1.9580 0.7363
-0.0084 -1.9655 0.7350
0.1493 -1.9603 0.7337
0.3061 -1.9426 0.7325
0.4610 -1.9124 0.7314
0.6130 -1.8699 0.7303
0.7611 -1.8154 0.7293
1.1204 -2.1669 0.9024
1.3640 -2.1883 0.9525
1.6389 -2.2125 1.0157
1.9559 -2.2403 1.0958
3.9601 -3.8625 2.0361
4.2605 -3.5363 2.0361
4.4854 -3.1526 2.0146
4.5433 -2.6773 1.9366
4.6152 -2.2430 1.8837
4.7891 -1.8700 1.8868
4.9155 -1.4784 1.8837
5.0176 -1.0801 1.8837
5.0866 -0.6749 1.8837
5.1221 -0.2655 1.8837
5.1238 0.1453 1.8837
5.0919 0.5545 1.8837
5.0265 0.9595 1.8837
4.9322 1.3585 1.8852
4.9505 1.8011 1.9436
4.9793 2.2782 2.0229
4.8047 2.6831 2.0361
4.5670 3.0546 2.0361
4.3002 3.4049 2.0361
4.0063 3.7319 2.0361
3.6873 4.0335 2.0361
3.3455 4.3078 2.0361
2.9833 4.5531 2.0361
2.6030 4.7680 2.0361
2.2075 4.9512 2.0361
0.6594 1.8698 0.7462
0.5071 1.9164 0.7477
0.3515 1.9506 0.7491
0.1936 1.9722 0.7505
0.0935 5.3642 2.0361
-0.3373 5.3438 2.0361
-0.2832 1.9597 0.7544
-0.4397 1.9300 0.7555
-0.5933 1.8878 0.7566
-0.7430 1.8333 0.7576
-2.3830 4.7429 2.0361
-2.7530 4.5292 2.0361
-3.1045 4.2873 2.0361
-3.4355 4.0187 2.0361
-3.7441 3.7252 2.0361
-4.0283 3.4085 2.0361
-4.2866 3.0708 2.0361
-4.5173 2.7140 2.0361
-4.7193 2.3403 2.0361
-4.8912 1.9521 2.0361
-5.0322 1.5515 2.0361
-5.1412 1.1413 2.0361
-5.2177 0.7236 2.0361
-5.2612 0.3011 2.0361
-5.2713 -0.1237 2.0361
-5.2480 -0.5481 2.0361
-5.1914 -0.9699 2.0361
-5.1017 -1.3861 2.0361
-4.9794 -1.7944 2.0361
-4.8251 -2.1923 2.0361
-4.6396 -2.5772 2.0361
-4.4241 -2.9467 2.0361
-4.1796 -3.2985 2.0361
-3.9076 -3.6303 2.0361
-3.6097 -3.9400 2.0361
-3.2876 -4.2255 2.0361
-2.9431 -4.4849 2.0361
-2.5785 -4.7165 2.0361
-2.1958 -4.9185 2.0361
-0.6540 -1.8518 0.7408
-0.5033 -1.8986 0.7394
-0.3493 -1.9333 0.7380
-0.1931 -1.9554 0.7366
-0.0356 -1.9651 0.7352
0.1221 -1.9621 0.7339
0.2792 -1.9465 0.7327
0.4344 -1.9185 0.7316
0.5870 -1.8781 0.7305
0.7359 -1.8256 0.7295
1.0809 -2.1635 0.8949
1.3200 -2.1844 0.9430
1.5888 -2.2081 1.0037
1.8976 -2.2352 1.0805
3.9056 -3.9163 2.0361
4.2105 -3.5944 2.0361
4.4747 -3.2386 2.0299
4.5337 -2.7570 1.9488
4.5944 -2.3120 1.8882
4.7546 -1.9328 1.8837
4.8946 -1.5463 1.8837
5.0023 -1.1495 1.8837
5.0771 -0.7453 1.8837
5.1184 -0.3364 1.8837
5.1259 0.0743 1.8837
5.0998 0.4840 1.8837
5.0430 0.8905 1.8847
4.9476 1.2895 1.8837
4.9455 1.7224 1.9316
4.9743 2.1931 2.0079
4.8427 2.6170 2.0361
4.6102 2.9918 2.0361
4.3483 3.3460 2.0361
4.0589 3.6772 2.0361
3.7441 3.9833 2.0361
3.4061 4.2624 2.0361
3.0472 4.5129 2.0361
2.6699 4.7331 2.0361
2.2768 4.9219 2.0361
0.6853 1.8605 0.7460
0.5337 1.9093 0.7474
0.3785 1.9456 0.7489
0.2210 1.9693 0.7503
0.1681 5.3643 2.0361
-0.2631 5.3498 2.0361
-0.2559 1.9636 0.7542
-0.4128 1.9361 0.7553
-0.5670 1.8960 0.7564
-0.7175 1.8436 0.7575
-2.3173 4.7768 2.0361
-2.6903 4.5682 2.0361
-3.0452 4.3310 2.0361
-3.3799 4.0669 2.0361
-3.6925 3.7776 2.0361
-3.9810 3.4648 2.0361
-4.2439 3.1306 2.0361
-4.4795 2.7769 2.0361
-4.6865 2.4060 2.0361
-4.8637 2.0200 2.0361
-5.0101 1.6216 2.0361
-5.1246 1.2129 2.0361
-5.2068 0.7962 2.0361
-5.2560 0.3744 2.0361
-5.2720 -0.0502 2.0361
-5.2544 -0.4749 2.0361
-5.2036 -0.8973 2.0361
-5.1196 -1.3147 2.0361
-5.0028 -1.7246 2.0361
-4.8540 -2.1244 2.0361
-4.6739 -2.5117 2.0361
-4.4634 -2.8840 2.0361
-4.2238 -3.2391 2.0361
-3.9565 -3.5745 2.0361
-3.6629 -3.8882 2.0361
-3.3449 -4.1780 2.0361
-3.0041 -4.4421 2.0361
-2.6428 -4.6785 2.0361
-2.2631 -4.8857 2.0361
-0.6796 -1.8425 0.7411
-0.5296 -1.8914 0.7396
-0.3761 -1.9282 0.7382
-0.2202 -1.9525 0.7368
-3.2670 3.6139 2.0361
-3.5441 3.3359 2.0361
-3.7983 3.0372 2.0361
-4.0280 2.7196 2.0361
-4.2320 2.3850 2.0361
-4.4089 2.0356 2.0361
-4.5577 1.6734 2.0361
-4.6776 1.3007 2.0361
-4.7678 0.9197 2.0361
-4.8278 0.5327 2.0361
-4.8571 0.1421 2.0361
-4.8556 -0.2498 2.0361
-4.8233 -0.6406 2.0361
-4.7602 -1.0279 2.0361
-4.6667 -1.4094 2.0361
-4.5433 -1.7826 2.0361
-4.3906 -2.1453 2.0361
-4.2095 -2.4952 2.0361
-4.0010 -2.8301 2.0361
-3.7664 -3.1478 2.0361
-3.5069 -3.4463 2.0361
-3.2241 -3.7237 2.0361
-2.9196 -3.9781 2.0361
-2.5953 -4.2078 2.0361
-2.2532 -4.4112 2.0361
-0.6906 -1.6714 0.7419
-0.5543 -1.7217 0.7406
-0.4143 -1.7610 0.7392
-0.2717 -1.7889 0.7379
-0.1273 -1.8054 0.7367
0.0179 -1.8103 0.7355
0.1630 -1.8035 0.7343
0.3072 -1.7852 0.7332
0.4494 -1.7554 0.7322
0.5889 -1.7143 0.7312
0.7246 -1.6622 0.7303
1.1614 -2.1708 0.9901
1.4098 -2.1926 1.0469
1.6912 -2.2173 1.1186
3.3951 -3.7807 2.0361
3.6904 -3.5002 2.0361
3.9620 -3.1962 2.0361
4.2079 -2.8709 2.0361
4.4264 -2.5262 2.0361
4.5765 -2.1462 2.0186
4.6231 -1.7318 1.9711
4.6658 -1.3332 1.9374
4.7051 -0.9450 1.9163
4.7417 -0.5626 1.9071
4.7759 -0.1814 1.9098
4.8083 0.2025 1.9242
4.8391 0.5943 1.9507
4.8686 0.9987 1.9903
4.8776 1.4156 2.0361
4.7431 1.7995 2.0361
4.5779 2.1708 2.0361
4.3832 2.5269 2.0361
4.1604 2.8655 2.0361
3.9111 3.1845 2.0361
3.6371 3.4817 2.0361
3.3404 3.7554 2.0361
3.0230 4.0038 2.0361
2.6871 4.2253 2.0361
2.3349 4.4187 2.0361
0.7203 1.6766 0.7449
0.5833 1.7288 0.7462
0.4426 1.7697 0.7476
0.2990 1.7992 0.7489
0.1534 1.8169 0.7502
0.0069 1.8229 0.7514
-0.1396 1.8170 0.7526
-0.2851 1.7994 0.7537
-0.4288 1.7700 0.7548
-0.5696 1.7292 0.7557
-0.7066 1.6772 0.7566
-2.2552 4.3392 2.0361
-2.5937 4.1381 2.0361
-2.9149 3.9111 2.0361
-3.2169 3.6597 2.0361
-3.4978 3.3854 2.0361
-3.7561 3.0902 2.0361
-3.9902 2.7757 2.0361
-4.1986 2.4439 2.0361
-4.3803 2.0969 2.0361
-4.5340 1.7368 2.0361
-4.6590 1.3658 2.0361
-4.7544 0.9860 2.0361
-4.8196 0.5999 2.0361
-4.8542 0.2097 2.0361
-4.8581 -0.1821 2.0361
-4.8311 -0.5733 2.0361
-4.7733 -0.9614 2.0361
-4.6850 -1.3440 2.0361
-4.5667 -1.7188 2.0361
-4.4190 -2.0835 2.0361
-4.2428 -2.4357 2.0361
-4.0390 -2.7734 2.0361
-3.8087 -3.0942 2.0361
-3.5534 -3.3962 2.0361
-3.2745 -3.6774 2.0361
-2.9737 -3.9359 2.0361
-2.6527 -4.1699 2.0361
-2.3135 -4.3780 2.0361
-0.7137 -1.6616 0.7421
-0.5781 -1.7138 0.7408
-0.4387 -1.7550 0.7395
-0.2965 -1.7849 0.7382
-0.1524 -1.8034 0.7369
-0.0072 -1.8102 0.7357
0.1380 -1.8055 0.7345
0.2824 -1.7892 0.7334
0.4250 -1.7613 0.7323
0.5650 -1.7222 0.7313
0.7014 -1.6719 0.7304
1.1212 -2.1672 0.9816
1.3648 -2.1886 1.0361
1.6397 -2.2128 1.1050
1.9568 -2.2407 1.1922
3.6410 -3.5503 2.0361
3.9168 -3.2503 2.0361
4.1673 -2.9285 2.0361
4.3907 -2.5870 2.0361
4.5680 -2.2198 2.0283
4.6154 -1.8021 1.9783
4.6586 -1.4011 1.9423
4.6985 -1.0113 1.9190
4.7355 -0.6284 1.9079
4.7702 -0.2475 1.9085
4.8028 0.1358 1.9208
4.8339 0.5259 1.9453
4.8636 0.9277 1.9825
4.8923 1.3467 2.0338
4.7686 1.7340 2.0361
4.6086 2.1076 2.0361
4.4189 2.4665 2.0361
4.2008 2.8083 2.0361
3.9560 3.1309 2.0361
3.6862 3.4320 2.0361
3.3932 3.7099 2.0361
3.0792 3.9628 2.0361
2.7463 4.1890 2.0361
2.3968 4.3874 2.0361
0.7436 1.6665 0.7447
0.6073 1.7206 0.7460
0.4671 1.7635 0.7474
0.3239 1.7949 0.7487
0.1787 1.8147 0.7499
0.0323 1.8227 0.7512
-0.1143 1.8189 0.7524
-0.2601 1.8033 0.7535
-0.4041 1.7759 0.7546
-0.5455 1.7371 0.7556
-0.6833 1.6870 0.7565
-2.1951 4.3713 2.0361
-2.5364 4.1747 2.0361
-2.8608 3.9521 2.0361
-3.1662 3.7048 2.0361
-3.4509 3.4344 2.0361
-3.7132 3.1426 2.0361
-3.9515 2.8313 2.0361
-4.1645 2.5024 2.0361
-4.3509 2.1579 2.0361
-4.5095 1.7999 2.0361
-4.6395 1.4305 2.0361
-4.7400 1.0521 2.0361
-4.8105 0.6670 2.0361
-4.8504 0.2773 2.0361
-4.8596 -0.1144 2.0361
-4.8379 -0.5059 2.0361
-4.7854 -0.8947 2.0361
-4.7024 -1.2784 2.0361
-4.5892 -1.6547 2.0361
-4.4466 -2.0213 2.0361
-4.2752 -2.3759 2.0361
-4.0761 -2.7162 2.0361
-3.8503 -3.0401 2.0361
-3.5993 -3.3455 2.0361
-3.3243 -3.6304 2.0361
-3.0271 -3.8929 2.0361
-2.7095 -4.1313 2.0361
-2.3733 -4.3439 2.0361
-0.7367 -1.6515 0.7424
-0.6018 -1.7056 0.7410
-0.4630 -1.7487 0.7397
-0.3212 -1.7806 0.7384
-0.1774 -1.8010 0.7371
-0.0323 -1.8099 0.7359
0.1130 -1.8071 0.7347
0.2576 -1.7928 0.7336
0.4006 -1.7669 0.7325
0.5411 -1.7297 0.7315
0.6781 -1.6814 0.7306
1.0816 -2.1638 0.9734
1.3207 -2.1848 1.0258
1.5896 -2.2084 1.0919
1.8985 -2.2356 1.1756
3.5910 -3.5998 2.0361
3.8710 -3.3037 2.0361
4.1259 -2.9855 2.0361
4.3541 -2.6473 2.0361
4.5539 -2.2914 2.0361
4.6075 -1.8729 1.9859
4.6514 -1.4694 1.9475
4.6918 -1.0781 1.9222
4.7293 -0.6947 1.9090
4.7643 -0.3135 1.9075
4.7973 0.0692 1.9178
4.8286 0.4578 1.9401
4.8585 0.8573 1.9751
4.8874 1.2729 2.0239
4.7931 1.6681 2.0361
4.6384 2.0440 2.0361
4.4537 2.4056 2.0361
4.2404 2.7506 2.0361
4.0001 3.0766 2.0361
3.7345 3.3816 2.0361
3.4454 3.6636 2.0361
3.1349 3.9209 2.0361
2.8051 4.1519 2.0361
2.4583 4.3552 2.0361
0.7666 1.6561 0.7444
0.6312 1.7120 0.7458
0.4916 1.7568 0.7471
0.3488 1.7903 0.7484
0.2039 1.8121 0.7497
0.0576 1.8222 0.7510
-0.0890 1.8204 0.7522
-0.2350 1.8068 0.7533
-0.3794 1.7815 0.7544
-0.5213 1.7446 0.7554
-0.6598 1.6964 0.7563
-2.1346 4.4025 2.0361
-2.4786 4.2106 2.0361
-2.8060 3.9923 2.0361
-3.1149 3.7492 2.0361
-3.4033 3.4827 2.0361
-3.6695 3.1945 2.0361
-3.9121 2.8864 2.0361
-4.1296 2.5604 2.0361
-4.3206 2.2184 2.0361
-4.4841 1.8626 2.0361
-4.6191 1.4951 2.0361
-4.7248 1.1181 2.0361
-4.8005 0.7339 2.0361
-4.8457 0.3448 2.0361
-4.8602 -0.0467 2.0361
-4.8439 -0.4384 2.0361
-4.7967 -0.8278 2.0361
-4.7189 -1.2126 2.0361
-4.6109 -1.5903 2.0361
-4.4733 -1.9588 2.0361
-4.3068 -2.3156 2.0361
-4.1124 -2.6585 2.0361
-3.8912 -2.9854 2.0361
-3.6444 -3.2941 2.0361
-3.3735 -3.5827 2.0361
-3.0800 -3.8492 2.0361
-2.7657 -4.0919 2.0361
-2.4326 -4.3091 2.0361
-0.7596 -1.6410 0.7426
-0.6254 -1.6970 0.7413
-0.4872 -1.7420 0.7399
-0.3459 -1.7759 0.7386
-0.2023 -1.7983 0.7373
-3.0243 3.3464 2.0361
-3.2811 3.0891 2.0361
-3.5167 2.8126 2.0361
-3.7296 2.5185 2.0361
-3.9186 2.2087 2.0361
-4.0826 1.8851 2.0361
-4.2205 1.5497 2.0361
-4.3315 1.2044 2.0361
-4.4150 0.8515 2.0361
-4.4705 0.4931 2.0361
-4.4976 0.1312 2.0361
-4.4960 -0.2318 2.0361
-4.4659 -0.5937 2.0361
-4.4072 -0.9523 2.0361
-4.3203 -1.3055 2.0361
-4.2057 -1.6510 2.0361
-4.0640 -1.9867 2.0361
-3.8960 -2.3105 2.0361
-3.7027 -2.6203 2.0361
-3.4851 -2.9141 2.0361
-3.2445 -3.1901 2.0361
-2.9824 -3.4464 2.0361
-2.7004 -3.6814 2.0361
-2.4000 -3.8935 2.0361
-0.7605 -1.4899 0.7433
-0.6384 -1.5464 0.7420
-0.5123 -1.5930 0.7408
-0.3829 -1.6293 0.7396
-0.2509 -1.6552 0.7384
-0.1173 -1.6704 0.7372
0.0170 -1.6749 0.7361
0.1513 -1.6687 0.7350
0.2847 -1.6517 0.7340
0.4163 -1.6241 0.7330
0.5452 -1.5861 0.7321
0.6708 -1.5379 0.7313
1.1621 -2.1711 1.0718
1.4106 -2.1929 1.1334
1.6920 -2.2177 1.2112
3.1369 -3.4921 2.0361
3.4094 -3.2329 2.0361
3.6600 -2.9520 2.0361
3.8869 -2.6514 2.0361
4.0886 -2.3331 2.0361
4.2636 -1.9990 2.0361
4.4107 -1.6521 2.0361
4.5289 -1.2941 2.0361
4.6174 -0.9276 2.0361
4.6756 -0.5551 2.0361
4.7030 -0.1792 2.0361
4.6997 0.1975 2.0361
4.6655 0.5725 2.0361
4.6009 0.9432 2.0361
4.5063 1.3069 2.0361
4.3824 1.6618 2.0361
4.2301 2.0048 2.0361
4.0506 2.3340 2.0361
3.8452 2.6471 2.0361
3.6152 2.9421 2.0361
3.3625 3.2172 2.0361
3.0886 3.4705 2.0361
2.7956 3.7005 2.0361
2.4853 3.9058 2.0361
0.7888 1.4918 0.7435
0.6665 1.5500 0.7448
0.5398 1.5982 0.7460
0.4096 1.6360 0.7473
0.2769 1.6632 0.7485
0.1423 1.6797 0.7497
0.0069 1.6852 0.7508
-0.1286 1.6798 0.7519
-0.2632 1.6635 0.7529
-0.3960 1.6363 0.7539
-0.5261 1.5986 0.7548
-0.6528 1.5505 0.7556
-2.0868 4.0171 2.0361
-2.4004 3.8312 2.0361
-2.6980 3.6213 2.0361
-2.9778 3.3887 2.0361
-3.2382 3.1350 2.0361
-3.4776 2.8617 2.0361
-3.6945 2.5705 2.0361
-3.8877 2.2633 2.0361
-4.0561 1.9419 2.0361
-4.1985 1.6084 2.0361
-4.3143 1.2647 2.0361
-4.4026 0.9130 2.0361
-4.4630 0.5553 2.0361
-4.4949 0.1939 2.0361
-4.4983 -0.1691 2.0361
-4.4731 -0.5313 2.0361
-4.4193 -0.8907 2.0361
-4.3373 -1.2450 2.0361
-4.2275 -1.5920 2.0361
-4.0904 -1.9295 2.0361
-3.9269 -2.2555 2.0361
-3.7378 -2.5678 2.0361
-3.5243 -2.8646 2.0361
-3.2877 -3.1438 2.0361
-3.0292 -3.4036 2.0361
-2.7504 -3.6424 2.0361
-2.4531 -3.8585 2.0361
-2.1390 -4.0505 2.0361
-0.6598 -1.5373 0.7422
-0.5344 -1.5856 0.7410
-0.4054 -1.6238 0.7398
-0.2739 -1.6515 0.7386
-0.1405 -1.6685 0.7374
-0.0062 -1.6749 0.7363
0.1281 -1.6705 0.7352
0.2617 -1.6554 0.7341
0.3937 -1.6296 0.7332
0.5232 -1.5934 0.7323
0.6494 -1.5469 0.7314
0.7714 -1.4905 0.7307
1.3656 -2.1890 1.1218
1.6406 -2.2132 1.1964
1.9578 -2.2411 1.2910
3.3639 -3.2792 2.0361
3.6184 -3.0019 2.0361
3.8495 -2.7046 2.0361
4.0556 -2.3892 2.0361
4.2353 -2.0578 2.0361
4.3873 -1.7129 2.0361
4.5106 -1.3566 2.0361
4.6043 -0.9914 2.0361
4.6677 -0.6198 2.0361
4.7005 -0.2443 2.0361
4.7025 0.1325 2.0361
4.6736 0.5079 2.0361
4.6142 0.8795 2.0361
4.5247 1.2446 2.0361
4.4058 1.6013 2.0361
4.2584 1.9465 2.0361
4.0835 2.2782 2.0361
3.8825 2.5943 2.0361
3.6566 2.8925 2.0361
3.4077 3.1712 2.0361
3.1373 3.4284 2.0361
2.8475 3.6625 2.0361
2.5401 3.8721 2.0361
2.2173 4.0562 2.0361
0.6879 1.5407 0.7446
0.5619 1.5906 0.7458
0.4323 1.6302 0.7471
0.2999 1.6593 0.7483
0.1656 1.6776 0.7495
0.0303 1.6850 0.7506
-0.1052 1.6815 0.7517
-0.2400 1.6670 0.7528
-0.3732 1.6418 0.7537
-0.5039 1.6059 0.7547
-0.6312 1.5595 0.7555
-0.7544 1.5031 0.7563
-2.3473 3.8651 2.0361
-2.6478 3.6592 2.0361
-2.9308 3.4304 2.0361
-3.1947 3.1803 2.0361
-3.4378 2.9102 2.0361
-3.6587 2.6220 2.0361
-3.8561 2.3174 2.0361
-4.0288 1.9984 2.0361
-4.1758 1.6668 2.0361
-4.2962 1.3247 2.0361
-4.3893 0.9742 2.0361
-4.4545 0.6174 2.0361
-4.4914 0.2565 2.0361
-4.4998 -0.1064 2.0361
-4.4795 -0.4689 2.0361
-4.4307 -0.8289 2.0361
-4.3535 -1.1843 2.0361
-4.2484 -1.5326 2.0361
-4.1160 -1.8720 2.0361
-3.9570 -2.2001 2.0361
-3.7723 -2.5149 2.0361
-3.5629 -2.8145 2.0361
-3.3302 -3.0969 2.0361
-3.0753 -3.3602 2.0361
-2.8000 -3.6027 2.0361
-2.5057 -3.8229 2.0361
-2.1944 -4.0192 2.0361
-0.6811 -1.5280 0.7425
-0.5563 -1.5780 0.7412
-0.4279 -1.6179 0.7400
-0.2967 -1.6474 0.7388
-0.1636 -1.6664 0.7376
-0.0294 -1.6746 0.7365
0.1050 -1.6720 0.7354
0.2388 -1.6588 0.7343
0.3710 -1.6348 0.7333
0.5010 -1.6004 0.7324
0.6278 -1.5557 0.7316
0.7507 -1.5009 0.7308
1.3215 -2.1851 1.1105
1.5904 -2.2088 1.1822
1.8994 -2.2360 1.2729
3.3177 -3.3250 2.0361
3.5760 -3.0513 2.0361
3.8113 -2.7573 2.0361
4.0219 -2.4449 2.0361
4.2062 -2.1162 2.0361
4.3631 -1.7734 2.0361
4.4914 -1.4189 2.0361
4.5902 -1.0550 2.0361
4.6589 -0.6843 2.0361
4.6970 -0.3093 2.0361
4.7043 0.0674 2.0361
4.6808 0.4433 2.0361
4.6267 0.8157 2.0361
4.5423 1.1822 2.0361
4.4285 1.5404 2.0361
4.2859 1.8878 2.0361
4.1156 2.2220 2.0361
3.9190 2.5409 2.0361
3.6974 2.8424 2.0361
3.4523 3.1245 2.0361
3.1855 3.3855 2.0361
2.8989 3.6238 2.0361
2.5943 3.8377 2.0361
2.2740 4.0261 2.0361
0.7093 1.5310 0.7443
0.5840 1.5827 0.7456
0.4550 1.6241 0.7468
0.3230 1.6551 0.7481
0.1889 1.6752 0.7493
0.0537 1.6845 0.7504
-0.0818 1.6829 0.7515
-0.2168 1.6703 0.7526
-0.3503 1.6469 0.7536
-0.4815 1.6128 0.7545
-0.6095 1.5683 0.7554
-0.7335 1.5136 0.7561
-2.2938 3.8982 2.0361
-2.5971 3.6965 2.0361
-2.8833 3.4715 2.0361
-3.1506 3.2249 2.0361
-3.3973 2.9582 2.0361
-3.6222 2.6730 2.0361
-3.8237 2.3711 2.0361
-4.0008 2.0545 2.0361
-4.1523 1.7249 2.0361
-4.2774 1.3845 2.0361
-4.3752 1.0353 2.0361
-4.4453 0.6794 2.0361
-4.4871 0.3190 2.0361
-4.5004 -0.0436 2.0361
-4.4851 -0.4064 2.0361
-4.4411 -0.7670 2.0361
-4.3688 -1.1233 2.0361
-4.2685 -1.4730 2.0361
-4.1408 -1.8141 2.0361
-3.9863 -2.1443 2.0361
-3.8060 -2.4616 2.0361
-3.6008 -2.7639 2.0361
-3.3720 -3.0494 2.0361
-3.1209 -3.3161 2.0361
-2.8489 -3.5624 2.0361
-2.5578 -3.7865 2.0361
-2.2493 -3.9870 2.0361
-0.7022 -1.5183 0.7427
-0.5781 -1.5701 0.7414
-0.4503 -1.6118 0.7402
-0.3196 -1.6431 0.7390
-0.1867 -1.6638 0.7378
-2.8100 3.1103 2.0361
-3.0489 2.8713 2.0361
-3.2681 2.6144 2.0361
-3.4662 2.3411 2.0361
-3.6420 2.0531 2.0361
-3.7945 1.7523 2.0361
-3.9227 1.4404 2.0361
-4.0260 1.1195 2.0361
-4.1036 0.7913 2.0361
-4.1551 0.4580 2.0361
-4.1802 0.1216 2.0361
-4.1786 -0.2158 2.0361
-4.1504 -0.5523 2.0361
-4.0956 -0.8856 2.0361
-4.0146 -1.2139 2.0361
-3.9079 -1.5349 2.0361
-3.7759 -1.8468 2.0361
-3.6195 -2.1475 2.0361
-3.4395 -2.4352 2.0361
-3.2370 -2.7080 2.0361
-3.0132 -2.9642 2.0361
-2.7694 -3.2020 2.0361
-2.5071 -3.4200 2.0361
-2.2279 -3.6166 2.0361
-0.7058 -1.3838 0.7433
-0.5925 -1.4363 0.7421
-0.4754 -1.4796 0.7410
-0.3551 -1.5133 0.7398
-0.2326 -1.5374 0.7387
-0.1085 -1.5515 0.7376
0.0162 -1.5557 0.7366
0.1410 -1.5499 0.7356
0.2648 -1.5341 0.7346
0.3870 -1.5085 0.7337
0.5068 -1.4732 0.7329
0.6234 -1.4284 0.7321
0.7360 -1.3744 0.7315
1.4114 -2.1933 1.2222
1.6929 -2.2181 1.3061
2.9102 -3.2388 2.0361
3.1627 -2.9982 2.0361
3.3949 -2.7376 2.0361
3.6052 -2.4587 2.0361
3.7921 -2.1635 2.0361
3.9542 -1.8540 2.0361
4.0906 -1.5321 2.0361
4.2002 -1.2001 2.0361
4.2822 -0.8604 2.0361
4.3362 -0.5150 2.0361
4.3618 -0.1666 2.0361
4.3589 0.1827 2.0361
4.3274 0.5305 2.0361
4.2677 0.8742 2.0361
4.1802 1.2118 2.0361
4.0656 1.5408 2.0361
3.9246 1.8591 2.0361
3.7585 2.1646 2.0361
3.5682 2.4552 2.0361
3.3552 2.7292 2.0361
3.1210 2.9846 2.0361
2.8672 3.2200 2.0361
2.5955 3.4338 2.0361
2.3079 3.6247 2.0361
0.7326 1.3845 0.7435
0.6191 1.4386 0.7447
0.5015 1.4833 0.7458
0.3807 1.5184 0.7470
0.2574 1.5437 0.7481
0.1325 1.5589 0.7492
0.0068 1.5640 0.7503
-0.1189 1.5590 0.7513
-0.2438 1.5439 0.7522
-0.3671 1.5187 0.7532
-0.4879 1.4837 0.7540
-0.6055 1.4391 0.7548
-0.7192 1.3851 0.7555
-2.2298 3.5605 2.0361
-2.5066 3.3656 2.0361
-2.7669 3.1496 2.0361
-3.0090 2.9139 2.0361
-3.2317 2.6600 2.0361
-3.4335 2.3894 2.0361
-3.6132 2.1038 2.0361
-3.7698 1.8051 2.0361
-3.9023 1.4950 2.0361
-4.0100 1.1755 2.0361
-4.0920 0.8484 2.0361
-4.1481 0.5159 2.0361
-4.1777 0.1799 2.0361
-4.1808 -0.1575 2.0361
-4.1571 -0.4943 2.0361
-4.1070 -0.8284 2.0361
-4.0305 -1.1576 2.0361
-3.9281 -1.4801 2.0361
-3.8005 -1.7937 2.0361
-3.6482 -2.0965 2.0361
-3.4722 -2.3865 2.0361
-3.2736 -2.6621 2.0361
-3.0534 -2.9212 2.0361
-2.8129 -3.1623 2.0361
-2.5537 -3.3838 2.0361
-2.2773 -3.5842 2.0361
-0.7250 -1.3738 0.7435
-0.6124 -1.4279 0.7423
-0.4958 -1.4728 0.7412
-0.3761 -1.5082 0.7400
-0.2539 -1.5339 0.7389
-0.1301 -1.5498 0.7378
-0.0053 -1.5557 0.7368
0.1195 -1.5516 0.7358
0.2435 -1.5375 0.7348
0.3661 -1.5136 0.7339
0.4863 -1.4800 0.7331
0.6035 -1.4368 0.7323
0.7169 -1.3844 0.7316
1.3664 -2.1893 1.2095
1.6415 -2.2135 1.2901
1.9587 -2.2415 1.3922
3.1205 -3.0412 2.0361
3.3564 -2.7839 2.0361
3.5705 -2.5081 2.0361
3.7615 -2.2156 2.0361
3.9280 -1.9084 2.0361
4.0689 -1.5885 2.0361
4.1832 -1.2581 2.0361
4.2701 -0.9195 2.0361
4.3289 -0.5750 2.0361
4.3595 -0.2269 2.0361
4.3614 0.1225 2.0361
4.3349 0.4706 2.0361
4.2800 0.8153 2.0361
4.1973 1.1540 2.0361
4.0873 1.4846 2.0361
3.9508 1.8050 2.0361
3.7889 2.1128 2.0361
3.6027 2.4062 2.0361
3.3936 2.6831 2.0361
3.1629 2.9419 2.0361
2.9124 3.1808 2.0361
2.6437 3.3984 2.0361
2.3587 3.5934 2.0361
0.7518 1.3743 0.7433
0.6390 1.4299 0.7445
0.5220 1.4763 0.7456
0.4017 1.5130 0.7468
0.2788 1.5400 0.7479
0.1542 1.5570 0.7490
0.0285 1.5639 0.7501
-0.0972 1.5606 0.7511
-0.2223 1.5472 0.7521
-0.3459 1.5238 0.7530
-0.4673 1.4904 0.7539
-0.5855 1.4474 0.7546
-0.6998 1.3951 0.7554
-2.1804 3.5919 2.0361
-2.4599 3.4008 2.0361
-2.7231 3.1884 2.0361
-2.9686 2.9560 2.0361
-3.1947 2.7051 2.0361
-3.4002 2.4372 2.0361
-3.5838 2.1542 2.0361
-3.7445 1.8576 2.0361
-3.8812 1.5493 2.0361
-3.9932 1.2313 2.0361
-4.0797 0.9054 2.0361
-4.1403 0.5736 2.0361
-4.1745 0.2381 2.0361
-4.1821 -0.0992 2.0361
-4.1631 -0.4363 2.0361
-4.1175 -0.7709 2.0361
-4.0456 -1.1012 2.0361
-3.9476 -1.4249 2.0361
-3.8243 -1.7402 2.0361
-3.6762 -2.0450 2.0361
-3.5043 -2.3374 2.0361
-3.3095 -2.6156 2.0361
-3.0929 -2.8777 2.0361
-2.8558 -3.1220 2.0361
-2.5998 -3.3470 2.0361
-2.3262 -3.5512 2.0361
-0.7440 -1.3635 0.7437
-0.6321 -1.4192 0.7425
-0.5162 -1.4657 0.7414
-0.3970 -1.5027 0.7402
-0.2751 -1.5302 0.7391
-0.1515 -1.5477 0.7380
-0.0269 -1.5554 0.7369
0.0979 -1.5530 0.7359
0.2222 -1.5407 0.7350
0.3450 -1.5184 0.7340
0.4657 -1.4865 0.7332
0.5835 -1.4449 0.7324
0.6976 -1.3941 0.7317
1.3223 -2.1854 1.1974
1.5913 -2.2091 1.2748
1.9003 -2.2363 1.3727
3.0777 -3.0836 2.0361
3.3171 -2.8298 2.0361
3.5351 -2.5570 2.0361
3.7302 -2.2673 2.0361
3.9011 -1.9624 2.0361
4.0465 -1.6446 2.0361
4.1654 -1.3159 2.0361
4.2570 -0.9785 2.0361
4.3208 -0.6348 2.0361
4.3562 -0.2872 2.0361
4.3631 0.0621 2.0361
4.3415 0.4106 2.0361
4.2915 0.7561 2.0361
4.2135 1.0960 2.0361
4.1082 1.4282 2.0361
3.9762 1.7505 2.0361
3.8187 2.0606 2.0361
3.6366 2.3566 2.0361
3.4313 2.6365 2.0361
3.2042 2.8986 2.0361
2.9570 3.1410 2.0361
2.6913 3.3624 2.0361
2.4090 3.5614 2.0361
0.7708 1.3638 0.7431
0.6588 1.4210 0.7443
0.5425 1.4689 0.7454
0.4227 1.5074 0.7466
0.3002 1.5361 0.7477
0.1758 1.5548 0.7488
0.0503 1.5634 0.7499
-0.0755 1.5619 0.7509
-0.2008 1.5502 0.7519
-0.3247 1.5285 0.7528
-0.4465 1.4969 0.7537
-0.5653 1.4555 0.7545
-0.6804 1.4048 0.7552
-2.1306 3.6227 2.0361
-2.4127 3.4354 2.0361
-2.6789 3.2265 2.0361
-2.9275 2.9975 2.0361
-3.1571 2.7497 2.0361
-3.3662 2.4846 2.0361
-3.5537 2.2041 2.0361
-3.7184 1.9097 2.0361
-3.8593 1.6033 2.0361
-3.9756 1.2868 2.0361
-4.0666 0.9621 2.0361
-4.1317 0.6313 2.0361
-4.1705 0.2962 2.0361
-4.1827 -0.0409 2.0361
-4.1683 -0.3782 2.0361
-4.1273 -0.7134 2.0361
-4.0599 -1.0445 2.0361
-3.9664 -1.3696 2.0361
-3.8474 -1.6864 2.0361
-3.7035 -1.9932 2.0361
-3.5357 -2.2879 2.0361
-3.3447 -2.5686 2.0361
-3.1318 -2.8336 2.0361
-2.8982 -3.0812 2.0361
-2.6453 -3.3096 2.0361
-2.3746 -3.5175 2.0361
-0.7628 -1.3530 0.7439
-0.6518 -1.4102 0.7427
-0.5365 -1.4583 0.7416
-0.4178 -1.4970 0.7404
-0.2963 -1.5261 0.7393
-0.1730 -1.5454 0.7382
-2.6193 2.9000 2.0361
-2.8422 2.6773 2.0361
-3.0467 2.4378 2.0361
-3.2315 2.1830 2.0361
-3.3956 1.9145 2.0361
-3.5378 1.6340 2.0361
-3.6575 1.3431 2.0361
-3.7538 1.0437 2.0361
-3.8262 0.7377 2.0361
-3.8742 0.4269 2.0361
-3.8975 0.1131 2.0361
-3.8959 -0.2016 2.0361
-3.8694 -0.5154 2.0361
-3.8182 -0.8262 2.0361
-3.7425 -1.1323 2.0361
-3.6427 -1.4316 2.0361
-3.5194 -1.7223 2.0361
-3.3734 -2.0025 2.0361
-3.2053 -2.2706 2.0361
-3.0163 -2.5247 2.0361
-2.8075 -2.7633 2.0361
-2.5800 -2.9847 2.0361
-2.3353 -3.1875 2.0361
-0.7586 -1.2322 0.7444
-0.6572 -1.2895 0.7433
-0.5517 -1.3384 0.7422
-0.4425 -1.3788 0.7411
-0.3305 -1.4102 0.7401
-0.2163 -1.4326 0.7390
-0.1007 -1.4458 0.7380
0.0155 -1.4497 0.7371
0.1318 -1.4443 0.7361
0.2472 -1.4296 0.7352
0.3610 -1.4057 0.7344
0.4726 -1.3728 0.7336
0.5813 -1.3310 0.7329
0.6862 -1.2807 0.7323
0.7868 -1.2222 0.7317
1.6938 -2.2184 1.4035
2.7092 -3.0142 2.0361
2.9441 -2.7901 2.0361
3.1600 -2.5476 2.0361
3.3556 -2.2881 2.0361
3.5293 -2.0133 2.0361
3.6801 -1.7253 2.0361
3.8070 -1.4258 2.0361
3.9089 -1.1169 2.0361
3.9853 -0.8008 2.0361
4.0356 -0.4795 2.0361
4.0595 -0.1553 2.0361
4.0568 0.1697 2.0361
4.0277 0.4932 2.0361
3.9723 0.8132 2.0361
3.8911 1.1273 2.0361
3.7847 1.4335 2.0361
3.6538 1.7299 2.0361
3.4994 2.0143 2.0361
3.3225 2.2850 2.0361
3.1245 2.5402 2.0361
2.9068 2.7783 2.0361
2.6707 2.9977 2.0361
2.4180 3.1970 2.0361
0.7841 1.2307 0.7424
0.6827 1.2893 0.7435
0.5770 1.3397 0.7446
0.4675 1.3813 0.7457
0.3549 1.4140 0.7468
0.2402 1.4375 0.7478
0.1238 1.4517 0.7488
0.0068 1.4564 0.7498
-0.1103 1.4518 0.7507
-0.2266 1.4377 0.7516
-0.3415 1.4142 0.7525
-0.4540 1.3816 0.7533
-0.5635 1.3401 0.7540
-0.6693 1.2899 0.7546
-2.0780 3.3195 2.0361
-2.3362 3.1380 2.0361
-2.5790 2.9367 2.0361
-2.8050 2.7170 2.0361
-3.0127 2.4803 2.0361
-3.2011 2.2281 2.0361
-3.3688 1.9618 2.0361
-3.5149 1.6832 2.0361
-3.6385 1.3940 2.0361
-3.7389 1.0960 2.0361
-3.8154 0.7910 2.0361
-3.8676 0.4808 2.0361
-3.8952 0.1674 2.0361
-3.8979 -0.1473 2.0361
-3.8758 -0.4613 2.0361
-3.8288 -0.7728 2.0361
-3.7573 -1.0798 2.0361
-3.6617 -1.3804 2.0361
-3.5424 -1.6727 2.0361
-3.4002 -1.9549 2.0361
-3.2359 -2.2252 2.0361
-3.0504 -2.4819 2.0361
-2.8449 -2.7232 2.0361
-2.6206 -2.9477 2.0361
-2.3788 -3.1539 2.0361
-0.7756 -1.2215 0.7446
-0.6751 -1.2802 0.7435
-0.5702 -1.3306 0.7424
-0.4616 -1.3724 0.7413
-0.3500 -1.4054 0.7403
-0.2362 -1.4294 0.7392
-0.1208 -1.4442 0.7382
-0.0046 -1.4497 0.7372
0.1117 -1.4459 0.7363
0.2273 -1.4328 0.7354
0.3415 -1.4105 0.7345
0.4536 -1.3791 0.7338
0.5628 -1.3389 0.7330
0.6684 -1.2900 0.7324
0.7698 -1.2329 0.7318
1.6424 -2.2139 1.3864
1.9597 -2.2419 1.4962
2.9048 -2.8302 2.0361
3.1241 -2.5907 2.0361
3.3233 -2.3340 2.0361
3.5009 -2.0618 2.0361
3.6558 -1.7759 2.0361
3.7868 -1.4783 2.0361
3.8931 -1.1709 2.0361
3.9739 -0.8558 2.0361
4.0288 -0.5353 2.0361
4.0573 -0.2114 2.0361
4.0592 0.1136 2.0361
4.0346 0.4375 2.0361
3.9838 0.7582 2.0361
3.9070 1.0735 2.0361
3.8048 1.3813 2.0361
3.6781 1.6795 2.0361
3.5277 1.9661 2.0361
3.3546 2.2393 2.0361
3.1602 2.4973 2.0361
2.9457 2.7384 2.0361
2.7127 2.9612 2.0361
2.4628 3.1641 2.0361
2.1976 3.3459 2.0361
0.7006 1.2798 0.7433
0.5955 1.3316 0.7444
0.4866 1.3747 0.7455
0.3746 1.4090 0.7466
0.2601 1.4341 0.7476
0.1440 1.4499 0.7486
0.0270 1.4563 0.7496
-0.0901 1.4533 0.7506
-0.2066 1.4408 0.7515
-0.3218 1.4190 0.7523
-0.4347 1.3879 0.7531
-0.5449 1.3479 0.7539
-0.6514 1.2991 0.7545
-0.7536 1.2420 0.7551
-2.2926 3.1708 2.0361
-2.5382 2.9728 2.0361
-2.7672 2.7563 2.0361
-2.9782 2.5224 2.0361
-3.1700 2.2727 2.0361
-3.3413 2.0087 2.0361
-3.4912 1.7321 2.0361
-3.6188 1.4447 2.0361
-3.7232 1.1480 2.0361
-3.8039 0.8441 2.0361
-3.8604 0.5347 2.0361
-3.8922 0.2217 2.0361
-3.8992 -0.0929 2.0361
-3.8814 -0.4072 2.0361
-3.8387 -0.7193 2.0361
-3.7714 -1.0272 2.0361
-3.6799 -1.3290 2.0361
-3.5646 -1.6229 2.0361
-3.4264 -1.9070 2.0361
-3.2658 -2.1795 2.0361
-3.0839 -2.4386 2.0361
-2.8818 -2.6827 2.0361
-2.6606 -2.9102 2.0361
-2.4217 -3.1196 2.0361
-2.1666 -3.3096 2.0361
-0.6928 -1.2706 0.7437
-0.5886 -1.3225 0.7426
-0.4806 -1.3658 0.7415
-0.3695 -1.4004 0.7404
-0.2560 -1.4259 0.7394
-0.1408 -1.4423 0.7384
-0.0247 -1.4494 0.7374
0.0917 -1.4472 0.7364
0.2074 -1.4357 0.7355
0.3219 -1.4150 0.7347
0.4344 -1.3852 0.7339
0.5441 -1.3465 0.7332
0.6504 -1.2991 0.7325
0.7526 -1.2433 0.7319
1.5922 -2.2095 1.3700
1.9013 -2.2368 1.4753
2.8650 -2.8697 2.0361
3.0877 -2.6334 2.0361
3.2904 -2.3795 2.0361
3.4718 -2.1099 2.0361
3.6307 -1.8262 2.0361
3.7659 -1.5305 2.0361
3.8765 -1.2246 2.0361
3.9618 -0.9107 2.0361
4.0212 -0.5910 2.0361
4.0542 -0.2675 2.0361
4.0608 0.0575 2.0361
4.0408 0.3818 2.0361
3.9944 0.7032 2.0361
3.9221 1.0196 2.0361
3.8243 1.3287 2.0361
3.7017 1.6287 2.0361
3.5553 1.9175 2.0361
3.3861 2.1932 2.0361
3.1953 2.4539 2.0361
2.9841 2.6981 2.0361
2.7542 2.9241 2.0361
2.5071 3.1305 2.0361
2.2444 3.3160 2.0361
0.7183 1.2700 0.7431
0.6140 1.3232 0.7442
0.5057 1.3679 0.7453
0.3941 1.4037 0.7464
0.2800 1.4304 0.7474
0.1642 1.4478 0.7485
0.0473 1.4559 0.7495
-0.0699 1.4545 0.7504
-0.1866 1.4436 0.7513
-0.3020 1.4234 0.7522
-0.4154 1.3939 0.7530
-0.5261 1.3555 0.7537
-0.6333 1.3082 0.7544
-0.7363 1.2524 0.7550
-2.2486 3.2030 2.0361
-2.4969 3.0084 2.0361
-2.7289 2.7949 2.0361
-2.9431 2.5639 2.0361
-3.1383 2.3169 2.0361
-3.3132 2.0553 2.0361
-3.4669 1.7808 2.0361
-3.5984 1.4950 2.0361
-3.7069 1.1999 2.0361
-3.7917 0.8970 2.0361
-3.8524 0.5884 2.0361
-3.8885 0.2759 2.0361
-3.8998 -0.0385 2.0361
-3.8862 -0.3530 2.0361
-3.8478 -0.6656 2.0361
-3.7848 -0.9744 2.0361
-3.6974 -1.2774 2.0361
-3.5862 -1.5728 2.0361
-3.4519 -1.8587 2.0361
-3.2951 -2.1333 2.0361
-3.1168 -2.3949 2.0361
-2.9181 -2.6417 2.0361
-2.7001 -2.8722 2.0361
-2.4642 -3.0848 2.0361
-2.2117 -3.2782 2.0361
-0.7103 -1.2608 0.7439
-0.6069 -1.3141 0.7428
-0.4995 -1.3589 0.7417
-0.3889 -1.3950 0.7406
-0.2757 -1.4221 0.7396
-0.1608 -1.4401 0.7386
-2.4481 2.7114 2.0361
-2.6567 2.5032 2.0361
-2.8480 2.2793 2.0361
-3.0209 2.0411 2.0361
-3.1744 1.7901 2.0361
-3.3075 1.5277 2.0361
-3.4194 1.2558 2.0361
-3.5095 0.9758 2.0361
-3.5771 0.6896 2.0361
-3.6220 0.3988 2.0361
-3.6437 0.1054 2.0361
-3.6421 -0.1889 2.0361
-3.6172 -0.4823 2.0361
-3.5692 -0.7729 2.0361
-3.4983 -1.0590 2.0361
-3.4048 -1.3388 2.0361
-3.2893 -1.6105 2.0361
-3.1526 -1.8724 2.0361
-2.9953 -2.1229 2.0361
-2.8184 -2.3603 2.0361
-2.6230 -2.5831 2.0361
-2.4102 -2.7898 2.0361
-2.1813 -2.9792 2.0361
-0.7084 -1.1515 0.7443
-0.6137 -1.2050 0.7433
-0.5151 -1.2507 0.7423
-0.4131 -1.2884 0.7413
-0.3084 -1.3178 0.7403
-0.2017 -1.3388 0.7393
-0.0937 -1.3511 0.7384
0.0149 -1.3547 0.7375
0.1235 -1.3497 0.7366
0.2314 -1.3359 0.7358
0.3378 -1.3136 0.7350
0.4420 -1.2828 0.7343
0.5435 -1.2438 0.7336
0.6416 -1.1968 0.7330
0.7356 -1.1421 0.7325
1.6947 -2.2188 1.5039
2.5296 -2.8134 2.0361
2.7487 -2.6042 2.0361
2.9501 -2.3777 2.0361
3.1325 -2.1355 2.0361
3.2945 -1.8791 2.0361
3.4352 -1.6103 2.0361
3.5535 -1.3308 2.0361
3.6486 -1.0426 2.0361
3.7199 -0.7476 2.0361
3.7669 -0.4478 2.0361
3.7893 -0.1452 2.0361
3.7869 0.1580 2.0361
3.7599 0.4599 2.0361
3.7083 0.7585 2.0361
3.6327 1.0517 2.0361
3.5336 1.3376 2.0361
3.4116 1.6143 2.0361
3.2677 1.8800 2.0361
3.1028 2.1328 2.0361
2.9182 2.3712 2.0361
2.7151 2.5937 2.0361
2.4949 2.7987 2.0361
2.2591 2.9851 2.0361
0.7328 1.1493 0.7425
0.6381 1.2041 0.7435
0.5393 1.2511 0.7445
0.4370 1.2900 0.7455
0.3319 1.3205 0.7465
0.2247 1.3424 0.7475
0.1161 1.3557 0.7485
0.0067 1.3601 0.7494
-0.1026 1.3558 0.7503
-0.2113 1.3426 0.7511
-0.3185 1.3207 0.7519
-0.4236 1.2903 0.7526
-0.5259 1.2515 0.7533
-0.6248 1.2046 0.7539
-0.7195 1.1499 0.7544
-2.1832 2.9337 2.0361
-2.4104 2.7456 2.0361
-2.6218 2.5403 2.0361
-2.8162 2.3191 2.0361
-2.9924 2.0832 2.0361
-3.1493 1.8343 2.0361
-3.2860 1.5738 2.0361
-3.4016 1.3034 2.0361
-3.4955 1.0246 2.0361
-3.5671 0.7394 2.0361
-3.6159 0.4493 2.0361
-3.6416 0.1562 2.0361
-3.6440 -0.1380 2.0361
-3.6232 -0.4317 2.0361
-3.5792 -0.7230 2.0361
-3.5121 -1.0100 2.0361
-3.4225 -1.2910 2.0361
-3.3108 -1.5642 2.0361
-3.1777 -1.8280 2.0361
-3.0239 -2.0805 2.0361
-2.8503 -2.3203 2.0361
-2.6580 -2.5457 2.0361
-2.4481 -2.7553 2.0361
-2.2220 -2.9478 2.0361
-0.7243 -1.1415 0.7445
-0.6304 -1.1963 0.7435
-0.5324 -1.2434 0.7425
-0.4309 -1.2825 0.7415
-0.3266 -1.3133 0.7405
-0.2203 -1.3358 0.7395
-0.1124 -1.3496 0.7386
-0.0039 -1.3547 0.7376
0.1048 -1.3512 0.7368
0.2128 -1.3389 0.7359
0.3195 -1.3181 0.7351
0.4242 -1.2888 0.7344
0.5262 -1.2511 0.7337
0.6249 -1.2055 0.7331
0.7197 -1.1521 0.7326
1.6433 -2.2143 1.4855
1.9607 -2.2423 1.6032
2.7121 -2.6416 2.0361
2.9166 -2.4180 2.0361
3.1024 -2.1784 2.0361
3.2680 -1.9243 2.0361
3.4125 -1.6575 2.0361
3.5347 -1.3798 2.0361
3.6339 -1.0929 2.0361
3.7093 -0.7990 2.0361
3.7605 -0.4999 2.0361
3.7872 -0.1976 2.0361
3.7891 0.1057 2.0361
3.7663 0.4080 2.0361
3.7190 0.7073 2.0361
3.6475 1.0016 2.0361
3.5523 1.2889 2.0361
3.4342 1.5673 2.0361
3.2940 1.8349 2.0361
3.1327 2.0901 2.0361
2.9514 2.3311 2.0361
2.7514 2.5564 2.0361
2.5341 2.7646 2.0361
2.3009 2.9543 2.0361
0.7486 1.1391 0.7423
0.6547 1.1952 0.7433
0.5566 1.2435 0.7443
0.4549 1.2838 0.7454
0.3502 1.3158 0.7464
0.2433 1.3393 0.7473
0.1349 1.3540 0.7483
0.0256 1.3600 0.7492
-0.0838 1.3572 0.7501
-0.1926 1.3455 0.7510
-0.3001 1.3251 0.7518
-0.4056 1.2962 0.7525
-0.5085 1.2588 0.7532
-0.6080 1.2133 0.7538
-0.7034 1.1599 0.7544
-2.1425 2.9643 2.0361
-2.3723 2.7794 2.0361
-2.5865 2.5770 2.0361
-2.7839 2.3584 2.0361
-2.9633 2.1250 2.0361
-3.1236 1.8782 2.0361
-3.2638 1.6195 2.0361
-3.3832 1.3507 2.0361
-3.4809 1.0733 2.0361
-3.5563 0.7890 2.0361
-3.6091 0.4997 2.0361
-3.6388 0.2070 2.0361
-3.6453 -0.0872 2.0361
-3.6285 -0.3811 2.0361
-3.5884 -0.6729 2.0361
-3.5253 -0.9608 2.0361
-3.4396 -1.2430 2.0361
-3.3317 -1.5177 2.0361
-3.2022 -1.7832 2.0361
-3.0519 -2.0378 2.0361
-2.8817 -2.2798 2.0361
-2.6925 -2.5079 2.0361
-2.4856 -2.7203 2.0361
-2.2621 -2.9158 2.0361
-0.7401 -1.1313 0.7447
-0.6469 -1.1874 0.7437
-0.5496 -1.2358 0.7426
-0.4486 -1.2763 0.7416
-0.3448 -1.3086 0.7406
-0.2388 -1.3325 0.7397
-0.1311 -1.3478 0.7387
-0.0226 -1.3545 0.7378
0.0861 -1.3524 0.7369
0.1942 -1.3417 0.7361
0.3012 -1.3223 0.7353
0.4063 -1.2944 0.7345
0.5088 -1.2582 0.7338
0.6081 -1.2139 0.7332
0.7036 -1.1618 0.7327
1.5931 -2.2099 1.4679
1.9023 -2.2372 1.5808
2.6749 -2.6785 2.0361
2.8826 -2.4579 2.0361
3.0717 -2.2209 2.0361
3.2409 -1.9692 2.0361
3.3891 -1.7044 2.0361
3.5152 -1.4285 2.0361
3.6184 -1.1430 2.0361
3.6980 -0.8502 2.0361
3.7534 -0.5518 2.0361
3.7844 -0.2500 2.0361
3.7905 0.0533 2.0361
3.7720 0.3559 2.0361
3.7289 0.6559 2.0361
3.6615 0.9512 2.0361
3.5704 1.2398 2.0361
3.4563 1.5199 2.0361
3.3198 1.7895 2.0361
3.1621 2.0470 2.0361
2.9841 2.2906 2.0361
2.7873 2.5187 2.0361
2.5728 2.7299 2.0361
2.3422 2.9229 2.0361
0.7644 1.1286 0.7421
0.6713 1.1860 0.7432
0.5738 1.2357 0.7442
0.4727 1.2775 0.7452
0.3685 1.3109 0.7462
0.2619 1.3358 0.7472
0.1537 1.3521 0.7481
0.0445 1.3596 0.7491
-0.0649 1.3583 0.7500
-0.1739 1.3481 0.7508
-0.2817 1.3293 0.7516
-0.3876 1.3018 0.7524
-0.4909 1.2658 0.7531
-0.5910 1.2217 0.7537
-0.6873 1.1696 0.7543
-2.1013 2.9944 2.0361
-2.3336 2.8126 2.0361
-2.5506 2.6132 2.0361
-2.7510 2.3973 2.0361
-2.9336 2.1663 2.0361
-3.0973 1.9217 2.0361
-3.2411 1.6650 2.0361
-3.3641 1.3978 2.0361
-3.4656 1.1218 2.0361
-3.5449 0.8386 2.0361
-3.6016 0.5500 2.0361
-3.6353 0.2577 2.0361
-3.6458 -0.0364 2.0361
-3.6330 -0.3304 2.0361
-3.5970 -0.6228 2.0361
-3.5379 -0.9114 2.0361
-3.4560 -1.1947 2.0361
-3.3519 -1.4708 2.0361
-3.2261 -1.7380 2.0361
-3.0793 -1.9946 2.0361
-2.9125 -2.2390 2.0361
-2.7265 -2.4695 2.0361
-2.5226 -2.6848 2.0361
-2.3019 -2.8833 2.0361
-0.7557 -1.1208 0.7448
-0.6633 -1.1782 0.7438
-0.5666 -1.2280 0.7428
-0.4663 -1.2699 0.7418
-0.3629 -1.3036 0.7408
-0.2572 -1.3290 0.7398
-0.1498 -1.3458 0.7389
-2.2934 2.5409 2.0361
-2.4889 2.3459 2.0361
-2.6683 2.1361 2.0361
-2.8305 1.9129 2.0361
-2.9744 1.6776 2.0361
-3.0992 1.4317 2.0361
-3.2042 1.1768 2.0361
-3.2886 0.9143 2.0361
-3.3520 0.6460 2.0361
-3.3940 0.3735 2.0361
-3.4143 0.0985 2.0361
-3.4127 -0.1774 2.0361
-3.3893 -0.4523 2.0361
-3.3442 -0.7247 2.0361
-3.2775 -0.9929 2.0361
-3.1898 -1.2550 2.0361
-3.0814 -1.5096 2.0361
-2.9531 -1.7549 2.0361
-2.8055 -1.9895 2.0361
-2.6396 -2.2118 2.0361
-2.4564 -2.4204 2.0361
-2.2568 -2.6139 2.0361
-0.7475 -1.0215 0.7452
-0.6631 -1.0786 0.7443
-0.5744 -1.1287 0.7433
-0.4820 -1.1716 0.7424
-0.3865 -1.2069 0.7414
-0.2885 -1.2344 0.7405
-0.1886 -1.2540 0.7396
-0.0874 -1.2656 0.7387
0.0144 -1.2690 0.7379
0.1161 -1.2643 0.7370
0.2171 -1.2514 0.7363
0.3167 -1.2305 0.7355
0.4144 -1.2017 0.7349
0.5095 -1.1651 0.7342
0.6013 -1.1211 0.7337
0.6893 -1.0698 0.7332
0.7730 -1.0116 0.7327
2.3678 -2.6326 2.0361
2.5727 -2.4368 2.0361
2.7610 -2.2248 2.0361
2.9316 -1.9982 2.0361
3.0831 -1.7582 2.0361
3.2147 -1.5067 2.0361
3.3253 -1.2453 2.0361
3.4143 -0.9757 2.0361
3.4810 -0.6997 2.0361
3.5250 -0.4193 2.0361
3.5460 -0.1362 2.0361
3.5439 0.1475 2.0361
3.5187 0.4300 2.0361
3.4706 0.7093 2.0361
3.4000 0.9837 2.0361
3.3074 1.2513 2.0361
3.1934 1.5103 2.0361
3.0589 1.7589 2.0361
2.9048 1.9957 2.0361
2.7322 2.2189 2.0361
2.5423 2.4273 2.0361
2.3364 2.6194 2.0361
0.7707 1.0177 0.7416
0.6864 1.0759 0.7425
0.5978 1.1272 0.7435
0.5053 1.1712 0.7445
0.4095 1.2076 0.7454
0.3111 1.2362 0.7463
0.2108 1.2567 0.7473
0.1091 1.2691 0.7481
0.0067 1.2733 0.7490
-0.0957 1.2692 0.7498
-0.1974 1.2569 0.7506
-0.2978 1.2364 0.7514
-0.3962 1.2079 0.7520
-0.4920 1.1716 0.7527
-0.5845 1.1277 0.7532
-0.6732 1.0765 0.7537
-0.7575 1.0183 0.7542
-2.2580 2.5730 2.0361
-2.4563 2.3807 2.0361
-2.6386 2.1733 2.0361
-2.8038 1.9523 2.0361
-2.9509 1.7190 2.0361
-3.0791 1.4749 2.0361
-3.1875 1.2214 2.0361
-3.2755 0.9601 2.0361
-3.3426 0.6927 2.0361
-3.3883 0.4208 2.0361
-3.4123 0.1461 2.0361
-3.4145 -0.1297 2.0361
-3.3949 -0.4050 2.0361
-3.3535 -0.6779 2.0361
-3.2906 -0.9469 2.0361
-3.2064 -1.2102 2.0361
-3.1016 -1.4662 2.0361
-2.9767 -1.7133 2.0361
-2.8324 -1.9498 2.0361
-2.6696 -2.1743 2.0361
-2.4892 -2.3854 2.0361
-2.2924 -2.5816 2.0361
-0.7616 -1.0110 0.7454
-0.6780 -1.0692 0.7444
-0.5900 -1.1206 0.7435
-0.4982 -1.1647 0.7425
-0.4032 -1.2013 0.7416
-0.3056 -1.2302 0.7407
-0.2059 -1.2512 0.7397
-0.1049 -1.2642 0.7389
-0.0032 -1.2690 0.7380
0.0985 -1.2657 0.7372
0.1997 -1.2542 0.7364
0.2997 -1.2347 0.7357
0.3977 -1.2072 0.7350
0.4933 -1.1720 0.7343
0.5857 -1.1292 0.7338
0.6744 -1.0792 0.7333
0.7589 -1.0222 0.7328
1.9618 -2.2428 1.7136
2.5385 -2.4718 2.0361
2.7297 -2.2626 2.0361
2.9034 -2.0383 2.0361
3.0584 -1.8006 2.0361
3.1934 -1.5509 2.0361
3.3078 -1.2911 2.0361
3.4005 -1.0228 2.0361
3.4711 -0.7478 2.0361
3.5191 -0.4680 2.0361
3.5441 -0.1852 2.0361
3.5459 0.0985 2.0361
3.5247 0.3813 2.0361
3.4805 0.6614 2.0361
3.4138 0.9368 2.0361
3.3249 1.2056 2.0361
3.2146 1.4662 2.0361
3.0836 1.7168 2.0361
2.9328 1.9557 2.0361
2.7633 2.1814 2.0361
2.5763 2.3924 2.0361
2.3730 2.5874 2.0361
0.7847 1.0070 0.7414
0.7013 1.0664 0.7424
0.6134 1.1189 0.7433
0.5215 1.1641 0.7443
0.4263 1.2019 0.7452
0.3283 1.2318 0.7462
0.2282 1.2538 0.7471
0.1267 1.2676 0.7480
0.0244 1.2732 0.7489
-0.0780 1.2705 0.7497
-0.1799 1.2596 0.7505
-0.2806 1.2405 0.7512
-0.3794 1.2134 0.7519
-0.4757 1.1784 0.7526
-0.5688 1.1358 0.7531
-0.6582 1.0858 0.7537
-0.7433 1.0288 0.7541
-2.2223 2.6046 2.0361
-2.4231 2.4150 2.0361
-2.6083 2.2102 2.0361
-2.7765 1.9914 2.0361
-2.9268 1.7601 2.0361
-3.0583 1.5178 2.0361
-3.1702 1.2658 2.0361
-3.2618 1.0058 2.0361
-3.3325 0.7393 2.0361
-3.3819 0.4681 2.0361
-3.4097 0.1937 2.0361
-3.4157 -0.0821 2.0361
-3.3999 -0.3575 2.0361
-3.3622 -0.6310 2.0361
-3.3030 -0.9008 2.0361
-3.2225 -1.1652 2.0361
-3.1212 -1.4226 2.0361
-2.9997 -1.6713 2.0361
-2.8586 -1.9098 2.0361
-2.6990 -2.1365 2.0361
-2.5216 -2.3499 2.0361
-2.3275 -2.5488 2.0361
-0.7756 -1.0003 0.7455
-0.6928 -1.0597 0.7446
-0.6055 -1.1122 0.7436
-0.5143 -1.1576 0.7427
-0.4198 -1.1956 0.7418
-0.3226 -1.2258 0.7408
-0.2232 -1.2482 0.7399
-0.1224 -1.2625 0.7390
-0.0208 -1.2687 0.7381
0.0810 -1.2668 0.7373
0.1823 -1.2568 0.7365
0.2825 -1.2386 0.7358
0.3809 -1.2125 0.7351
0.4770 -1.1786 0.7344
0.5700 -1.1371 0.7339
0.6594 -1.0883 0.7333
0.7446 -1.0325 0.7329
1.9033 -2.2376 1.6897
2.5037 -2.5064 2.0361
2.6979 -2.2998 2.0361
2.8747 -2.0781 2.0361
3.0330 -1.8425 2.0361
3.1716 -1.5948 2.0361
3.2895 -1.3366 2.0361
3.3861 -1.0696 2.0361
3.4605 -0.7957 2.0361
3.5124 -0.5166 2.0361
3.5414 -0.2342 2.0361
3.5473 0.0495 2.0361
3.5300 0.3326 2.0361
3.4898 0.6133 2.0361
3.4269 0.8896 2.0361
3.3418 1.1597 2.0361
3.2352 1.4219 2.0361
3.1077 1.6743 2.0361
2.9602 1.9153 2.0361
2.7939 2.1434 2.0361
2.6098 2.3571 2.0361
2.4093 2.5549 2.0361
0.7986 0.9960 0.7413
0.7161 1.0566 0.7422
0.6289 1.1103 0.7432
0.5376 1.1569 0.7441
0.4429 1.1959 0.7451
0.3454 1.2272 0.7460
0.2456 1.2505 0.7469
0.1443 1.2658 0.7478
0.0421 1.2728 0.7487
-0.0604 1.2715 0.7495
-0.1624 1.2621 0.7503
-0.2633 1.2444 0.7511
-0.3625 1.2187 0.7518
-0.4592 1.1850 0.7525
-0.5530 1.1437 0.7530
-0.6431 1.0950 0.7536
-0.7289 1.0392 0.7540
-2.1861 2.6357 2.0361
-2.3895 2.4489 2.0361
-2.5775 2.2466 2.0361
-2.7487 2.0301 2.0361
-2.9022 1.8009 2.0361
-3.0370 1.5604 2.0361
-3.1523 1.3099 2.0361
-3.2474 1.0512 2.0361
-3.3218 0.7857 2.0361
-3.3749 0.5152 2.0361
-3.4065 0.2413 2.0361
-3.4162 -0.0344 2.0361
-3.4042 -0.3101 2.0361
-3.3703 -0.5840 2.0361
-3.3147 -0.8545 2.0361
-3.2379 -1.1200 2.0361
-3.1401 -1.3787 2.0361
-3.0221 -1.6290 2.0361
-2.8844 -1.8694 2.0361
