ply
format ascii 1.0
element vertex 2178
property float32 x
property float32 y
property float32 z
end_header
7.1428 2.7194 1.9034
6.7535 3.2138 1.8642
6.4396 3.7261 1.8561
6.2261 4.3049 1.8904
5.8361 4.7713 1.8847
5.4166 5.2079 1.8808
4.9746 5.6192 1.8808
4.5013 5.9929 1.8808
3.9999 6.3266 1.8808
3.4193 6.5145 1.8513
3.1638 7.4227 2.0332
2.5534 7.6419 2.0332
1.9282 7.8111 2.0332
1.2923 7.9292 2.0332
0.6499 7.9959 2.0332
0.0050 8.0107 2.0332
-0.6381 7.9739 2.0332
-1.2754 7.8859 2.0332
-1.9028 7.7475 2.0332
-2.5164 7.5597 2.0332
-3.1124 7.3239 2.0332
-3.6871 7.0417 2.0332
-4.2369 6.7150 2.0332
-4.7585 6.3461 2.0332
-5.2488 5.9373 2.0332
-5.7047 5.4913 2.0332
-6.1235 5.0109 2.0332
-6.5027 4.4992 2.0332
-6.8401 3.9594 2.0332
-7.1336 3.3949 2.0332
-7.3814 2.8091 2.0332
-7.5821 2.2057 2.0332
-7.7345 1.5883 2.0332
-7.8376 0.9609 2.0332
-7.8908 0.3272 2.0332
-7.8937 -0.3088 2.0332
-7.8464 -0.9433 2.0332
-7.7489 -1.5723 2.0332
-7.6019 -2.1919 2.0332
-7.4062 -2.7984 2.0332
-7.1629 -3.3878 2.0332
-6.8733 -3.9566 2.0332
-6.5393 -4.5011 2.0332
-6.1626 -5.0179 2.0332
-5.7457 -5.5036 2.0332
-5.2909 -5.9550 2.0332
-4.8010 -6.3693 2.0332
-4.2790 -6.7437 2.0332
-3.7281 -7.0756 2.0332
-3.1516 -7.3627 2.0332
-2.5532 -7.6031 2.0332
-1.9366 -7.7950 2.0332
-0.8613 -5.2357 1.3412
-0.4481 -5.4121 1.3707
-0.0117 -5.4124 1.3641
0.4246 -5.4126 1.3664
0.8399 -5.2470 1.3355
1.9188 -7.8701 2.0332
2.5482 -7.7006 2.0332
3.1624 -7.4804 2.0332
3.7575 -7.2107 2.0332
4.0048 -6.3766 1.8808
4.5086 -6.0406 1.8808
4.9838 -5.6643 1.8808
5.4272 -5.2503 1.8808
5.8356 -4.8011 1.8808
6.2168 -4.3272 1.8840
6.5678 -3.8278 1.8898
6.8756 -3.2985 1.8950
6.5461 -2.5159 1.7421
7.3502 -2.1659 1.9031
7.5125 -1.5713 1.9061
7.6226 -0.9642 1.9082
7.6795 -0.3492 1.9096
7.6826 0.2685 1.9100
7.6318 0.8839 1.9097
7.5278 1.4922 1.9085
7.3714 2.0883 1.9065
7.1642 2.6676 1.9037
6.8164 3.1827 1.8749
6.4615 3.6759 1.8545
6.2597 4.2607 1.8909
5.8732 4.7303 1.8852
5.4552 5.1686 1.8808
5.0162 5.5832 1.8808
4.5456 5.9604 1.8808
4.0467 6.2979 1.8808
3.4250 6.4107 1.8286
3.2185 7.4003 2.0332
2.6097 7.6240 2.0332
1.9857 7.7978 2.0332
1.3506 7.9206 2.0332
0.7086 7.9919 2.0332
0.0637 8.0115 2.0332
-0.5797 7.9794 2.0332
-1.2177 7.8961 2.0332
-1.8462 7.7622 2.0332
-2.4612 7.5788 2.0332
-3.0589 7.3473 2.0332
-3.6357 7.0693 2.0332
-4.1879 6.7466 2.0332
-4.7122 6.3814 2.0332
-5.2055 5.9762 2.0332
-5.6646 5.5334 2.0332
-6.0869 5.0561 2.0332
-6.4699 4.5471 2.0332
-6.8111 4.0097 2.0332
-7.1087 3.4473 2.0332
-7.3608 2.8633 2.0332
-7.5658 2.2613 2.0332
-7.7226 1.6451 2.0332
-7.8303 1.0184 2.0332
-7.8880 0.3851 2.0332
-7.8956 -0.2508 2.0332
-7.8528 -0.8856 2.0332
-7.7598 -1.5153 2.0332
-7.6173 -2.1360 2.0332
-7.4260 -2.7438 2.0332
-7.1870 -3.3349 2.0332
-6.9016 -3.9057 2.0332
-6.5715 -4.4526 2.0332
-6.1987 -4.9720 2.0332
-5.7853 -5.4607 2.0332
-5.3339 -5.9154 2.0332
-4.8471 -6.3332 2.0332
-4.3278 -6.7113 2.0332
-3.7794 -7.0471 2.0332
-3.2051 -7.3385 2.0332
-2.6086 -7.5832 2.0332
-1.9935 -7.7796 2.0332
-0.8997 -5.2291 1.3414
-0.4880 -5.4121 1.3718
-0.0513 -5.4123 1.3644
0.3847 -5.4126 1.3659
0.7991 -5.2383 1.3320
1.8609 -7.8830 2.0332
2.4914 -7.7182 2.0332
3.1072 -7.5025 2.0332
3.7041 -7.2373 2.0332
3.9615 -6.4121 1.8827
4.4638 -6.0729 1.8808
4.9418 -5.7002 1.8808
5.3882 -5.2895 1.8808
5.7999 -4.8434 1.8808
6.1827 -4.3710 1.8834
6.5376 -3.8746 1.8893
6.8494 -3.3479 1.8945
6.5397 -2.5686 1.7454
7.3328 -2.2193 1.9028
7.4998 -1.6261 1.9058
7.6148 -1.0199 1.9081
7.6766 -0.4054 1.9095
7.6846 0.2122 1.9100
7.6387 0.8281 1.9098
7.5394 1.4372 1.9087
7.3878 2.0346 1.9068
7.1851 2.6156 1.9040
6.9334 3.1757 1.9005
6.6351 3.7106 1.8963
6.2929 4.2162 1.8913
5.9100 4.6890 1.8857
5.4898 5.1256 1.8795
5.0576 5.5470 1.8808
4.5897 5.9277 1.8808
4.0932 6.2689 1.8808
3.4648 6.3724 1.8247
3.2731 7.3775 2.0332
2.6659 7.6057 2.0332
2.0431 7.7840 2.0332
1.4088 7.9115 2.0332
0.7672 7.9876 2.0332
0.1225 8.0119 2.0332
-0.5212 7.9845 2.0332
-1.1599 7.9058 2.0332
-1.7894 7.7765 2.0332
-2.4058 7.5976 2.0332
-3.0053 7.3704 2.0332
-3.5841 7.0965 2.0332
-4.1387 6.7778 2.0332
-4.6657 6.4164 2.0332
-5.1619 6.0147 2.0332
-5.6243 5.5752 2.0332
-6.0500 5.1009 2.0332
-6.4367 4.5947 2.0332
-6.7818 4.0598 2.0332
-7.0835 3.4995 2.0332
-7.3397 2.9173 2.0332
-7.5491 2.3168 2.0332
-7.7104 1.7017 2.0332
-7.8225 1.0758 2.0332
-7.8848 0.4430 2.0332
-7.8970 -0.1929 2.0332
-7.8587 -0.8279 2.0332
-7.7704 -1.4582 2.0332
-7.6323 -2.0799 2.0332
-7.4454 -2.6890 2.0332
-7.2107 -3.2818 2.0332
-6.9295 -3.8547 2.0332
-6.6034 -4.4039 2.0332
-6.2344 -4.9259 2.0332
-5.8246 -5.4175 2.0332
-5.3765 -5.8754 2.0332
-4.8928 -6.2967 2.0332
-4.3764 -6.6785 2.0332
-3.8305 -7.0184 2.0332
-3.2584 -7.3138 2.0332
-2.6637 -7.5629 2.0332
-2.0502 -7.7637 2.0332
-0.9390 -5.2281 1.3430
-0.5281 -5.4121 1.3729
-0.0910 -5.4123 1.3647
0.3448 -5.4126 1.3654
0.7596 -5.2364 1.3302
1.8028 -7.8955 2.0332
2.4345 -7.7353 2.0332
3.0518 -7.5242 2.0332
3.6506 -7.2635 2.0332
3.9515 -6.5013 1.9007
4.4188 -6.1049 1.8808
4.8995 -5.7358 1.8808
5.3489 -5.3284 1.8808
5.7639 -4.8855 1.8808
6.1484 -4.4146 1.8829
6.5070 -3.9212 1.8888
6.8229 -3.3970 1.8941
6.5693 -2.6359 1.7585
7.3151 -2.2725 1.9025
7.4868 -1.6808 1.9056
7.6065 -1.0755 1.9079
7.6732 -0.4617 1.9094
7.6861 0.1559 1.9100
7.6451 0.7722 1.9098
7.5507 1.3821 1.9088
7.4037 1.9808 1.9070
7.2056 2.5635 1.9043
6.9583 3.1257 1.9009
6.6642 3.6630 1.8967
6.3258 4.1714 1.8918
5.9465 4.6473 1.8863
5.5296 5.0874 1.8801
5.0987 5.5104 1.8808
4.6336 5.8946 1.8808
4.1396 6.2395 1.8808
3.5038 6.3329 1.8205
3.2900 7.2711 2.0102
2.7219 7.5869 2.0332
2.1004 7.7699 2.0332
1.4670 7.9020 2.0332
0.8259 7.9828 2.0332
0.1813 8.0118 2.0332
-0.4627 7.9891 2.0332
-1.1020 7.9151 2.0332
-1.7325 7.7903 2.0332
-2.3503 7.6159 2.0332
-2.9514 7.3930 2.0332
-3.5323 7.1233 2.0332
-4.0892 6.8086 2.0332
-4.6189 6.4510 2.0332
-5.1180 6.0529 2.0332
-5.5836 5.6168 2.0332
-6.0128 5.1455 2.0332
-6.4031 4.6421 2.0332
-6.7521 4.1096 2.0332
-7.0578 3.5515 2.0332
-7.3183 2.9711 2.0332
-7.5320 2.3722 2.0332
-7.6977 1.7583 2.0332
-7.8143 1.1332 2.0332
-7.8812 0.5009 2.0332
-7.8979 -0.1349 2.0332
-7.8643 -0.7702 2.0332
-7.7805 -1.4011 2.0332
-7.6470 -2.0237 2.0332
-7.4645 -2.6341 2.0332
-7.2340 -3.2286 2.0332
-6.9570 -3.8034 2.0332
-6.6349 -4.3549 2.0332
-6.2697 -4.8796 2.0332
-5.8636 -5.3741 2.0332
-5.4189 -5.8352 2.0332
-4.9383 -6.2599 2.0332
-4.4247 -6.6455 2.0332
-3.8814 -6.9892 2.0332
-3.3115 -7.2888 2.0332
-2.7188 -7.5422 2.0332
-2.1068 -7.7475 2.0332
-0.9796 -5.2330 1.3462
-0.5681 -5.4121 1.3741
-0.1307 -5.4123 1.3650
0.3050 -5.4125 1.3649
0.7210 -5.2405 1.3300
1.7447 -7.9075 2.0332
2.3774 -7.7520 2.0332
2.9962 -7.5455 2.0332
3.5969 -7.2892 2.0332
3.9522 -6.6111 1.9245
4.3735 -6.1365 1.8808
4.8569 -5.7710 1.8808
5.3093 -5.3671 1.8808
5.7276 -4.9272 1.8808
6.1137 -4.4580 1.8823
6.4760 -3.9675 1.8883
6.7959 -3.4460 1.8936
7.0704 -2.8973 1.8983
7.2969 -2.3256 1.9022
7.4733 -1.7353 1.9054
7.5978 -1.1311 1.9077
7.6693 -0.5178 1.9093
7.6871 0.0996 1.9100
7.6511 0.7162 1.9099
7.5615 1.3269 1.9089
7.4192 1.9268 1.9072
7.2258 2.5112 1.9046
6.9828 3.0754 1.9012
6.6928 3.6151 1.8971
6.3584 4.1264 1.8923
5.9827 4.6054 1.8868
5.5690 5.0489 1.8807
5.1395 5.4735 1.8808
4.6772 5.8612 1.8808
4.1857 6.2097 1.8808
3.5642 6.3322 1.8275
3.3003 7.1538 1.9842
2.7778 7.5678 2.0332
2.1576 7.7553 2.0332
1.5251 7.8921 2.0332
0.8845 7.9776 2.0332
0.2401 8.0113 2.0332
-0.4042 7.9933 2.0332
-1.0440 7.9239 2.0332
-1.6755 7.8037 2.0332
-2.2946 7.6338 2.0332
-2.8974 7.4153 2.0332
-3.4803 7.1498 2.0332
-4.0396 6.8391 2.0332
-4.5718 6.4853 2.0332
-5.0739 6.0908 2.0332
-5.5426 5.6580 2.0332
-5.9753 5.1898 2.0332
-6.3692 4.6892 2.0332
-6.7221 4.1593 2.0332
-7.0318 3.6033 2.0332
-7.2965 3.0248 2.0332
-7.5145 2.4274 2.0332
-7.6846 1.8147 2.0332
-7.8058 1.1906 2.0332
-7.8772 0.5587 2.0332
-7.8985 -0.0769 2.0332
-7.8695 -0.7124 2.0332
-7.7902 -1.3439 2.0332
-7.6612 -1.9674 2.0332
-7.4831 -2.5791 2.0332
-7.2570 -3.1752 2.0332
-6.9841 -3.7519 2.0332
-6.6661 -4.3057 2.0332
-6.3047 -4.8329 2.0332
-5.9022 -5.3303 2.0332
-5.4609 -5.7946 2.0332
-4.9835 -6.2228 2.0332
-4.4728 -6.6120 2.0332
-3.9320 -6.9597 2.0332
-3.3645 -7.2634 2.0332
-2.7736 -7.5210 2.0332
-2.1632 -7.7308 2.0332
-1.0217 -5.2450 1.3514
-0.6083 -5.4121 1.3754
-0.1704 -5.4123 1.3655
0.2652 -5.4125 1.3646
0.6832 -5.2505 1.3314
1.6865 -7.9191 2.0332
2.3203 -7.7683 2.0332
2.9405 -7.5664 2.0332
3.5430 -7.3146 2.0332
3.9529 -6.7237 1.9489
4.3281 -6.1678 1.8808
4.8141 -5.8060 1.8808
5.2694 -5.4054 1.8808
5.6909 -4.9687 1.8808
6.0787 -4.5010 1.8817
6.4447 -4.0135 1.8878
6.7686 -3.4947 1.8932
7.0473 -2.9483 1.8979
7.2783 -2.3786 1.9019
7.4593 -1.7898 1.9051
7.5886 -1.1866 1.9075
7.6650 -0.5740 1.9092
7.6877 0.0433 1.9100
7.6566 0.6602 1.9099
7.5718 1.2716 1.9091
7.4343 1.8727 1.9074
7.2455 2.4587 1.9048
7.0070 3.0249 1.9016
6.7211 3.5671 1.8975
6.3907 4.0811 1.8928
6.0186 4.5632 1.8873
5.6082 5.0100 1.8813
5.1800 5.4363 1.8808
4.7206 5.8274 1.8808
4.2316 6.1796 1.8808
3.6258 6.3325 1.8350
3.3103 7.0394 1.9589
2.8336 7.5482 2.0332
2.2147 7.7403 2.0332
1.5831 7.8818 2.0332
0.9431 7.9719 2.0332
0.2988 8.0104 2.0332
-0.3456 7.9971 2.0332
-0.9860 7.9323 2.0332
-1.6184 7.8168 2.0332
-2.2388 7.6513 2.0332
-2.8433 7.4372 2.0332
-3.4281 7.1759 2.0332
-3.9897 6.8692 2.0332
-4.5245 6.5193 2.0332
-5.0295 6.1284 2.0332
-5.5014 5.6990 2.0332
-5.9374 5.2339 2.0332
-6.3350 4.7361 2.0332
-6.6917 4.2087 2.0332
-7.0054 3.6550 2.0332
-7.2743 3.0784 2.0332
-7.4966 2.4825 2.0332
-7.6711 1.8711 2.0332
-7.7968 1.2478 2.0332
-7.8728 0.6165 2.0332
-7.8986 -0.0190 2.0332
-7.8742 -0.6546 2.0332
-7.7995 -1.2866 2.0332
-7.6750 -1.9110 2.0332
-7.5013 -2.5239 2.0332
-7.2795 -3.1216 2.0332
-7.0109 -3.7003 2.0332
-6.6969 -4.2563 2.0332
-6.3394 -4.7861 2.0332
-5.9405 -5.2863 2.0332
-5.5027 -5.7537 2.0332
-5.0284 -6.1853 2.0332
-4.5206 -6.5782 2.0332
-3.9825 -6.9298 2.0332
-3.4172 -7.2376 2.0332
-2.8284 -7.4995 2.0332
-2.2196 -7.7137 2.0332
-1.0660 -5.2667 1.3592
-0.6485 -5.4121 1.3767
-0.2101 -5.4123 1.3660
0.2255 -5.4125 1.3643
0.6462 -5.2670 1.3345
1.6282 -7.9303 2.0332
2.2630 -7.7842 2.0332
2.8847 -7.5869 2.0332
3.4890 -7.3396 2.0332
3.9536 -6.8391 1.9741
4.2824 -6.1988 1.8808
4.7710 -5.8406 1.8808
5.2293 -5.4434 1.8808
5.6540 -5.0099 1.8808
6.0433 -4.5437 1.8811
6.4131 -4.0593 1.8872
6.7409 -3.5432 1.8927
6.9299 -2.9590 1.8721
7.2593 -2.4313 1.9015
7.4449 -1.8441 1.9048
7.5790 -1.2421 1.9074
7.6603 -0.6301 1.9091
7.6879 -0.0130 1.9099
7.6616 0.6041 1.9100
7.5818 1.2162 1.9092
7.4490 1.8185 1.9075
7.2648 2.4060 1.9051
7.0307 2.9743 1.9019
6.7491 3.5188 1.8979
6.4226 4.0355 1.8932
6.0541 4.5207 1.8879
5.6471 4.9708 1.8819
5.2203 5.3988 1.8808
4.7637 5.7934 1.8808
4.2773 6.1492 1.8808
3.6879 6.3329 1.8426
3.3200 6.9278 1.9343
2.8893 7.5282 2.0332
2.2717 7.7249 2.0332
1.6411 7.8710 2.0332
1.0017 7.9658 2.0332
0.3576 8.0090 2.0332
-0.2870 8.0004 2.0332
-0.9279 7.9404 2.0332
-1.5612 7.8294 2.0332
-2.1829 7.6684 2.0332
-2.7889 7.4587 2.0332
-3.3757 7.2016 2.0332
-3.9395 6.8990 2.0332
-4.4770 6.5529 2.0332
-4.9848 6.1656 2.0332
-5.4598 5.7396 2.0332
-5.8992 5.2777 2.0332
-6.3004 4.7827 2.0332
-6.6609 4.2579 2.0332
-6.9787 3.7064 2.0332
-7.2517 3.1318 2.0332
-7.4783 2.5376 2.0332
-7.6572 1.9274 2.0332
-7.7874 1.3050 2.0332
-7.8679 0.6742 2.0332
-7.8984 0.0390 2.0332
-7.8785 -0.5968 2.0332
-7.8084 -1.2293 2.0332
-7.6884 -1.8545 2.0332
-7.5192 -2.4687 2.0332
-7.3017 -3.0679 2.0332
-7.0373 -3.6484 2.0332
-6.7273 -4.2066 2.0332
-6.3737 -4.7390 2.0332
-5.9785 -5.2420 2.0332
-5.5441 -5.7126 2.0332
-5.0731 -6.1476 2.0332
-4.5682 -6.5441 2.0332
-4.0327 -6.8995 2.0332
-3.4698 -7.2114 2.0332
-2.8829 -7.4776 2.0332
-2.2758 -7.6962 2.0332
-1.1143 -5.3049 1.3713
-0.6845 -5.3784 1.3696
-0.2499 -5.4122 1.3666
0.1857 -5.4125 1.3641
0.6098 -5.2911 1.3396
1.5698 -7.9411 2.0332
2.2057 -7.7997 2.0332
2.8287 -7.6070 2.0332
3.4347 -7.3642 2.0332
3.9543 -6.9574 2.0001
4.2364 -6.2294 1.8808
4.7277 -5.8749 1.8808
5.1889 -5.4812 1.8808
5.6168 -5.0509 1.8808
6.0076 -4.5862 1.8806
6.3810 -4.1048 1.8867
6.7128 -3.5914 1.8922
6.8849 -2.9996 1.8659
7.2399 -2.4839 1.9012
7.4301 -1.8983 1.9046
7.5690 -1.2974 1.9072
7.6551 -0.6861 1.9089
7.6876 -0.0693 1.9099
7.6663 0.5480 1.9100
7.5912 1.1608 1.9093
7.4633 1.7641 1.9077
7.2836 2.3532 1.9054
7.0540 2.9234 1.9022
6.7767 3.4702 1.8983
6.4541 3.9897 1.8937
6.0893 4.4778 1.8884
5.6857 4.9313 1.8824
5.2603 5.3610 1.8808
4.8066 5.7590 1.8808
4.3228 6.1184 1.8808
3.7505 6.3332 1.8504
3.3295 6.8191 1.9104
2.9448 7.5078 2.0332
2.3285 7.7090 2.0332
1.6990 7.8598 2.0332
1.0602 7.9593 2.0332
0.4164 8.0072 2.0332
-0.2283 8.0033 2.0332
-0.8698 7.9480 2.0332
-1.5039 7.8416 2.0332
-2.1268 7.6851 2.0332
-2.7344 7.4798 2.0332
-3.3231 7.2270 2.0332
-3.8892 6.9284 2.0332
-4.4292 6.5862 2.0332
-4.9398 6.2026 2.0332
-5.4180 5.7800 2.0332
-5.8607 5.3212 2.0332
-6.2655 4.8291 2.0332
-6.6298 4.3069 2.0332
-6.9515 3.7577 2.0332
-7.2287 3.1850 2.0332
-7.4596 2.5924 2.0332
-7.6429 1.9835 2.0332
-7.7776 1.3621 2.0332
-7.8627 0.7320 2.0332
-7.8977 0.0970 2.0332
-7.8824 -0.5389 2.0332
-7.8168 -1.1719 2.0332
-7.7014 -1.7979 2.0332
-7.5366 -2.4133 2.0332
-7.3235 -3.0140 2.0332
-7.0633 -3.5964 2.0332
-6.7574 -4.1568 2.0332
-6.4077 -4.6916 2.0332
-6.0162 -5.1975 2.0332
-5.5853 -5.6711 2.0332
-5.1174 -6.1095 2.0332
-4.6156 -6.5096 2.0332
-4.0827 -6.8689 2.0332
-3.5221 -7.1848 2.0332
-2.9373 -7.4553 2.0332
-2.3318 -7.6783 2.0332
-1.7096 -7.8523 2.0332
-0.7176 -5.3261 1.3577
-0.2897 -5.4122 1.3673
0.1460 -5.4124 1.3639
0.5743 -5.3260 1.3475
1.0289 -5.4129 1.3841
2.1482 -7.8147 2.0332
2.7726 -7.6266 2.0332
3.3803 -7.3883 2.0332
3.9550 -7.0789 2.0268
4.1903 -6.2597 1.8808
4.6841 -5.9088 1.8808
5.1482 -5.5186 1.8808
5.5792 -5.0915 1.8808
5.9717 -4.6283 1.8800
6.3487 -4.1501 1.8862
6.6844 -3.6394 1.8917
6.8866 -3.0606 1.8724
7.2200 -2.5364 1.9008
7.4149 -1.9524 1.9043
7.5585 -1.3527 1.9070
7.6494 -0.7421 1.9088
7.6869 -0.1256 1.9098
7.6704 0.4919 1.9100
7.6003 1.1053 1.9094
7.4771 1.7097 1.9079
7.3021 2.3003 1.9056
7.0770 2.8723 1.9025
6.8039 3.4215 1.8987
6.4853 3.9436 1.8941
6.1242 4.4347 1.8889
5.7240 4.8915 1.8830
5.3001 5.3229 1.8808
4.8493 5.7243 1.8808
4.3680 6.0874 1.8808
3.8137 6.3336 1.8584
3.3431 6.7214 1.8896
3.0001 7.4870 2.0332
2.3853 7.6928 2.0332
1.7568 7.8482 2.0332
1.1187 7.9524 2.0332
0.4752 8.0050 2.0332
-0.1696 8.0058 2.0332
-0.8116 7.9551 2.0332
-1.4466 7.8534 2.0332
-2.0706 7.7014 2.0332
-2.6798 7.5005 2.0332
-3.2704 7.2519 2.0332
-3.8386 6.9575 2.0332
-4.3812 6.6191 2.0332
-4.8946 6.2392 2.0332
-5.3758 5.8200 2.0332
-5.8219 5.3644 2.0332
-6.2303 4.8753 2.0332
-6.5984 4.3556 2.0332
-6.9240 3.8088 2.0332
-7.2053 3.2381 2.0332
-7.4405 2.6472 2.0332
-7.6282 2.0396 2.0332
-7.7673 1.4192 2.0332
-7.8570 0.7897 2.0332
-7.8966 0.1549 2.0332
-7.8859 -0.4810 2.0332
-7.8249 -1.1144 2.0332
-7.7139 -1.7413 2.0332
-7.5536 -2.3577 2.0332
-7.3449 -2.9599 2.0332
-7.0889 -3.5442 2.0332
-6.7871 -4.1067 2.0332
-6.4413 -4.6440 2.0332
-6.0535 -5.1527 2.0332
-5.6261 -5.6294 2.0332
-5.1615 -6.0711 2.0332
-4.6626 -6.4748 2.0332
-4.1325 -6.8379 2.0332
-3.5743 -7.1579 2.0332
-2.9915 -7.4326 2.0332
-2.3877 -7.6600 2.0332
-1.7669 -7.8385 2.0332
-0.7523 -5.2909 1.3503
-0.3295 -5.4122 1.3681
0.1063 -5.4124 1.3639
0.5403 -5.3809 1.3606
0.9770 -5.3533 1.3672
2.0906 -7.8293 2.0332
2.7163 -7.6459 2.0332
3.3257 -7.4121 2.0332
3.9149 -7.1292 2.0332
4.1439 -6.2896 1.8808
4.6403 -5.9425 1.8808
5.1072 -5.5557 1.8808
5.5414 -5.1319 1.8808
5.9354 -4.6702 1.8794
6.3160 -4.1950 1.8856
6.6556 -3.6872 1.8913
6.9511 -3.1504 1.8962
7.1998 -2.5887 1.9005
7.3992 -2.0063 1.9040
7.5476 -1.4078 1.9067
7.6433 -0.7981 1.9087
7.6857 -0.1819 1.9098
7.6742 0.4357 1.9100
7.6089 1.0496 1.9095
7.4905 1.6551 1.9081
7.3202 2.2472 1.9059
7.0995 2.8211 1.9028
6.8307 3.3725 1.8991
6.5161 3.8972 1.8946
6.1588 4.3914 1.8894
5.7620 4.8514 1.8836
5.3395 5.2846 1.8808
4.8917 5.6892 1.8808
4.4131 6.0559 1.8808
3.8774 6.3339 1.8666
3.3769 6.6662 1.8808
3.0553 7.4658 2.0332
2.4420 7.6761 2.0332
1.8145 7.8361 2.0332
1.1771 7.9450 2.0332
0.5339 8.0023 2.0332
-0.1109 8.0079 2.0332
-0.7533 7.9619 2.0332
-1.3891 7.8647 2.0332
-2.0143 7.7174 2.0332
-2.6250 7.5208 2.0332
-3.2174 7.2765 2.0332
-3.7879 6.9861 2.0332
-4.3329 6.6517 2.0332
-4.8491 6.2754 2.0332
-5.3334 5.8598 2.0332
-5.7828 5.4074 2.0332
-6.1947 4.9211 2.0332
-6.5666 4.4042 2.0332
-6.8962 3.8596 2.0332
-7.1816 3.2910 2.0332
-7.4210 2.7017 2.0332
-7.6131 2.0956 2.0332
-7.7567 1.4761 2.0332
-7.8509 0.8473 2.0332
-7.8950 0.2129 2.0332
-7.8889 -0.4231 2.0332
-7.8325 -1.0569 2.0332
-7.7261 -1.6845 2.0332
-7.5703 -2.3021 2.0332
-7.3659 -2.9058 2.0332
-7.1141 -3.4918 2.0332
-6.8165 -4.0564 2.0332
-6.4746 -4.5962 2.0332
-6.0906 -5.1076 2.0332
-5.6666 -5.5874 2.0332
-5.2053 -6.0324 2.0332
-4.7094 -6.4397 2.0332
-4.1820 -6.8066 2.0332
-3.6262 -7.1306 2.0332
-3.0455 -7.4095 2.0332
-2.4435 -7.6413 2.0332
-1.8241 -7.8243 2.0332
-0.7882 -5.2656 1.3455
-0.3693 -5.4122 1.3689
0.0667 -5.4124 1.3639
0.5035 -5.4126 1.3678
0.9260 -5.2934 1.3503
2.0329 -7.8434 2.0332
2.6599 -7.6647 2.0332
3.2710 -7.4355 2.0332
3.8621 -7.1571 2.0332
4.1077 -6.3351 1.8855
4.5962 -5.9758 1.8808
5.0660 -5.5926 1.8808
5.5033 -5.1720 1.8808
5.9051 -4.7169 1.8808
6.2830 -4.2397 1.8851
6.6264 -3.7348 1.8908
6.9261 -3.2004 1.8958
6.6168 -2.4340 1.7513
7.3831 -2.0601 1.9037
7.5362 -1.4629 1.9065
7.6368 -0.8540 1.9085
7.6841 -0.2382 1.9097
7.6774 0.3795 1.9100
7.6170 0.9940 1.9096
7.5035 1.6004 1.9082
7.3378 2.1939 1.9061
7.1217 2.7696 1.9032
6.7326 3.2630 1.8650
6.4606 3.8000 1.8701
6.1931 4.3477 1.8899
5.7997 4.8110 1.8841
5.3787 5.2459 1.8808
4.9338 5.6539 1.8808
4.4579 6.0241 1.8808
3.9488 6.3456 1.8783
3.4141 6.6188 1.8742
3.1104 7.4440 2.0332
2.4985 7.6590 2.0332
1.8722 7.8236 2.0332
1.2355 7.9372 2.0332
0.5926 7.9993 2.0332
-0.0522 8.0095 2.0332
-0.6950 7.9682 2.0332
-1.3315 7.8757 2.0332
-1.9579 7.7328 2.0332
-2.5701 7.5407 2.0332
-3.1643 7.3007 2.0332
-3.7369 7.0145 2.0332
4.1026 -5.3309 1.8808
4.5212 -4.9884 1.8808
4.9108 -4.6128 1.8808
5.2688 -4.2064 1.8808
5.5926 -3.7719 1.8808
5.8759 -3.3099 1.8794
6.1393 -2.8352 1.8839
6.3616 -2.3385 1.8877
6.5407 -1.8236 1.8908
6.6750 -1.2944 1.8933
6.7632 -0.7550 1.8950
6.8046 -0.2098 1.8961
6.7987 0.3371 1.8964
6.7456 0.8813 1.8960
6.6458 1.4185 1.8948
6.5003 1.9444 1.8929
6.3103 2.4550 1.8903
6.0777 2.9465 1.8871
5.8045 3.4150 1.8832
5.4995 3.8617 1.8808
5.1665 4.2865 1.8808
4.8004 4.6826 1.8808
4.4038 5.0473 1.8808
3.9794 5.3785 1.8808
3.5302 5.6738 1.8808
3.3069 6.4122 2.0332
2.7775 6.6487 2.0332
2.2313 6.8414 2.0332
1.6721 6.9894 2.0332
1.1034 7.0918 2.0332
0.5291 7.1481 2.0332
-0.0471 7.1582 2.0332
-0.6217 7.1222 2.0332
-1.1908 7.0403 2.0332
-1.7510 6.9134 2.0332
-2.2986 6.7424 2.0332
-2.8303 6.5285 2.0332
-3.3427 6.2731 2.0332
-3.8327 5.9780 2.0332
-4.2973 5.6453 2.0332
-4.7336 5.2769 2.0332
-5.1390 4.8753 2.0332
-5.5110 4.4432 2.0332
-5.8474 3.9831 2.0332
-6.1461 3.4981 2.0332
-6.4053 2.9911 2.0332
-6.6235 2.4653 2.0332
-6.7994 1.9240 2.0332
-6.9318 1.3706 2.0332
-7.0200 0.8084 2.0332
-7.0634 0.2409 2.0332
-7.0617 -0.3284 2.0332
-7.0149 -0.8959 2.0332
-6.9233 -1.4581 2.0332
-6.7873 -2.0116 2.0332
-6.6078 -2.5528 2.0332
-6.3857 -3.0784 2.0332
-6.1224 -3.5852 2.0332
-5.8195 -4.0697 2.0332
-5.4786 -4.5291 2.0332
-5.1019 -4.9602 2.0332
-4.6917 -5.3604 2.0332
-4.2503 -5.7270 2.0332
-3.7806 -6.0576 2.0332
-3.2854 -6.3498 2.0332
-2.7678 -6.6019 2.0332
-2.2311 -6.8118 2.0332
-1.6785 -6.9783 2.0332
-0.8024 -5.1155 1.4649
-0.4075 -5.4125 1.5335
0.0287 -5.4127 1.5273
0.4525 -5.2644 1.4890
0.8561 -5.1044 1.4567
1.7655 -7.0141 2.0332
2.3260 -6.8577 2.0332
2.8725 -6.6562 2.0332
3.4014 -6.4108 2.0332
3.9092 -6.1230 2.0332
4.0659 -5.3641 1.8821
4.4842 -5.0210 1.8808
4.8766 -4.6483 1.8808
5.2375 -4.2446 1.8808
5.5646 -3.8126 1.8808
5.8555 -3.3552 1.8808
6.1170 -2.8794 1.8835
6.3431 -2.3846 1.8874
6.5262 -1.8712 1.8906
6.6646 -1.3431 1.8931
6.7571 -0.8045 1.8949
6.8028 -0.2596 1.8960
6.8012 0.2874 1.8964
6.7524 0.8320 1.8960
6.6568 1.3699 1.8949
6.5154 1.8971 1.8931
6.3294 2.4092 1.8906
6.1006 2.9026 1.8874
5.8311 3.3733 1.8836
5.5281 3.8216 1.8808
5.1982 4.2489 1.8808
4.8350 4.6478 1.8808
4.4411 5.0155 1.8808
4.0192 5.3497 1.8808
3.5721 5.6484 1.8808
3.3314 6.3450 2.0193
2.8265 6.6289 2.0332
2.2817 6.8257 2.0332
1.7235 6.9778 2.0332
1.1556 7.0844 2.0332
0.5816 7.1449 2.0332
0.0054 7.1592 2.0332
-0.5695 7.1274 2.0332
-1.1393 7.0497 2.0332
-1.7004 6.9268 2.0332
-2.2493 6.7598 2.0332
-2.7826 6.5497 2.0332
-3.2969 6.2981 2.0332
-3.7891 6.0065 2.0332
-4.2561 5.6771 2.0332
-4.6951 5.3119 2.0332
-5.1034 4.9132 2.0332
-5.4785 4.4837 2.0332
-5.8183 4.0261 2.0332
-6.1205 3.5432 2.0332
-6.3834 3.0381 2.0332
-6.6054 2.5139 2.0332
-6.7851 1.9739 2.0332
-6.9215 1.4214 2.0332
-7.0138 0.8599 2.0332
-7.0613 0.2927 2.0332
-7.0637 -0.2765 2.0332
-7.0211 -0.8443 2.0332
-6.9335 -1.4072 2.0332
-6.8015 -1.9616 2.0332
-6.6259 -2.5041 2.0332
-6.4077 -3.0313 2.0332
-6.1481 -3.5399 2.0332
-5.8487 -4.0266 2.0332
-5.5112 -4.4883 2.0332
-5.1377 -4.9222 2.0332
-4.7304 -5.3253 2.0332
-4.2918 -5.6951 2.0332
-3.8245 -6.0290 2.0332
-3.3315 -6.3248 2.0332
-2.8158 -6.5806 2.0332
-2.2807 -6.7945 2.0332
-1.7294 -6.9650 2.0332
-0.8392 -5.1053 1.4639
-0.4474 -5.4125 1.5346
-0.0110 -5.4127 1.5275
0.4193 -5.3363 1.5086
0.8164 -5.0966 1.4529
1.7139 -7.0261 2.0332
2.2754 -6.8738 2.0332
2.8234 -6.6764 2.0332
3.3541 -6.4349 2.0332
3.8639 -6.1509 2.0332
4.0234 -5.3895 1.8808
4.4470 -5.0534 1.8808
4.8421 -4.6836 1.8808
5.2060 -4.2826 1.8808
5.5363 -3.8531 1.8808
5.8306 -3.3978 1.8808
6.0943 -2.9235 1.8831
6.3242 -2.4305 1.8870
6.5113 -1.9186 1.8903
6.6539 -1.3917 1.8929
6.7506 -0.8539 1.8948
6.8006 -0.3094 1.8959
6.8033 0.2376 1.8964
6.7588 0.7825 1.8961
6.6675 1.3213 1.8951
6.5302 1.8496 1.8933
6.3482 2.3633 1.8909
6.1232 2.8585 1.8877
5.8573 3.3315 1.8839
5.5527 3.7787 1.8795
5.2297 4.2111 1.8808
4.8694 4.6127 1.8808
4.4782 4.9833 1.8808
4.0587 5.3207 1.8808
3.6138 5.6227 1.8808
3.3400 6.2498 1.9965
2.8753 6.6088 2.0332
2.3319 6.8096 2.0332
1.7748 6.9658 2.0332
1.2076 7.0766 2.0332
0.6341 7.1413 2.0332
0.0579 7.1598 2.0332
-0.5173 7.1322 2.0332
-1.0877 7.0586 2.0332
-1.6497 6.9399 2.0332
-2.1999 6.7768 2.0332
-2.7347 6.5706 2.0332
-3.2509 6.3227 2.0332
-3.7452 6.0347 2.0332
-4.2146 5.7086 2.0332
-4.6563 5.3466 2.0332
-5.0675 4.9509 2.0332
-5.4458 4.5241 2.0332
-5.7888 4.0689 2.0332
-6.0945 3.5882 2.0332
-6.3611 3.0850 2.0332
-6.5869 2.5624 2.0332
-6.7705 2.0237 2.0332
-6.9109 1.4722 2.0332
-7.0072 0.9113 2.0332
-7.0588 0.3445 2.0332
-7.0654 -0.2247 2.0332
-7.0268 -0.7928 2.0332
-6.9433 -1.3562 2.0332
-6.8154 -1.9115 2.0332
-6.6437 -2.4552 2.0332
-6.4293 -2.9840 2.0332
-6.1734 -3.4944 2.0332
-5.8776 -3.9832 2.0332
-5.5435 -4.4474 2.0332
-5.1732 -4.8839 2.0332
-4.7688 -5.2899 2.0332
-4.3330 -5.6628 2.0332
-3.8682 -6.0001 2.0332
-3.3774 -6.2995 2.0332
-2.8637 -6.5590 2.0332
-2.3302 -6.7768 2.0332
-1.7802 -6.9513 2.0332
-0.8766 -5.0989 1.4640
-0.4873 -5.4124 1.5358
-0.0506 -5.4127 1.5277
0.3854 -5.4129 1.5296
0.7776 -5.0932 1.4504
1.6622 -7.0377 2.0332
2.2248 -6.8896 2.0332
2.7741 -6.6962 2.0332
3.3065 -6.4587 2.0332
3.8184 -6.1786 2.0332
3.9835 -5.4184 1.8808
4.4095 -5.0854 1.8808
4.8073 -4.7186 1.8808
5.1742 -4.3204 1.8808
5.5076 -3.8933 1.8808
5.8053 -3.4403 1.8808
6.0713 -2.9673 1.8827
6.3050 -2.4763 1.8867
6.4961 -1.9660 1.8900
6.6428 -1.4403 1.8927
6.7437 -0.9033 1.8946
6.7980 -0.3592 1.8959
6.8050 0.1877 1.8964
6.7648 0.7331 1.8961
6.6777 1.2726 1.8952
6.5446 1.8020 1.8935
6.3666 2.3172 1.8911
6.1454 2.8142 1.8880
5.8831 3.2894 1.8843
5.5820 3.7391 1.8800
5.2609 4.1731 1.8808
4.9036 4.5773 1.8808
4.5151 4.9509 1.8808
4.0980 5.2914 1.8808
3.6553 5.5967 1.8808
3.3485 6.1566 1.9743
2.9240 6.5883 2.0332
2.3821 6.7931 2.0332
1.8260 6.9534 2.0332
1.2596 7.0684 2.0332
0.6865 7.1373 2.0332
0.1104 7.1601 2.0332
-0.4650 7.1366 2.0332
-1.0360 7.0672 2.0332
-1.5989 6.9526 2.0332
-2.1503 6.7935 2.0332
-2.6867 6.5911 2.0332
-3.2047 6.3469 2.0332
-3.7011 6.0626 2.0332
-4.1730 5.7399 2.0332
-4.6173 5.3810 2.0332
-5.0314 4.9883 2.0332
-5.4128 4.5642 2.0332
-5.7591 4.1115 2.0332
-6.0683 3.6330 2.0332
-6.3385 3.1317 2.0332
-6.5680 2.6107 2.0332
-6.7556 2.0734 2.0332
-6.9000 1.5229 2.0332
-7.0003 0.9627 2.0332
-7.0560 0.3963 2.0332
-7.0666 -0.1728 2.0332
-7.0322 -0.7411 2.0332
-6.9528 -1.3051 2.0332
-6.8289 -1.8613 2.0332
-6.6611 -2.4063 2.0332
-6.4506 -2.9365 2.0332
-6.1984 -3.4487 2.0332
-5.9061 -3.9396 2.0332
-5.5754 -4.4062 2.0332
-5.2083 -4.8453 2.0332
-4.8070 -5.2543 2.0332
-4.3739 -5.6303 2.0332
-3.9117 -5.9709 2.0332
-3.4232 -6.2739 2.0332
-2.9114 -6.5371 2.0332
-2.3795 -6.7587 2.0332
-1.8309 -6.9372 2.0332
-0.9147 -5.0962 1.4653
-0.5274 -5.4124 1.5370
-0.0903 -5.4126 1.5280
0.3455 -5.4129 1.5290
0.7396 -5.0938 1.4492
1.6104 -7.0489 2.0332
2.1740 -6.9050 2.0332
2.7247 -6.7157 2.0332
3.2588 -6.4822 2.0332
3.7727 -6.2058 2.0332
3.9433 -5.4470 1.8808
4.3718 -5.1172 1.8808
4.7723 -4.7534 1.8808
5.1421 -4.3579 1.8808
5.4787 -3.9333 1.8808
5.7797 -3.4826 1.8808
6.0479 -3.0110 1.8823
6.2855 -2.5219 1.8864
6.4805 -2.0132 1.8898
6.6313 -1.4887 1.8925
6.7365 -0.9526 1.8945
6.7950 -0.4089 1.8958
6.8063 0.1379 1.8964
6.7704 0.6836 1.8962
6.6876 1.2238 1.8953
6.5586 1.7543 1.8937
6.3846 2.2709 1.8914
6.1673 2.7698 1.8883
5.9087 3.2471 1.8847
5.6110 3.6993 1.8804
5.2918 4.1348 1.8808
4.9375 4.5417 1.8808
4.5517 4.9182 1.8808
4.1371 5.2618 1.8808
3.6966 5.5704 1.8808
3.3568 6.0655 1.9527
2.9726 6.5675 2.0332
2.4321 6.7763 2.0332
1.8772 6.9407 2.0332
1.3116 7.0598 2.0332
0.7389 7.1330 2.0332
0.1629 7.1599 2.0332
-0.4127 7.1406 2.0332
-0.9842 7.0754 2.0332
-1.5481 6.9649 2.0332
-2.1006 6.8098 2.0332
-2.6385 6.6113 2.0332
-3.1583 6.3709 2.0332
-3.6569 6.0901 2.0332
-4.1311 5.7708 2.0332
-4.5780 5.4151 2.0332
-4.9950 5.0254 2.0332
-5.3794 4.6041 2.0332
-5.7290 4.1538 2.0332
-6.0417 3.6776 2.0332
-6.3155 3.1782 2.0332
-6.5488 2.6589 2.0332
-6.7402 2.1229 2.0332
-6.8886 1.5735 2.0332
-6.9930 1.0141 2.0332
-7.0528 0.4481 2.0332
-7.0675 -0.1209 2.0332
-7.0372 -0.6895 2.0332
-6.9619 -1.2540 2.0332
-6.8420 -1.8111 2.0332
-6.6782 -2.3572 2.0332
-6.4715 -2.8889 2.0332
-6.2231 -3.4028 2.0332
-5.9344 -3.8958 2.0332
-5.6071 -4.3648 2.0332
-5.2432 -4.8065 2.0332
-4.8449 -5.2183 2.0332
-4.4146 -5.5975 2.0332
-3.9549 -5.9414 2.0332
-3.4687 -6.2479 2.0332
-2.9589 -6.5148 2.0332
-2.4287 -6.7403 2.0332
-1.8815 -6.9227 2.0332
-0.9535 -5.0975 1.4678
-0.5629 -5.3691 1.5260
-0.1300 -5.4126 1.5284
0.3057 -5.4128 1.5285
0.7021 -5.0982 1.4491
1.5585 -7.0597 2.0332
2.1231 -6.9200 2.0332
2.6751 -6.7348 2.0332
3.2109 -6.5052 2.0332
3.7268 -6.2327 2.0332
3.9149 -5.4919 1.8865
4.3339 -5.1487 1.8808
4.7370 -4.7879 1.8808
5.1098 -4.3952 1.8808
5.4495 -3.9732 1.8808
5.7538 -3.5247 1.8808
6.0243 -3.0544 1.8819
6.2656 -2.5673 1.8860
6.4646 -2.0602 1.8895
6.6195 -1.5370 1.8923
6.7288 -1.0018 1.8943
6.7916 -0.4587 1.8957
6.8073 0.0880 1.8963
6.7756 0.6340 1.8962
6.6970 1.1749 1.8954
6.5722 1.7064 1.8939
6.4023 2.2245 1.8916
6.1889 2.7252 1.8887
5.9339 3.2046 1.8850
5.6397 3.6593 1.8808
5.3224 4.0963 1.8808
4.9711 4.5059 1.8808
4.5881 4.8852 1.8808
4.1761 5.2319 1.8808
3.7378 5.5438 1.8808
3.3648 5.9762 1.9316
3.0210 6.5463 2.0332
2.4820 6.7591 2.0332
1.9283 6.9276 2.0332
1.3635 7.0508 2.0332
0.7913 7.1282 2.0332
0.2155 7.1594 2.0332
-0.3603 7.1443 2.0332
-0.9324 7.0833 2.0332
-1.4971 6.9768 2.0332
-2.0508 6.8257 2.0332
-2.5902 6.6312 2.0332
-3.1118 6.3945 2.0332
-3.6124 6.1173 2.0332
-4.0889 5.8014 2.0332
-4.5385 5.4490 2.0332
-4.9583 5.0623 2.0332
-5.3458 4.6437 2.0332
-5.6987 4.1960 2.0332
-6.0148 3.7220 2.0332
-6.2922 3.2246 2.0332
-6.5293 2.7070 2.0332
-6.7246 2.1724 2.0332
-6.8769 1.6240 2.0332
-6.9853 1.0654 2.0332
-7.0492 0.4999 2.0332
-7.0681 -0.0690 2.0332
-7.0418 -0.6378 2.0332
-6.9706 -1.2028 2.0332
-6.8547 -1.7607 2.0332
-6.6949 -2.3079 2.0332
-6.4921 -2.8411 2.0332
-6.2474 -3.3568 2.0332
-5.9623 -3.8519 2.0332
-5.6385 -4.3231 2.0332
-5.2779 -4.7675 2.0332
-4.8826 -5.1821 2.0332
-4.4551 -5.5643 2.0332
-3.9980 -5.9116 2.0332
-3.5140 -6.2216 2.0332
-3.0063 -6.4921 2.0332
-2.4778 -6.7215 2.0332
-1.9320 -6.9079 2.0332
-0.9933 -5.1029 1.4716
-0.5937 -5.2890 1.5046
-0.1697 -5.4126 1.5289
0.2659 -5.4128 1.5281
0.6651 -5.1064 1.4502
1.5066 -7.0702 2.0332
2.0721 -6.9346 2.0332
2.6255 -6.7535 2.0332
3.1628 -6.5280 2.0332
3.6807 -6.2593 2.0332
3.9076 -5.5675 1.9028
4.2957 -5.1799 1.8808
4.7015 -4.8221 1.8808
5.0771 -4.4322 1.8808
5.4199 -4.0128 1.8808
5.7276 -3.5666 1.8808
6.0002 -3.0977 1.8815
6.2453 -2.6126 1.8857
6.4482 -2.1072 1.8892
6.6072 -1.5853 1.8920
6.7207 -1.0510 1.8942
6.7878 -0.5084 1.8956
6.8078 0.0382 1.8963
6.7805 0.5844 1.8963
6.7061 1.1259 1.8955
6.5855 1.6585 1.8940
6.4196 2.1780 1.8918
6.2101 2.6804 1.8889
5.9588 3.1619 1.8854
5.6680 3.6189 1.8812
5.3528 4.0576 1.8808
5.0045 4.4697 1.8808
4.6242 4.8519 1.8808
4.2147 5.2017 1.8808
3.7787 5.5169 1.8808
3.3727 5.8888 1.9111
3.0693 6.5247 2.0332
2.5318 6.7415 2.0332
1.9792 6.9141 2.0332
1.4153 7.0415 2.0332
0.8436 7.1231 2.0332
0.2680 7.1584 2.0332
-0.3080 7.1476 2.0332
-0.8805 7.0907 2.0332
-1.4460 6.9884 2.0332
-2.0009 6.8413 2.0332
-2.5417 6.6507 2.0332
-3.0651 6.4178 2.0332
-3.5678 6.1442 2.0332
-4.0466 5.8318 2.0332
-4.4987 5.4826 2.0332
-4.9213 5.0989 2.0332
-5.3119 4.6831 2.0332
-5.6680 4.2379 2.0332
-5.9875 3.7662 2.0332
-6.2686 3.2708 2.0332
-6.5094 2.7549 2.0332
-6.7085 2.2217 2.0332
-6.8648 1.6745 2.0332
-6.9773 1.1166 2.0332
-7.0452 0.5516 2.0332
-7.0682 -0.0171 2.0332
-7.0461 -0.5860 2.0332
-6.9789 -1.1516 2.0332
-6.8671 -1.7103 2.0332
-6.7113 -2.2586 2.0332
-6.5123 -2.7932 2.0332
-6.2714 -3.3106 2.0332
-5.9899 -3.8077 2.0332
-5.6696 -4.2812 2.0332
-5.3122 -4.7282 2.0332
-4.9200 -5.1456 2.0332
-4.4953 -5.5309 2.0332
-4.0408 -5.8815 2.0332
-3.5592 -6.1949 2.0332
-3.0534 -6.4692 2.0332
-2.5267 -6.7023 2.0332
-1.9824 -6.8928 2.0332
-1.0343 -5.1133 1.4769
-0.6270 -5.2381 1.4916
-0.2095 -5.4126 1.5295
0.2262 -5.4128 1.5277
0.6286 -5.1185 1.4524
1.0876 -5.2939 1.5202
2.0210 -6.9489 2.0332
2.5756 -6.7719 2.0332
3.1146 -6.5503 2.0332
3.6344 -6.2855 2.0332
3.9079 -5.6557 1.9232
4.2573 -5.2109 1.8808
4.6658 -4.8561 1.8808
5.0442 -4.4690 1.8808
5.3901 -4.0521 1.8808
5.7011 -3.6082 1.8808
5.9759 -3.1408 1.8811
6.2247 -2.6577 1.8853
6.4315 -2.1540 1.8889
6.5946 -1.6334 1.8918
6.7123 -1.1001 1.8940
6.7837 -0.5581 1.8955
6.8079 -0.0117 1.8963
6.7849 0.5347 1.8963
6.7148 1.0769 1.8956
6.5984 1.6104 1.8942
6.4365 2.1313 1.8921
6.2309 2.6354 1.8892
5.9834 3.1189 1.8857
5.6961 3.5783 1.8816
5.3829 4.0186 1.8808
5.0376 4.4334 1.8808
4.6602 4.8184 1.8808
4.2532 5.1712 1.8808
3.8195 5.4896 1.8808
3.3828 5.8074 1.8925
3.1174 6.5028 2.0332
2.5814 6.7236 2.0332
2.0301 6.9002 2.0332
1.4671 7.0318 2.0332
0.8959 7.1175 2.0332
0.3205 7.1571 2.0332
-0.2556 7.1505 2.0332
-0.8286 7.0978 2.0332
-1.3949 6.9995 2.0332
-1.9509 6.8565 2.0332
-2.4931 6.6698 2.0332
-3.0182 6.4407 2.0332
-3.5229 6.1707 2.0332
-4.0040 5.8618 2.0332
-4.4587 5.5158 2.0332
-4.8841 5.1352 2.0332
-5.2777 4.7222 2.0332
-5.6370 4.2796 2.0332
-5.9600 3.8102 2.0332
-6.2446 3.3169 2.0332
-6.4891 2.8027 2.0332
-6.6922 2.2709 2.0332
-6.8524 1.7248 2.0332
-6.9689 1.1678 2.0332
-7.0409 0.6033 2.0332
-7.0680 0.0347 2.0332
-7.0500 -0.5343 2.0332
-6.9869 -1.1003 2.0332
-6.8791 -1.6597 2.0332
-6.7273 -2.2091 2.0332
-6.5322 -2.7451 2.0332
-6.2951 -3.2643 2.0332
-6.0172 -3.7633 2.0332
-5.7003 -4.2391 2.0332
-5.3462 -4.6886 2.0332
-4.9571 -5.1089 2.0332
-4.5353 -5.4972 2.0332
-4.0834 -5.8510 2.0332
-3.6041 -6.1679 2.0332
-3.1004 -6.4458 2.0332
-2.5755 -6.6828 2.0332
-2.0326 -6.8772 2.0332
-1.0768 -5.1296 1.4841
-0.6611 -5.2003 1.4823
-0.2492 -5.4126 1.5301
0.1864 -5.4128 1.5275
0.5924 -5.1349 1.4560
1.0301 -5.2077 1.4934
1.9698 -6.9627 2.0332
2.5257 -6.7899 2.0332
3.0663 -6.5723 2.0332
3.5879 -6.3114 2.0332
3.9082 -5.7457 1.9442
4.2187 -5.2415 1.8808
4.6297 -4.8898 1.8808
5.0110 -4.5056 1.8808
5.3600 -4.0913 1.8808
5.6742 -3.6497 1.8808
5.9512 -3.1837 1.8807
6.2037 -2.7026 1.8850
6.4145 -2.2006 1.8886
6.5816 -1.6815 1.8916
6.7035 -1.1491 1.8938
6.7791 -0.6077 1.8954
6.8077 -0.0615 1.8962
6.7890 0.4850 1.8963
6.7232 1.0278 1.8957
6.6109 1.5623 1.8944
6.4531 2.0845 1.8923
6.2514 2.5903 1.8895
6.0076 3.0758 1.8861
5.7238 3.5376 1.8820
5.4126 3.9795 1.8808
5.0704 4.3968 1.8808
4.6958 4.7846 1.8808
4.2914 5.1405 1.8808
3.8600 5.4621 1.8808
3.4045 5.7474 1.8808
3.1653 6.4806 2.0332
2.6310 6.7052 2.0332
2.0809 6.8860 2.0332
1.5188 7.0217 2.0332
0.9482 7.1116 2.0332
0.3730 7.1554 2.0332
-0.2031 7.1530 2.0332
-0.7766 7.1045 2.0332
-1.3436 7.0104 2.0332
-1.9008 6.8714 2.0332
-2.4444 6.6886 2.0332
-2.9712 6.4633 2.0332
-3.4778 6.1970 2.0332
-3.9612 5.8915 2.0332
-4.4184 5.5489 2.0332
-4.8466 5.1713 2.0332
-5.2432 4.7612 2.0332
-5.6058 4.3211 2.0332
-5.9321 3.8540 2.0332
-6.2203 3.3627 2.0332
-6.4686 2.8503 2.0332
-6.6754 2.3200 2.0332
-6.8396 1.7751 2.0332
-6.9601 1.2189 2.0332
-7.0362 0.6549 2.0332
-7.0674 0.0866 2.0332
-7.0535 -0.4825 2.0332
-6.9945 -1.0489 2.0332
-6.8908 -1.6091 2.0332
-6.7429 -2.1596 2.0332
-6.5518 -2.6969 2.0332
-6.3184 -3.2178 2.0332
-6.0442 -3.7188 2.0332
-5.7308 -4.1968 2.0332
-5.3800 -4.6488 2.0332
-4.9940 -5.0719 2.0332
-4.5750 -5.4632 2.0332
-4.1257 -5.8203 2.0332
-3.6488 -6.1406 2.0332
-3.1473 -6.4222 2.0332
-2.6241 -6.6630 2.0332
-2.0828 -6.8613 2.0332
-1.1214 -5.1539 1.4936
-0.6960 -5.1708 1.4755
-0.2890 -5.4125 1.5309
0.1467 -5.4128 1.5273
0.5566 -5.1561 1.4610
0.9823 -5.1645 1.4791
1.9186 -6.9762 2.0332
2.4756 -6.8075 2.0332
3.0177 -6.5940 2.0332
3.5413 -6.3369 2.0332
3.9085 -5.8376 1.9657
4.1799 -5.2718 1.8808
4.5935 -4.9232 1.8808
4.9776 -4.5419 1.8808
5.3296 -4.1302 1.8808
5.6471 -3.6910 1.8808
5.9262 -3.2263 1.8803
6.1824 -2.7474 1.8846
6.3970 -2.2471 1.8883
6.5682 -1.7294 1.8913
6.6943 -1.1980 1.8937
6.7741 -0.6573 1.8953
6.8070 -0.1114 1.8962
6.7926 0.4353 1.8964
6.7311 0.9786 1.8958
6.6230 1.5140 1.8945
6.4694 2.0375 1.8925
6.2716 2.5450 1.8898
6.0315 3.0325 1.8864
5.7513 3.4966 1.8824
5.4422 3.9400 1.8808
5.1030 4.3599 1.8808
4.7312 4.7506 1.8808
4.3294 5.1094 1.8808
3.9004 5.4343 1.8808
3.4470 5.7230 1.8808
3.2131 6.4579 2.0332
2.6804 6.6866 2.0332
2.1316 6.8713 2.0332
1.5704 7.0112 2.0332
1.0005 7.1053 2.0332
0.4255 7.1534 2.0332
-0.1507 7.1551 2.0332
-0.7245 7.1108 2.0332
-1.2923 7.0208 2.0332
-1.8505 6.8859 2.0332
-2.3955 6.7071 2.0332
-2.9239 6.4856 2.0332
-3.4326 6.2229 2.0332
-3.9182 5.9209 2.0332
-4.3779 5.5815 2.0332
-4.8089 5.2070 2.0332
-5.2084 4.7998 2.0332
-5.5742 4.3624 2.0332
-5.9039 3.8976 2.0332
-6.1957 3.4084 2.0332
-6.4476 2.8978 2.0332
-6.6583 2.3690 2.0332
-6.8264 1.8253 2.0332
-6.9509 1.2700 2.0332
-7.0311 0.7066 2.0332
-7.0664 0.1385 2.0332
-7.0566 -0.4307 2.0332
-7.0017 -0.9975 2.0332
-6.9021 -1.5584 2.0332
-6.7582 -2.1099 2.0332
-6.5710 -2.6486 2.0332
-6.3414 -3.1711 2.0332
-6.0708 -3.6740 2.0332
-5.7609 -4.1543 2.0332
-5.4134 -4.6088 2.0332
-5.0306 -5.0346 2.0332
-4.6145 -5.4289 2.0332
-4.1679 -5.7892 2.0332
-3.6934 -6.1130 2.0332
-3.1939 -6.3982 2.0332
-2.6726 -6.6428 2.0332
-2.1327 -6.8450 2.0332
-1.1694 -5.1909 1.5070
-0.7313 -5.1475 1.4705
-0.3288 -5.4125 1.5317
0.1070 -5.4127 1.5272
0.5211 -5.1834 1.4677
0.9380 -5.1362 1.4692
1.8672 -6.9893 2.0332
2.4254 -6.8247 2.0332
2.9690 -6.6152 2.0332
3.4944 -6.3621 2.0332
3.9088 -5.9315 1.9878
4.1408 -5.3019 1.8808
4.5570 -4.9564 1.8808
4.9439 -4.5779 1.8808
5.2989 -4.1689 1.8808
5.6197 -3.7321 1.8808
5.9009 -3.2688 1.8799
6.1607 -2.7920 1.8842
6.3793 -2.2935 1.8880
6.5544 -1.7772 1.8911
6.6847 -1.2469 1.8935
6.7688 -0.7068 1.8952
6.8060 -0.1613 1.8961
6.7959 0.3856 1.8964
6.7386 0.9293 1.8959
6.6348 1.4657 1.8947
6.4852 1.9904 1.8927
6.2914 2.4995 1.8901
6.0551 2.9890 1.8868
5.7784 3.4553 1.8828
5.4713 3.9005 1.8808
5.1353 4.3228 1.8808
4.7664 4.7163 1.8808
4.3672 5.0781 1.8808
3.9405 5.4061 1.8808
3.4892 5.6982 1.8808
3.2607 6.4349 2.0332
2.7296 6.6675 2.0332
2.1822 6.8564 2.0332
1.6219 7.0003 2.0332
1.0527 7.0987 2.0332
0.4780 7.1509 2.0332
-0.0982 7.1569 2.0332
-0.6724 7.1168 2.0332
-1.2409 7.0309 2.0332
-1.8001 6.9000 2.0332
-2.3465 6.7251 2.0332
-2.8765 6.5075 2.0332
-3.3871 6.2485 2.0332
-3.8750 5.9500 2.0332
-4.3372 5.6140 2.0332
-4.7709 5.2426 2.0332
-5.1734 4.8382 2.0332
-5.5423 4.4034 2.0332
-5.8754 3.9411 2.0332
-6.1707 3.4539 2.0332
-6.4264 2.9452 2.0332
-6.6409 2.4179 2.0332
-6.8129 1.8754 2.0332
-6.9414 1.3210 2.0332
-7.0256 0.7582 2.0332
-7.0651 0.1904 2.0332
-7.0594 -0.3789 2.0332
-7.0086 -0.9460 2.0332
-6.9130 -1.5076 2.0332
-6.7731 -2.0601 2.0332
-6.5898 -2.6001 2.0332
-6.3640 -3.1242 2.0332
-6.0971 -3.6291 2.0332
-5.7907 -4.1115 2.0332
-5.4466 -4.5685 2.0332
-5.0669 -4.9970 2.0332
-4.6537 -5.3944 2.0332
-4.2098 -5.7579 2.0332
-3.7377 -6.0851 2.0332
-3.2404 -6.3739 2.0332
-2.7209 -6.6222 2.0332
-2.1826 -6.8284 2.0332
-1.2246 -5.2559 1.5286
-0.7671 -5.1292 1.4670
-0.3686 -5.4125 1.5326
0.0673 -5.4127 1.5272
0.4861 -5.2185 1.4768
0.8958 -5.1170 1.4619
1.8157 -7.0021 2.0332
2.3751 -6.8416 2.0332
2.9202 -6.6362 2.0332
3.4474 -6.3869 2.0332
3.9090 -6.0276 2.0105
4.1015 -5.3317 1.8808
4.5202 -4.9893 1.8808
4.9099 -4.6137 1.8808
5.2680 -4.2074 1.8808
5.5919 -3.7730 1.8808
5.8752 -3.3110 1.8794
6.1387 -2.8364 1.8839
6.3611 -2.3398 1.8877
6.5403 -1.8249 1.8908
6.6747 -1.2957 1.8933
6.7631 -0.7564 1.8950
6.8046 -0.2111 1.8961
6.7988 0.3358 1.8964
6.7458 0.8800 1.8960
6.6461 1.4172 1.8948
6.5007 1.9432 1.8929
6.3109 2.4538 1.8903
6.0783 2.9453 1.8871
5.8053 3.4139 1.8832
5.5003 3.8606 1.8808
5.1673 4.2855 1.8808
4.8013 4.6817 1.8808
4.4048 5.0465 1.8808
3.9805 5.3777 1.8808
3.5313 5.6731 1.8808
3.3082 6.4116 2.0332
2.7788 6.6481 2.0332
2.2327 6.8410 2.0332
1.6734 6.9891 2.0332
1.1048 7.0916 2.0332
0.5305 7.1481 2.0332
-0.0458 7.1583 2.0332
-0.6203 7.1223 2.0332
-1.1894 7.0406 2.0332
-1.7497 6.9138 2.0332
-2.2973 6.7429 2.0332
-2.8290 6.5290 2.0332
-3.3415 6.2738 2.0332
3.8703 -5.0282 1.9683
4.0752 -4.4957 1.8808
4.4261 -4.1569 1.8808
4.7484 -3.7904 1.8808
5.0399 -3.3988 1.8808
5.2988 -2.9845 1.8808
5.5231 -2.5504 1.8808
5.7114 -2.0994 1.8808
5.8611 -1.6341 1.8804
5.9805 -1.1597 1.8826
6.0590 -0.6765 1.8842
6.0958 -0.1880 1.8851
6.0906 0.3018 1.8854
6.0434 0.7893 1.8850
5.9547 1.2706 1.8840
5.8252 1.7421 1.8823
5.6562 2.2001 1.8800
5.4598 2.6464 1.8808
5.2256 3.0738 1.8808
4.9578 3.4805 1.8808
4.6580 3.8638 1.8808
4.3284 4.2213 1.8808
3.9713 4.5506 1.8808
3.5891 4.8496 1.8808
3.3785 5.4285 1.9955
2.9834 5.7831 2.0332
2.5062 5.9970 2.0332
2.0137 6.1716 2.0332
1.5094 6.3059 2.0332
0.9965 6.3990 2.0332
0.4784 6.4507 2.0332
-0.0417 6.4605 2.0332
-0.5603 6.4287 2.0332
-1.0742 6.3556 2.0332
-1.5800 6.2417 2.0332
-2.0747 6.0879 2.0332
-2.5550 5.8953 2.0332
-3.0180 5.6652 2.0332
-3.4609 5.3992 2.0332
-3.8808 5.0991 2.0332
-4.2752 4.7667 2.0332
-4.6418 4.4042 2.0332
-4.9781 4.0140 2.0332
-5.2823 3.5986 2.0332
-5.5524 3.1605 2.0332
-5.7868 2.7025 2.0332
-5.9841 2.2275 2.0332
-6.1431 1.7384 2.0332
-6.2628 1.2383 2.0332
-6.3424 0.7302 2.0332
-6.3815 0.2175 2.0332
-6.3799 -0.2969 2.0332
-6.3374 -0.8096 2.0332
-6.2544 -1.3176 2.0332
-6.1312 -1.8175 2.0332
-5.9687 -2.3064 2.0332
-5.7677 -2.7810 2.0332
-5.5294 -3.2386 2.0332
-5.2553 -3.6760 2.0332
-4.9470 -4.0905 2.0332
-4.6064 -4.4795 2.0332
-4.2355 -4.8404 2.0332
-3.8366 -5.1708 2.0332
-3.4121 -5.4687 2.0332
-2.9648 -5.7319 2.0332
-2.4973 -5.9587 2.0332
-2.0126 -6.1475 2.0332
-1.5137 -6.2970 2.0332
-0.7929 -5.0594 1.6058
-0.4068 -5.4128 1.7000
0.0294 -5.4130 1.6933
0.4463 -5.1851 1.6260
0.8458 -5.0395 1.5947
1.5928 -6.3248 2.0332
2.0980 -6.1831 2.0332
2.5905 -6.0008 2.0332
3.0670 -5.7790 2.0332
3.5244 -5.5192 2.0332
3.8704 -5.1052 1.9874
4.0419 -4.5251 1.8808
4.3952 -4.1889 1.8808
4.7202 -3.8249 1.8808
5.0147 -3.4354 1.8808
5.2766 -3.0231 1.8808
5.5041 -2.5907 1.8808
5.6957 -2.1411 1.8808
5.8482 -1.6767 1.8802
5.9713 -1.2034 1.8824
6.0536 -0.7208 1.8841
6.0942 -0.2327 1.8850
6.0928 0.2572 1.8854
6.0495 0.7451 1.8851
5.9645 1.2271 1.8841
5.8387 1.6996 1.8825
5.6732 2.1590 1.8802
5.4794 2.6065 1.8808
5.2484 3.0356 1.8808
4.9835 3.4444 1.8808
4.6866 3.8299 1.8808
4.3596 4.1899 1.8808
4.0049 4.5218 1.8808
3.6249 4.8237 1.8808
3.3856 5.3521 1.9763
3.0260 5.7617 2.0332
2.5503 5.9792 2.0332
2.0592 6.1574 2.0332
1.5558 6.2953 2.0332
1.0435 6.3923 2.0332
0.5257 6.4477 2.0332
0.0057 6.4613 2.0332
-0.5132 6.4333 2.0332
-1.0276 6.3639 2.0332
-1.5344 6.2537 2.0332
-2.0302 6.1035 2.0332
-2.5119 5.9144 2.0332
-2.9766 5.6877 2.0332
-3.4214 5.4249 2.0332
-3.8436 5.1278 2.0332
-4.2404 4.7982 2.0332
-4.6096 4.4384 2.0332
-4.9488 4.0507 2.0332
-5.2559 3.6374 2.0332
-5.5292 3.2013 2.0332
-5.7670 2.7450 2.0332
-5.9677 2.2714 2.0332
-6.1302 1.7835 2.0332
-6.2535 1.2842 2.0332
-6.3368 0.7768 2.0332
-6.3797 0.2643 2.0332
-6.3817 -0.2500 2.0332
-6.3430 -0.7631 2.0332
-6.2636 -1.2716 2.0332
-6.1441 -1.7724 2.0332
-5.9851 -2.2624 2.0332
-5.7876 -2.7385 2.0332
-5.5526 -3.1976 2.0332
-5.2817 -3.6370 2.0332
-4.9765 -4.0537 2.0332
-4.6387 -4.4451 2.0332
-4.2705 -4.8087 2.0332
-3.8740 -5.1421 2.0332
-3.4518 -5.4429 2.0332
-3.0064 -5.7094 2.0332
-2.5406 -5.9396 2.0332
-2.0574 -6.1319 2.0332
-1.5597 -6.2850 2.0332
-0.8294 -5.0495 1.6047
-0.4467 -5.4128 1.7011
-0.0103 -5.4130 1.6934
0.4124 -5.2406 1.6426
0.8068 -5.0329 1.5909
1.5463 -6.3357 2.0332
2.0524 -6.1977 2.0332
2.5462 -6.0191 2.0332
3.0243 -5.8009 2.0332
3.4836 -5.5444 2.0332
3.8704 -5.1837 2.0070
4.0084 -4.5543 1.8808
4.3642 -4.2207 1.8808
4.6919 -3.8592 1.8808
4.9892 -3.4719 1.8808
5.2541 -3.0616 1.8808
5.4849 -2.6309 1.8808
5.6798 -2.1827 1.8808
5.8349 -1.7193 1.8800
5.9618 -1.2470 1.8823
6.0478 -0.7651 1.8839
6.0923 -0.2773 1.8850
6.0947 0.2126 1.8854
6.0552 0.7008 1.8851
5.9739 1.1835 1.8842
5.8518 1.6571 1.8827
5.6899 2.1178 1.8805
5.4987 2.5665 1.8808
5.2709 2.9973 1.8808
5.0090 3.4080 1.8808
4.7149 3.7958 1.8808
4.3906 4.1582 1.8808
4.0383 4.4928 1.8808
3.6605 4.7975 1.8808
3.3926 5.2771 1.9575
3.0685 5.7400 2.0332
2.5944 5.9610 2.0332
2.1045 6.1428 2.0332
1.6021 6.2845 2.0332
1.0905 6.3851 2.0332
0.5730 6.4444 2.0332
0.0531 6.4618 2.0332
-0.4661 6.4376 2.0332
-0.9810 6.3720 2.0332
-1.4886 6.2654 2.0332
-1.9855 6.1188 2.0332
-2.4687 5.9332 2.0332
-2.9351 5.7099 2.0332
-3.3818 5.4503 2.0332
-3.8061 5.1562 2.0332
-4.2054 4.8296 2.0332
-4.5771 4.4724 2.0332
-4.9192 4.0871 2.0332
-5.2293 3.6761 2.0332
-5.5058 3.2419 2.0332
-5.7468 2.7873 2.0332
-5.9510 2.3152 2.0332
-6.1170 1.8284 2.0332
-6.2439 1.3301 2.0332
-6.3309 0.8233 2.0332
-6.3775 0.3111 2.0332
-6.3832 -0.2032 2.0332
-6.3482 -0.7165 2.0332
-6.2725 -1.2255 2.0332
-6.1566 -1.7272 2.0332
-6.0012 -2.2183 2.0332
-5.8071 -2.6957 2.0332
-5.5756 -3.1566 2.0332
-5.3079 -3.5979 2.0332
-5.0057 -4.0167 2.0332
-4.6708 -4.4106 2.0332
-4.3053 -4.7768 2.0332
-3.9113 -5.1130 2.0332
-3.4913 -5.4169 2.0332
-3.0479 -5.6866 2.0332
-2.5838 -5.9201 2.0332
-2.1021 -6.1160 2.0332
-1.6056 -6.2727 2.0332
-0.8663 -5.0432 1.6049
-0.4867 -5.4128 1.7024
-0.0499 -5.4130 1.6937
0.3808 -5.3387 1.6726
0.7686 -5.0302 1.5884
1.4997 -6.3462 2.0332
2.0068 -6.2120 2.0332
2.5018 -6.0370 2.0332
2.9815 -5.8224 2.0332
3.4426 -5.5693 2.0332
3.8704 -5.2636 2.0271
3.9747 -4.5832 1.8808
4.3329 -4.2523 1.8808
4.6632 -3.8932 1.8808
4.9634 -3.5082 1.8808
5.2314 -3.0999 1.8808
5.4653 -2.6709 1.8808
5.6635 -2.2242 1.8808
5.8214 -1.7617 1.8797
5.9519 -1.2905 1.8821
6.0417 -0.8093 1.8838
6.0899 -0.3219 1.8849
6.0962 0.1680 1.8854
6.0605 0.6565 1.8852
5.9831 1.1399 1.8843
5.8646 1.6144 1.8828
5.7063 2.0764 1.8807
5.5177 2.5263 1.8808
5.2931 2.9589 1.8808
5.0342 3.3715 1.8808
4.7430 3.7615 1.8808
4.4213 4.1263 1.8808
4.0715 4.4635 1.8808
3.6959 4.7710 1.8808
3.3994 5.2035 1.9392
3.1108 5.7179 2.0332
2.6383 5.9424 2.0332
2.1497 6.1279 2.0332
1.6483 6.2732 2.0332
1.1374 6.3777 2.0332
0.6203 6.4407 2.0332
0.1005 6.4620 2.0332
-0.4189 6.4415 2.0332
-0.9344 6.3796 2.0332
-1.4427 6.2768 2.0332
-1.9407 6.1338 2.0332
-2.4253 5.9517 2.0332
-2.8933 5.7318 2.0332
-3.3420 5.4754 2.0332
-3.7684 5.1844 2.0332
-4.1701 4.8606 2.0332
-4.5445 4.5062 2.0332
-4.8893 4.1233 2.0332
-5.2024 3.7145 2.0332
-5.4820 3.2823 2.0332
-5.7264 2.8295 2.0332
-5.9339 2.3589 2.0332
-6.1035 1.8733 2.0332
-6.2340 1.3759 2.0332
-6.3247 0.8698 2.0332
-6.3749 0.3579 2.0332
-6.3844 -0.1563 2.0332
-6.3531 -0.6698 2.0332
-6.2811 -1.1794 2.0332
-6.1688 -1.6818 2.0332
-6.0170 -2.1740 2.0332
-5.8264 -2.6529 2.0332
-5.5982 -3.1154 2.0332
-5.3337 -3.5585 2.0332
-5.0346 -3.9796 2.0332
-4.7026 -4.3758 2.0332
-4.3398 -4.7446 2.0332
-3.9483 -5.0836 2.0332
-3.5306 -5.3906 2.0332
-3.0892 -5.6635 2.0332
-2.6269 -5.9004 2.0332
-2.1466 -6.0997 2.0332
-1.6513 -6.2601 2.0332
-0.9039 -5.0404 1.6062
-0.5267 -5.4127 1.7038
-0.0896 -5.4130 1.6940
0.3463 -5.4132 1.6953
0.7311 -5.0311 1.5871
1.4530 -6.3564 2.0332
1.9610 -6.2259 2.0332
2.4573 -6.0546 2.0332
2.9385 -5.8435 2.0332
3.4014 -5.5939 2.0332
3.8429 -5.3073 2.0332
3.9407 -4.6119 1.8808
4.3014 -4.2837 1.8808
4.6343 -3.9271 1.8808
4.9374 -3.5443 1.8808
5.2083 -3.1380 1.8808
5.4454 -2.7108 1.8808
5.6470 -2.2656 1.8808
5.8075 -1.8040 1.8795
5.9417 -1.3339 1.8819
6.0352 -0.8534 1.8837
6.0873 -0.3665 1.8848
6.0974 0.1233 1.8854
6.0655 0.6121 1.8852
5.9918 1.0961 1.8844
5.8771 1.5716 1.8830
5.7220 2.0348 1.8808
5.5364 2.4859 1.8808
5.3150 2.9202 1.8808
5.0592 3.3348 1.8808
4.7708 3.7270 1.8808
4.4519 4.0941 1.8808
4.1045 4.4340 1.8808
3.7311 4.7443 1.8808
3.4061 5.1312 1.9213
3.1530 5.6957 2.0332
2.6820 5.9236 2.0332
2.1948 6.1126 2.0332
1.6944 6.2617 2.0332
1.1843 6.3699 2.0332
0.6676 6.4367 2.0332
0.1479 6.4618 2.0332
-0.3717 6.4451 2.0332
-0.8876 6.3870 2.0332
-1.3968 6.2879 2.0332
-1.8959 6.1485 2.0332
-2.3818 5.9699 2.0332
-2.8514 5.7534 2.0332
-3.3020 5.5003 2.0332
-3.7306 5.2123 2.0332
-4.1346 4.8914 2.0332
-4.5115 4.5397 2.0332
-4.8591 4.1593 2.0332
-5.1753 3.7528 2.0332
-5.4580 3.3226 2.0332
-5.7056 2.8715 2.0332
-5.9166 2.4024 2.0332
-6.0896 1.9181 2.0332
-6.2237 1.4217 2.0332
-6.3181 0.9162 2.0332
-6.3720 0.4047 2.0332
-6.3852 -0.1094 2.0332
-6.3576 -0.6231 2.0332
-6.2893 -1.1332 2.0332
-6.1807 -1.6364 2.0332
-6.0324 -2.1297 2.0332
-5.8453 -2.6099 2.0332
-5.6205 -3.0740 2.0332
-5.3593 -3.5190 2.0332
-5.0633 -3.9422 2.0332
-4.7342 -4.3408 2.0332
-4.3741 -4.7122 2.0332
-3.9851 -5.0541 2.0332
-3.5697 -5.3640 2.0332
-3.1303 -5.6401 2.0332
-2.6698 -5.8803 2.0332
-2.1911 -6.0831 2.0332
-1.6970 -6.2471 2.0332
-0.9423 -5.0412 1.6088
-0.5534 -5.2846 1.6648
-0.1293 -5.4129 1.6944
0.3064 -5.4132 1.6947
0.6941 -5.0355 1.5870
1.4062 -6.3662 2.0332
1.9151 -6.2395 2.0332
2.4126 -6.0719 2.0332
2.8953 -5.8644 2.0332
3.3601 -5.6182 2.0332
3.8037 -5.3349 2.0332
3.9066 -4.6403 1.8808
4.2696 -4.3148 1.8808
4.6052 -3.9607 1.8808
4.9110 -3.5802 1.8808
5.1850 -3.1759 1.8808
5.4253 -2.7505 1.8808
5.6301 -2.3068 1.8808
5.7933 -1.8462 1.8792
5.9311 -1.3772 1.8817
6.0284 -0.8976 1.8835
6.0843 -0.4110 1.8848
6.0982 0.0787 1.8853
6.0701 0.5677 1.8853
6.0002 1.0523 1.8845
5.8892 1.5287 1.8831
5.7380 1.9933 1.8811
5.5549 2.4455 1.8808
5.3366 2.8814 1.8808
5.0839 3.2979 1.8808
4.7984 3.6922 1.8808
4.4821 4.0618 1.8808
4.1373 4.4042 1.8808
3.7662 4.7173 1.8808
3.4126 5.0601 1.9038
3.1950 5.6728 2.0332
2.7257 5.9044 2.0332
2.2398 6.0970 2.0332
1.7405 6.2498 2.0332
1.2311 6.3617 2.0332
0.7149 6.4323 2.0332
0.1953 6.4612 2.0332
-0.3244 6.4484 2.0332
-0.8408 6.3940 2.0332
-1.3507 6.2986 2.0332
-1.8509 6.1628 2.0332
-2.3381 5.9878 2.0332
-2.8094 5.7746 2.0332
-3.2618 5.5248 2.0332
-3.6925 5.2400 2.0332
-4.0988 4.9220 2.0332
-4.4784 4.5730 2.0332
-4.8287 4.1951 2.0332
-5.1478 3.7909 2.0332
-5.4337 3.3627 2.0332
-5.6845 2.9134 2.0332
-5.8989 2.4458 2.0332
-6.0755 1.9628 2.0332
-6.2132 1.4673 2.0332
-6.3111 0.9625 2.0332
-6.3688 0.4515 2.0332
-6.3857 -0.0625 2.0332
-6.3618 -0.5764 2.0332
-6.2972 -1.0869 2.0332
-6.1923 -1.5909 2.0332
-6.0476 -2.0852 2.0332
-5.8640 -2.5667 2.0332
-5.6425 -3.0324 2.0332
-5.3846 -3.4793 2.0332
-5.0916 -3.9046 2.0332
-4.7655 -4.3056 2.0332
-4.4081 -4.6796 2.0332
-4.0217 -5.0242 2.0332
-3.6086 -5.3371 2.0332
-3.1713 -5.6164 2.0332
-2.7126 -5.8600 2.0332
-2.2354 -6.0663 2.0332
-1.7426 -6.2338 2.0332
-0.9815 -5.0459 1.6128
-0.5853 -5.2197 1.6459
-0.1690 -5.4129 1.6950
0.2667 -5.4131 1.6942
0.6575 -5.0434 1.5881
1.3594 -6.3757 2.0332
1.8692 -6.2528 2.0332
2.3678 -6.0889 2.0332
2.8520 -5.8849 2.0332
3.3186 -5.6422 2.0332
3.7642 -5.3622 2.0332
3.8792 -4.6769 1.8842
4.2376 -4.3457 1.8808
4.5758 -3.9941 1.8808
4.8845 -3.6159 1.8808
5.1614 -3.2137 1.8808
5.4048 -2.7901 1.8808
5.6130 -2.3479 1.8808
5.7844 -1.8902 1.8808
5.9202 -1.4204 1.8815
