ply
format ascii 1.0
element vertex 2176
property float32 x
property float32 y
property float32 z
end_header
-3.2064 -2.3373 2.0383
-3.0094 -2.5887 2.0383
-2.7927 -2.8235 2.0383
-2.5579 -3.0403 2.0383
-2.3063 -3.2376 2.0383
-0.7427 -1.2432 0.7422
-0.6403 -1.2988 0.7418
-0.5339 -1.3460 0.7414
-0.4240 -1.3846 0.7410
-0.3114 -1.4142 0.7406
-0.1968 -1.4348 0.7403
-0.0809 -1.4461 0.7400
0.0355 -1.4480 0.7397
0.1517 -1.4407 0.7394
3.7369 -0.2343 2.0383
3.7432 0.0663 2.0383
3.7252 0.3664 2.0383
3.6830 0.6640 2.0383
3.6170 0.9572 2.0383
3.5275 1.2440 2.0383
3.4153 1.5226 2.0383
3.2809 1.7912 2.0383
3.1254 2.0481 2.0383
2.9498 2.2914 2.0383
2.7551 2.5198 2.0383
2.5428 2.7317 2.0383
2.3142 2.9257 2.0383
0.7564 1.1325 0.7445
0.6630 1.1896 0.7449
0.5653 1.2391 0.7452
0.4639 1.2804 0.7456
0.3595 1.3135 0.7459
0.2528 1.3381 0.7463
0.1444 1.3540 0.7466
0.0351 1.3611 0.7469
-0.0744 1.3593 0.7472
-0.1834 1.3488 0.7474
-0.2912 1.3295 0.7476
-0.3971 1.3015 0.7478
-0.5003 1.2652 0.7480
-0.6003 1.2206 0.7481
-0.6964 1.1681 0.7482
-2.1462 3.0181 2.0383
-2.3814 2.8349 2.0383
-2.6010 2.6334 2.0383
-2.8038 2.4151 2.0383
-2.9884 2.1813 2.0383
-3.1538 1.9335 2.0383
-3.2987 1.6732 2.0383
-3.4224 1.4023 2.0383
-3.5240 1.1223 2.0383
-3.6029 0.8351 2.0383
-3.6586 0.5426 2.0383
-3.6907 0.2465 2.0383
-3.6990 -0.0513 2.0383
-3.6835 -0.3488 2.0383
-3.6443 -0.6441 2.0383
-3.5815 -0.9355 2.0383
-3.4956 -1.2209 2.0383
-3.3871 -1.4986 2.0383
-3.2567 -1.7667 2.0383
-3.1051 -2.0237 2.0383
-2.9335 -2.2677 2.0383
-2.7428 -2.4973 2.0383
-2.5342 -2.7109 2.0383
-2.3091 -2.9072 2.0383
-0.7537 -1.1237 0.7425
-0.6609 -1.1806 0.7421
-0.5638 -1.2299 0.7417
-0.4632 -1.2713 0.7414
-0.3596 -1.3044 0.7410
-0.2536 -1.3292 0.7407
-0.1460 -1.3454 0.7404
-0.0375 -1.3529 0.7401
0.0713 -1.3517 0.7398
0.1796 -1.3418 0.7396
0.2868 -1.3232 0.7394
0.3922 -1.2961 0.7392
0.4951 -1.2607 0.7390
0.5948 -1.2171 0.7389
0.6907 -1.1657 0.7388
0.7822 -1.1067 0.7387
2.3973 -2.8717 2.0383
2.6207 -2.6707 2.0383
2.8272 -2.4524 2.0383
3.0154 -2.2181 2.0383
3.1842 -1.9693 2.0383
3.3323 -1.7076 2.0383
3.4588 -1.4349 2.0383
3.5630 -1.1528 2.0383
3.6439 -0.8632 2.0383
3.7013 -0.5680 2.0383
3.7346 -0.2692 2.0383
3.7437 0.0313 2.0383
3.7285 0.3315 2.0383
3.6892 0.6295 2.0383
3.6259 0.9233 2.0383
3.5391 1.2110 2.0383
3.4295 1.4907 2.0383
3.2977 1.7605 2.0383
3.1446 2.0188 2.0383
2.9712 2.2638 2.0383
2.7787 2.4940 2.0383
2.5684 2.7079 2.0383
2.3416 2.9041 2.0383
0.7669 1.1254 0.7444
0.6741 1.1834 0.7448
0.5769 1.2337 0.7452
0.4759 1.2760 0.7456
0.3718 1.3101 0.7459
0.2653 1.3357 0.7462
0.1571 1.3526 0.7466
0.0479 1.3607 0.7469
-0.0616 1.3600 0.7471
-0.1707 1.3505 0.7474
-0.2787 1.3322 0.7476
-0.3849 1.3052 0.7478
-0.4885 1.2698 0.7480
-0.5889 1.2262 0.7481
-0.6855 1.1746 0.7482
-2.1179 3.0382 2.0383
-2.3547 2.8572 2.0383
-2.5763 2.6578 2.0383
-2.7811 2.4413 2.0383
-2.9679 2.2092 2.0383
-3.1355 1.9630 2.0383
-3.2829 1.7041 2.0383
-3.4091 1.4343 2.0383
-3.5134 1.1553 2.0383
-3.5949 0.8689 2.0383
-3.6533 0.5768 2.0383
-3.6882 0.2810 2.0383
-3.6993 -0.0166 2.0383
-3.6866 -0.3142 2.0383
-3.6500 -0.6099 2.0383
-3.5900 -0.9018 2.0383
-3.5067 -1.1880 2.0383
-3.4008 -1.4667 2.0383
-3.2729 -1.7360 2.0383
-3.1238 -1.9944 2.0383
-2.9545 -2.2400 2.0383
-2.7659 -2.4713 2.0383
-2.5594 -2.6869 2.0383
-2.3361 -2.8853 2.0383
-0.7642 -1.1166 0.7425
-0.6719 -1.1744 0.7422
-0.5753 -1.2246 0.7418
-0.4751 -1.2669 0.7414
-0.3718 -1.3010 0.7411
-0.2660 -1.3267 0.7407
-0.1586 -1.3439 0.7404
-0.0502 -1.3524 0.7401
0.0586 -1.3522 0.7399
0.1671 -1.3433 0.7396
0.2744 -1.3258 0.7394
0.3800 -1.2997 0.7392
0.4832 -1.2652 0.7390
0.5834 -1.2226 0.7389
0.6798 -1.1721 0.7388
0.7718 -1.1140 0.7387
2.3702 -2.8939 2.0383
2.5955 -2.6951 2.0383
2.8041 -2.4787 2.0383
2.9945 -2.2461 2.0383
3.1656 -1.9989 2.0383
3.3162 -1.7387 2.0383
3.4453 -1.4671 2.0383
3.5520 -1.1860 2.0383
3.6357 -0.8972 2.0383
3.6958 -0.6026 2.0383
3.7320 -0.3041 2.0383
3.7439 -0.0037 2.0383
3.7315 0.2967 2.0383
3.6950 0.5950 2.0383
3.6345 0.8894 2.0383
3.5504 1.1779 2.0383
3.4434 1.4586 2.0383
3.3141 1.7297 2.0383
3.1635 1.9894 2.0383
2.9924 2.2360 2.0383
2.8021 2.4680 2.0383
2.5938 2.6839 2.0383
2.3688 2.8822 2.0383
0.7774 1.1181 0.7444
0.6851 1.1770 0.7448
0.5884 1.2283 0.7452
0.4878 1.2715 0.7455
0.3841 1.3066 0.7459
0.2778 1.3331 0.7462
0.1698 1.3511 0.7465
0.0606 1.3602 0.7468
-0.0489 1.3605 0.7471
-0.1581 1.3520 0.7473
-0.2662 1.3347 0.7476
-0.3726 1.3088 0.7478
-0.4766 1.2744 0.7480
-0.5774 1.2317 0.7481
-0.6744 1.1810 0.7482
-0.7671 1.1227 0.7483
-2.3279 2.8792 2.0383
-2.5513 2.6819 2.0383
-2.7582 2.4674 2.0383
-2.9471 2.2370 2.0383
-3.1171 1.9923 2.0383
-3.2668 1.7349 2.0383
-3.3956 1.4663 2.0383
-3.5024 1.1882 2.0383
-3.5866 0.9026 2.0383
-3.6477 0.6111 2.0383
-3.6854 0.3156 2.0383
-3.6992 0.0181 2.0383
-3.6893 -0.2797 2.0383
-3.6555 -0.5757 2.0383
-3.5982 -0.8681 2.0383
-3.5176 -1.1550 2.0383
-3.4143 -1.4347 2.0383
-3.2889 -1.7052 2.0383
-3.1423 -1.9649 2.0383
-2.9752 -2.2121 2.0383
-2.7888 -2.4452 2.0383
-2.5843 -2.6627 2.0383
-2.3629 -2.8631 2.0383
-0.7746 -1.1094 0.7426
-0.6829 -1.1681 0.7422
-0.5868 -1.2191 0.7418
-0.4869 -1.2624 0.7415
-0.3839 -1.2975 0.7411
-0.2785 -1.3242 0.7408
-0.1712 -1.3424 0.7405
-0.0628 -1.3519 0.7402
0.0460 -1.3527 0.7399
0.1545 -1.3448 0.7396
0.2620 -1.3283 0.7394
0.3679 -1.3032 0.7392
0.4714 -1.2697 0.7390
0.5719 -1.2280 0.7389
0.6687 -1.1783 0.7388
0.7613 -1.1211 0.7387
2.3430 -2.9158 2.0383
2.5701 -2.7191 2.0383
2.7807 -2.5047 2.0383
2.9733 -2.2740 2.0383
3.1467 -2.0284 2.0383
3.2997 -1.7696 2.0383
3.4314 -1.4993 2.0383
3.5408 -1.2192 2.0383
3.6272 -0.9312 2.0383
3.6901 -0.6371 2.0383
3.7290 -0.3390 2.0383
3.7438 -0.0387 2.0383
3.7342 0.2618 2.0383
3.7005 0.5604 2.0383
3.6427 0.8554 2.0383
3.5614 1.1447 2.0383
3.4570 1.4264 2.0383
3.3303 1.6987 2.0383
3.1821 1.9598 2.0383
3.0133 2.2081 2.0383
2.8252 2.4418 2.0383
2.6189 2.6596 2.0383
2.3958 2.8601 2.0383
0.7878 1.1108 0.7444
0.6961 1.1705 0.7447
0.5999 1.2227 0.7451
0.4997 1.2669 0.7455
0.3963 1.3029 0.7458
0.2903 1.3305 0.7462
0.1824 1.3494 0.7465
0.0734 1.3596 0.7468
-0.0361 1.3609 0.7471
-0.1454 1.3535 0.7473
-0.2537 1.3372 0.7476
-0.3603 1.3123 0.7478
-0.4646 1.2788 0.7479
-0.5658 1.2371 0.7481
-0.6634 1.1873 0.7482
-0.7565 1.1298 0.7483
-2.3009 2.9010 2.0383
-2.5261 2.7058 2.0383
-2.7350 2.4932 2.0383
-2.9261 2.2646 2.0383
-3.0983 2.0215 2.0383
-3.2505 1.7654 2.0383
-3.3817 1.4981 2.0383
-3.4911 1.2210 2.0383
-3.5780 0.9362 2.0383
-3.6418 0.6453 2.0383
-3.6822 0.3502 2.0383
-3.6988 0.0528 2.0383
-3.6917 -0.2450 2.0383
-3.6607 -0.5414 2.0383
-3.6061 -0.8343 2.0383
-3.5282 -1.1220 2.0383
-3.4275 -1.4026 2.0383
-3.3047 -1.6742 2.0383
-3.1604 -1.9353 2.0383
-2.9957 -2.1840 2.0383
-2.8115 -2.4188 2.0383
-2.6090 -2.6382 2.0383
-2.3895 -2.8407 2.0383
-2.1544 -3.0250 2.0383
-0.6938 -1.1616 0.7422
-0.5982 -1.2136 0.7419
-0.4987 -1.2578 0.7415
-0.3961 -1.2938 0.7412
-0.2908 -1.3215 0.7408
-0.1838 -1.3407 0.7405
-0.0755 -1.3512 0.7402
0.0333 -1.3531 0.7399
0.1419 -1.3462 0.7397
3.4987 -0.2194 2.0383
3.5046 0.0620 2.0383
3.4877 0.3429 2.0383
3.4483 0.6215 2.0383
3.3865 0.8960 2.0383
3.3028 1.1645 2.0383
3.1978 1.4254 2.0383
3.0720 1.6769 2.0383
2.9265 1.9174 2.0383
2.7621 2.1453 2.0383
2.5799 2.3592 2.0383
2.3812 2.5576 2.0383
0.7911 1.0000 0.7441
0.7083 1.0603 0.7444
0.6208 1.1138 0.7448
0.5294 1.1600 0.7451
0.4345 1.1988 0.7455
0.3367 1.2297 0.7458
0.2368 1.2527 0.7461
0.1353 1.2676 0.7464
0.0330 1.2743 0.7467
-0.0695 1.2726 0.7469
-0.1716 1.2627 0.7472
-0.2725 1.2447 0.7474
-0.3716 1.2185 0.7475
-0.4683 1.1845 0.7477
-0.5620 1.1427 0.7478
-0.6519 1.0936 0.7479
-0.7376 1.0374 0.7480
-2.2302 2.6552 2.0383
-2.4360 2.4666 2.0383
-2.6260 2.2621 2.0383
-2.7989 2.0431 2.0383
-2.9538 1.8110 2.0383
-3.0896 1.5673 2.0383
-3.2055 1.3135 2.0383
-3.3007 1.0512 2.0383
-3.3746 0.7822 2.0383
-3.4268 0.5081 2.0383
-3.4568 0.2308 2.0383
-3.4646 -0.0482 2.0383
-3.4500 -0.3268 2.0383
-3.4132 -0.6035 2.0383
-3.3544 -0.8763 2.0383
-3.2739 -1.1436 2.0383
-3.1722 -1.4037 2.0383
-3.0500 -1.6549 2.0383
-2.9080 -1.8955 2.0383
-2.7472 -2.1240 2.0383
-2.5685 -2.3390 2.0383
-2.3731 -2.5390 2.0383
-2.1623 -2.7228 2.0383
-0.7058 -1.0525 0.7426
-0.6189 -1.1058 0.7422
-0.5280 -1.1520 0.7419
-0.4337 -1.1907 0.7415
-0.3367 -1.2218 0.7412
-0.2374 -1.2450 0.7409
-0.1367 -1.2601 0.7406
-0.0350 -1.2672 0.7403
0.0669 -1.2660 0.7401
0.1684 -1.2568 0.7398
0.2688 -1.2394 0.7396
0.3675 -1.2140 0.7394
0.4638 -1.1808 0.7393
0.5572 -1.1400 0.7392
0.6470 -1.0918 0.7391
0.7327 -1.0366 0.7390
2.2447 -2.6885 2.0383
2.4538 -2.5004 2.0383
2.6471 -2.2960 2.0383
2.8233 -2.0766 2.0383
2.9812 -1.8436 2.0383
3.1199 -1.5987 2.0383
3.2383 -1.3433 2.0383
3.3358 -1.0793 2.0383
3.4116 -0.8082 2.0383
3.4653 -0.5318 2.0383
3.4965 -0.2521 2.0383
3.5050 0.0292 2.0383
3.4909 0.3103 2.0383
3.4540 0.5893 2.0383
3.3948 0.8643 2.0383
3.3137 1.1336 2.0383
3.2111 1.3955 2.0383
3.0877 1.6482 2.0383
2.9444 1.8900 2.0383
2.7822 2.1195 2.0383
2.6020 2.3350 2.0383
2.4051 2.5353 2.0383
2.1928 2.7191 2.0383
0.7182 1.0536 0.7444
0.6312 1.1079 0.7447
0.5402 1.1550 0.7451
0.4457 1.1947 0.7454
0.3482 1.2265 0.7458
0.2485 1.2505 0.7461
0.1472 1.2663 0.7464
0.0450 1.2739 0.7466
-0.0576 1.2732 0.7469
-0.1597 1.2643 0.7471
-0.2608 1.2472 0.7473
-0.3602 1.2220 0.7475
-0.4572 1.1888 0.7477
-0.5512 1.1480 0.7478
-0.6416 1.0997 0.7479
-0.7279 1.0443 0.7480
-2.2053 2.6761 2.0383
-2.4128 2.4894 2.0383
-2.6047 2.2867 2.0383
-2.7797 2.0693 2.0383
-2.9368 1.8387 2.0383
-3.0748 1.5962 2.0383
-3.1931 1.3435 2.0383
-3.2907 1.0821 2.0383
-3.3671 0.8138 2.0383
-3.4218 0.5403 2.0383
-3.4545 0.2632 2.0383
-3.4648 -0.0157 2.0383
-3.4529 -0.2944 2.0383
-3.4186 -0.5714 2.0383
-3.3623 -0.8448 2.0383
-3.2843 -1.1129 2.0383
-3.1851 -1.3739 2.0383
-3.0652 -1.6261 2.0383
-2.9255 -1.8681 2.0383
-2.7669 -2.0981 2.0383
-2.5902 -2.3147 2.0383
-2.3967 -2.5166 2.0383
-2.1876 -2.7023 2.0383
-0.7156 -1.0459 0.7426
-0.6292 -1.1000 0.7422
-0.5388 -1.1470 0.7419
-0.4449 -1.1866 0.7416
-0.3481 -1.2186 0.7412
-0.2491 -1.2427 0.7409
-0.1484 -1.2588 0.7406
-0.0469 -1.2668 0.7403
0.0550 -1.2666 0.7401
0.1566 -1.2583 0.7399
0.2571 -1.2418 0.7396
0.3561 -1.2174 0.7395
0.4527 -1.1851 0.7393
0.5465 -1.1451 0.7392
0.6368 -1.0978 0.7391
0.7230 -1.0434 0.7390
2.2193 -2.7093 2.0383
2.4302 -2.5232 2.0383
2.6254 -2.3206 2.0383
2.8037 -2.1028 2.0383
2.9638 -1.8714 2.0383
3.1048 -1.6278 2.0383
3.2256 -1.3736 2.0383
3.3255 -1.1104 2.0383
3.4039 -0.8400 2.0383
3.4602 -0.5642 2.0383
3.4940 -0.2848 2.0383
3.5052 -0.0035 2.0383
3.4937 0.2776 2.0383
3.4595 0.5570 2.0383
3.4029 0.8326 2.0383
3.3242 1.1026 2.0383
3.2241 1.3654 2.0383
3.1031 1.6193 2.0383
2.9621 1.8625 2.0383
2.8020 2.0934 2.0383
2.6239 2.3107 2.0383
2.4289 2.5128 2.0383
2.2183 2.6986 2.0383
0.7280 1.0468 0.7443
0.6416 1.1020 0.7447
0.5510 1.1499 0.7450
0.4568 1.1904 0.7454
0.3597 1.2232 0.7457
0.2602 1.2481 0.7460
0.1591 1.2649 0.7463
0.0569 1.2734 0.7466
-0.0456 1.2737 0.7469
-0.1479 1.2658 0.7471
-0.2491 1.2496 0.7473
-0.3487 1.2253 0.7475
-0.4461 1.1931 0.7477
-0.5405 1.1531 0.7478
-0.6313 1.1057 0.7479
-0.7181 1.0511 0.7480
-2.1802 2.6968 2.0383
-2.3894 2.5120 2.0383
-2.5832 2.3111 2.0383
-2.7602 2.0953 2.0383
-2.9194 1.8661 2.0383
-3.0598 1.6250 2.0383
-3.1804 1.3734 2.0383
-3.2804 1.1129 2.0383
-3.3593 0.8454 2.0383
-3.4166 0.5723 2.0383
-3.4518 0.2955 2.0383
-3.4648 0.0168 2.0383
-3.4554 -0.2620 2.0383
-3.4238 -0.5393 2.0383
-3.3700 -0.8132 2.0383
-3.2945 -1.0820 2.0383
-3.1977 -1.3439 2.0383
-3.0802 -1.5973 2.0383
-2.9428 -1.8405 2.0383
-2.7863 -2.0720 2.0383
-2.6117 -2.2902 2.0383
-2.4201 -2.4939 2.0383
-2.2127 -2.6815 2.0383
-0.7254 -1.0391 0.7426
-0.6395 -1.0940 0.7423
-0.5495 -1.1419 0.7419
-0.4559 -1.1824 0.7416
-0.3595 -1.2153 0.7413
-0.2607 -1.2403 0.7410
-0.1602 -1.2573 0.7407
-0.0587 -1.2663 0.7404
0.0432 -1.2670 0.7401
0.1448 -1.2597 0.7399
0.2455 -1.2441 0.7397
0.3447 -1.2206 0.7395
0.4416 -1.1892 0.7393
0.5358 -1.1502 0.7392
0.6265 -1.1037 0.7391
0.7132 -1.0501 0.7390
2.1938 -2.7299 2.0383
2.4064 -2.5457 2.0383
2.6036 -2.3449 2.0383
2.7839 -2.1289 2.0383
2.9461 -1.8990 2.0383
3.0894 -1.6567 2.0383
3.2126 -1.4036 2.0383
3.3150 -1.1414 2.0383
3.3959 -0.8718 2.0383
3.4548 -0.5966 2.0383
3.4913 -0.3174 2.0383
3.5051 -0.0363 2.0383
3.4962 0.2450 2.0383
3.4646 0.5246 2.0383
3.4106 0.8007 2.0383
3.3345 1.0715 2.0383
3.2368 1.3353 2.0383
3.1183 1.5902 2.0383
2.9795 1.8348 2.0383
2.8216 2.0672 2.0383
2.6455 2.2861 2.0383
2.4524 2.4901 2.0383
2.2436 2.6778 2.0383
0.7378 1.0400 0.7443
0.6519 1.0959 0.7447
0.5617 1.1447 0.7450
0.4680 1.1861 0.7453
0.3711 1.2198 0.7457
0.2719 1.2456 0.7460
0.1709 1.2633 0.7463
0.0688 1.2729 0.7466
-0.0337 1.2741 0.7468
-0.1360 1.2671 0.7471
-0.2374 1.2519 0.7473
-0.3372 1.2286 0.7475
-0.4349 1.1972 0.7476
-0.5296 1.1582 0.7478
-0.6209 1.1116 0.7479
-0.7082 1.0578 0.7480
-2.1549 2.7172 2.0383
-2.3658 2.5343 2.0383
-2.5615 2.3352 2.0383
-2.7405 2.1211 2.0383
-2.9019 1.8935 2.0383
-3.0444 1.6536 2.0383
-3.1674 1.4032 2.0383
-3.2698 1.1437 2.0383
-3.3512 0.8768 2.0383
-3.4110 0.6043 2.0383
-3.4488 0.3279 2.0383
-3.4644 0.0493 2.0383
-3.4577 -0.2296 2.0383
-3.4286 -0.5072 2.0383
-3.3774 -0.7816 2.0383
-3.3044 -1.0510 2.0383
-3.2101 -1.3138 2.0383
-3.0950 -1.5683 2.0383
-2.9598 -1.8127 2.0383
-2.8055 -2.0457 2.0383
-2.6329 -2.2655 2.0383
-2.4432 -2.4710 2.0383
-2.2376 -2.6605 2.0383
-0.7351 -1.0323 0.7427
-0.6497 -1.0880 0.7423
-0.5601 -1.1367 0.7420
-0.4670 -1.1781 0.7416
-0.3708 -1.2118 0.7413
-0.2723 -1.2378 0.7410
-0.1720 -1.2558 0.7407
-0.0706 -1.2656 0.7404
0.0313 -1.2674 0.7401
0.1330 -1.2609 0.7399
3.2824 -0.2059 2.0383
3.2880 0.0581 2.0383
3.2722 0.3216 2.0383
3.2352 0.5830 2.0383
3.1773 0.8405 2.0383
3.0988 1.0924 2.0383
3.0003 1.3372 2.0383
2.8824 1.5731 2.0383
2.7459 1.7988 2.0383
2.5917 2.0126 2.0383
2.4208 2.2133 2.0383
2.2344 2.3995 2.0383
0.7423 0.9381 0.7440
0.6646 0.9947 0.7444
0.5826 1.0449 0.7447
0.4968 1.0883 0.7450
0.4077 1.1246 0.7453
0.3160 1.1537 0.7456
0.2223 1.1753 0.7459
0.1271 1.1892 0.7462
0.0311 1.1954 0.7465
-0.0651 1.1939 0.7467
-0.1608 1.1846 0.7469
-0.2555 1.1677 0.7471
-0.3485 1.1432 0.7473
-0.4393 1.1112 0.7474
-0.5271 1.0721 0.7476
-0.6115 1.0260 0.7477
-0.6919 0.9733 0.7477
-0.7678 0.9142 0.7478
-2.2861 2.3150 2.0383
-2.4644 2.1231 2.0383
-2.6268 1.9176 2.0383
-2.7722 1.6997 2.0383
-2.8997 1.4710 2.0383
-3.0084 1.2327 2.0383
-3.0978 0.9866 2.0383
-3.1671 0.7341 2.0383
-3.2161 0.4769 2.0383
-3.2443 0.2165 2.0383
-3.2516 -0.0453 2.0383
-3.2379 -0.3068 2.0383
-3.2033 -0.5665 2.0383
-3.1480 -0.8226 2.0383
-3.0724 -1.0735 2.0383
-2.9770 -1.3176 2.0383
-2.8622 -1.5533 2.0383
-2.7289 -1.7791 2.0383
-2.5780 -1.9935 2.0383
-2.4102 -2.1952 2.0383
-2.2268 -2.3829 2.0383
-0.7395 -0.9314 0.7430
-0.6622 -0.9878 0.7426
-0.5807 -1.0379 0.7423
-0.4954 -1.0812 0.7420
-0.4069 -1.1176 0.7416
-0.3158 -1.1467 0.7413
-0.2227 -1.1685 0.7410
-0.1281 -1.1827 0.7408
-0.0327 -1.1893 0.7405
0.0629 -1.1883 0.7403
0.1581 -1.1795 0.7401
0.2524 -1.1632 0.7399
0.3450 -1.1394 0.7397
0.4354 -1.1083 0.7395
0.5231 -1.0699 0.7394
0.6074 -1.0247 0.7393
0.6878 -0.9729 0.7393
0.7638 -0.9148 0.7392
2.3023 -2.3458 2.0383
2.4836 -2.1540 2.0383
2.6489 -1.9481 2.0383
2.7970 -1.7296 2.0383
2.9271 -1.4998 2.0383
3.0382 -1.2603 2.0383
3.1296 -1.0125 2.0383
3.2007 -0.7582 2.0383
3.2511 -0.4990 2.0383
3.2804 -0.2366 2.0383
3.2884 0.0273 2.0383
3.2751 0.2910 2.0383
3.2406 0.5527 2.0383
3.1851 0.8108 2.0383
3.1090 1.0634 2.0383
3.0128 1.3091 2.0383
2.8971 1.5462 2.0383
2.7627 1.7731 2.0383
2.6106 1.9884 2.0383
2.4416 2.1907 2.0383
2.2569 2.3786 2.0383
0.7511 0.9312 0.7440
0.6739 0.9885 0.7443
0.5923 1.0394 0.7447
0.5069 1.0836 0.7450
0.4182 1.1208 0.7453
0.3268 1.1507 0.7456
0.2333 1.1731 0.7459
0.1382 1.1880 0.7462
0.0423 1.1951 0.7464
-0.0539 1.1945 0.7467
-0.1497 1.1861 0.7469
-0.2446 1.1701 0.7471
-0.3378 1.1464 0.7473
-0.4288 1.1153 0.7474
-0.5170 1.0770 0.7475
-0.6019 1.0317 0.7476
-0.6828 0.9797 0.7477
-0.7592 0.9214 0.7478
-2.2643 2.3364 2.0383
-2.4444 2.1462 2.0383
-2.6087 1.9422 2.0383
-2.7561 1.7257 2.0383
-2.8858 1.4981 2.0383
-2.9967 1.2609 2.0383
-3.0884 1.0156 2.0383
-3.1601 0.7638 2.0383
-3.2114 0.5070 2.0383
-3.2421 0.2469 2.0383
-3.2518 -0.0148 2.0383
-3.2405 -0.2765 2.0383
-3.2084 -0.5364 2.0383
-3.1555 -0.7930 2.0383
-3.0823 -1.0446 2.0383
-2.9891 -1.2895 2.0383
-2.8765 -1.5263 2.0383
-2.7454 -1.7533 2.0383
-2.5964 -1.9692 2.0383
-2.4306 -2.1724 2.0383
-2.2489 -2.3618 2.0383
-0.7482 -0.9244 0.7430
-0.6715 -0.9816 0.7427
-0.5904 -1.0324 0.7423
-0.5055 -1.0765 0.7420
-0.4174 -1.1137 0.7417
-0.3266 -1.1437 0.7414
-0.2336 -1.1663 0.7411
-0.1392 -1.1814 0.7408
-0.0439 -1.1889 0.7405
0.0518 -1.1888 0.7403
0.1471 -1.1810 0.7401
0.2415 -1.1655 0.7399
0.3343 -1.1426 0.7397
0.4250 -1.1122 0.7396
0.5130 -1.0748 0.7394
0.5977 -1.0303 0.7393
0.6786 -0.9793 0.7393
0.7552 -0.9218 0.7392
2.2802 -2.3671 2.0383
2.4633 -2.1771 2.0383
2.6305 -1.9728 2.0383
2.7807 -1.7557 2.0383
2.9129 -1.5271 2.0383
3.0263 -1.2886 2.0383
3.1200 -1.0418 2.0383
3.1935 -0.7881 2.0383
3.2463 -0.5294 2.0383
3.2781 -0.2672 2.0383
3.2886 -0.0034 2.0383
3.2778 0.2604 2.0383
3.2457 0.5224 2.0383
3.1927 0.7810 2.0383
3.1189 1.0343 2.0383
3.0250 1.2809 2.0383
2.9116 1.5191 2.0383
2.7793 1.7472 2.0383
2.6292 1.9640 2.0383
2.4621 2.1678 2.0383
2.2792 2.3575 2.0383
0.7598 0.9241 0.7439
0.6831 0.9821 0.7443
0.6020 1.0338 0.7446
0.5171 1.0788 0.7449
0.4287 1.1168 0.7453
0.3376 1.1476 0.7456
0.2443 1.1709 0.7459
0.1494 1.1866 0.7462
0.0535 1.1947 0.7464
-0.0427 1.1950 0.7467
-0.1386 1.1875 0.7469
-0.2336 1.1723 0.7471
-0.3271 1.1495 0.7473
-0.4184 1.1193 0.7474
-0.5069 1.0818 0.7475
-0.5922 1.0373 0.7476
-0.6736 0.9861 0.7477
-0.7506 0.9285 0.7478
-2.2424 2.3576 2.0383
-2.4243 2.1690 2.0383
-2.5904 1.9666 2.0383
-2.7399 1.7515 2.0383
-2.8716 1.5251 2.0383
-2.9848 1.2890 2.0383
-3.0787 1.0445 2.0383
-3.1528 0.7934 2.0383
-3.2065 0.5371 2.0383
-3.2396 0.2773 2.0383
-3.2517 0.0157 2.0383
-3.2429 -0.2460 2.0383
-3.2132 -0.5063 2.0383
-3.1627 -0.7634 2.0383
-3.0918 -1.0156 2.0383
-3.0009 -1.2614 2.0383
-2.8906 -1.4992 2.0383
-2.7616 -1.7274 2.0383
-2.6146 -1.9447 2.0383
-2.4507 -2.1495 2.0383
-2.2709 -2.3405 2.0383
-0.7569 -0.9174 0.7430
-0.6806 -0.9753 0.7427
-0.6000 -1.0268 0.7424
-0.5156 -1.0717 0.7420
-0.4278 -1.1097 0.7417
-0.3373 -1.1406 0.7414
-0.2446 -1.1641 0.7411
-0.1503 -1.1801 0.7408
-0.0550 -1.1885 0.7406
0.0406 -1.1892 0.7403
0.1360 -1.1823 0.7401
0.2305 -1.1677 0.7399
0.3236 -1.1456 0.7397
0.4146 -1.1162 0.7396
0.5029 -1.0795 0.7394
0.5881 -1.0359 0.7393
0.6694 -0.9855 0.7393
0.7465 -0.9288 0.7392
2.2579 -2.3883 2.0383
2.4428 -2.1999 2.0383
2.6119 -1.9973 2.0383
2.7641 -1.7816 2.0383
2.8985 -1.5543 2.0383
3.0140 -1.3168 2.0383
3.1101 -1.0709 2.0383
3.1860 -0.8179 2.0383
3.2412 -0.5597 2.0383
3.2755 -0.2979 2.0383
3.2885 -0.0342 2.0383
3.2801 0.2297 2.0383
3.2505 0.4920 2.0383
3.1999 0.7511 2.0383
3.1286 1.0052 2.0383
3.0370 1.2526 2.0383
2.9258 1.4918 2.0383
2.7957 1.7212 2.0383
2.6475 1.9394 2.0383
2.4824 2.1448 2.0383
2.3012 2.3362 2.0383
0.7684 0.9169 0.7439
0.6923 0.9757 0.7442
0.6117 1.0281 0.7446
0.5271 1.0739 0.7449
0.4391 1.1128 0.7452
0.3483 1.1444 0.7455
0.2552 1.1686 0.7458
0.1605 1.1852 0.7461
0.0647 1.1941 0.7464
-0.0315 1.1953 0.7466
-0.1275 1.1888 0.7469
-0.2226 1.1745 0.7471
-0.3163 1.1526 0.7472
-0.4079 1.1232 0.7474
-0.4968 1.0865 0.7475
-0.5825 1.0429 0.7476
-0.6643 0.9924 0.7477
-0.7418 0.9355 0.7477
-2.2202 2.3786 2.0383
-2.4039 2.1917 2.0383
-2.5719 1.9908 2.0383
-2.7234 1.7771 2.0383
-2.8572 1.5520 2.0383
-2.9726 1.3169 2.0383
-3.0688 1.0734 2.0383
-3.1452 0.8229 2.0383
-3.2013 0.5671 2.0383
-3.2368 0.3077 2.0383
-3.2514 0.0462 2.0383
-3.2450 -0.2156 2.0383
-3.2177 -0.4761 2.0383
-3.1697 -0.7336 2.0383
-3.1011 -0.9865 2.0383
-3.0125 -1.2332 2.0383
-2.9044 -1.4720 2.0383
-2.7775 -1.7014 2.0383
-2.6326 -1.9200 2.0383
-2.4706 -2.1263 2.0383
-2.2926 -2.3190 2.0383
-0.7654 -0.9103 0.7431
-0.6897 -0.9688 0.7427
-0.6096 -1.0211 0.7424
-0.5256 -1.0669 0.7421
-0.4382 -1.1057 0.7417
-0.3479 -1.1374 0.7414
-0.2554 -1.1617 0.7411
-0.1613 -1.1786 0.7409
-0.0661 -1.1879 0.7406
0.0295 -1.1895 0.7404
0.1249 -1.1835 0.7401
3.0850 -0.1936 2.0383
3.0902 0.0545 2.0383
3.0754 0.3021 2.0383
3.0407 0.5478 2.0383
2.9863 0.7898 2.0383
2.9126 1.0266 2.0383
2.8200 1.2566 2.0383
2.7093 1.4784 2.0383
2.5810 1.6905 2.0383
2.4361 1.8915 2.0383
2.2756 2.0801 2.0383
0.7663 0.8228 0.7437
0.6978 0.8817 0.7440
0.6248 0.9349 0.7443
0.5476 0.9820 0.7446
0.4670 1.0228 0.7449
0.3833 1.0569 0.7452
0.2971 1.0842 0.7455
0.2090 1.1045 0.7458
0.1196 1.1176 0.7460
0.0293 1.1235 0.7463
-0.0611 1.1220 0.7465
-0.1510 1.1133 0.7467
-0.2400 1.0974 0.7469
-0.3275 1.0743 0.7471
-0.4127 1.0443 0.7472
-0.4953 1.0075 0.7473
-0.5746 0.9642 0.7474
-0.6502 0.9147 0.7475
-0.7215 0.8592 0.7475
-2.1490 2.1764 2.0383
-2.3167 1.9960 2.0383
-2.4694 1.8028 2.0383
-2.6061 1.5980 2.0383
-2.7260 1.3829 2.0383
-2.8283 1.1590 2.0383
-2.9123 0.9275 2.0383
-2.9775 0.6901 2.0383
-3.0235 0.4483 2.0383
-3.0500 0.2035 2.0383
-3.0569 -0.0427 2.0383
-3.0440 -0.2886 2.0383
-3.0114 -0.5327 2.0383
-2.9594 -0.7735 2.0383
-2.8883 -1.0094 2.0383
-2.7985 -1.2388 2.0383
-2.6906 -1.4604 2.0383
-2.5653 -1.6727 2.0383
-2.4233 -1.8742 2.0383
-2.2656 -2.0638 2.0383
-0.7633 -0.8170 0.7433
-0.6951 -0.8757 0.7430
-0.6225 -0.9287 0.7427
-0.5458 -0.9758 0.7424
-0.4656 -1.0165 0.7420
-0.3825 -1.0507 0.7417
-0.2968 -1.0781 0.7415
-0.2093 -1.0986 0.7412
-0.1204 -1.1120 0.7409
-0.0307 -1.1182 0.7407
0.0592 -1.1172 0.7405
0.1488 -1.1090 0.7403
0.2374 -1.0936 0.7401
0.3245 -1.0712 0.7399
0.4095 -1.0419 0.7398
0.4919 -1.0059 0.7397
0.5711 -0.9634 0.7396
0.6467 -0.9147 0.7395
0.7182 -0.8600 0.7395
0.7850 -0.7998 0.7395
2.3343 -2.0243 2.0383
2.4896 -1.8309 2.0383
2.6288 -1.6255 2.0383
2.7510 -1.4095 2.0383
2.8554 -1.1844 2.0383
2.9413 -0.9516 2.0383
3.0082 -0.7126 2.0383
3.0555 -0.4690 2.0383
3.0831 -0.2224 2.0383
3.0906 0.0256 2.0383
3.0782 0.2734 2.0383
3.0458 0.5193 2.0383
2.9936 0.7618 2.0383
2.9221 0.9993 2.0383
2.8317 1.2302 2.0383
2.7231 1.4530 2.0383
2.5968 1.6663 2.0383
2.4538 1.8687 2.0383
2.2950 2.0588 2.0383
0.7740 0.8156 0.7436
0.7060 0.8751 0.7440
0.6335 0.9290 0.7443
0.5568 0.9768 0.7446
0.4765 1.0184 0.7449
0.3932 1.0533 0.7452
0.3073 1.0814 0.7455
0.2193 1.1025 0.7458
0.1300 1.1164 0.7460
0.0399 1.1232 0.7463
-0.0505 1.1226 0.7465
-0.1406 1.1147 0.7467
-0.2297 1.0996 0.7469
-0.3174 1.0774 0.7470
-0.4029 1.0482 0.7472
-0.4858 1.0122 0.7473
-0.5656 0.9696 0.7474
-0.6416 0.9208 0.7475
-0.7134 0.8660 0.7475
-2.1286 2.1966 2.0383
-2.2979 2.0177 2.0383
-2.4524 1.8259 2.0383
-2.5911 1.6224 2.0383
-2.7129 1.4084 2.0383
-2.8173 1.1855 2.0383
-2.9035 0.9548 2.0383
-2.9709 0.7180 2.0383
-3.0192 0.4766 2.0383
-3.0479 0.2321 2.0383
-3.0571 -0.0140 2.0383
-3.0465 -0.2600 2.0383
-3.0162 -0.5044 2.0383
-2.9665 -0.7457 2.0383
-2.8976 -0.9822 2.0383
-2.8099 -1.2125 2.0383
-2.7041 -1.4350 2.0383
-2.5807 -1.6485 2.0383
-2.4407 -1.8514 2.0383
-2.2847 -2.0424 2.0383
-0.7709 -0.8098 0.7433
-0.7033 -0.8691 0.7430
-0.6312 -0.9228 0.7427
-0.5549 -0.9706 0.7424
-0.4751 -1.0121 0.7421
-0.3923 -1.0471 0.7418
-0.3069 -1.0753 0.7415
-0.2195 -1.0966 0.7412
-0.1308 -1.1108 0.7410
-0.0411 -1.1178 0.7407
0.0488 -1.1177 0.7405
0.1384 -1.1103 0.7403
0.2271 -1.0958 0.7401
0.3144 -1.0742 0.7399
0.3997 -1.0457 0.7398
0.4824 -1.0104 0.7397
0.5621 -0.9687 0.7396
0.6381 -0.9206 0.7395
0.7101 -0.8667 0.7395
0.7775 -0.8071 0.7395
2.3152 -2.0460 2.0383
2.4724 -1.8540 2.0383
2.6135 -1.6500 2.0383
2.7377 -1.4352 2.0383
2.8442 -1.2111 2.0383
2.9323 -0.9791 2.0383
3.0014 -0.7407 2.0383
3.0510 -0.4976 2.0383
3.0809 -0.2512 2.0383
3.0908 -0.0033 2.0383
3.0806 0.2446 2.0383
3.0505 0.4908 2.0383
3.0007 0.7338 2.0383
2.9314 0.9720 2.0383
2.8432 1.2037 2.0383
2.7366 1.4275 2.0383
2.6124 1.6420 2.0383
2.4713 1.8457 2.0383
2.3143 2.0374 2.0383
0.7816 0.8083 0.7436
0.7142 0.8685 0.7439
0.6421 0.9230 0.7442
0.5659 0.9716 0.7446
0.4861 1.0139 0.7449
0.4030 1.0496 0.7452
0.3174 1.0785 0.7455
0.2297 1.1004 0.7457
0.1405 1.1152 0.7460
0.0504 1.1227 0.7462
-0.0400 1.1230 0.7465
-0.1302 1.1160 0.7467
-0.2194 1.1017 0.7469
-0.3073 1.0803 0.7470
-0.3931 1.0519 0.7472
-0.4763 1.0167 0.7473
-0.5565 0.9749 0.7474
-0.6329 0.9268 0.7475
-0.7053 0.8726 0.7475
-0.7731 0.8129 0.7475
-2.2790 2.0392 2.0383
-2.4352 1.8489 2.0383
-2.5758 1.6467 2.0383
-2.6996 1.4339 2.0383
-2.8061 1.2118 2.0383
-2.8944 0.9820 2.0383
-2.9640 0.7459 2.0383
-3.0145 0.5049 2.0383
-3.0456 0.2606 2.0383
-3.0570 0.0147 2.0383
-3.0487 -0.2314 2.0383
-3.0207 -0.4761 2.0383
-2.9733 -0.7178 2.0383
-2.9066 -0.9549 2.0383
-2.8211 -1.1860 2.0383
-2.7173 -1.4096 2.0383
-2.5960 -1.6241 2.0383
-2.4578 -1.8283 2.0383
-2.3037 -2.0208 2.0383
-0.7785 -0.8025 0.7434
-0.7114 -0.8625 0.7431
-0.6398 -0.9169 0.7427
-0.5640 -0.9654 0.7424
-0.4846 -1.0076 0.7421
-0.4021 -1.0433 0.7418
-0.3170 -1.0724 0.7415
-0.2298 -1.0945 0.7413
-0.1412 -1.1095 0.7410
-0.0516 -1.1174 0.7407
0.0383 -1.1181 0.7405
0.1280 -1.1115 0.7403
0.2169 -1.0978 0.7401
0.3043 -1.0771 0.7400
0.3899 -1.0494 0.7398
0.4729 -1.0149 0.7397
0.5530 -0.9739 0.7396
0.6295 -0.9266 0.7395
0.7019 -0.8732 0.7395
0.7699 -0.8143 0.7395
2.2960 -2.0675 2.0383
2.4549 -1.8770 2.0383
2.5979 -1.6743 2.0383
2.7242 -1.4607 2.0383
2.8328 -1.2376 2.0383
2.9230 -1.0064 2.0383
2.9943 -0.7688 2.0383
3.0463 -0.5261 2.0383
3.0784 -0.2800 2.0383
3.0907 -0.0322 2.0383
3.0828 0.2158 2.0383
3.0551 0.4623 2.0383
3.0075 0.7058 2.0383
2.9405 0.9445 2.0383
2.8544 1.1771 2.0383
2.7500 1.4019 2.0383
2.6277 1.6176 2.0383
2.4886 1.8226 2.0383
2.3334 2.0157 2.0383
0.7891 0.8010 0.7436
0.7223 0.8618 0.7439
0.6508 0.9170 0.7442
0.5750 0.9663 0.7445
0.4955 1.0093 0.7448
0.4128 1.0458 0.7451
0.3275 1.0755 0.7454
0.2400 1.0982 0.7457
0.1509 1.1138 0.7460
0.0609 1.1222 0.7462
-0.0295 1.1234 0.7464
-0.1197 1.1172 0.7467
-0.2091 1.1038 0.7468
-0.2971 1.0832 0.7470
-0.3832 1.0556 0.7472
-0.4668 1.0211 0.7473
-0.5473 0.9801 0.7474
-0.6242 0.9327 0.7474
-0.6971 0.8792 0.7475
-0.7654 0.8201 0.7475
-2.2598 2.0606 2.0383
-2.4178 1.8717 2.0383
-2.5602 1.6708 2.0383
-2.6861 1.4591 2.0383
-2.7946 1.2381 2.0383
-2.8850 1.0091 2.0383
-2.9569 0.7736 2.0383
-3.0096 0.5331 2.0383
-3.0430 0.2892 2.0383
-3.0567 0.0434 2.0383
-3.0507 -0.2028 2.0383
-3.0250 -0.4477 2.0383
-2.9798 -0.6899 2.0383
-2.9153 -0.9276 2.0383
-2.8320 -1.1595 2.0383
-2.7303 -1.3840 2.0383
-2.6110 -1.5997 2.0383
-2.4747 -1.8051 2.0383
-2.3224 -1.9991 2.0383
-2.1549 -2.1802 2.0383
-0.7195 -0.8558 0.7431
-0.6483 -0.9109 0.7428
-0.5730 -0.9600 0.7425
-0.4940 -1.0030 0.7421
-0.4118 -1.0395 0.7418
-0.3270 -1.0693 0.7416
-0.2400 -1.0922 0.7413
-0.1515 -1.1081 0.7410
-0.0620 -1.1168 0.7408
0.0278 -1.1183 0.7405
0.1176 -1.1127 0.7403
2.9037 -0.1823 2.0383
2.9086 0.0512 2.0383
2.8947 0.2843 2.0383
2.8621 0.5155 2.0383
2.8109 0.7432 2.0383
2.7415 0.9661 2.0383
2.6545 1.1826 2.0383
2.5502 1.3914 2.0383
2.4296 1.5910 2.0383
2.2932 1.7802 2.0383
0.7812 0.7140 0.7433
0.7214 0.7744 0.7437
0.6569 0.8298 0.7440
0.5881 0.8799 0.7443
0.5156 0.9243 0.7446
0.4396 0.9626 0.7448
0.3609 0.9948 0.7451
0.2798 1.0205 0.7454
0.1968 1.0395 0.7457
0.1126 1.0519 0.7459
0.0277 1.0574 0.7461
-0.0574 1.0560 0.7463
-0.1421 1.0478 0.7465
-0.2258 1.0328 0.7467
-0.3081 1.0111 0.7469
-0.3883 0.9829 0.7470
-0.4661 0.9483 0.7471
-0.5407 0.9075 0.7472
-0.6119 0.8609 0.7472
-0.6790 0.8087 0.7473
-0.7417 0.7513 0.7473
-2.1810 1.8793 2.0383
-2.3248 1.6974 2.0383
-2.4535 1.5045 2.0383
-2.5664 1.3020 2.0383
-2.6627 1.0912 2.0383
-2.7418 0.8733 2.0383
-2.8032 0.6497 2.0383
-2.8465 0.4220 2.0383
-2.8715 0.1915 2.0383
-2.8779 -0.0403 2.0383
-2.8658 -0.2718 2.0383
-2.8351 -0.5017 2.0383
-2.7861 -0.7283 2.0383
-2.7191 -0.9504 2.0383
-2.6346 -1.1665 2.0383
-2.5329 -1.3751 2.0383
-2.4149 -1.5749 2.0383
-2.2812 -1.7646 2.0383
-0.7781 -0.7089 0.7436
-0.7185 -0.7692 0.7433
-0.6543 -0.8245 0.7430
-0.5859 -0.8744 0.7427
-0.5138 -0.9187 0.7424
-0.4383 -0.9571 0.7421
-0.3600 -0.9893 0.7418
-0.2794 -1.0151 0.7416
-0.1969 -1.0344 0.7413
-0.1132 -1.0470 0.7411
-0.0288 -1.0528 0.7409
0.0559 -1.0519 0.7406
0.1402 -1.0441 0.7404
0.2236 -1.0297 0.7403
0.3056 -1.0086 0.7401
0.3856 -0.9810 0.7400
0.4632 -0.9471 0.7399
0.5378 -0.9071 0.7398
0.6090 -0.8612 0.7397
0.6763 -0.8097 0.7397
0.7392 -0.7530 0.7397
2.1973 -1.9053 2.0383
2.3434 -1.7232 2.0383
2.4744 -1.5299 2.0383
2.5894 -1.3267 2.0383
2.6877 -1.1148 2.0383
2.7685 -0.8957 2.0383
2.8314 -0.6708 2.0383
2.8760 -0.4415 2.0383
2.9019 -0.2094 2.0383
2.9090 0.0240 2.0383
2.8973 0.2572 2.0383
2.8668 0.4887 2.0383
2.8178 0.7169 2.0383
2.7505 0.9404 2.0383
2.6655 1.1578 2.0383
2.5632 1.3675 2.0383
2.4444 1.5683 2.0383
2.3099 1.7588 2.0383
0.7879 0.7067 0.7433
0.7286 0.7676 0.7436
0.6646 0.8237 0.7439
0.5964 0.8744 0.7442
0.5242 0.9194 0.7445
0.4486 0.9585 0.7448
0.3702 0.9914 0.7451
0.2893 1.0178 0.7454
0.2066 1.0377 0.7456
0.1225 1.0508 0.7459
0.0376 1.0571 0.7461
-0.0475 1.0565 0.7463
-0.1322 1.0491 0.7465
-0.2161 1.0349 0.7467
-0.2986 1.0140 0.7468
-0.3791 0.9865 0.7470
-0.4572 0.9526 0.7471
-0.5322 0.9126 0.7472
-0.6038 0.8666 0.7472
-0.6714 0.8150 0.7473
-0.7347 0.7582 0.7473
-2.1633 1.8997 2.0383
-2.3088 1.7191 2.0383
-2.4393 1.5275 2.0383
-2.5541 1.3261 2.0383
-2.6524 1.1161 2.0383
-2.7335 0.8989 2.0383
-2.7970 0.6760 2.0383
-2.8424 0.4487 2.0383
-2.8695 0.2184 2.0383
-2.8781 -0.0133 2.0383
-2.8681 -0.2449 2.0383
-2.8396 -0.4750 2.0383
-2.7928 -0.7022 2.0383
-2.7279 -0.9248 2.0383
-2.6453 -1.1417 2.0383
-2.5456 -1.3512 2.0383
-2.4295 -1.5521 2.0383
-2.2975 -1.7431 2.0383
-2.1507 -1.9230 2.0383
-0.7257 -0.7624 0.7434
-0.6620 -0.8183 0.7430
-0.5941 -0.8689 0.7427
-0.5224 -0.9139 0.7425
-0.4472 -0.9529 0.7422
-0.3692 -0.9859 0.7419
-0.2888 -1.0124 0.7416
-0.2066 -1.0325 0.7414
-0.1230 -1.0458 0.7411
-0.0386 -1.0525 0.7409
0.0460 -1.0523 0.7407
0.1304 -1.0454 0.7405
0.2139 -1.0317 0.7403
0.2961 -1.0114 0.7401
0.3764 -0.9846 0.7400
0.4543 -0.9514 0.7399
0.5293 -0.9120 0.7398
0.6009 -0.8668 0.7397
0.6686 -0.8160 0.7397
0.7321 -0.7599 0.7397
2.1793 -1.9257 2.0383
2.3272 -1.7450 2.0383
2.4600 -1.5530 2.0383
2.5769 -1.3508 2.0383
2.6771 -1.1399 2.0383
2.7600 -0.9215 2.0383
2.8250 -0.6972 2.0383
2.8717 -0.4684 2.0383
2.8998 -0.2365 2.0383
2.9092 -0.0032 2.0383
2.8996 0.2301 2.0383
2.8713 0.4619 2.0383
2.8245 0.6906 2.0383
2.7593 0.9147 2.0383
2.6763 1.1328 2.0383
2.5760 1.3435 2.0383
2.4591 1.5454 2.0383
2.3263 1.7372 2.0383
2.1786 1.9176 2.0383
0.7358 0.7608 0.7436
0.6723 0.8174 0.7439
0.6045 0.8687 0.7442
0.5328 0.9144 0.7445
0.4576 0.9542 0.7448
0.3794 0.9879 0.7451
0.2988 1.0151 0.7453
0.2163 1.0357 0.7456
0.1323 1.0496 0.7458
0.0475 1.0567 0.7461
-0.0376 1.0570 0.7463
-0.1224 1.0503 0.7465
-0.2064 1.0369 0.7467
-0.2891 1.0168 0.7468
-0.3699 0.9900 0.7470
-0.4482 0.9569 0.7471
-0.5236 0.9175 0.7472
-0.5956 0.8723 0.7472
-0.6637 0.8213 0.7473
-0.7275 0.7651 0.7473
-2.1455 1.9200 2.0383
-2.2926 1.7407 2.0383
-2.4249 1.5503 2.0383
-2.5416 1.3500 2.0383
-2.6418 1.1409 2.0383
-2.7250 0.9246 2.0383
-2.7905 0.7022 2.0383
-2.8381 0.4753 2.0383
-2.8673 0.2453 2.0383
-2.8781 0.0137 2.0383
-2.8703 -0.2180 2.0383
-2.8439 -0.4484 2.0383
-2.7992 -0.6759 2.0383
-2.7363 -0.8992 2.0383
-2.6558 -1.1168 2.0383
-2.5581 -1.3272 2.0383
-2.4438 -1.5292 2.0383
-2.3137 -1.7214 2.0383
-2.1685 -1.9026 2.0383
-0.7328 -0.7556 0.7434
-0.6697 -0.8120 0.7431
-0.6022 -0.8633 0.7428
-0.5309 -0.9089 0.7425
-0.4561 -0.9487 0.7422
-0.3784 -0.9823 0.7419
-0.2983 -1.0097 0.7416
-0.2163 -1.0305 0.7414
-0.1328 -1.0446 0.7411
-0.0485 -1.0520 0.7409
0.0362 -1.0527 0.7407
0.1206 -1.0465 0.7405
0.2043 -1.0337 0.7403
0.2866 -1.0141 0.7402
0.3672 -0.9880 0.7400
0.4454 -0.9555 0.7399
0.5207 -0.9169 0.7398
0.5927 -0.8724 0.7398
0.6610 -0.8222 0.7397
0.7250 -0.7667 0.7397
0.7843 -0.7062 0.7397
2.3107 -1.7667 2.0383
2.4453 -1.5759 2.0383
2.5641 -1.3748 2.0383
2.6663 -1.1648 2.0383
2.7513 -0.9473 2.0383
2.8184 -0.7236 2.0383
2.8672 -0.4952 2.0383
2.8975 -0.2636 2.0383
2.9091 -0.0304 2.0383
2.9017 0.2030 2.0383
2.8756 0.4350 2.0383
2.8309 0.6641 2.0383
2.7678 0.8889 2.0383
2.6869 1.1078 2.0383
2.5886 1.3194 2.0383
2.4735 1.5224 2.0383
2.3426 1.7154 2.0383
2.1966 1.8972 2.0383
0.7429 0.7539 0.7435
0.6799 0.8111 0.7439
0.6126 0.8630 0.7442
0.5413 0.9094 0.7445
0.4665 0.9499 0.7447
0.3887 0.9843 0.7450
0.3083 1.0122 0.7453
0.2260 1.0336 0.7456
0.1422 1.0483 0.7458
0.0574 1.0562 0.7460
-0.0277 1.0573 0.7463
-0.1126 1.0515 0.7465
-0.1967 1.0388 0.7466
-0.2796 1.0195 0.7468
-0.3606 0.9935 0.7469
-0.4392 0.9611 0.7471
-0.5150 0.9224 0.7471
-0.5874 0.8778 0.7472
-0.6560 0.8275 0.7473
-0.7203 0.7719 0.7473
-2.1274 1.9400 2.0383
-2.2762 1.7622 2.0383
-2.4103 1.5731 2.0383
-2.5288 1.3738 2.0383
-2.6310 1.1657 2.0383
-2.7162 0.9501 2.0383
-2.7838 0.7284 2.0383
-2.8335 0.5019 2.0383
-2.8649 0.2722 2.0383
-2.8778 0.0407 2.0383
-2.8721 -0.1910 2.0383
-2.8479 -0.4217 2.0383
-2.8053 -0.6496 2.0383
-2.7446 -0.8735 2.0383
-2.6661 -1.0918 2.0383
-2.5703 -1.3031 2.0383
-2.4579 -1.5062 2.0383
-2.3296 -1.6996 2.0383
-2.1862 -1.8821 2.0383
-0.7399 -0.7487 0.7434
-0.6773 -0.8057 0.7431
-0.6103 -0.8576 0.7428
-0.5394 -0.9039 0.7425
-0.4650 -0.9444 0.7422
-0.3876 -0.9787 0.7419
-0.3078 -1.0068 0.7417
-0.2259 -1.0284 0.7414
-0.1426 -1.0433 0.7412
-0.0583 -1.0515 0.7409
0.0263 -1.0530 0.7407
0.1108 -1.0476 0.7405
2.7364 -0.1719 2.0383
2.7411 0.0482 2.0383
2.7280 0.2678 2.0383
2.6973 0.4856 2.0383
2.6491 0.7003 2.0383
2.5837 0.9103 2.0383
2.5017 1.1143 2.0383
2.4035 1.3111 2.0383
2.2898 1.4992 2.0383
0.7879 0.6116 0.7431
0.7363 0.6728 0.7434
0.6800 0.7298 0.7436
0.6192 0.7820 0.7439
0.5544 0.8292 0.7442
0.4860 0.8710 0.7445
0.4144 0.9071 0.7448
0.3402 0.9374 0.7450
0.2637 0.9616 0.7453
0.1856 0.9796 0.7455
0.1063 0.9912 0.7458
0.0262 0.9964 0.7460
-0.0539 0.9951 0.7462
-0.1338 0.9874 0.7464
-0.2127 0.9733 0.7465
-0.2902 0.9528 0.7467
-0.3659 0.9262 0.7468
-0.4391 0.8936 0.7469
-0.5095 0.8552 0.7470
-0.5765 0.8112 0.7470
-0.6398 0.7621 0.7470
-0.6989 0.7079 0.7471
-0.7534 0.6493 0.7470
-2.1912 1.6000 2.0383
-2.3126 1.4182 2.0383
-2.4190 1.2273 2.0383
-2.5098 1.0285 2.0383
-2.5844 0.8231 2.0383
-2.6423 0.6124 2.0383
-2.6831 0.3977 2.0383
-2.7066 0.1804 2.0383
-2.7127 -0.0380 2.0383
-2.7012 -0.2563 2.0383
-2.6723 -0.4730 2.0383
-2.6261 -0.6867 2.0383
-2.5629 -0.8960 2.0383
-2.4832 -1.0996 2.0383
-2.3873 -1.2963 2.0383
-2.2760 -1.4846 2.0383
-2.1500 -1.6635 2.0383
-0.7333 -0.6682 0.7436
-0.6772 -0.7250 0.7433
-0.6167 -0.7772 0.7430
-0.5522 -0.8243 0.7428
-0.4842 -0.8660 0.7425
-0.4130 -0.9022 0.7422
-0.3392 -0.9325 0.7419
-0.2632 -0.9569 0.7417
-0.1855 -0.9750 0.7414
-0.1066 -0.9869 0.7412
-0.0270 -0.9924 0.7410
0.0528 -0.9916 0.7408
0.1322 -0.9843 0.7406
0.2109 -0.9707 0.7405
0.2882 -0.9508 0.7403
0.3636 -0.9248 0.7402
0.4367 -0.8928 0.7401
0.5071 -0.8550 0.7400
0.5741 -0.8118 0.7400
0.6375 -0.7633 0.7399
0.6969 -0.7098 0.7399
0.7517 -0.6518 0.7399
2.2085 -1.6239 2.0383
2.3319 -1.4417 2.0383
2.4403 -1.2502 2.0383
2.5328 -1.0506 2.0383
2.6090 -0.8441 2.0383
2.6683 -0.6321 2.0383
2.7103 -0.4161 2.0383
2.7347 -0.1974 2.0383
2.7415 0.0225 2.0383
2.7304 0.2423 2.0383
2.7017 0.4604 2.0383
2.6556 0.6755 2.0383
2.5922 0.8861 2.0383
2.5121 1.0909 2.0383
2.4158 1.2886 2.0383
2.3038 1.4778 2.0383
2.1771 1.6573 2.0383
0.7426 0.6659 0.7433
0.6868 0.7234 0.7436
0.6265 0.7762 0.7439
0.5621 0.8239 0.7442
0.4941 0.8664 0.7445
0.4229 0.9032 0.7447
0.3489 0.9342 0.7450
0.2727 0.9591 0.7453
0.1948 0.9778 0.7455
0.1155 0.9902 0.7457
0.0356 0.9961 0.7459
-0.0446 0.9956 0.7461
-0.1245 0.9886 0.7463
-0.2036 0.9752 0.7465
-0.2813 0.9555 0.7466
-0.3572 0.9296 0.7468
-0.4307 0.8977 0.7469
-0.5014 0.8599 0.7470
-0.5689 0.8166 0.7470
-0.6326 0.7680 0.7470
-0.6922 0.7145 0.7471
-0.7473 0.6563 0.7470
-2.1762 1.6205 2.0383
-2.2992 1.4399 2.0383
-2.4074 1.2500 2.0383
-2.5001 1.0520 2.0383
-2.5766 0.8473 2.0383
-2.6364 0.6372 2.0383
-2.6793 0.4229 2.0383
-2.7048 0.2058 2.0383
-2.7129 -0.0126 2.0383
-2.7034 -0.2309 2.0383
-2.6765 -0.4479 2.0383
-2.6323 -0.6620 2.0383
-2.5711 -0.8719 2.0383
-2.4933 -1.0763 2.0383
-2.3993 -1.2738 2.0383
-2.2898 -1.4632 2.0383
-2.1654 -1.6432 2.0383
-0.7395 -0.6613 0.7436
-0.6839 -0.7187 0.7434
-0.6239 -0.7713 0.7431
-0.5599 -0.8190 0.7428
-0.4923 -0.8614 0.7425
-0.4215 -0.8983 0.7422
-0.3479 -0.9293 0.7420
-0.2722 -0.9544 0.7417
-0.1946 -0.9733 0.7415
-0.1158 -0.9859 0.7412
-0.0363 -0.9921 0.7410
0.0435 -0.9920 0.7408
0.1230 -0.9855 0.7406
0.2018 -0.9726 0.7405
0.2792 -0.9534 0.7403
0.3549 -0.9281 0.7402
0.4283 -0.8968 0.7401
0.4990 -0.8597 0.7400
0.5665 -0.8171 0.7400
0.6304 -0.7692 0.7399
0.6902 -0.7163 0.7399
0.7456 -0.6588 0.7399
2.1932 -1.6444 2.0383
2.3183 -1.4634 2.0383
2.4285 -1.2729 2.0383
2.5229 -1.0742 2.0383
2.6010 -0.8684 2.0383
2.6623 -0.6571 2.0383
2.7063 -0.4414 2.0383
2.7328 -0.2230 2.0383
2.7416 -0.0031 2.0383
2.7326 0.2168 2.0383
2.7060 0.4351 2.0383
2.6618 0.6506 2.0383
2.6004 0.8619 2.0383
2.5223 1.0674 2.0383
2.4278 1.2660 2.0383
2.3176 1.4562 2.0383
2.1926 1.6370 2.0383
0.7488 0.6589 0.7433
0.6935 0.7169 0.7436
0.6337 0.7703 0.7439
0.5698 0.8186 0.7441
0.5022 0.8617 0.7444
0.4313 0.8992 0.7447
0.3577 0.9309 0.7450
0.2817 0.9565 0.7452
0.2039 0.9759 0.7455
0.1248 0.9891 0.7457
0.0449 0.9957 0.7459
-0.0353 0.9960 0.7461
-0.1152 0.9898 0.7463
-0.1944 0.9771 0.7465
-0.2723 0.9581 0.7466
-0.3484 0.9329 0.7468
-0.4223 0.9017 0.7469
-0.4934 0.8646 0.7469
-0.5612 0.8220 0.7470
-0.6254 0.7740 0.7470
-0.6855 0.7210 0.7471
-0.7411 0.6633 0.7470
-2.1609 1.6409 2.0383
-2.2857 1.4614 2.0383
-2.3956 1.2725 2.0383
-2.4901 1.0755 2.0383
-2.5685 0.8715 2.0383
-2.6303 0.6619 2.0383
-2.6752 0.4480 2.0383
-2.7027 0.2312 2.0383
-2.7128 0.0129 2.0383
-2.7054 -0.2056 2.0383
-2.6806 -0.4228 2.0383
-2.6384 -0.6373 2.0383
-2.5791 -0.8477 2.0383
-2.5032 -1.0528 2.0383
-2.4111 -1.2512 2.0383
-2.3033 -1.4415 2.0383
-2.1806 -1.6227 2.0383
-0.7457 -0.6544 0.7437
-0.6906 -0.7122 0.7434
-0.6311 -0.7655 0.7431
-0.5676 -0.8138 0.7428
-0.5003 -0.8568 0.7425
-0.4299 -0.8943 0.7423
-0.3566 -0.9260 0.7420
-0.2811 -0.9518 0.7417
-0.2037 -0.9714 0.7415
-0.1251 -0.9847 0.7413
-0.0456 -0.9917 0.7411
0.0342 -0.9923 0.7408
0.1138 -0.9865 0.7407
0.1927 -0.9744 0.7405
0.2703 -0.9560 0.7403
0.3462 -0.9314 0.7402
0.4199 -0.9008 0.7401
0.4910 -0.8643 0.7400
0.5588 -0.8223 0.7400
0.6231 -0.7750 0.7399
0.6834 -0.7227 0.7399
0.7394 -0.6657 0.7399
2.1777 -1.6648 2.0383
2.3045 -1.4850 2.0383
2.4164 -1.2956 2.0383
2.5127 -1.0977 2.0383
2.5928 -0.8927 2.0383
2.6560 -0.6819 2.0383
2.7021 -0.4667 2.0383
2.7306 -0.2485 2.0383
2.7415 -0.0287 2.0383
2.7346 0.1912 2.0383
2.7100 0.4098 2.0383
2.6679 0.6258 2.0383
2.6085 0.8375 2.0383
2.5322 1.0438 2.0383
2.4396 1.2432 2.0383
2.3313 1.4345 2.0383
2.2079 1.6164 2.0383
0.7549 0.6519 0.7433
0.7002 0.7104 0.7435
0.6409 0.7643 0.7438
0.5774 0.8133 0.7441
0.5102 0.8570 0.7444
0.4397 0.8951 0.7447
0.3664 0.9275 0.7449
0.2907 0.9538 0.7452
0.2130 0.9740 0.7454
0.1341 0.9879 0.7457
0.0542 0.9953 0.7459
-0.0260 0.9963 0.7461
-0.1060 0.9908 0.7463
-0.1853 0.9789 0.7465
-0.2633 0.9607 0.7466
-0.3397 0.9362 0.7467
-0.4138 0.9057 0.7468
-0.4852 0.8692 0.7469
-0.5535 0.8272 0.7470
-0.6181 0.7798 0.7470
-0.6787 0.7274 0.7471
-0.7349 0.6703 0.7471
-2.1455 1.6611 2.0383
-2.2719 1.4828 2.0383
-2.3836 1.2950 2.0383
-2.4799 1.0988 2.0383
-2.5602 0.8955 2.0383
-2.6240 0.6865 2.0383
-2.6708 0.4731 2.0383
-2.7004 0.2565 2.0383
-2.7126 0.0383 2.0383
-2.7072 -0.1802 2.0383
-2.6844 -0.3976 2.0383
-2.6442 -0.6125 2.0383
-2.5869 -0.8235 2.0383
-2.5129 -1.0292 2.0383
-2.4226 -1.2285 2.0383
-2.3166 -1.4198 2.0383
-2.1956 -1.6022 2.0383
-0.7518 -0.6474 0.7437
-0.6973 -0.7057 0.7434
-0.6383 -0.7595 0.7431
-0.5751 -0.8084 0.7429
-0.5083 -0.8521 0.7426
-0.4382 -0.8902 0.7423
-0.3653 -0.9226 0.7420
-0.2900 -0.9491 0.7418
-0.2128 -0.9694 0.7415
-0.1343 -0.9835 0.7413
-0.0549 -0.9912 0.7411
0.0249 -0.9926 0.7409
0.1046 -0.9875 0.7407
2.5814 -0.1622 2.0383
2.5858 0.0453 2.0383
2.5734 0.2525 2.0383
2.5445 0.4580 2.0383
2.4990 0.6604 2.0383
2.4374 0.8586 2.0383
2.3601 1.0510 2.0383
2.2675 1.2366 2.0383
0.7873 0.5153 0.7428
0.7434 0.5769 0.7431
0.6947 0.6347 0.7434
0.6415 0.6884 0.7436
0.5842 0.7376 0.7439
0.5230 0.7821 0.7442
0.4585 0.8215 0.7444
0.3910 0.8556 0.7447
0.3210 0.8842 0.7449
0.2489 0.9070 0.7452
0.1752 0.9240 0.7454
0.1003 0.9349 0.7456
0.0249 0.9398 0.7458
-0.0508 0.9386 0.7460
-0.1261 0.9314 0.7462
-0.2005 0.9180 0.7463
-0.2737 0.8988 0.7465
-0.3450 0.8737 0.7466
-0.4141 0.8429 0.7467
-0.4805 0.8067 0.7468
-0.5437 0.7652 0.7468
-0.6034 0.7188 0.7468
-0.6592 0.6678 0.7469
-0.7106 0.6124 0.7468
-0.7575 0.5531 0.7468
-2.1819 1.3381 2.0383
-2.2823 1.1580 2.0383
-2.3680 0.9704 2.0383
-2.4383 0.7766 2.0383
-2.4930 0.5778 2.0383
-2.5315 0.3752 2.0383
-2.5537 0.1702 2.0383
-2.5594 -0.0360 2.0383
-2.5485 -0.2419 2.0383
-2.5212 -0.4464 2.0383
-2.4776 -0.6480 2.0383
-2.4180 -0.8455 2.0383
-2.3427 -1.0377 2.0383
-2.2523 -1.2232 2.0383
-2.1472 -1.4009 2.0383
-0.7402 -0.5728 0.7439
-0.6917 -0.6305 0.7436
-0.6388 -0.6841 0.7433
-0.5817 -0.7333 0.7431
-0.5209 -0.7777 0.7428
-0.4567 -0.8171 0.7425
-0.3896 -0.8513 0.7423
-0.3200 -0.8799 0.7420
-0.2483 -0.9029 0.7418
-0.1749 -0.9200 0.7416
-0.1005 -0.9312 0.7413
-0.0254 -0.9364 0.7411
0.0499 -0.9356 0.7410
0.1249 -0.9287 0.7408
0.1991 -0.9159 0.7406
0.2720 -0.8971 0.7405
0.3432 -0.8726 0.7404
0.4122 -0.8424 0.7403
0.4785 -0.8068 0.7402
0.5418 -0.7659 0.7402
0.6016 -0.7202 0.7401
0.6576 -0.6697 0.7401
0.7093 -0.6150 0.7401
0.7565 -0.5562 0.7401
2.1998 -1.3600 2.0383
2.3020 -1.1793 2.0383
2.3893 -0.9910 2.0383
2.4612 -0.7962 2.0383
2.5171 -0.5963 2.0383
2.5567 -0.3926 2.0383
2.5798 -0.1863 2.0383
2.5861 0.0212 2.0383
2.5757 0.2285 2.0383
2.5487 0.4342 2.0383
2.5051 0.6371 2.0383
2.4454 0.8357 2.0383
2.3699 1.0289 2.0383
2.2790 1.2154 2.0383
0.7921 0.5080 0.7428
0.7488 0.5699 0.7431
0.7006 0.6281 0.7433
0.6479 0.6823 0.7436
0.5910 0.7321 0.7439
0.5303 0.7772 0.7441
0.4662 0.8172 0.7444
0.3990 0.8520 0.7447
0.3293 0.8812 0.7449
0.2574 0.9047 0.7452
0.1838 0.9223 0.7454
0.1091 0.9340 0.7456
0.0337 0.9396 0.7458
-0.0420 0.9391 0.7460
-0.1173 0.9325 0.7462
-0.1919 0.9199 0.7463
-0.2652 0.9013 0.7465
-0.3368 0.8769 0.7466
-0.4062 0.8468 0.7467
-0.4729 0.8112 0.7468
-0.5365 0.7703 0.7468
-0.5966 0.7245 0.7468
-0.6529 0.6740 0.7469
-0.7049 0.6191 0.7468
-0.7522 0.5602 0.7468
-2.1692 1.3586 2.0383
-2.2714 1.1794 2.0383
-2.3588 0.9926 2.0383
-2.4310 0.7995 2.0383
-2.4874 0.6012 2.0383
-2.5278 0.3989 2.0383
-2.5519 0.1941 2.0383
-2.5596 -0.0119 2.0383
-2.5506 -0.2180 2.0383
-2.5252 -0.4227 2.0383
-2.4835 -0.6247 2.0383
-2.4257 -0.8228 2.0383
-2.3523 -1.0156 2.0383
-2.2636 -1.2019 2.0383
-2.1602 -1.3806 2.0383
-0.7456 -0.5659 0.7439
-0.6976 -0.6240 0.7436
-0.6452 -0.6781 0.7434
-0.5886 -0.7278 0.7431
-0.5282 -0.7728 0.7428
-0.4644 -0.8128 0.7426
-0.3976 -0.8476 0.7423
-0.3282 -0.8769 0.7421
-0.2567 -0.9005 0.7418
-0.1835 -0.9183 0.7416
-0.1092 -0.9302 0.7414
-0.0341 -0.9361 0.7412
0.0412 -0.9360 0.7410
0.1162 -0.9298 0.7408
0.1905 -0.9177 0.7406
0.2636 -0.8996 0.7405
0.3350 -0.8757 0.7404
0.4043 -0.8462 0.7403
0.4709 -0.8112 0.7402
0.5346 -0.7710 0.7402
0.5949 -0.7257 0.7401
0.6513 -0.6758 0.7401
0.7036 -0.6216 0.7401
0.7513 -0.5633 0.7401
2.1870 -1.3804 2.0383
2.2909 -1.2008 2.0383
2.3800 -1.0133 2.0383
2.4536 -0.8192 2.0383
2.5114 -0.6198 2.0383
2.5529 -0.4165 2.0383
2.5779 -0.2104 2.0383
2.5862 -0.0030 2.0383
2.5778 0.2044 2.0383
2.5527 0.4104 2.0383
2.5111 0.6136 2.0383
2.4532 0.8129 2.0383
2.3795 1.0068 2.0383
2.2904 1.1941 2.0383
2.1865 1.3735 2.0383
0.7541 0.5629 0.7430
0.7065 0.6216 0.7433
0.6543 0.6763 0.7436
0.5979 0.7266 0.7438
0.5376 0.7722 0.7441
0.4738 0.8128 0.7444
0.4070 0.8482 0.7446
0.3375 0.8781 0.7449
0.2658 0.9022 0.7451
0.1925 0.9206 0.7454
0.1178 0.9329 0.7456
0.0425 0.9392 0.7458
-0.0332 0.9395 0.7460
-0.1086 0.9336 0.7462
-0.1833 0.9217 0.7463
-0.2568 0.9038 0.7464
-0.3286 0.8800 0.7466
-0.3982 0.8505 0.7467
-0.4653 0.8156 0.7467
-0.5293 0.7753 0.7468
-0.5898 0.7301 0.7468
-0.6465 0.6801 0.7469
-0.6990 0.6257 0.7468
-0.7470 0.5673 0.7468
-2.1564 1.3789 2.0383
-2.2602 1.2007 2.0383
-2.3494 1.0147 2.0383
-2.4233 0.8222 2.0383
-2.4817 0.6245 2.0383
-2.5240 0.4226 2.0383
-2.5500 0.2181 2.0383
-2.5595 0.0121 2.0383
-2.5525 -0.1941 2.0383
-2.5290 -0.3990 2.0383
-2.4892 -0.6014 2.0383
-2.4333 -0.8000 2.0383
-2.3616 -0.9934 2.0383
-2.2747 -1.1806 2.0383
-2.1730 -1.3602 2.0383
-0.7508 -0.5589 0.7439
-0.7034 -0.6174 0.7437
-0.6515 -0.6720 0.7434
-0.5954 -0.7223 0.7431
-0.5354 -0.7678 0.7429
-0.4720 -0.8084 0.7426
-0.4055 -0.8438 0.7423
-0.3364 -0.8737 0.7421
-0.2651 -0.8981 0.7418
-0.1921 -0.9166 0.7416
-0.1179 -0.9292 0.7414
-0.0429 -0.9358 0.7412
0.0324 -0.9363 0.7410
0.1075 -0.9309 0.7408
0.1819 -0.9194 0.7407
0.2551 -0.9020 0.7405
0.3268 -0.8788 0.7404
0.3963 -0.8499 0.7403
0.4633 -0.8155 0.7402
0.5274 -0.7759 0.7402
0.5880 -0.7313 0.7401
0.6449 -0.6819 0.7401
0.6977 -0.6281 0.7401
0.7460 -0.5702 0.7401
2.1740 -1.4008 2.0383
2.2795 -1.2221 2.0383
2.3704 -1.0355 2.0383
2.4459 -0.8421 2.0383
2.5055 -0.6433 2.0383
2.5490 -0.4403 2.0383
2.5759 -0.2345 2.0383
2.5861 -0.0272 2.0383
2.5797 0.1803 2.0383
2.5565 0.3865 2.0383
2.5167 0.5902 2.0383
2.4607 0.7899 2.0383
2.3888 0.9845 2.0383
2.3015 1.1727 2.0383
2.1993 1.3531 2.0383
0.7593 0.5558 0.7430
0.7122 0.6149 0.7433
0.6606 0.6701 0.7435
0.6047 0.7210 0.7438
0.5448 0.7671 0.7441
0.4814 0.8084 0.7443
0.4149 0.8443 0.7446
0.3457 0.8749 0.7449
0.2743 0.8997 0.7451
0.2011 0.9187 0.7453
0.1266 0.9318 0.7456
0.0513 0.9388 0.7458
-0.0244 0.9397 0.7460
-0.0998 0.9346 0.7461
-0.1746 0.9234 0.7463
-0.2483 0.9062 0.7464
-0.3203 0.8831 0.7466
-0.3902 0.8543 0.7467
-0.4576 0.8199 0.7467
-0.5220 0.7803 0.7468
-0.5830 0.7356 0.7468
-0.6402 0.6861 0.7469
-0.6932 0.6322 0.7468
-0.7416 0.5743 0.7468
-2.1434 1.3991 2.0383
-2.2489 1.2218 2.0383
-2.3398 1.0367 2.0383
-2.4155 0.8450 2.0383
-2.4757 0.6477 2.0383
-2.5199 0.4463 2.0383
-2.5478 0.2420 2.0383
-2.5593 0.0361 2.0383
-2.5542 -0.1701 2.0383
-2.5326 -0.3752 2.0383
-2.4947 -0.5780 2.0383
-2.4406 -0.7771 2.0383
-2.3708 -0.9712 2.0383
-2.2856 -1.1592 2.0383
-2.1855 -1.3398 2.0383
-0.7560 -0.5518 0.7440
-0.7092 -0.6108 0.7437
-0.6578 -0.6659 0.7434
-0.6021 -0.7166 0.7432
-0.5426 -0.7628 0.7429
-0.4795 -0.8040 0.7426
-0.4134 -0.8400 0.7424
-0.3445 -0.8706 0.7421
-0.2735 -0.8955 0.7419
-0.2007 -0.9147 0.7416
-0.1266 -0.9280 0.7414
-0.0517 -0.9353 0.7412
0.0236 -0.9366 0.7410
0.0988 -0.9318 0.7408
2.4370 -0.1532 2.0383
2.4412 0.0427 2.0383
2.4295 0.2383 2.0383
2.4022 0.4322 2.0383
2.3593 0.6234 2.0383
2.3012 0.8104 2.0383
2.2282 0.9921 2.0383
0.7800 0.4253 0.7426
0.7433 0.4865 0.7429
0.7019 0.5446 0.7431
0.6559 0.5991 0.7434
0.6057 0.6498 0.7436
0.5516 0.6963 0.7439
0.4939 0.7383 0.7441
0.4330 0.7755 0.7444
0.3692 0.8077 0.7446
0.3031 0.8347 0.7449
0.2351 0.8562 0.7451
0.1655 0.8722 0.7453
0.0948 0.8826 0.7455
0.0236 0.8872 0.7457
-0.0478 0.8861 0.7459
-0.1189 0.8792 0.7460
-0.1892 0.8666 0.7462
-0.2582 0.8484 0.7463
-0.3256 0.8247 0.7464
-0.3908 0.7957 0.7465
-0.4535 0.7615 0.7466
-0.5132 0.7224 0.7466
-0.5695 0.6786 0.7467
-0.6222 0.6304 0.7467
-0.6708 0.5781 0.7467
-0.7150 0.5222 0.7466
-0.7545 0.4628 0.7466
-2.1549 1.0934 2.0383
-2.2358 0.9163 2.0383
-2.3023 0.7333 2.0383
-2.3538 0.5455 2.0383
-2.3902 0.3542 2.0383
-2.4112 0.1606 2.0383
-2.4165 -0.0340 2.0383
-2.4063 -0.2285 2.0383
-2.3805 -0.4216 2.0383
-2.3393 -0.6120 2.0383
-2.2830 -0.7985 2.0383
-2.2119 -0.9799 2.0383
-0.7766 -0.4218 0.7444
-0.7401 -0.4829 0.7441
-0.6988 -0.5409 0.7439
-0.6530 -0.5954 0.7436
-0.6031 -0.6460 0.7433
-0.5492 -0.6924 0.7431
-0.4918 -0.7344 0.7428
-0.4312 -0.7716 0.7426
-0.3678 -0.8038 0.7423
-0.3020 -0.8309 0.7421
-0.2343 -0.8526 0.7419
-0.1651 -0.8688 0.7417
-0.0948 -0.8794 0.7415
-0.0239 -0.8843 0.7413
0.0472 -0.8835 0.7411
0.1180 -0.8770 0.7409
0.1881 -0.8649 0.7408
0.2569 -0.8471 0.7407
0.3241 -0.8240 0.7406
0.3893 -0.7955 0.7405
0.4519 -0.7618 0.7404
0.5117 -0.7233 0.7403
0.5682 -0.6800 0.7403
0.6210 -0.6324 0.7403
0.6699 -0.5807 0.7403
0.7144 -0.5252 0.7403
0.7544 -0.4663 0.7404
2.1733 -1.1133 2.0383
2.2557 -0.9355 2.0383
2.3235 -0.7517 2.0383
2.3763 -0.5630 2.0383
2.4137 -0.3707 2.0383
2.4355 -0.1759 2.0383
2.4415 0.0199 2.0383
2.4317 0.2156 2.0383
2.4062 0.4098 2.0383
2.3651 0.6013 2.0383
2.3087 0.7889 2.0383
2.2374 0.9712 2.0383
0.7839 0.4180 0.7426
0.7479 0.4795 0.7428
0.7070 0.5380 0.7431
0.6615 0.5930 0.7433
0.6118 0.6441 0.7436
