ply
format ascii 1.0
element vertex 2174
property float32 x
property float32 y
property float32 z
end_header
-2.3302 6.0571 2.0386
-2.8094 5.8496 2.0386
-3.2703 5.6042 2.0386
-3.7099 5.3227 2.0386
-4.1256 5.0068 2.0386
-4.5145 4.6587 2.0386
-4.8741 4.2804 2.0386
-5.2023 3.8745 2.0386
-5.4968 3.4435 2.0386
-5.7557 2.9904 2.0386
-5.9775 2.5179 2.0386
-6.1606 2.0292 2.0386
-6.3039 1.5273 2.0386
-6.4064 1.0156 2.0386
-6.4676 0.4972 2.0386
-6.4869 -0.0244 2.0386
-6.4643 -0.5459 2.0386
-6.3999 -1.0639 2.0386
-6.2942 -1.5751 2.0386
-6.1477 -2.0763 2.0386
-5.9614 -2.5641 2.0386
-5.7366 -3.0353 2.0386
-5.4746 -3.4871 2.0386
-5.1771 -3.9164 2.0386
-4.8461 -4.3205 2.0386
-4.4837 -4.6967 2.0386
-4.0921 -5.0426 2.0386
-3.6740 -5.3560 2.0386
-3.2320 -5.6348 2.0386
-2.7689 -5.8773 2.0386
-2.2878 -6.0817 2.0386
-1.7918 -6.2468 2.0386
-1.2840 -6.3715 2.0386
-0.7678 -6.4550 2.0386
-0.2465 -6.4967 2.0386
0.2766 -6.4964 2.0386
0.5826 -4.7118 1.4883
0.8336 -4.0396 1.2929
1.1682 -4.0027 1.3068
1.5124 -3.9648 1.3298
1.8715 -3.9253 1.3626
2.2513 -3.8835 1.4064
2.6591 -3.8387 1.4630
4.1237 -5.0344 2.0386
4.5153 -4.6869 2.0386
4.8777 -4.3091 2.0386
5.2085 -3.9033 2.0386
5.3299 -3.3613 1.9736
5.3358 -2.7931 1.8862
5.5431 -2.3549 1.8862
5.7144 -1.9018 1.8862
5.8487 -1.4363 1.8862
5.9451 -0.9615 1.8862
6.0029 -0.4806 1.8862
6.0218 0.0035 1.8862
6.0017 0.4875 1.8862
5.9427 0.9682 1.8862
5.8452 1.4426 1.8862
5.7098 1.9077 1.8862
5.5375 2.3602 1.8862
5.3293 2.7974 1.8862
4.7469 3.0015 1.7602
4.8111 3.6144 1.8862
4.5413 4.0216 1.9017
4.4537 4.6340 2.0152
4.1135 5.0343 2.0386
3.6950 5.3479 2.0386
3.2527 5.6268 2.0386
2.7895 5.8693 2.0386
2.3083 6.0737 2.0386
1.8123 6.2387 2.0386
1.3048 6.3633 2.0386
0.7889 6.4467 2.0386
0.2680 6.4883 2.0386
-0.2544 6.4880 2.0386
-0.7751 6.4457 2.0386
-1.2906 6.3618 2.0386
-1.7977 6.2367 2.0386
-2.2931 6.0713 2.0386
-2.7735 5.8667 2.0386
-3.2359 5.6242 2.0386
-3.6773 5.3454 2.0386
-4.0948 5.0321 2.0386
-4.4858 4.6863 2.0386
-4.8478 4.3102 2.0386
-5.1784 3.9063 2.0386
-5.4756 3.4771 2.0386
-5.7373 3.0256 2.0386
-5.9619 2.5545 2.0386
-6.1480 2.0669 2.0386
-6.2944 1.5659 2.0386
-6.4000 1.0548 2.0386
-6.4644 0.5369 2.0386
-6.4869 0.0154 2.0386
-6.4675 -0.5062 2.0386
-6.4063 -1.0247 2.0386
-6.3037 -1.5365 2.0386
-6.1603 -2.0385 2.0386
-5.9770 -2.5274 2.0386
-5.7550 -3.0001 2.0386
-5.4958 -3.4534 2.0386
-5.2010 -3.8846 2.0386
-4.8725 -4.2906 2.0386
-4.5124 -4.6691 2.0386
-4.1229 -5.0174 2.0386
-3.7067 -5.3333 2.0386
-3.2665 -5.6149 2.0386
-2.8049 -5.8601 2.0386
-2.3251 -6.0675 2.0386
-1.8301 -6.2356 2.0386
-1.3230 -6.3635 2.0386
-0.8074 -6.4501 2.0386
-0.2863 -6.4950 2.0386
0.2368 -6.4979 2.0386
0.5589 -4.7601 1.5025
0.8083 -4.0424 1.2922
1.1424 -4.0055 1.3055
1.4857 -3.9677 1.3277
1.8435 -3.9284 1.3597
2.2214 -3.8868 1.4027
2.6269 -3.8422 1.4582
4.0927 -5.0595 2.0386
4.4865 -4.7145 2.0386
4.8512 -4.3389 2.0386
5.1844 -3.9351 2.0386
5.3335 -3.4095 1.9826
5.3187 -2.8262 1.8862
5.5285 -2.3888 1.8862
5.7027 -1.9367 1.8862
5.8398 -1.4721 1.8862
5.9391 -0.9980 1.8862
5.9999 -0.5174 1.8862
6.0218 -0.0334 1.8862
6.0046 0.4507 1.8862
5.9486 0.9318 1.8862
5.8540 1.4068 1.8862
5.7215 1.8726 1.8862
5.5519 2.3262 1.8862
5.3464 2.7647 1.8862
4.7740 2.9778 1.7635
4.8332 3.5848 1.8862
4.5516 3.9811 1.8957
4.4608 4.5848 2.0056
4.1444 5.0090 2.0386
3.7278 5.3252 2.0386
3.2872 5.6069 2.0386
2.8255 5.8521 2.0386
2.3455 6.0595 2.0386
1.8506 6.2275 2.0386
1.3438 6.3552 2.0386
0.8284 6.4418 2.0386
0.3078 6.4867 2.0386
-0.2146 6.4895 2.0386
-0.7356 6.4504 2.0386
-1.2516 6.3697 2.0386
-1.7594 6.2477 2.0386
-2.2558 6.0853 2.0386
-2.7375 5.8837 2.0386
-3.2013 5.6440 2.0386
-3.6444 5.3679 2.0386
-4.0639 5.0571 2.0386
-4.4570 4.7137 2.0386
-4.8213 4.3399 2.0386
-5.1544 3.9380 2.0386
-5.4541 3.5107 2.0386
-5.7186 3.0608 2.0386
-5.9461 2.5911 2.0386
-6.1352 2.1046 2.0386
-6.2846 1.6045 2.0386
-6.3934 1.0941 2.0386
-6.4609 0.5765 2.0386
-6.4867 0.0552 2.0386
-6.4705 -0.4666 2.0386
-6.4124 -0.9853 2.0386
-6.3129 -1.4978 2.0386
-6.1726 -2.0007 2.0386
-5.9923 -2.4907 2.0386
-5.7733 -2.9647 2.0386
-5.5169 -3.4196 2.0386
-5.2247 -3.8526 2.0386
-4.8987 -4.2606 2.0386
-4.5409 -4.6413 2.0386
-4.1536 -4.9920 2.0386
-3.7393 -5.3105 2.0386
-3.3008 -5.5947 2.0386
-2.8408 -5.8427 2.0386
-2.3622 -6.0530 2.0386
-1.8682 -6.2242 2.0386
-1.3620 -6.3552 2.0386
-0.8469 -6.4450 2.0386
-0.3261 -6.4931 2.0386
0.1969 -6.4992 2.0386
0.5384 -4.8408 1.5269
0.7831 -4.0451 1.2915
1.1167 -4.0084 1.3041
1.4591 -3.9707 1.3257
1.8156 -3.9314 1.3569
2.1918 -3.8901 1.3990
2.5948 -3.8458 1.4535
4.0616 -5.0845 2.0386
4.4575 -4.7419 2.0386
4.8244 -4.3686 2.0386
5.1602 -3.9668 2.0386
5.3370 -3.4580 1.9918
5.3033 -2.8592 1.8870
5.5138 -2.4227 1.8862
5.6907 -1.9717 1.8862
5.8307 -1.5079 1.8862
5.9329 -1.0344 1.8862
5.9966 -0.5541 1.8862
6.0215 -0.0704 1.8862
6.0073 0.4138 1.8862
5.9542 0.8953 1.8862
5.8625 1.3709 1.8862
5.7329 1.8375 1.8862
5.5661 2.2921 1.8862
5.3633 2.7318 1.8862
4.8230 2.9674 1.7748
4.6904 3.4345 1.8222
4.5618 3.9412 1.8899
4.4678 4.5361 1.9962
4.1751 4.9835 2.0386
3.7604 5.3023 2.0386
3.3216 5.5867 2.0386
2.8613 5.8348 2.0386
2.3827 6.0450 2.0386
1.8887 6.2161 2.0386
1.3827 6.3470 2.0386
0.8679 6.4366 2.0386
0.3476 6.4847 2.0386
-0.1748 6.4908 2.0386
-0.6960 6.4549 2.0386
-1.2125 6.3773 2.0386
-1.7211 6.2584 2.0386
-2.2184 6.0991 2.0386
-2.7013 5.9004 2.0386
-3.1667 5.6636 2.0386
-3.6114 5.3902 2.0386
-4.0328 5.0820 2.0386
-4.4281 4.7410 2.0386
-4.7946 4.3694 2.0386
-5.1302 3.9696 2.0386
-5.4325 3.5441 2.0386
-5.6997 3.0958 2.0386
-5.9301 2.6275 2.0386
-6.1222 2.1422 2.0386
-6.2747 1.6430 2.0386
-6.3866 1.1333 2.0386
-6.4572 0.6161 2.0386
-6.4862 0.0950 2.0386
-6.4732 -0.4268 2.0386
-6.4183 -0.9460 2.0386
-6.3220 -1.4591 2.0386
-6.1847 -1.9628 2.0386
-6.0075 -2.4539 2.0386
-5.7913 -2.9292 2.0386
-5.5377 -3.3857 2.0386
-5.2482 -3.8204 2.0386
-4.9247 -4.2305 2.0386
-4.5693 -4.6126 2.0386
-4.1841 -4.9664 2.0386
-3.7718 -5.2874 2.0386
-3.3350 -5.5742 2.0386
-2.8765 -5.8251 2.0386
-2.3993 -6.0384 2.0386
-1.9064 -6.2126 2.0386
-1.4010 -6.3466 2.0386
-0.8864 -6.4396 2.0386
-0.3659 -6.4909 2.0386
0.1571 -6.5002 2.0386
0.6791 -6.4674 2.0386
0.7579 -4.0479 1.2909
1.0910 -4.0112 1.3029
1.4326 -3.9736 1.3237
1.7878 -3.9345 1.3542
2.1623 -3.8933 1.3954
2.5630 -3.8493 1.4488
4.0304 -5.1093 2.0386
4.4283 -4.7691 2.0386
4.7976 -4.3980 2.0386
5.1358 -3.9984 2.0386
5.3406 -3.5070 2.0011
5.3020 -2.9005 1.8928
5.4988 -2.4565 1.8862
5.6785 -2.0065 1.8862
5.8213 -1.5436 1.8862
5.9264 -1.0707 1.8862
5.9931 -0.5909 1.8862
6.0209 -0.1073 1.8862
6.0098 0.3770 1.8862
5.9596 0.8588 1.8862
5.8709 1.3349 1.8862
5.7441 1.8023 1.8862
5.5801 2.2580 1.8862
5.3800 2.6989 1.8862
4.8956 2.9709 1.7948
4.6936 3.3928 1.8153
4.5772 3.9054 1.8862
-5.8332 0.8880 2.0386
-5.8859 0.4162 2.0386
-5.9006 -0.0584 2.0386
-5.8771 -0.5327 2.0386
-5.8156 -1.0035 2.0386
-5.7165 -1.4680 2.0386
-5.5804 -1.9230 2.0386
-5.4082 -2.3656 2.0386
-5.2011 -2.7930 2.0386
-4.9602 -3.2025 2.0386
-4.6875 -3.5885 2.0386
-4.3838 -3.9569 2.0386
-4.0520 -4.2971 2.0386
-3.6939 -4.6095 2.0386
-3.3118 -4.8922 2.0386
-2.9081 -5.1432 2.0386
-2.4856 -5.3611 2.0386
-0.7427 -2.0118 0.7397
-1.5947 -5.6916 2.0386
-1.1322 -5.8022 2.0386
-0.6622 -5.8751 2.0386
-0.1878 -5.9101 2.0386
0.2879 -5.9068 2.0386
0.5978 -4.6025 1.5997
0.8589 -4.0371 1.4225
1.1942 -4.0002 1.4386
0.7768 -1.9993 0.7391
1.8998 -3.9225 1.5016
2.2815 -3.8806 1.5508
2.6919 -3.8355 1.6142
3.7783 -4.5553 2.0386
4.1325 -4.2372 2.0386
4.4599 -3.8915 2.0386
4.7584 -3.5206 2.0386
5.0261 -3.1268 2.0386
5.2476 -2.7057 2.0333
5.2066 -2.1744 1.9432
5.2074 -1.6982 1.8862
5.3268 -1.2736 1.8862
5.4118 -0.8413 1.8862
5.4617 -0.4036 1.8862
5.4763 0.0367 1.8862
5.4553 0.4767 1.8862
5.3990 0.9136 1.8862
5.3077 1.3445 1.8862
5.1821 1.7666 1.8862
5.0228 2.1773 1.8862
4.8311 2.5737 1.8862
4.6536 2.9825 1.9049
4.5838 3.4876 1.9852
4.4036 3.9479 2.0386
4.0715 4.2886 2.0386
3.7132 4.6014 2.0386
3.3308 4.8844 2.0386
2.9270 5.1357 2.0386
2.5044 5.3536 2.0386
2.0656 5.5369 2.0386
1.6136 5.6843 2.0386
1.1513 5.7949 2.0386
0.6816 5.8679 2.0386
0.2077 5.9030 2.0386
-0.2675 5.8998 2.0386
-0.7409 5.8585 2.0386
-1.2094 5.7794 2.0386
-1.6699 5.6628 2.0386
-2.1196 5.5097 2.0386
-2.5554 5.3209 2.0386
-2.9747 5.0978 2.0386
-3.3747 4.8418 2.0386
-3.7528 4.5545 2.0386
-4.1065 4.2377 2.0386
-4.4337 3.8937 2.0386
-4.7323 3.5244 2.0386
-5.0002 3.1324 2.0386
-5.2357 2.7202 2.0386
-5.4374 2.2904 2.0386
-5.6040 1.8458 2.0386
-5.7343 1.3893 2.0386
-5.8276 0.9238 2.0386
-5.8832 0.4523 2.0386
-5.9008 -0.0222 2.0386
-5.8802 -0.4966 2.0386
-5.8216 -0.9678 2.0386
-5.7254 -1.4328 2.0386
-5.5921 -1.8887 2.0386
-5.4226 -2.3324 2.0386
-5.2181 -2.7611 2.0386
-4.9797 -3.1720 2.0386
-4.7091 -3.5625 2.0386
-4.4079 -3.9299 2.0386
-4.0782 -4.2721 2.0386
-3.7220 -4.5867 2.0386
-3.3417 -4.8717 2.0386
-2.9396 -5.1252 2.0386
-2.5184 -5.3457 2.0386
-0.7551 -2.0072 0.7398
-1.6296 -5.6817 2.0386
-1.1677 -5.7950 2.0386
-0.6982 -5.8709 2.0386
-0.2241 -5.9088 2.0386
0.2517 -5.9084 2.0386
0.5730 -4.6335 1.6093
0.8337 -4.0399 1.4217
1.1683 -4.0030 1.4370
0.7645 -2.0040 0.7391
1.8717 -3.9256 1.4984
2.2515 -3.8839 1.5466
2.6594 -3.8391 1.6088
3.7503 -4.5784 2.0386
4.1064 -4.2624 2.0386
4.4359 -3.9188 2.0386
4.7367 -3.5497 2.0386
5.0069 -3.1574 2.0386
5.2446 -2.7450 2.0386
5.2097 -2.2133 1.9494
5.1968 -1.7296 1.8862
5.3189 -1.3062 1.8862
5.4066 -0.8744 1.8862
5.4592 -0.4371 1.8862
5.4764 0.0031 1.8862
5.4582 0.4433 1.8862
5.4045 0.8805 1.8862
5.3159 1.3120 1.8862
5.1928 1.7349 1.8862
5.0361 2.1464 1.8862
4.8468 2.5440 1.8862
4.6597 2.9471 1.8999
4.5894 3.4477 1.9784
4.4278 3.9209 2.0386
4.0978 4.2635 2.0386
3.7413 4.5786 2.0386
3.3607 4.8639 2.0386
2.9585 5.1177 2.0386
2.5372 5.3382 2.0386
2.0996 5.5242 2.0386
1.6485 5.6744 2.0386
1.1868 5.7878 2.0386
0.7176 5.8637 2.0386
0.2439 5.9017 2.0386
-0.2313 5.9014 2.0386
-0.7050 5.8630 2.0386
-1.1739 5.7867 2.0386
-1.6351 5.6730 2.0386
-2.0857 5.5226 2.0386
-2.5228 5.3365 2.0386
-2.9434 5.1160 2.0386
-3.3449 4.8624 2.0386
-3.7248 4.5774 2.0386
-4.0805 4.2629 2.0386
-4.4098 3.9208 2.0386
-4.7106 3.5534 2.0386
-4.9809 3.1631 2.0386
-5.2189 2.7523 2.0386
-5.4233 2.3237 2.0386
-5.5926 1.8802 2.0386
-5.7257 1.4245 2.0386
-5.8218 0.9595 2.0386
-5.8803 0.4883 2.0386
-5.9008 0.0140 2.0386
-5.8831 -0.4605 2.0386
-5.8274 -0.9321 2.0386
-5.7340 -1.3977 2.0386
-5.6035 -1.8543 2.0386
-5.4368 -2.2991 2.0386
-5.2348 -2.7290 2.0386
-4.9990 -3.1413 2.0386
-4.7308 -3.5335 2.0386
-4.4319 -3.9028 2.0386
-4.1043 -4.2470 2.0386
-3.7500 -4.5638 2.0386
-3.3714 -4.8511 2.0386
-2.9709 -5.1071 2.0386
-2.5511 -5.3301 2.0386
-0.7674 -2.0026 0.7398
-1.6644 -5.6715 2.0386
-1.2033 -5.7877 2.0386
-0.7342 -5.8665 2.0386
-0.2603 -5.9072 2.0386
0.2154 -5.9098 2.0386
0.5487 -4.6722 1.6215
0.8084 -4.0427 1.4209
1.1425 -4.0059 1.4355
0.7522 -2.0086 0.7391
1.8437 -3.9287 1.4953
2.2217 -3.8872 1.5425
2.6272 -3.8426 1.6035
3.7221 -4.6013 2.0386
4.0802 -4.2875 2.0386
4.4118 -3.9459 2.0386
4.7149 -3.5787 2.0386
4.9874 -3.1883 2.0386
5.2276 -2.7771 2.0386
5.2128 -2.2524 1.9557
5.1861 -1.7613 1.8862
5.3108 -1.3388 1.8862
5.4011 -0.9076 1.8862
5.4564 -0.4705 1.8862
5.4764 -0.0304 1.8862
5.4608 0.4098 1.8862
5.4099 0.8474 1.8862
5.3239 1.2793 1.8862
5.2034 1.7030 1.8862
5.0492 2.1155 1.8862
4.8703 2.5180 1.8893
4.6677 2.9114 1.8958
4.5949 3.4080 1.9717
4.4518 3.8937 2.0386
4.1239 4.2385 2.0386
3.7694 4.5557 2.0386
3.3906 4.8433 2.0386
2.9899 5.0995 2.0386
2.5699 5.3226 2.0386
2.1334 5.5113 2.0386
1.6833 5.6642 2.0386
1.2223 5.7804 2.0386
0.7536 5.8592 2.0386
0.2801 5.9001 2.0386
-0.1951 5.9028 2.0386
-0.6690 5.8673 2.0386
-1.1384 5.7939 2.0386
-1.6003 5.6830 2.0386
-2.0518 5.5353 2.0386
-2.4900 5.3520 2.0386
-2.9120 5.1340 2.0386
-3.3151 4.8829 2.0386
-3.6966 4.6002 2.0386
-4.0543 4.2878 2.0386
-4.3857 3.9478 2.0386
-4.6887 3.5822 2.0386
-4.9614 3.1936 2.0386
-5.2020 2.7844 2.0386
-5.4089 2.3570 2.0386
-5.5809 1.9144 2.0386
-5.7169 1.4596 2.0386
-5.8158 0.9952 2.0386
-5.8772 0.5244 2.0386
-5.9006 0.0502 2.0386
-5.8858 -0.4244 2.0386
-5.8330 -0.8963 2.0386
-5.7425 -1.3625 2.0386
-5.6148 -1.8199 2.0386
-5.4507 -2.2657 2.0386
-5.2514 -2.6968 2.0386
-5.0181 -3.1106 2.0386
-4.7523 -3.5043 2.0386
-4.4557 -3.8755 2.0386
-4.1302 -4.2217 2.0386
-3.7779 -4.5406 2.0386
-3.4011 -4.8303 2.0386
-3.0022 -5.0887 2.0386
-2.5837 -5.3143 2.0386
-0.7796 -1.9979 0.7398
-1.6991 -5.6611 2.0386
-1.2387 -5.7802 2.0386
-0.7702 -5.8618 2.0386
-0.2965 -5.9055 2.0386
0.1792 -5.9109 2.0386
0.5255 -4.7247 1.6386
0.7832 -4.0455 1.4202
1.1168 -4.0087 1.4341
0.7398 -2.0132 0.7391
1.8158 -3.9318 1.4922
2.1920 -3.8904 1.5384
2.5951 -3.8461 1.5984
3.6938 -4.6240 2.0386
4.0538 -4.3124 2.0386
4.3875 -3.9729 2.0386
4.6928 -3.6075 2.0386
4.9678 -3.2188 2.0386
5.2105 -2.8091 2.0386
5.2159 -2.2918 1.9621
5.1851 -1.7965 1.8898
5.3025 -1.3713 1.8862
5.3955 -0.9407 1.8862
5.4535 -0.5040 1.8862
5.4761 -0.0640 1.8862
5.4632 0.3763 1.8862
5.4150 0.8142 1.8862
5.3316 1.2467 1.8862
5.2138 1.6711 1.8862
5.0621 2.0845 1.8862
4.8778 2.4844 1.8862
4.6755 2.8766 1.8918
4.6004 3.3686 1.9652
4.4756 3.8664 2.0386
4.1499 4.2130 2.0386
3.7973 4.5325 2.0386
3.4202 4.8225 2.0386
3.0211 5.0811 2.0386
2.6025 5.3069 2.0386
2.1672 5.4981 2.0386
1.7180 5.6538 2.0386
1.2578 5.7729 2.0386
0.7895 5.8545 2.0386
0.3162 5.8983 2.0386
-0.1589 5.9039 2.0386
-0.6330 5.8713 2.0386
-1.1028 5.8008 2.0386
-1.5655 5.6927 2.0386
-2.0179 5.5479 2.0386
-2.4571 5.3672 2.0386
-2.8804 5.1518 2.0386
-3.2851 4.9031 2.0386
-3.6684 4.6228 2.0386
-4.0279 4.3126 2.0386
-4.3614 3.9746 2.0386
-4.6666 3.6109 2.0386
-4.9417 3.2239 2.0386
-5.1848 2.8163 2.0386
-5.3944 2.3901 2.0386
-5.5691 1.9486 2.0386
-5.7078 1.4946 2.0386
-5.8096 1.0309 2.0386
-5.8739 0.5604 2.0386
-5.9001 0.0864 2.0386
-5.8883 -0.3883 2.0386
-5.8384 -0.8606 2.0386
-5.7507 -1.3273 2.0386
-5.6258 -1.7854 2.0386
-5.4645 -2.2322 2.0386
-5.2678 -2.6645 2.0386
-5.0371 -3.0797 2.0386
-4.7737 -3.4751 2.0386
-4.4794 -3.8481 2.0386
-4.1560 -4.1962 2.0386
-3.8057 -4.5173 2.0386
-3.4306 -4.8093 2.0386
-3.0333 -5.0702 2.0386
-2.6162 -5.2983 2.0386
-2.1821 -5.4922 2.0386
-1.7338 -5.6506 2.0386
-1.2741 -5.7724 2.0386
-0.8061 -5.8569 2.0386
-0.3327 -5.9035 2.0386
0.1429 -5.9119 2.0386
0.5066 -4.8238 1.6719
0.7580 -4.0482 1.4195
1.0911 -4.0115 1.4327
0.7275 -2.0176 0.7391
1.7880 -3.9348 1.4892
2.1625 -3.8937 1.5345
2.5633 -3.8496 1.5933
3.6654 -4.6465 2.0386
4.0272 -4.3372 2.0386
4.3630 -3.9996 2.0386
4.6706 -3.6362 2.0386
4.9479 -3.2494 2.0386
5.1932 -2.8410 2.0386
5.2190 -2.3314 1.9686
5.1849 -1.8321 1.8938
5.2980 -1.4049 1.8877
5.3896 -0.9738 1.8862
5.4503 -0.5374 1.8862
5.4756 -0.0976 1.8862
5.4655 0.3428 1.8862
5.4199 0.7809 1.8862
5.3392 1.2140 1.8862
5.2240 1.6391 1.8862
5.0749 2.0535 1.8862
4.8929 2.4545 1.8862
4.6833 2.8419 1.8878
4.6059 3.3294 1.9587
4.4993 3.8389 2.0386
-5.3411 0.8131 2.0386
-5.3894 0.3810 2.0386
-5.4028 -0.0535 2.0386
-5.3813 -0.4878 2.0386
-5.3250 -0.9189 2.0386
-5.2342 -1.3442 2.0386
-5.1096 -1.7608 2.0386
-4.9519 -2.1661 2.0386
-4.7621 -2.5574 2.0386
-4.5416 -2.9323 2.0386
-4.2916 -3.2883 2.0386
-4.0137 -3.6230 2.0386
-3.7099 -3.9344 2.0386
-3.3820 -4.2204 2.0386
-3.0321 -4.4792 2.0386
-2.6625 -4.7090 2.0386
-2.2756 -4.9084 2.0386
-0.6803 -1.8427 0.7401
-0.5299 -1.8912 0.7399
-0.3761 -1.9276 0.7397
-0.2199 -1.9515 0.7396
-0.0623 -1.9628 0.7395
0.0956 -1.9615 0.7395
0.2530 -1.9476 0.7394
0.4088 -1.9211 0.7394
0.5619 -1.8822 0.7394
0.7115 -1.8312 0.7394
1.9000 -3.9229 1.6404
2.2818 -3.8809 1.6942
2.6922 -3.8359 1.7634
3.4589 -4.1702 2.0386
3.7831 -3.8790 2.0386
4.0829 -3.5625 2.0386
4.3561 -3.2229 2.0386
4.6012 -2.8625 2.0386
4.8165 -2.4834 2.0386
5.0005 -2.0883 2.0386
5.1358 -1.6743 2.0321
5.0975 -1.2187 1.9717
5.0590 -0.7862 1.9261
5.0246 -0.3713 1.8955
5.0134 0.0332 1.8862
4.9941 0.4364 1.8862
4.9427 0.8358 1.8862
4.8596 1.2310 1.8865
4.7992 1.6362 1.9082
4.7463 2.0573 1.9469
4.6886 2.4977 1.9996
4.5596 2.9222 2.0386
4.3095 3.2789 2.0386
4.0316 3.6143 2.0386
3.7276 3.9262 2.0386
3.3995 4.2127 2.0386
3.0495 4.4718 2.0386
2.6799 4.7019 2.0386
2.2930 4.9015 2.0386
0.6929 1.8573 0.7469
0.5414 1.9072 0.7471
0.3864 1.9447 0.7472
0.2288 1.9696 0.7474
0.1902 5.4047 2.0386
-0.2449 5.4019 2.0386
-0.2487 1.9670 0.7476
-0.4060 1.9405 0.7476
-0.5607 1.9014 0.7476
-0.7116 1.8499 0.7476
-2.3398 4.8720 2.0386
-2.7237 4.6677 2.0386
-3.0899 4.4333 2.0386
-3.4361 4.1703 2.0386
-3.7601 3.8803 2.0386
-4.0597 3.5652 2.0386
-4.3331 3.2271 2.0386
-4.5784 2.8682 2.0386
-4.7941 2.4908 2.0386
-4.9788 2.0973 2.0386
-5.1313 1.6901 2.0386
-5.2507 1.2721 2.0386
-5.3361 0.8458 2.0386
-5.3870 0.4141 2.0386
-5.4030 -0.0204 2.0386
-5.3842 -0.4548 2.0386
-5.3305 -0.8862 2.0386
-5.2423 -1.3120 2.0386
-5.1203 -1.7294 2.0386
-4.9650 -2.1356 2.0386
-4.7777 -2.5281 2.0386
-4.5594 -2.9044 2.0386
-4.3116 -3.2618 2.0386
-4.0358 -3.5983 2.0386
-3.7339 -3.9116 2.0386
-3.4078 -4.1996 2.0386
-3.0595 -4.4605 2.0386
-2.6913 -4.6926 2.0386
-2.3057 -4.8943 2.0386
-0.6916 -1.8385 0.7401
-0.5415 -1.8880 0.7399
-0.3879 -1.9252 0.7398
-0.2319 -1.9501 0.7396
-0.0744 -1.9624 0.7395
0.0836 -1.9621 0.7395
0.2411 -1.9491 0.7394
0.3970 -1.9235 0.7394
0.5504 -1.8856 0.7394
0.7002 -1.8355 0.7394
1.8719 -3.9260 1.6369
2.2518 -3.8842 1.6896
2.6597 -3.8394 1.7576
3.4333 -4.1913 2.0386
3.7593 -3.9021 2.0386
4.0609 -3.5875 2.0386
4.3363 -3.2496 2.0386
4.5836 -2.8906 2.0386
4.8012 -2.5129 2.0386
4.9876 -2.1189 2.0386
5.1387 -1.7102 2.0374
5.1004 -1.2526 1.9758
5.0620 -0.8185 1.9291
5.0265 -0.4033 1.8971
5.0134 0.0029 1.8862
4.9968 0.4058 1.8862
4.9477 0.8060 1.8862
4.8666 1.2011 1.8862
4.8031 1.6046 1.9058
4.7505 2.0246 1.9435
4.6932 2.4633 1.9951
4.5775 2.8942 2.0386
4.3296 3.2524 2.0386
4.0537 3.5896 2.0386
3.7516 3.9033 2.0386
3.4253 4.1918 2.0386
3.0769 4.4530 2.0386
2.7087 4.6854 2.0386
2.3230 4.8874 2.0386
0.7043 1.8530 0.7469
0.5531 1.9038 0.7471
0.3983 1.9423 0.7472
0.2409 1.9681 0.7474
0.2234 5.4034 2.0386
-0.2117 5.4033 2.0386
-0.2367 1.9685 0.7476
-0.3941 1.9430 0.7476
-0.5490 1.9048 0.7476
-0.7003 1.8542 0.7476
-2.3098 4.8863 2.0386
-2.6950 4.6844 2.0386
-3.0627 4.4523 2.0386
-3.4105 4.1913 2.0386
-3.7362 3.9033 2.0386
-4.0378 3.5901 2.0386
-4.3132 3.2537 2.0386
-4.5607 2.8963 2.0386
-4.7787 2.5202 2.0386
-4.9658 2.1277 2.0386
-5.1209 1.7216 2.0386
-5.2427 1.3042 2.0386
-5.3308 0.8786 2.0386
-5.3843 0.4471 2.0386
-5.4030 0.0128 2.0386
-5.3868 -0.4217 2.0386
-5.3358 -0.8535 2.0386
-5.2502 -1.2798 2.0386
-5.1307 -1.6979 2.0386
-4.9780 -2.1051 2.0386
-4.7931 -2.4988 2.0386
-4.5771 -2.8764 2.0386
-4.3315 -3.2353 2.0386
-4.0578 -3.5735 2.0386
-3.7578 -3.8886 2.0386
-3.4334 -4.1786 2.0386
-3.0867 -4.4416 2.0386
-2.7200 -4.6759 2.0386
-2.3356 -4.8800 2.0386
-0.7028 -1.8343 0.7401
-0.5530 -1.8846 0.7399
-0.3997 -1.9228 0.7398
-0.2438 -1.9486 0.7396
-0.0864 -1.9619 0.7395
0.0716 -1.9625 0.7395
0.2291 -1.9505 0.7394
0.3852 -1.9259 0.7394
0.5388 -1.8889 0.7394
0.6890 -1.8398 0.7394
1.8439 -3.9291 1.6335
2.2219 -3.8875 1.6851
2.6275 -3.8430 1.7518
3.4075 -4.2123 2.0386
3.7353 -3.9250 2.0386
4.0388 -3.6123 2.0386
4.3163 -3.2761 2.0386
4.5658 -2.9187 2.0386
4.7857 -2.5423 2.0386
4.9746 -2.1495 2.0386
5.1312 -1.7427 2.0386
5.1034 -1.2865 1.9800
5.0650 -0.8511 1.9322
5.0281 -0.4338 1.8987
5.0134 -0.0284 1.8862
4.9992 0.3751 1.8862
4.9526 0.7757 1.8862
4.8738 1.1713 1.8862
4.8070 1.5733 1.9034
4.7546 1.9920 1.9402
4.6978 2.4291 1.9906
4.5952 2.8661 2.0386
4.3495 3.2259 2.0386
4.0757 3.5647 2.0386
3.7755 3.8803 2.0386
3.4510 4.1707 2.0386
3.1042 4.4341 2.0386
2.7374 4.6687 2.0386
2.3530 4.8731 2.0386
0.7156 1.8486 0.7469
0.5648 1.9004 0.7471
0.4102 1.9398 0.7472
0.2530 1.9666 0.7473
0.2565 5.4020 2.0386
-0.1786 5.4045 2.0386
-0.2246 1.9700 0.7476
-0.3822 1.9454 0.7476
-0.5373 1.9081 0.7476
-0.6889 1.8585 0.7476
-2.2798 4.9004 2.0386
-2.6662 4.7008 2.0386
-3.0354 4.4710 2.0386
-3.3848 4.2121 2.0386
-3.7122 3.9261 2.0386
-4.0157 3.6148 2.0386
-4.2932 3.2801 2.0386
-4.5429 2.9242 2.0386
-4.7632 2.5494 2.0386
-4.9527 2.1582 2.0386
-5.1102 1.7530 2.0386
-5.2346 1.3364 2.0386
-5.3253 0.9112 2.0386
-5.3814 0.4801 2.0386
-5.4028 0.0459 2.0386
-5.3893 -0.3887 2.0386
-5.3409 -0.8208 2.0386
-5.2580 -1.2476 2.0386
-5.1410 -1.6664 2.0386
-4.9908 -2.0745 2.0386
-4.8083 -2.4692 2.0386
-4.5946 -2.8482 2.0386
-4.3512 -3.2087 2.0386
-4.0796 -3.5485 2.0386
-3.7815 -3.8654 2.0386
-3.4590 -4.1574 2.0386
-3.1139 -4.4225 2.0386
-2.7486 -4.6591 2.0386
-2.3655 -4.8656 2.0386
-0.7141 -1.8299 0.7401
-0.5646 -1.8812 0.7399
-0.4115 -1.9203 0.7398
-0.2558 -1.9471 0.7397
-0.0984 -1.9613 0.7396
0.0595 -1.9629 0.7395
0.2171 -1.9519 0.7394
0.3733 -1.9282 0.7394
0.5272 -1.8922 0.7394
0.6777 -1.8439 0.7394
1.8160 -3.9321 1.6301
2.1923 -3.8908 1.6806
2.5954 -3.8465 1.7461
3.3816 -4.2331 2.0386
3.7111 -3.9478 2.0386
4.0166 -3.6370 2.0386
4.2961 -3.3025 2.0386
4.5478 -2.9466 2.0386
4.7700 -2.5716 2.0386
4.9613 -2.1799 2.0386
5.1204 -1.7741 2.0386
5.1063 -1.3206 1.9842
5.0679 -0.8836 1.9353
5.0296 -0.4629 1.9004
5.0132 -0.0593 1.8862
5.0014 0.3445 1.8862
4.9572 0.7453 1.8862
4.8810 1.1413 1.8862
4.8110 1.5421 1.9012
4.7588 1.9596 1.9369
4.7023 2.3950 1.9862
4.6127 2.8379 2.0386
4.3692 3.1991 2.0386
4.0975 3.5396 2.0386
3.7993 3.8571 2.0386
3.4766 4.1495 2.0386
3.1314 4.4150 2.0386
2.7660 4.6519 2.0386
2.3828 4.8586 2.0386
0.7270 1.8442 0.7469
0.5764 1.8969 0.7471
0.4221 1.9372 0.7472
0.2650 1.9650 0.7473
0.2896 5.4004 2.0386
-0.1455 5.4056 2.0386
-0.2125 1.9713 0.7476
-0.3703 1.9477 0.7476
-0.5256 1.9114 0.7476
-0.6775 1.8627 0.7476
-2.2498 4.9143 2.0386
-2.6374 4.7171 2.0386
-3.0079 4.4895 2.0386
-3.3589 4.2329 2.0386
-3.6881 3.9489 2.0386
-3.9935 3.6394 2.0386
-4.2730 3.3064 2.0386
-4.5249 2.9520 2.0386
-4.7475 2.5786 2.0386
-4.9394 2.1885 2.0386
-5.0993 1.7843 2.0386
-5.2263 1.3685 2.0386
-5.3196 0.9439 2.0386
-5.3784 0.5131 2.0386
-5.4024 0.0790 2.0386
-5.3916 -0.3556 2.0386
-5.3458 -0.7880 2.0386
-5.2655 -1.2153 2.0386
-5.1511 -1.6349 2.0386
-5.0034 -2.0439 2.0386
-4.8232 -2.4404 2.0386
-4.6120 -2.8199 2.0386
-4.3708 -3.1819 2.0386
-4.1013 -3.5234 2.0386
-3.8052 -3.8421 2.0386
-3.4843 -4.1361 2.0386
-3.1409 -4.4033 2.0386
-2.7771 -4.6421 2.0386
-2.3952 -4.8509 2.0386
-0.7253 -1.8255 0.7401
-0.5761 -1.8777 0.7399
-0.4233 -1.9178 0.7398
-0.2677 -1.9455 0.7397
-0.1105 -1.9607 0.7396
0.0475 -1.9632 0.7395
0.2052 -1.9532 0.7394
0.3615 -1.9305 0.7394
0.5156 -1.8954 0.7394
0.6663 -1.8480 0.7394
1.7882 -3.9352 1.6268
2.1628 -3.8940 1.6763
2.5636 -3.8500 1.7405
3.3556 -4.2537 2.0386
3.6868 -3.9705 2.0386
3.9942 -3.6615 2.0386
4.2757 -3.3287 2.0386
4.5296 -2.9744 2.0386
4.7541 -2.6008 2.0386
4.9478 -2.2103 2.0386
5.1095 -1.8055 2.0386
5.1092 -1.3548 1.9885
5.0708 -0.9160 1.9386
5.0319 -0.4960 1.9023
5.0127 -0.0897 1.8862
5.0034 0.3138 1.8862
4.9617 0.7149 1.8862
4.8879 1.1113 1.8862
4.8160 1.5117 1.8995
4.7629 1.9273 1.9337
4.7068 2.3611 1.9820
4.6301 2.8096 2.0386
4.3888 3.1723 2.0386
4.1192 3.5145 2.0386
-4.9175 0.7486 2.0386
-4.9619 0.3508 2.0386
-4.9742 -0.0493 2.0386
-4.9544 -0.4491 2.0386
-4.9025 -0.8460 2.0386
-4.8189 -1.2376 2.0386
-4.7041 -1.6212 2.0386
-4.5589 -1.9942 2.0386
-4.3842 -2.3545 2.0386
-4.1811 -2.6996 2.0386
-3.9509 -3.0273 2.0386
-3.6951 -3.3355 2.0386
-3.4153 -3.6222 2.0386
-3.1134 -3.8854 2.0386
-2.7913 -4.1236 2.0386
-2.4511 -4.3352 2.0386
-0.7609 -1.6414 0.7405
-0.6264 -1.6970 0.7403
-0.4880 -1.7417 0.7402
-0.3463 -1.7752 0.7400
-0.2025 -1.7972 0.7399
-0.0574 -1.8077 0.7398
0.0881 -1.8065 0.7398
0.2330 -1.7936 0.7397
0.3765 -1.7692 0.7397
0.5175 -1.7334 0.7397
0.6553 -1.6864 0.7398
1.9003 -3.9233 1.7822
2.2821 -3.8813 1.8407
2.8650 -4.0820 2.0386
3.1841 -3.8388 2.0386
3.4825 -3.5706 2.0386
3.7583 -3.2793 2.0386
4.0099 -2.9667 2.0386
4.2355 -2.6349 2.0386
4.4336 -2.2860 2.0386
4.6030 -1.9223 2.0386
4.7426 -1.5459 2.0386
4.8515 -1.1599 2.0386
4.9289 -0.7663 2.0386
4.9744 -0.3676 2.0386
4.9518 0.0331 2.0240
4.9105 0.4291 2.0148
4.8671 0.8235 2.0178
4.8211 1.2212 2.0331
4.7199 1.6090 2.0386
4.5749 1.9830 2.0386
4.4004 2.3441 2.0386
4.1974 2.6900 2.0386
3.9672 3.0183 2.0386
3.7113 3.3271 2.0386
3.4315 3.6143 2.0386
3.1296 3.8780 2.0386
2.8074 4.1166 2.0386
2.4671 4.3284 2.0386
0.7729 1.6522 0.7465
0.6377 1.7092 0.7466
0.4983 1.7551 0.7468
0.3556 1.7896 0.7469
0.2106 1.8124 0.7471
0.0642 1.8235 0.7471
-0.0826 1.8227 0.7472
-0.2289 1.8101 0.7473
-0.3736 1.7857 0.7473
-0.5159 1.7497 0.7473
-0.6548 1.7024 0.7472
-2.1541 4.4854 2.0386
-2.5075 4.2974 2.0386
-2.8447 4.0816 2.0386
-3.1635 3.8394 2.0386
-3.4618 3.5725 2.0386
-3.7376 3.2824 2.0386
-3.9893 2.9712 2.0386
-4.2152 2.6407 2.0386
-4.4138 2.2932 2.0386
-4.5839 1.9309 2.0386
-4.7243 1.5561 2.0386
-4.8341 1.1712 2.0386
-4.9128 0.7787 2.0386
-4.9596 0.3813 2.0386
-4.9744 -0.0188 2.0386
-4.9570 -0.4188 2.0386
-4.9076 -0.8159 2.0386
-4.8264 -1.2080 2.0386
-4.7140 -1.5920 2.0386
-4.5711 -1.9662 2.0386
-4.3985 -2.3276 2.0386
-4.1976 -2.6739 2.0386
-3.9694 -3.0030 2.0386
-3.7155 -3.3128 2.0386
-3.4375 -3.6011 2.0386
-3.1372 -3.8662 2.0386
-2.8165 -4.1064 2.0386
-2.4776 -4.3200 2.0386
-0.7710 -1.6367 0.7405
-0.6368 -1.6931 0.7403
-0.4986 -1.7387 0.7402
-0.3572 -1.7730 0.7401
-0.2135 -1.7959 0.7399
-0.0685 -1.8073 0.7398
0.0770 -1.8070 0.7398
0.2220 -1.7950 0.7397
0.3656 -1.7715 0.7397
0.5069 -1.7365 0.7397
0.6449 -1.6904 0.7398
0.7788 -1.6333 0.7398
2.2521 -3.8846 1.8357
2.8399 -4.0995 2.0386
3.1604 -3.8582 2.0386
3.4605 -3.5919 2.0386
3.7382 -3.3023 2.0386
3.9916 -2.9913 2.0386
4.2192 -2.6608 2.0386
4.4195 -2.3131 2.0386
4.5912 -1.9505 2.0386
4.7331 -1.5750 2.0386
4.8443 -1.1897 2.0386
4.9242 -0.7965 2.0386
4.9721 -0.3981 2.0386
4.9549 0.0028 2.0252
4.9137 0.3990 2.0151
4.8705 0.7934 2.0171
4.8247 1.1906 2.0315
4.7297 1.5800 2.0386
4.5871 1.9549 2.0386
4.4147 2.3171 2.0386
4.2138 2.6642 2.0386
3.9856 2.9940 2.0386
3.7317 3.3043 2.0386
3.4537 3.5932 2.0386
3.1533 3.8588 2.0386
2.8326 4.0993 2.0386
2.4936 4.3133 2.0386
0.7831 1.6474 0.7465
0.6482 1.7052 0.7466
0.5090 1.7520 0.7468
0.3666 1.7874 0.7469
0.2217 1.8111 0.7470
0.0754 1.8231 0.7471
-0.0714 1.8232 0.7472
-0.2178 1.8115 0.7472
-0.3627 1.7880 0.7473
-0.5052 1.7529 0.7473
-0.6444 1.7064 0.7472
-2.1265 4.4986 2.0386
-2.4811 4.3127 2.0386
-2.8197 4.0990 2.0386
-3.1399 3.8588 2.0386
-3.4398 3.5937 2.0386
-3.7174 3.3053 2.0386
-3.9710 2.9956 2.0386
-4.1989 2.6665 2.0386
-4.3996 2.3202 2.0386
-4.5719 1.9590 2.0386
-4.7146 1.5850 2.0386
-4.8269 1.2008 2.0386
-4.9079 0.8089 2.0386
-4.9572 0.4118 2.0386
-4.9744 0.0117 2.0386
-4.9595 -0.3883 2.0386
-4.9125 -0.7858 2.0386
-4.8337 -1.1783 2.0386
-4.7236 -1.5632 2.0386
-4.5830 -1.9381 2.0386
-4.4127 -2.3005 2.0386
-4.2138 -2.6481 2.0386
-3.9877 -2.9786 2.0386
-3.7357 -3.2899 2.0386
-3.4595 -3.5799 2.0386
-3.1608 -3.8469 2.0386
-2.8416 -4.0890 2.0386
-2.5040 -4.3047 2.0386
-0.7810 -1.6319 0.7405
-0.6472 -1.6892 0.7404
-0.5093 -1.7356 0.7402
-0.3681 -1.7708 0.7401
-0.2245 -1.7946 0.7399
-0.0796 -1.8068 0.7399
0.0659 -1.8074 0.7398
0.2110 -1.7963 0.7397
0.3547 -1.7737 0.7397
0.4962 -1.7396 0.7397
0.6345 -1.6943 0.7398
0.7688 -1.6381 0.7398
2.2222 -3.8879 1.8307
2.8147 -4.1168 2.0386
3.1367 -3.8775 2.0386
3.4384 -3.6130 2.0386
3.7178 -3.3251 2.0386
3.9732 -3.0157 2.0386
4.2028 -2.6866 2.0386
4.4052 -2.3402 2.0386
4.5791 -1.9786 2.0386
4.7233 -1.6043 2.0386
4.8369 -1.2193 2.0386
4.9192 -0.8266 2.0386
4.9696 -0.4286 2.0386
4.9579 -0.0276 2.0265
4.9169 0.3689 2.0154
4.8739 0.7633 2.0166
4.8283 1.1601 2.0299
4.7393 1.5510 2.0386
4.5990 1.9268 2.0386
4.4289 2.2900 2.0386
4.2301 2.6383 2.0386
4.0039 2.9695 2.0386
3.7519 3.2814 2.0386
3.4757 3.5720 2.0386
3.1769 3.8394 2.0386
2.8577 4.0819 2.0386
2.5201 4.2979 2.0386
0.7931 1.6425 0.7464
0.6586 1.7012 0.7466
0.5198 1.7488 0.7468
0.3775 1.7851 0.7469
0.2328 1.8097 0.7470
0.0866 1.8226 0.7471
-0.0602 1.8236 0.7472
-0.2066 1.8128 0.7472
-0.3517 1.7902 0.7473
-0.4944 1.7560 0.7473
-0.6339 1.7103 0.7472
-0.7693 1.6535 0.7472
-2.4546 4.3279 2.0386
-2.7945 4.1162 2.0386
-3.1162 3.8780 2.0386
-3.4177 3.6147 2.0386
-3.6971 3.3280 2.0386
-3.9526 3.0199 2.0386
-4.1825 2.6923 2.0386
-4.3853 2.3472 2.0386
-4.5598 1.9870 2.0386
-4.7048 1.6139 2.0386
-4.8194 1.2304 2.0386
-4.9028 0.8389 2.0386
-4.9545 0.4421 2.0386
-4.9742 0.0422 2.0386
-4.9618 -0.3577 2.0386
-4.9172 -0.7557 2.0386
-4.8408 -1.1487 2.0386
-4.7331 -1.5344 2.0386
-4.5948 -1.9100 2.0386
-4.4267 -2.2734 2.0386
-4.2300 -2.6222 2.0386
-4.0058 -2.9541 2.0386
-3.7558 -3.2669 2.0386
-3.4813 -3.5586 2.0386
-3.1843 -3.8274 2.0386
-2.8666 -4.0715 2.0386
-2.5303 -4.2892 2.0386
-2.1776 -4.4793 2.0386
-0.6576 -1.6852 0.7404
-0.5199 -1.7325 0.7402
-0.3789 -1.7685 0.7401
-0.2355 -1.7932 0.7400
-0.0906 -1.8063 0.7399
0.0549 -1.8078 0.7398
0.2000 -1.7976 0.7397
0.3439 -1.7758 0.7397
0.4855 -1.7426 0.7397
0.6241 -1.6981 0.7397
0.7587 -1.6427 0.7398
2.1925 -3.8911 1.8259
2.7894 -4.1340 2.0386
3.1129 -3.8966 2.0386
3.4162 -3.6340 2.0386
3.6974 -3.3478 2.0386
3.9546 -3.0400 2.0386
4.1863 -2.7124 2.0386
4.3908 -2.3672 2.0386
4.5669 -2.0066 2.0386
4.7134 -1.6331 2.0386
4.8294 -1.2490 2.0386
4.9140 -0.8568 2.0386
4.9669 -0.4590 2.0386
4.9610 -0.0580 2.0278
4.9201 0.3388 2.0158
4.8772 0.7332 2.0160
4.8319 1.1297 2.0285
4.7488 1.5219 2.0386
4.6107 1.8985 2.0386
4.4429 2.2628 2.0386
4.2462 2.6123 2.0386
4.0221 2.9449 2.0386
3.7720 3.2584 2.0386
3.4975 3.5506 2.0386
3.2004 3.8199 2.0386
2.8827 4.0643 2.0386
2.5464 4.2824 2.0386
2.1937 4.4727 2.0386
0.6690 1.6971 0.7466
0.5305 1.7456 0.7468
0.3885 1.7827 0.7469
0.2439 1.8082 0.7470
0.0977 1.8220 0.7471
-0.0491 1.8240 0.7472
-0.1955 1.8140 0.7472
-0.3407 1.7923 0.7473
-0.4837 1.7590 0.7473
-0.6234 1.7142 0.7472
-0.7591 1.6583 0.7472
-2.4281 4.3429 2.0386
-2.7692 4.1333 2.0386
-3.0924 3.8971 2.0386
-3.3955 3.6356 2.0386
-3.6766 3.3507 2.0386
-3.9340 3.0441 2.0386
-4.1659 2.7179 2.0386
-4.3709 2.3740 2.0386
-4.5475 2.0149 2.0386
-4.6948 1.6427 2.0386
-4.8118 1.2599 2.0386
-4.8976 0.8690 2.0386
-4.9517 0.4726 2.0386
-4.9739 0.0727 2.0386
-4.9638 -0.3274 2.0386
-4.9217 -0.7254 2.0386
-4.8477 -1.1189 2.0386
-4.7424 -1.5053 2.0386
-4.6064 -1.8818 2.0386
-4.4405 -2.2462 2.0386
-4.2460 -2.5962 2.0386
-4.0239 -2.9294 2.0386
-3.7757 -3.2438 2.0386
-3.5031 -3.5372 2.0386
-3.2077 -3.8078 2.0386
-2.8915 -4.0538 2.0386
-2.5566 -4.2736 2.0386
-2.2050 -4.4658 2.0386
-0.6679 -1.6812 0.7404
-0.5305 -1.7293 0.7402
-0.3898 -1.7662 0.7401
-0.2465 -1.7917 0.7400
-0.1017 -1.8057 0.7399
0.0438 -1.8081 0.7398
0.1890 -1.7988 0.7397
0.3330 -1.7779 0.7397
0.4748 -1.7455 0.7397
0.6137 -1.7019 0.7397
0.7486 -1.6473 0.7398
2.1630 -3.8944 1.8212
2.7640 -4.1510 2.0386
3.0889 -3.9156 2.0386
3.3938 -3.6549 2.0386
3.6768 -3.3704 2.0386
3.9359 -3.0642 2.0386
4.1696 -2.7379 2.0386
4.3762 -2.3940 2.0386
4.5545 -2.0346 2.0386
4.7033 -1.6620 2.0386
4.8216 -1.2786 2.0386
4.9087 -0.8869 2.0386
4.9640 -0.4895 2.0386
4.9640 -0.0885 2.0292
4.9233 0.3087 2.0163
4.8806 0.7032 2.0156
4.8354 1.0992 2.0271
4.7580 1.4928 2.0386
4.6223 1.8702 2.0386
4.4567 2.2355 2.0386
4.2622 2.5862 2.0386
4.0401 2.9202 2.0386
3.7919 3.2352 2.0386
-4.5482 0.6924 2.0386
-4.5893 0.3244 2.0386
-4.6007 -0.0456 2.0386
-4.5823 -0.4154 2.0386
-4.5343 -0.7826 2.0386
-4.4570 -1.1447 2.0386
-4.3508 -1.4994 2.0386
-4.2165 -1.8445 2.0386
-4.0549 -2.1777 2.0386
-3.8670 -2.4969 2.0386
-3.6541 -2.8000 2.0386
-3.4175 -3.0850 2.0386
-3.1587 -3.3501 2.0386
-2.8795 -3.5936 2.0386
-2.5815 -3.8138 2.0386
-2.2668 -4.0095 2.0386
-0.7039 -1.5185 0.7407
-0.5795 -1.5700 0.7406
-0.4514 -1.6113 0.7404
-0.3204 -1.6423 0.7403
-0.1873 -1.6627 0.7402
-0.0531 -1.6724 0.7401
0.0815 -1.6713 0.7401
0.2156 -1.6594 0.7400
0.3483 -1.6368 0.7400
0.4788 -1.6037 0.7400
0.6062 -1.5602 0.7400
0.7298 -1.5066 0.7401
2.3375 -3.9755 2.0386
2.6496 -3.7750 2.0386
2.9446 -3.5500 2.0386
3.2205 -3.3020 2.0386
3.4757 -3.0326 2.0386
3.7083 -2.7436 2.0386
3.9169 -2.4367 2.0386
4.1001 -2.1141 2.0386
4.2568 -1.7777 2.0386
4.3859 -1.4298 2.0386
4.4866 -1.0727 2.0386
4.5582 -0.7086 2.0386
4.6003 -0.3400 2.0386
4.6125 0.0309 2.0386
4.5949 0.4015 2.0386
4.5475 0.7696 2.0386
4.4707 1.1323 2.0386
4.3650 1.4879 2.0386
4.2309 1.8338 2.0386
4.0695 2.1678 2.0386
3.8818 2.4876 2.0386
3.6689 2.7914 2.0386
3.4324 3.0769 2.0386
3.1736 3.3425 2.0386
2.8944 3.5864 2.0386
2.5964 3.8071 2.0386
2.2817 4.0030 2.0386
0.7147 1.5275 0.7462
0.5896 1.5802 0.7464
0.4607 1.6226 0.7466
0.3288 1.6545 0.7467
0.1947 1.6757 0.7468
0.0594 1.6859 0.7469
-0.0763 1.6852 0.7469
-0.2116 1.6735 0.7470
-0.3454 1.6510 0.7470
-0.4770 1.6177 0.7470
-0.6054 1.5739 0.7469
-0.7299 1.5199 0.7469
-2.3192 3.9747 2.0386
-2.6311 3.7751 2.0386
-2.9259 3.5511 2.0386
-3.2018 3.3042 2.0386
-3.4570 3.0360 2.0386
-3.6898 2.7481 2.0386
-3.8987 2.4425 2.0386
-4.0824 2.1210 2.0386
-4.2397 1.7859 2.0386
-4.3696 1.4392 2.0386
-4.4712 1.0833 2.0386
-4.5439 0.7202 2.0386
-4.5872 0.3526 2.0386
-4.6009 -0.0174 2.0386
-4.5848 -0.3873 2.0386
-4.5390 -0.7547 2.0386
-4.4639 -1.1173 2.0386
-4.3599 -1.4727 2.0386
-4.2277 -1.8186 2.0386
-4.0682 -2.1528 2.0386
-3.8822 -2.4731 2.0386
-3.6712 -2.7775 2.0386
-3.4363 -3.0639 2.0386
-3.1792 -3.3306 2.0386
-2.9014 -3.5758 2.0386
-2.6048 -3.7979 2.0386
-2.2913 -3.9954 2.0386
-0.7132 -1.5141 0.7407
-0.5891 -1.5664 0.7406
-0.4613 -1.6086 0.7404
-0.3305 -1.6403 0.7403
-0.1975 -1.6615 0.7402
-0.0633 -1.6720 0.7401
0.0713 -1.6717 0.7401
0.2054 -1.6607 0.7400
0.3383 -1.6389 0.7400
0.4690 -1.6066 0.7400
0.5966 -1.5639 0.7400
0.7205 -1.5111 0.7401
2.3130 -3.9897 2.0386
2.6264 -3.7911 2.0386
2.9228 -3.5680 2.0386
3.2002 -3.3217 2.0386
3.4570 -3.0539 2.0386
3.6914 -2.7662 2.0386
3.9019 -2.4607 2.0386
4.0871 -2.1391 2.0386
4.2458 -1.8037 2.0386
4.3770 -1.4567 2.0386
4.4799 -1.1002 2.0386
4.5537 -0.7366 2.0386
4.5981 -0.3682 2.0386
4.6126 0.0027 2.0386
4.5973 0.3733 2.0386
4.5522 0.7414 2.0386
4.4776 1.1049 2.0386
4.3740 1.4612 2.0386
4.2421 1.8078 2.0386
4.0828 2.1428 2.0386
3.8970 2.4638 2.0386
3.6860 2.7688 2.0386
3.4512 3.0558 2.0386
3.1941 3.3230 2.0386
2.9163 3.5687 2.0386
2.6197 3.7911 2.0386
2.3063 3.9890 2.0386
0.7240 1.5231 0.7462
0.5993 1.5766 0.7464
0.4707 1.6198 0.7465
0.3389 1.6525 0.7467
0.2050 1.6744 0.7468
0.0697 1.6855 0.7469
-0.0660 1.6856 0.7469
-0.2013 1.6748 0.7470
-0.3353 1.6531 0.7470
-0.4670 1.6206 0.7470
-0.5958 1.5776 0.7470
-0.7206 1.5244 0.7469
-2.2948 3.9889 2.0386
-2.6079 3.7912 2.0386
-2.9041 3.5690 2.0386
-3.1815 3.3238 2.0386
-3.4383 3.0571 2.0386
-3.6728 2.7707 2.0386
-3.8836 2.4663 2.0386
-4.0693 2.1460 2.0386
-4.2286 1.8119 2.0386
-4.3606 1.4660 2.0386
-4.4644 1.1106 2.0386
-4.5394 0.7481 2.0386
-4.5850 0.3807 2.0386
-4.6009 0.0108 2.0386
-4.5871 -0.3592 2.0386
-4.5436 -0.7269 2.0386
-4.4707 -1.0899 2.0386
-4.3689 -1.4459 2.0386
-4.2388 -1.7926 2.0386
-4.0813 -2.1278 2.0386
-3.8973 -2.4492 2.0386
-3.6881 -2.7549 2.0386
-3.4550 -3.0428 2.0386
-3.1995 -3.3111 2.0386
-2.9233 -3.5579 2.0386
-2.6281 -3.7818 2.0386
-2.3158 -3.9813 2.0386
-0.7225 -1.5098 0.7408
-0.5987 -1.5628 0.7406
-0.4711 -1.6057 0.7404
-0.3405 -1.6383 0.7403
-0.2077 -1.6603 0.7402
-0.0736 -1.6716 0.7401
0.0610 -1.6721 0.7401
0.1952 -1.6619 0.7400
0.3282 -1.6409 0.7400
0.4591 -1.6094 0.7400
0.5870 -1.5675 0.7400
0.7112 -1.5154 0.7401
2.2885 -4.0038 2.0386
2.6031 -3.8071 2.0386
2.9008 -3.5858 2.0386
3.1798 -3.3412 2.0386
3.4382 -3.0750 2.0386
3.6743 -2.7888 2.0386
3.8867 -2.4845 2.0386
4.0739 -2.1641 2.0386
4.2347 -1.8298 2.0386
4.3680 -1.4835 2.0386
4.4731 -1.1276 2.0386
4.5492 -0.7645 2.0386
4.5957 -0.3963 2.0386
4.6126 -0.0256 2.0386
4.5995 0.3452 2.0386
4.5567 0.7135 2.0386
4.4843 1.0774 2.0386
4.3829 1.4342 2.0386
4.2531 1.7818 2.0386
4.0958 2.1177 2.0386
3.9120 2.4399 2.0386
3.7029 2.7462 2.0386
3.4699 3.0346 2.0386
3.2144 3.3034 2.0386
2.9382 3.5507 2.0386
2.6430 3.7750 2.0386
2.3307 3.9748 2.0386
0.7333 1.5186 0.7462
0.6089 1.5728 0.7464
0.4806 1.6168 0.7465
0.3491 1.6504 0.7467
0.2153 1.6731 0.7468
0.0801 1.6850 0.7469
-0.0557 1.6860 0.7469
-0.1910 1.6760 0.7470
-0.3251 1.6551 0.7470
-0.4571 1.6234 0.7470
-0.5861 1.5813 0.7470
-0.7112 1.5288 0.7469
-2.2703 4.0029 2.0386
-2.5846 3.8072 2.0386
-2.8822 3.5868 2.0386
-3.1611 3.3433 2.0386
-3.4195 3.0782 2.0386
-3.6558 2.7932 2.0386
-3.8684 2.4901 2.0386
-4.0561 2.1710 2.0386
-4.2175 1.8378 2.0386
-4.3516 1.4927 2.0386
-4.4575 1.1380 2.0386
-4.5347 0.7759 2.0386
-4.5825 0.4088 2.0386
-4.6007 0.0390 2.0386
-4.5892 -0.3310 2.0386
-4.5479 -0.6990 2.0386
-4.4773 -1.0624 2.0386
-4.3776 -1.4191 2.0386
-4.2497 -1.7666 2.0386
-4.0942 -2.1027 2.0386
-3.9122 -2.4253 2.0386
-3.7049 -2.7322 2.0386
-3.4736 -3.0215 2.0386
-3.2197 -3.2913 2.0386
-2.9450 -3.5399 2.0386
-2.6512 -3.7656 2.0386
-2.3401 -3.9670 2.0386
-0.7318 -1.5053 0.7408
-0.6083 -1.5591 0.7406
-0.4810 -1.6028 0.7405
-0.3506 -1.6362 0.7403
-0.2179 -1.6590 0.7402
-0.0838 -1.6711 0.7401
0.0508 -1.6725 0.7401
0.1850 -1.6630 0.7400
0.3181 -1.6429 0.7400
0.4492 -1.6122 0.7400
0.5774 -1.5710 0.7400
0.7019 -1.5197 0.7401
2.2639 -4.0177 2.0386
2.5797 -3.8230 2.0386
2.8788 -3.6035 2.0386
3.1592 -3.3607 2.0386
3.4193 -3.0960 2.0386
3.6572 -2.8113 2.0386
3.8714 -2.5083 2.0386
4.0605 -2.1891 2.0386
4.2234 -1.8557 2.0386
4.3588 -1.5102 2.0386
4.4661 -1.1550 2.0386
4.5444 -0.7923 2.0386
4.5932 -0.4243 2.0386
4.6123 -0.0537 2.0386
4.6016 0.3169 2.0386
4.5610 0.6857 2.0386
4.4909 1.0500 2.0386
4.3916 1.4074 2.0386
4.2640 1.7557 2.0386
4.1088 2.0926 2.0386
3.9269 2.4159 2.0386
3.7197 2.7234 2.0386
3.4885 3.0133 2.0386
3.2346 3.2837 2.0386
2.9599 3.5327 2.0386
2.6661 3.7588 2.0386
2.3551 3.9605 2.0386
0.7426 1.5141 0.7462
0.6186 1.5691 0.7464
0.4905 1.6139 0.7465
0.3592 1.6482 0.7467
0.2255 1.6718 0.7468
0.0904 1.6845 0.7468
-0.0453 1.6863 0.7469
-0.1807 1.6771 0.7470
-0.3150 1.6571 0.7470
-0.4471 1.6262 0.7470
-0.5764 1.5848 0.7470
-0.7018 1.5331 0.7469
-2.2457 4.0168 2.0386
-2.5612 3.8230 2.0386
-2.8601 3.6044 2.0386
-3.1405 3.3626 2.0386
-3.4006 3.0991 2.0386
-3.6386 2.8155 2.0386
-3.8531 2.5138 2.0386
-4.0427 2.1958 2.0386
-4.2061 1.8636 2.0386
-4.3423 1.5194 2.0386
-4.4505 1.1653 2.0386
-4.5298 0.8037 2.0386
-4.5799 0.4369 2.0386
-4.6004 0.0672 2.0386
-4.5911 -0.3029 2.0386
-4.5521 -0.6711 2.0386
-4.4837 -1.0350 2.0386
-4.3862 -1.3922 2.0386
-4.2604 -1.7405 2.0386
-4.1070 -2.0775 2.0386
-3.9270 -2.4012 2.0386
-3.7216 -2.7094 2.0386
-3.4920 -3.0001 2.0386
-3.2398 -3.2715 2.0386
-2.9666 -3.5217 2.0386
-2.6742 -3.7492 2.0386
-2.3644 -3.9525 2.0386
-0.7410 -1.5008 0.7408
-0.6179 -1.5553 0.7406
-0.4908 -1.5998 0.7405
-0.3606 -1.6340 0.7403
-0.2281 -1.6576 0.7402
-0.0941 -1.6706 0.7401
0.0405 -1.6727 0.7401
0.1748 -1.6641 0.7400
0.3081 -1.6448 0.7400
0.4393 -1.6149 0.7400
0.5678 -1.5745 0.7400
0.6926 -1.5240 0.7401
2.2392 -4.0315 2.0386
2.5562 -3.8387 2.0386
2.8566 -3.6211 2.0386
3.1386 -3.3800 2.0386
3.4002 -3.1169 2.0386
3.6398 -2.8336 2.0386
3.8559 -2.5320 2.0386
4.0470 -2.2140 2.0386
4.2119 -1.8815 2.0386
4.3495 -1.5370 2.0386
4.4589 -1.1824 2.0386
4.5394 -0.8202 2.0386
4.5906 -0.4526 2.0386
4.6120 -0.0824 2.0386
4.6034 0.2886 2.0386
4.5651 0.6577 2.0386
4.4972 1.0224 2.0386
4.4002 1.3804 2.0386
4.2747 1.7295 2.0386
4.1216 2.0674 2.0386
3.9417 2.3917 2.0386
3.7364 2.7006 2.0386
3.5069 2.9919 2.0386
-4.2231 0.6429 2.0386
-4.2613 0.3012 2.0386
-4.2718 -0.0424 2.0386
-4.2548 -0.3858 2.0386
-4.2102 -0.7266 2.0386
-4.1384 -1.0629 2.0386
-4.0398 -1.3923 2.0386
-3.9150 -1.7127 2.0386
-3.7649 -2.0221 2.0386
-3.5905 -2.3184 2.0386
-3.3928 -2.5998 2.0386
-3.1730 -2.8644 2.0386
-2.9328 -3.1106 2.0386
-2.6735 -3.3366 2.0386
-2.3968 -3.5411 2.0386
-0.7651 -1.3533 0.7411
-0.6537 -1.4102 0.7409
-0.5382 -1.4581 0.7408
-0.4192 -1.4965 0.7406
-0.2975 -1.5253 0.7405
-0.1740 -1.5442 0.7404
-0.0493 -1.5532 0.7404
0.0757 -1.5522 0.7403
0.2003 -1.5411 0.7403
0.3235 -1.5202 0.7402
0.4447 -1.4894 0.7403
0.5630 -1.4490 0.7403
0.6778 -1.3992 0.7403
2.1702 -3.6908 2.0386
2.4599 -3.5047 2.0386
2.7338 -3.2958 2.0386
2.9900 -3.0656 2.0386
3.2268 -2.8155 2.0386
3.4428 -2.5471 2.0386
3.6364 -2.2622 2.0386
3.8066 -1.9627 2.0386
3.9520 -1.6504 2.0386
4.0719 -1.3275 2.0386
4.1653 -0.9959 2.0386
4.2318 -0.6579 2.0386
4.2709 -0.3156 2.0386
4.2823 0.0286 2.0386
4.2660 0.3727 2.0386
4.2220 0.7143 2.0386
4.1507 1.0513 2.0386
4.0525 1.3814 2.0386
3.9281 1.7025 2.0386
3.7783 2.0126 2.0386
3.6040 2.3095 2.0386
3.4064 2.5915 2.0386
3.1868 2.8567 2.0386
2.9465 3.1033 2.0386
2.6873 3.3298 2.0386
2.4107 3.5346 2.0386
0.7751 1.3598 0.7459
0.6634 1.4179 0.7460
0.5473 1.4667 0.7462
0.4277 1.5061 0.7463
0.3052 1.5357 0.7464
0.1808 1.5553 0.7465
0.0551 1.5648 0.7466
-0.0708 1.5641 0.7467
-0.1963 1.5533 0.7467
-0.3206 1.5324 0.7467
-0.4427 1.5015 0.7467
-0.5619 1.4609 0.7467
-0.6775 1.4108 0.7467
-2.1533 3.6906 2.0386
-2.4429 3.5053 2.0386
-2.7167 3.2973 2.0386
-2.9729 3.0681 2.0386
-3.2098 2.8190 2.0386
-3.4260 2.5517 2.0386
-3.6200 2.2679 2.0386
-3.7906 1.9694 2.0386
-3.9366 1.6583 2.0386
-4.0572 1.3364 2.0386
-4.1516 1.0058 2.0386
-4.2191 0.6688 2.0386
-4.2593 0.3273 2.0386
-4.2720 -0.0162 2.0386
-4.2570 -0.3596 2.0386
-4.2146 -0.7008 2.0386
-4.1448 -1.0375 2.0386
-4.0482 -1.3674 2.0386
-3.9254 -1.6886 2.0386
-3.7773 -1.9989 2.0386
-3.6046 -2.2963 2.0386
-3.4086 -2.5789 2.0386
-3.1905 -2.8449 2.0386
-2.9518 -3.0925 2.0386
-2.6939 -3.3201 2.0386
-2.4185 -3.5263 2.0386
-0.7734 -1.3486 0.7411
-0.6624 -1.4062 0.7409
-0.5471 -1.4548 0.7408
-0.4284 -1.4939 0.7407
-0.3069 -1.5234 0.7405
-0.1834 -1.5431 0.7404
-0.0588 -1.5529 0.7404
0.0662 -1.5526 0.7403
0.1908 -1.5423 0.7403
0.3142 -1.5221 0.7402
0.4356 -1.4921 0.7403
0.5541 -1.4524 0.7403
0.6692 -1.4033 0.7403
0.7799 -1.3452 0.7404
2.4384 -3.5197 2.0386
2.7135 -3.3125 2.0386
2.9711 -3.0839 2.0386
3.2095 -2.8352 2.0386
3.4271 -2.5682 2.0386
3.6225 -2.2845 2.0386
3.7944 -1.9860 2.0386
3.9418 -1.6746 2.0386
4.0636 -1.3524 2.0386
4.1592 -1.0215 2.0386
4.2277 -0.6838 2.0386
4.2689 -0.3418 2.0386
4.2824 0.0024 2.0386
4.2682 0.3465 2.0386
4.2263 0.6884 2.0386
4.1571 1.0258 2.0386
4.0609 1.3565 2.0386
3.9385 1.6784 2.0386
3.7905 1.9893 2.0386
3.6181 2.2874 2.0386
3.4222 2.5706 2.0386
3.2042 2.8371 2.0386
2.9655 3.0852 2.0386
2.7077 3.3132 2.0386
2.4324 3.5198 2.0386
0.7834 1.3550 0.7459
0.6721 1.4138 0.7460
0.5563 1.4634 0.7462
0.4369 1.5035 0.7463
0.3146 1.5338 0.7464
0.1903 1.5542 0.7465
0.0647 1.5644 0.7466
-0.0612 1.5646 0.7467
-0.1868 1.5545 0.7467
-0.3112 1.5343 0.7467
-0.4335 1.5042 0.7467
-0.5530 1.4643 0.7467
-0.6688 1.4149 0.7467
-2.1307 3.7037 2.0386
-2.4214 3.5202 2.0386
-2.6965 3.3140 2.0386
-2.9540 3.0863 2.0386
-3.1925 2.8386 2.0386
-3.4103 2.5726 2.0386
-3.6060 2.2900 2.0386
-3.7784 1.9926 2.0386
-3.9264 1.6824 2.0386
-4.0490 1.3612 2.0386
-4.1453 1.0313 2.0386
-4.2149 0.6946 2.0386
-4.2572 0.3535 2.0386
-4.2720 0.0100 2.0386
-4.2592 -0.3335 2.0386
-4.2188 -0.6749 2.0386
-4.1511 -1.0120 2.0386
-4.0565 -1.3426 2.0386
-3.9357 -1.6645 2.0386
-3.7894 -1.9757 2.0386
-3.6186 -2.2742 2.0386
-3.4243 -2.5580 2.0386
-3.2079 -2.8253 2.0386
-2.9707 -3.0743 2.0386
-2.7141 -3.3035 2.0386
-2.4400 -3.5114 2.0386
-0.7816 -1.3438 0.7411
-0.6710 -1.4021 0.7409
-0.5560 -1.4514 0.7408
-0.4375 -1.4913 0.7407
-0.3162 -1.5215 0.7405
-0.1929 -1.5420 0.7404
-0.0683 -1.5525 0.7404
0.0567 -1.5530 0.7403
0.1814 -1.5435 0.7403
0.3049 -1.5240 0.7402
0.4264 -1.4947 0.7403
0.5452 -1.4558 0.7403
0.6605 -1.4074 0.7403
0.7716 -1.3500 0.7404
2.4167 -3.5345 2.0386
2.6932 -3.3291 2.0386
2.9522 -3.1020 2.0386
3.1921 -2.8548 2.0386
3.4113 -2.5891 2.0386
3.6084 -2.3066 2.0386
3.7822 -2.0092 2.0386
3.9315 -1.6987 2.0386
4.0553 -1.3773 2.0386
4.1528 -1.0469 2.0386
4.2234 -0.7097 2.0386
4.2667 -0.3680 2.0386
4.2823 -0.0239 2.0386
4.2702 0.3204 2.0386
4.2305 0.6625 2.0386
4.1633 1.0003 2.0386
4.0692 1.3316 2.0386
3.9487 1.6542 2.0386
3.8027 1.9661 2.0386
3.6321 2.2652 2.0386
3.4379 2.5496 2.0386
3.2216 2.8174 2.0386
2.9844 3.0670 2.0386
2.7280 3.2966 2.0386
2.4539 3.5049 2.0386
0.7917 1.3501 0.7458
0.6807 1.4096 0.7460
0.5652 1.4599 0.7462
0.4461 1.5007 0.7463
0.3240 1.5318 0.7464
0.1998 1.5530 0.7465
0.0743 1.5640 0.7466
-0.0516 1.5649 0.7467
-0.1773 1.5556 0.7467
-0.3018 1.5362 0.7467
-0.4243 1.5069 0.7467
-0.5440 1.4677 0.7467
-0.6601 1.4190 0.7467
-0.7720 1.3611 0.7466
-2.3998 3.5350 2.0386
-2.6761 3.3305 2.0386
-2.9351 3.1043 2.0386
-3.1750 2.8582 2.0386
-3.3945 2.5935 2.0386
-3.5919 2.3121 2.0386
-3.7661 2.0158 2.0386
-3.9160 1.7064 2.0386
-4.0405 1.3860 2.0386
-4.1389 1.0567 2.0386
-4.2106 0.7205 2.0386
-4.2550 0.3796 2.0386
-4.2718 0.0362 2.0386
-4.2611 -0.3074 2.0386
-4.2228 -0.6490 2.0386
-4.1572 -0.9865 2.0386
-4.0646 -1.3177 2.0386
-3.9458 -1.6403 2.0386
-3.8015 -1.9524 2.0386
-3.6325 -2.2519 2.0386
-3.4399 -2.5369 2.0386
-3.2251 -2.8055 2.0386
-2.9894 -3.0560 2.0386
-2.7343 -3.2868 2.0386
-2.4615 -3.4963 2.0386
-2.1727 -3.6833 2.0386
-0.6796 -1.3980 0.7410
-0.5649 -1.4480 0.7408
-0.4467 -1.4886 0.7407
-0.3255 -1.5196 0.7406
-0.2023 -1.5408 0.7405
-0.0778 -1.5520 0.7404
0.0472 -1.5533 0.7403
0.1719 -1.5445 0.7403
0.2955 -1.5258 0.7402
0.4172 -1.4973 0.7403
0.5363 -1.4591 0.7403
0.6519 -1.4114 0.7403
0.7633 -1.3547 0.7404
2.3950 -3.5493 2.0386
2.6727 -3.3455 2.0386
2.9331 -3.1200 2.0386
3.1745 -2.8743 2.0386
3.3953 -2.6100 2.0386
3.5942 -2.3287 2.0386
3.7698 -2.0324 2.0386
3.9210 -1.7228 2.0386
4.0468 -1.4021 2.0386
4.1463 -1.0723 2.0386
4.2190 -0.7356 2.0386
4.2644 -0.3941 2.0386
4.2821 -0.0501 2.0386
4.2721 0.2942 2.0386
4.2345 0.6365 2.0386
4.1694 0.9747 2.0386
4.0773 1.3066 2.0386
3.9588 1.6300 2.0386
3.8147 1.9427 2.0386
3.6459 2.2429 2.0386
3.4535 2.5285 2.0386
3.2388 2.7976 2.0386
3.0032 3.0486 2.0386
2.7482 3.2798 2.0386
2.4754 3.4898 2.0386
2.1866 3.6771 2.0386
0.6893 1.4054 0.7460
0.5742 1.4564 0.7462
0.4553 1.4980 0.7463
0.3334 1.5298 0.7464
0.2094 1.5517 0.7465
0.0839 1.5635 0.7466
-0.0420 1.5652 0.7467
-0.1677 1.5567 0.7467
-0.2923 1.5381 0.7467
-0.4150 1.5095 0.7467
-0.5350 1.4710 0.7467
-0.6514 1.4231 0.7467
-0.7636 1.3659 0.7466
-2.3781 3.5497 2.0386
-2.6556 3.3468 2.0386
-2.9160 3.1223 2.0386
-3.1575 2.8776 2.0386
-3.3785 2.6143 2.0386
-3.5777 2.3341 2.0386
-3.7537 2.0389 2.0386
-3.9055 1.7304 2.0386
-4.0320 1.4108 2.0386
-4.1324 1.0820 2.0386
-4.2061 0.7463 2.0386
-4.2525 0.4057 2.0386
-4.2715 0.0624 2.0386
-4.2629 -0.2813 2.0386
-4.2267 -0.6231 2.0386
-4.1631 -0.9610 2.0386
-4.0726 -1.2927 2.0386
-3.9558 -1.6161 2.0386
-3.8133 -1.9291 2.0386
-3.6462 -2.2296 2.0386
-3.4554 -2.5157 2.0386
-3.2423 -2.7856 2.0386
-3.0081 -3.0376 2.0386
-2.7544 -3.2699 2.0386
-2.4829 -3.4811 2.0386
-2.1952 -3.6698 2.0386
-0.6881 -1.3938 0.7410
-0.5738 -1.4445 0.7408
-0.4558 -1.4858 0.7407
-0.3349 -1.5176 0.7406
-0.2118 -1.5395 0.7405
-0.0873 -1.5515 0.7404
0.0377 -1.5536 0.7403
0.1624 -1.5456 0.7403
0.2861 -1.5276 0.7403
0.4080 -1.4998 0.7402
0.5273 -1.4623 0.7403
0.6432 -1.4154 0.7403
0.7550 -1.3593 0.7404
2.3732 -3.5639 2.0386
2.6521 -3.3618 2.0386
2.9139 -3.1379 2.0386
3.1568 -2.8937 2.0386
3.3793 -2.6308 2.0386
3.5799 -2.3507 2.0386
3.7573 -2.0554 2.0386
3.9103 -1.7468 2.0386
4.0381 -1.4269 2.0386
4.1397 -1.0977 2.0386
4.2144 -0.7615 2.0386
4.2619 -0.4203 2.0386
4.2818 -0.0764 2.0386
4.2739 0.2680 2.0386
4.2383 0.6106 2.0386
4.1753 0.9492 2.0386
4.0852 1.2816 2.0386
3.9687 1.6057 2.0386
3.8266 1.9193 2.0386
3.6596 2.2205 2.0386
3.4690 2.5073 2.0386
3.2560 2.7777 2.0386
-3.9342 0.5989 2.0386
-3.9698 0.2806 2.0386
-3.9796 -0.0395 2.0386
-3.9637 -0.3594 2.0386
-3.9222 -0.6770 2.0386
-3.8552 -0.9902 2.0386
-3.7634 -1.2971 2.0386
-3.6472 -1.5955 2.0386
-3.5073 -1.8838 2.0386
-3.3448 -2.1598 2.0386
-3.1606 -2.4220 2.0386
-2.9559 -2.6685 2.0386
-2.7320 -2.8977 2.0386
-2.4904 -3.1083 2.0386
-2.2327 -3.2988 2.0386
-0.7128 -1.2609 0.7413
-0.6091 -1.3140 0.7411
-0.5014 -1.3586 0.7410
-0.3906 -1.3944 0.7408
-0.2772 -1.4213 0.7407
-0.1621 -1.4389 0.7406
-0.0459 -1.4473 0.7406
0.0706 -1.4463 0.7405
0.1866 -1.4360 0.7405
0.3015 -1.4165 0.7405
0.4144 -1.3878 0.7405
0.5246 -1.3501 0.7405
0.6315 -1.3038 0.7405
0.7344 -1.2490 0.7406
2.2915 -3.2646 2.0386
2.5466 -3.0700 2.0386
2.7852 -2.8556 2.0386
3.0058 -2.6226 2.0386
3.2070 -2.3726 2.0386
3.3873 -2.1072 2.0386
3.5458 -1.8282 2.0386
3.6813 -1.5374 2.0386
3.7929 -1.2365 2.0386
3.8800 -0.9277 2.0386
3.9419 -0.6129 2.0386
3.9783 -0.2940 2.0386
3.9889 0.0267 2.0386
3.9737 0.3471 2.0386
3.9328 0.6654 2.0386
3.8664 0.9792 2.0386
3.7750 1.2867 2.0386
3.6591 1.5858 2.0386
3.5195 1.8747 2.0386
3.3572 2.1513 2.0386
3.1731 2.4140 2.0386
2.9686 2.6610 2.0386
2.7448 2.8907 2.0386
2.5034 3.1017 2.0386
2.2457 3.2926 2.0386
0.7219 1.2664 0.7457
0.6178 1.3205 0.7459
0.5097 1.3660 0.7460
0.3983 1.4026 0.7461
0.2843 1.4302 0.7462
0.1684 1.4484 0.7463
0.0514 1.4573 0.7464
