ply
format ascii 1.0
element vertex 2182
property float32 x
property float32 y
property float32 z
end_header
5.2128 -2.7416 2.0203
5.1870 -2.2163 1.9345
5.2159 -1.7483 1.8863
5.3401 -1.3241 1.8863
5.4297 -0.8911 1.8863
5.4839 -0.4523 1.8863
5.5026 -0.0106 1.8863
5.4855 0.4313 1.8863
5.4327 0.8702 1.8863
5.3447 1.3034 1.8863
5.2220 1.7281 1.8863
5.0654 2.1414 1.8863
4.8760 2.5406 1.8863
4.7726 2.9972 1.9340
4.7152 3.5188 2.0196
4.4577 3.9215 2.0387
4.1269 4.2653 2.0387
3.7696 4.5812 2.0387
3.3881 4.8671 2.0387
2.9850 5.1213 2.0387
2.5629 5.3421 2.0387
2.1245 5.5281 2.0387
1.6728 5.6781 2.0387
1.2107 5.7913 2.0387
0.7412 5.8669 2.0387
4.7465 2.6541 2.0387
4.5169 3.0259 2.0387
4.2581 3.3778 2.0387
3.9719 3.7076 2.0387
3.6601 4.0132 2.0387
3.3247 4.2926 2.0387
2.9681 4.5440 2.0387
2.5925 4.7657 2.0387
2.2004 4.9564 2.0387
0.6564 1.8711 0.7458
0.5040 1.9178 0.7462
0.3484 1.9522 0.7465
0.1904 1.9738 0.7469
0.0851 5.4098 2.0387
-0.3496 5.3966 2.0387
-0.2867 1.9618 0.7478
-0.4434 1.9321 0.7480
-0.5971 1.8899 0.7482
-0.7469 1.8355 0.7484
-2.4289 4.8183 2.0387
-2.8071 4.6057 2.0387
-3.1670 4.3635 2.0387
-3.5062 4.0934 2.0387
-3.8227 3.7970 2.0387
-4.1142 3.4764 2.0387
-4.3792 3.1335 2.0387
-4.6158 2.7707 2.0387
-4.8226 2.3901 2.0387
-4.9982 1.9943 2.0387
-5.1416 1.5858 2.0387
-5.2519 1.1672 2.0387
-5.3284 0.7411 2.0387
-5.3706 0.3103 2.0387
-5.3782 -0.1225 2.0387
-5.3511 -0.5545 2.0387
-5.2897 -0.9830 2.0387
-5.1941 -1.4053 2.0387
-5.0651 -1.8186 2.0387
-4.9034 -2.2203 2.0387
-4.7101 -2.6079 2.0387
-4.4863 -2.9789 2.0387
-4.2336 -3.3309 2.0387
-3.9534 -3.6615 2.0387
-3.6475 -3.9688 2.0387
-3.3179 -4.2507 2.0387
-2.9667 -4.5054 2.0387
-2.5961 -4.7312 2.0387
-2.2084 -4.9266 2.0387
-0.6567 -1.8507 0.7412
-0.5058 -1.8974 0.7408
-0.3517 -1.9319 0.7405
-0.1953 -1.9539 0.7401
-0.0377 -1.9633 0.7398
0.1201 -1.9601 0.7395
0.2772 -1.9443 0.7393
0.4326 -1.9160 0.7390
0.5852 -1.8754 0.7388
0.7341 -1.8227 0.7386
1.8263 -3.6562 1.5356
2.1920 -3.6267 1.5916
2.5884 -3.5947 1.6630
3.5180 -4.1392 2.0387
3.8403 -3.8446 2.0387
4.1378 -3.5249 2.0387
4.4088 -3.1822 2.0387
4.6512 -2.8187 2.0387
4.8635 -2.4366 2.0387
5.0444 -2.0386 2.0387
5.1241 -1.6059 2.0118
5.0984 -1.1579 1.9586
5.0716 -0.7299 1.9194
5.0488 -0.3164 1.8949
5.0350 0.0898 1.8863
5.0114 0.4934 1.8863
4.9594 0.8949 1.8879
4.9130 1.3009 1.9042
4.8737 1.7199 1.9367
4.8306 2.1551 1.9825
4.7726 2.6073 2.0387
4.5466 2.9813 2.0387
4.2914 3.3359 2.0387
4.0084 3.6685 2.0387
3.6996 3.9772 2.0387
3.3670 4.2598 2.0387
3.0129 4.5147 2.0387
2.6395 4.7402 2.0387
2.2493 4.9347 2.0387
0.6748 1.8645 0.7457
0.5229 1.9128 0.7461
0.3676 1.9487 0.7465
0.2098 1.9719 0.7468
0.1385 5.4090 2.0387
-0.2964 5.4001 2.0387
-0.2674 1.9645 0.7477
-0.4243 1.9364 0.7480
-0.5785 1.8958 0.7482
-0.7288 1.8428 0.7484
-2.3814 4.8423 2.0387
-2.7617 4.6334 2.0387
-3.1240 4.3947 2.0387
-3.4659 4.1279 2.0387
-3.7852 3.8347 2.0387
-4.0799 3.5169 2.0387
-4.3482 3.1767 2.0387
-4.5884 2.8161 2.0387
-4.7989 2.4376 2.0387
-4.9784 2.0436 2.0387
-5.1258 1.6364 2.0387
-5.2402 1.2189 2.0387
-5.3209 0.7936 2.0387
-5.3673 0.3632 2.0387
-5.3791 -0.0695 2.0387
-5.3563 -0.5017 2.0387
-5.2990 -0.9308 2.0387
-5.2076 -1.3540 2.0387
-5.0827 -1.7686 2.0387
-4.9250 -2.1718 2.0387
-4.7354 -2.5614 2.0387
-4.5154 -2.9344 2.0387
-4.2661 -3.2888 2.0387
-3.9891 -3.6222 2.0387
-3.6863 -3.9325 2.0387
-3.3595 -4.2176 2.0387
-3.0108 -4.4757 2.0387
-2.6424 -4.7051 2.0387
-2.2567 -4.9043 2.0387
-0.6749 -1.8442 0.7413
-0.5245 -1.8923 0.7409
-0.3707 -1.9283 0.7405
-0.2146 -1.9519 0.7402
-0.0571 -1.9629 0.7399
0.1008 -1.9612 0.7396
0.2581 -1.9470 0.7393
0.4137 -1.9202 0.7390
0.5667 -1.8810 0.7388
0.7160 -1.8298 0.7386
1.7833 -3.6597 1.5297
2.1457 -3.6304 1.5839
2.5378 -3.5988 1.6534
3.4769 -4.1735 2.0387
3.8021 -3.8821 2.0387
4.1028 -3.5654 2.0387
4.3771 -3.2254 2.0387
4.6231 -2.8643 2.0387
4.8391 -2.4842 2.0387
5.0239 -2.0882 2.0387
5.1272 -1.6625 2.0194
5.1016 -1.2116 1.9643
5.0750 -0.7816 1.9235
5.0506 -0.3651 1.8969
5.0357 0.0399 1.8863
5.0160 0.4445 1.8863
4.9647 0.8454 1.8866
4.9178 1.2510 1.9012
4.8787 1.6680 1.9320
4.8361 2.1007 1.9761
4.7890 2.5554 2.0348
4.5759 2.9365 2.0387
4.3242 3.2935 2.0387
4.0445 3.6290 2.0387
3.7388 3.9407 2.0387
3.4090 4.2267 2.0387
3.0574 4.4850 2.0387
2.6862 4.7142 2.0387
2.2979 4.9126 2.0387
0.6931 1.8577 0.7457
0.5417 1.9075 0.7461
0.3868 1.9449 0.7464
0.2293 1.9697 0.7468
0.1918 5.4077 2.0387
-0.2432 5.4031 2.0387
-0.2480 1.9671 0.7477
-0.4052 1.9406 0.7479
-0.5597 1.9014 0.7482
-0.7106 1.8500 0.7484
-2.3336 4.8658 2.0387
-2.7161 4.6607 2.0387
-3.0806 4.4255 2.0387
-3.4251 4.1621 2.0387
-3.7473 3.8720 2.0387
-4.0452 3.5571 2.0387
-4.3168 3.2195 2.0387
-4.5605 2.8613 2.0387
-4.7747 2.4849 2.0387
-4.9581 2.0926 2.0387
-5.1095 1.6870 2.0387
-5.2280 1.2706 2.0387
-5.3128 0.8461 2.0387
-5.3634 0.4162 2.0387
-5.3795 -0.0164 2.0387
-5.3610 -0.4489 2.0387
-5.3079 -0.8785 2.0387
-5.2207 -1.3025 2.0387
-5.0998 -1.7183 2.0387
-4.9460 -2.1231 2.0387
-4.7603 -2.5144 2.0387
-4.5439 -2.8897 2.0387
-4.2981 -3.2465 2.0387
-4.0245 -3.5826 2.0387
-3.7247 -3.8958 2.0387
-3.4008 -4.1841 2.0387
-3.0547 -4.4456 2.0387
-2.6886 -4.6786 2.0387
-2.3048 -4.8816 2.0387
-0.6930 -1.8375 0.7413
-0.5431 -1.8871 0.7409
-0.3897 -1.9246 0.7406
-0.2338 -1.9496 0.7402
-0.0764 -1.9622 0.7399
0.0815 -1.9621 0.7396
0.2389 -1.9494 0.7393
0.3947 -1.9241 0.7391
0.5481 -1.8865 0.7388
0.6980 -1.8367 0.7387
1.7405 -3.6631 1.5240
2.0999 -3.6341 1.5765
2.4879 -3.6028 1.6439
3.4354 -4.2073 2.0387
3.7635 -3.9192 2.0387
4.0673 -3.6055 2.0387
4.3449 -3.2682 2.0387
4.5945 -2.9095 2.0387
4.8144 -2.5321 2.0387
5.0030 -2.1375 2.0387
5.1303 -1.7195 2.0272
5.1048 -1.2656 1.9703
5.0783 -0.8335 1.9278
5.0526 -0.4170 1.8990
5.0358 -0.0097 1.8863
5.0202 0.3949 1.8863
4.9720 0.7964 1.8863
4.9240 1.2015 1.8989
4.8836 1.6160 1.9275
4.8415 2.0466 1.9699
4.7950 2.4983 2.0268
4.6048 2.8914 2.0387
4.3565 3.2510 2.0387
4.0802 3.5891 2.0387
3.7775 3.9038 2.0387
3.4506 4.1931 2.0387
3.1015 4.4549 2.0387
2.7326 4.6877 2.0387
2.3463 4.8900 2.0387
0.7114 1.8508 0.7456
0.5605 1.9021 0.7460
0.4059 1.9410 0.7464
0.2487 1.9674 0.7467
4.3684 2.4425 2.0387
4.1572 2.7846 2.0387
3.9191 3.1086 2.0387
3.6557 3.4122 2.0387
3.3689 3.6936 2.0387
3.0603 3.9508 2.0387
2.7322 4.1823 2.0387
2.3865 4.3865 2.0387
0.7405 1.6676 0.7452
0.6042 1.7218 0.7456
0.4639 1.7649 0.7459
0.3207 1.7965 0.7463
0.1753 1.8164 0.7466
0.0288 1.8245 0.7469
-0.1178 1.8208 0.7472
-0.2637 1.8053 0.7474
-0.4079 1.7780 0.7476
-0.5494 1.7392 0.7478
-0.6872 1.6891 0.7480
-2.2361 4.4366 2.0387
-2.5845 4.2409 2.0387
-2.9159 4.0180 2.0387
-3.2284 3.7693 2.0387
-3.5198 3.4965 2.0387
-3.7884 3.2013 2.0387
-4.0325 2.8857 2.0387
-4.2504 2.5515 2.0387
-4.4409 2.2011 2.0387
-4.6028 1.8366 2.0387
-4.7349 1.4604 2.0387
-4.8365 1.0749 2.0387
-4.9069 0.6825 2.0387
-4.9458 0.2857 2.0387
-4.9528 -0.1129 2.0387
-4.9279 -0.5106 2.0387
-4.8712 -0.9053 2.0387
-4.7832 -1.2942 2.0387
-4.6643 -1.6750 2.0387
-4.5154 -2.0448 2.0387
-4.3373 -2.4017 2.0387
-4.1311 -2.7433 2.0387
-3.8983 -3.0673 2.0387
-3.6402 -3.3718 2.0387
-3.3584 -3.6546 2.0387
-3.0549 -3.9141 2.0387
-2.7314 -4.1485 2.0387
-2.3900 -4.3563 2.0387
-0.7397 -1.6504 0.7418
-0.6046 -1.7044 0.7414
-0.4657 -1.7474 0.7411
-0.3238 -1.7791 0.7407
-0.1798 -1.7994 0.7404
-0.0346 -1.8081 0.7401
0.1107 -1.8052 0.7398
0.2554 -1.7906 0.7396
0.3985 -1.7646 0.7394
0.5390 -1.7271 0.7392
0.6761 -1.6786 0.7390
1.8268 -3.6565 1.6685
2.1925 -3.6270 1.7294
2.5889 -3.5950 1.8071
3.2380 -3.8095 2.0387
3.5346 -3.5383 2.0387
3.8084 -3.2440 2.0387
4.0576 -2.9285 2.0387
4.2806 -2.5939 2.0387
4.4760 -2.2423 2.0387
4.6423 -1.8760 2.0387
4.7786 -1.4975 2.0387
4.8839 -1.1092 2.0387
4.9575 -0.7136 2.0387
4.9990 -0.3133 2.0387
4.9860 0.0886 2.0298
4.9549 0.4878 2.0266
4.9214 0.8879 2.0357
4.8408 1.2819 2.0387
4.7216 1.6661 2.0387
4.5718 2.0394 2.0387
4.3923 2.3995 2.0387
4.1845 2.7437 2.0387
3.9497 3.0700 2.0387
3.6893 3.3762 2.0387
3.4052 3.6603 2.0387
3.0992 3.9206 2.0387
2.7733 4.1553 2.0387
2.4297 4.3629 2.0387
0.7569 1.6602 0.7452
0.6211 1.7158 0.7455
0.4813 1.7602 0.7459
0.3384 1.7932 0.7462
0.1932 1.8146 0.7466
0.0468 1.8242 0.7469
-0.0999 1.8219 0.7471
-0.2459 1.8078 0.7474
-0.3904 1.7820 0.7476
-0.5322 1.7446 0.7478
-0.6706 1.6959 0.7480
-2.1924 4.4586 2.0387
-2.5427 4.2664 2.0387
-2.8763 4.0467 2.0387
-3.1912 3.8011 2.0387
-3.4853 3.5312 2.0387
-3.7568 3.2387 2.0387
-4.0039 2.9254 2.0387
-4.2252 2.5934 2.0387
-4.4191 2.2449 2.0387
-4.5845 1.8820 2.0387
-4.7203 1.5071 2.0387
-4.8257 1.1226 2.0387
-4.9000 0.7309 2.0387
-4.9427 0.3345 2.0387
-4.9536 -0.0639 2.0387
-4.9326 -0.4621 2.0387
-4.8799 -0.8572 2.0387
-4.7957 -1.2470 2.0387
-4.6805 -1.6286 2.0387
-4.5352 -2.0001 2.0387
-4.3606 -2.3587 2.0387
-4.1579 -2.7023 2.0387
-3.9282 -3.0286 2.0387
-3.6731 -3.3356 2.0387
-3.3942 -3.6212 2.0387
-3.0932 -3.8836 2.0387
-2.7720 -4.1212 2.0387
-2.4328 -4.3323 2.0387
-0.7559 -1.6431 0.7418
-0.6214 -1.6984 0.7414
-0.4829 -1.7427 0.7411
-0.3413 -1.7759 0.7408
-0.1975 -1.7976 0.7404
-0.0524 -1.8077 0.7401
0.0930 -1.8062 0.7399
0.2378 -1.7930 0.7396
0.3811 -1.7684 0.7394
0.5220 -1.7323 0.7392
0.6595 -1.6851 0.7390
1.7837 -3.6600 1.6621
2.1462 -3.6307 1.7211
2.5384 -3.5991 1.7966
3.2002 -3.8410 2.0387
3.4994 -3.5728 2.0387
3.7761 -3.2812 2.0387
4.0284 -2.9682 2.0387
4.2548 -2.6359 2.0387
4.4536 -2.2863 2.0387
4.6235 -1.9217 2.0387
4.7636 -1.5445 2.0387
4.8727 -1.1572 2.0387
4.9502 -0.7624 2.0387
4.9956 -0.3625 2.0387
4.9897 0.0396 2.0310
4.9588 0.4390 2.0264
4.9256 0.8387 2.0339
4.8532 1.2342 2.0387
4.7378 1.6196 2.0387
4.5917 1.9944 2.0387
4.4159 2.3562 2.0387
4.2115 2.7024 2.0387
3.9798 3.0310 2.0387
3.7225 3.3398 2.0387
3.4412 3.6268 2.0387
3.1378 3.8901 2.0387
2.8143 4.1280 2.0387
2.4727 4.3390 2.0387
0.7732 1.6527 0.7451
0.6380 1.7096 0.7455
0.4986 1.7554 0.7459
0.3560 1.7898 0.7462
0.2111 1.8126 0.7465
0.0648 1.8236 0.7468
-0.0819 1.8228 0.7471
-0.2281 1.8102 0.7474
-0.3728 1.7858 0.7476
-0.5150 1.7498 0.7478
-0.6538 1.7024 0.7480
-2.1484 4.4802 2.0387
-2.5006 4.2914 2.0387
-2.8364 4.0751 2.0387
-3.1537 3.8326 2.0387
-3.4505 3.5655 2.0387
-3.7248 3.2756 2.0387
-3.9750 2.9648 2.0387
-4.1995 2.6350 2.0387
-4.3969 2.2884 2.0387
-4.5658 1.9271 2.0387
-4.7053 1.5536 2.0387
-4.8145 1.1701 2.0387
-4.8926 0.7791 2.0387
-4.9392 0.3833 2.0387
-4.9540 -0.0151 2.0387
-4.9369 -0.4135 2.0387
-4.8880 -0.8091 2.0387
-4.8076 -1.1996 2.0387
-4.6963 -1.5825 2.0387
-4.5546 -1.9552 2.0387
-4.3836 -2.3155 2.0387
-4.1842 -2.6611 2.0387
-3.9578 -2.9896 2.0387
-3.7057 -3.2991 2.0387
-3.4296 -3.5874 2.0387
-3.1312 -3.8528 2.0387
-2.8124 -4.0935 2.0387
-2.4752 -4.3079 2.0387
-0.7721 -1.6355 0.7419
-0.6381 -1.6922 0.7415
-0.5001 -1.7379 0.7411
-0.3588 -1.7724 0.7408
-0.2152 -1.7955 0.7405
-0.0703 -1.8071 0.7402
0.0751 -1.8070 0.7399
0.2201 -1.7953 0.7396
0.3636 -1.7720 0.7394
0.5049 -1.7373 0.7392
0.6429 -1.6915 0.7390
0.7768 -1.6347 0.7389
2.1003 -3.6344 1.7130
2.4884 -3.6031 1.7863
3.1621 -3.8722 2.0387
3.4639 -3.6069 2.0387
3.7435 -3.3182 2.0387
3.9989 -3.0077 2.0387
4.2285 -2.6776 2.0387
4.4307 -2.3299 2.0387
4.6043 -1.9671 2.0387
4.7480 -1.5913 2.0387
4.8610 -1.2051 2.0387
4.9424 -0.8111 2.0387
4.9918 -0.4117 2.0387
4.9934 -0.0096 2.0324
4.9627 0.3901 2.0263
4.9298 0.7896 2.0324
4.8652 1.1864 2.0387
4.7536 1.5729 2.0387
4.6113 1.9491 2.0387
4.4390 2.3126 2.0387
4.2380 2.6609 2.0387
4.0096 2.9918 2.0387
3.7554 3.3031 2.0387
3.4769 3.5928 2.0387
3.1761 3.8591 2.0387
2.8549 4.1002 2.0387
2.5155 4.3146 2.0387
0.7894 1.6450 0.7451
0.6548 1.7032 0.7455
0.5159 1.7504 0.7458
0.3736 1.7862 0.7462
0.2289 1.8104 0.7465
4.0391 2.2582 2.0387
3.8439 2.5746 2.0387
3.6239 2.8742 2.0387
3.3804 3.1550 2.0387
3.1153 3.4152 2.0387
2.8300 3.6531 2.0387
2.5267 3.8672 2.0387
2.2071 4.0561 2.0387
0.6847 1.5418 0.7451
0.5587 1.5919 0.7454
0.4290 1.6317 0.7458
0.2966 1.6609 0.7461
0.1622 1.6793 0.7464
0.0268 1.6868 0.7466
-0.1088 1.6834 0.7469
-0.2437 1.6690 0.7471
-0.3770 1.6438 0.7473
-0.5078 1.6080 0.7475
-0.6353 1.5617 0.7477
-0.7586 1.5053 0.7478
-2.3904 3.9229 2.0387
-2.6971 3.7168 2.0387
-2.9862 3.4869 2.0387
-3.2559 3.2346 2.0387
-3.5044 2.9615 2.0387
-3.7302 2.6696 2.0387
-3.9319 2.3605 2.0387
-4.1082 2.0363 2.0387
-4.2580 1.6992 2.0387
-4.3802 1.3511 2.0387
-4.4743 0.9945 2.0387
-4.5395 0.6314 2.0387
-4.5754 0.2644 2.0387
-4.5819 -0.1044 2.0387
-4.5588 -0.4725 2.0387
-4.5064 -0.8376 2.0387
-4.4249 -1.1974 2.0387
-4.3149 -1.5495 2.0387
-4.1771 -1.8917 2.0387
-4.0122 -2.2219 2.0387
-3.8215 -2.5378 2.0387
-3.6060 -2.8376 2.0387
-3.3672 -3.1192 2.0387
-3.1065 -3.3808 2.0387
-2.8256 -3.6207 2.0387
-2.5263 -3.8374 2.0387
-2.2105 -4.0296 2.0387
-0.6842 -1.5268 0.7419
-0.5593 -1.5768 0.7416
-0.4307 -1.6166 0.7412
-0.2994 -1.6460 0.7409
-0.1662 -1.6647 0.7406
-0.0319 -1.6728 0.7404
0.1026 -1.6701 0.7401
0.2364 -1.6566 0.7399
0.3688 -1.6325 0.7397
0.4988 -1.5978 0.7395
0.6256 -1.5529 0.7393
0.7485 -1.4979 0.7392
2.3902 -3.9536 2.0387
2.7009 -3.7502 2.0387
2.9943 -3.5223 2.0387
3.2684 -3.2715 2.0387
3.5215 -2.9994 2.0387
3.7519 -2.7076 2.0387
3.9580 -2.3982 2.0387
4.1385 -2.0732 2.0387
4.2923 -1.7345 2.0387
4.4183 -1.3845 2.0387
4.5156 -1.0254 2.0387
4.5836 -0.6597 2.0387
4.6220 -0.2899 2.0387
4.6303 0.0822 2.0387
4.6085 0.4536 2.0387
4.5569 0.8221 2.0387
4.4757 1.1852 2.0387
4.3656 1.5404 2.0387
4.2271 1.8856 2.0387
4.0613 2.2184 2.0387
3.8692 2.5367 2.0387
3.6521 2.8385 2.0387
3.4115 3.1216 2.0387
3.1489 3.3845 2.0387
2.8660 3.6252 2.0387
2.5647 3.8423 2.0387
2.2471 4.0344 2.0387
0.6999 1.5350 0.7451
0.5744 1.5863 0.7454
0.4451 1.6274 0.7457
0.3129 1.6579 0.7460
0.1787 1.6776 0.7463
0.0434 1.6865 0.7466
-0.0922 1.6844 0.7469
-0.2273 1.6714 0.7471
-0.3608 1.6475 0.7473
-0.4919 1.6129 0.7475
-0.6199 1.5679 0.7476
-0.7437 1.5127 0.7478
-2.3517 3.9465 2.0387
-2.6604 3.7434 2.0387
-2.9518 3.5163 2.0387
-3.2239 3.2666 2.0387
-3.4751 2.9961 2.0387
-3.7038 2.7063 2.0387
-3.9085 2.3992 2.0387
-4.0880 2.0768 2.0387
-4.2411 1.7411 2.0387
-4.3668 1.3943 2.0387
-4.4643 1.0385 2.0387
-4.5330 0.6762 2.0387
-4.5726 0.3095 2.0387
-4.5827 -0.0592 2.0387
-4.5632 -0.4275 2.0387
-4.5144 -0.7931 2.0387
-4.4364 -1.1536 2.0387
-4.3299 -1.5068 2.0387
-4.1954 -1.8504 2.0387
-4.0338 -2.1821 2.0387
-3.8462 -2.5000 2.0387
-3.6337 -2.8018 2.0387
-3.3976 -3.0857 2.0387
-3.1395 -3.3498 2.0387
-2.8610 -3.5925 2.0387
-2.5639 -3.8122 2.0387
-2.2500 -4.0074 2.0387
-0.6992 -1.5200 0.7419
-0.5748 -1.5712 0.7416
-0.4466 -1.6123 0.7413
-0.3156 -1.6429 0.7410
-0.1826 -1.6630 0.7407
-0.0484 -1.6724 0.7404
0.0861 -1.6710 0.7401
0.2201 -1.6589 0.7399
0.3527 -1.6360 0.7397
0.4830 -1.6026 0.7395
0.6103 -1.5589 0.7393
0.7336 -1.5052 0.7392
2.3510 -3.9768 2.0387
2.6637 -3.7765 2.0387
2.9593 -3.5515 2.0387
3.2359 -3.3034 2.0387
3.4917 -3.0338 2.0387
3.7249 -2.7444 2.0387
3.9341 -2.4370 2.0387
4.1178 -2.1138 2.0387
4.2749 -1.7766 2.0387
4.4044 -1.4279 2.0387
4.5052 -1.0699 2.0387
4.5769 -0.7048 2.0387
4.6188 -0.3352 2.0387
4.6309 0.0366 2.0387
4.6128 0.4081 2.0387
4.5648 0.7772 2.0387
4.4873 1.1409 2.0387
4.3806 1.4974 2.0387
4.2456 1.8439 2.0387
4.0831 2.1784 2.0387
3.8941 2.4986 2.0387
3.6800 2.8024 2.0387
3.4422 3.0880 2.0387
3.1822 3.3534 2.0387
2.9017 3.5969 2.0387
2.6026 3.8170 2.0387
2.2868 4.0122 2.0387
0.7150 1.5280 0.7450
0.5900 1.5806 0.7454
0.4611 1.6229 0.7457
0.3293 1.6547 0.7460
0.1953 1.6758 0.7463
0.0600 1.6860 0.7466
-0.0756 1.6853 0.7468
-0.2108 1.6736 0.7471
-0.3445 1.6510 0.7473
-0.4760 1.6177 0.7475
-0.6044 1.5740 0.7476
-0.7288 1.5200 0.7478
-2.3128 3.9696 2.0387
-2.6235 3.7696 2.0387
-2.9171 3.5454 2.0387
-3.1917 3.2984 2.0387
-3.4455 3.0303 2.0387
-3.6771 2.7428 2.0387
-3.8848 2.4377 2.0387
-4.0674 2.1171 2.0387
-4.2238 1.7829 2.0387
-4.3529 1.4373 2.0387
-4.4539 1.0825 2.0387
-4.5262 0.7209 2.0387
-4.5693 0.3546 2.0387
-4.5830 -0.0140 2.0387
-4.5672 -0.3825 2.0387
-4.5219 -0.7485 2.0387
-4.4475 -1.1098 2.0387
-4.3445 -1.4640 2.0387
-4.2134 -1.8089 2.0387
-4.0551 -2.1422 2.0387
-3.8706 -2.4618 2.0387
-3.6610 -2.7657 2.0387
-3.4278 -3.0519 2.0387
-3.1723 -3.3186 2.0387
-2.8962 -3.5640 2.0387
-2.6012 -3.7866 2.0387
-2.2893 -3.9848 2.0387
-0.7142 -1.5131 0.7420
-0.5902 -1.5655 0.7416
-0.4625 -1.6078 0.7413
-0.3318 -1.6397 0.7410
-0.1990 -1.6611 0.7407
-0.0649 -1.6718 0.7404
0.0696 -1.6718 0.7402
0.2037 -1.6609 0.7399
0.3365 -1.6394 0.7397
0.4672 -1.6073 0.7395
0.5949 -1.5648 0.7394
0.7188 -1.5123 0.7392
2.1008 -3.6348 1.8528
2.6263 -3.8024 2.0387
2.9241 -3.5804 2.0387
3.2031 -3.3350 2.0387
3.4615 -3.0680 2.0387
3.6976 -2.7809 2.0387
3.9098 -2.4756 2.0387
4.0967 -2.1541 2.0387
4.2572 -1.8186 2.0387
4.3900 -1.4712 2.0387
4.4944 -1.1142 2.0387
4.5697 -0.7499 2.0387
4.6153 -0.3804 2.0387
4.6310 -0.0091 2.0387
4.6166 0.3630 2.0387
4.5723 0.7323 2.0387
4.4983 1.0969 2.0387
4.3952 1.4542 2.0387
4.2636 1.8020 2.0387
4.1044 2.1381 2.0387
3.9186 2.4602 2.0387
3.7076 2.7662 2.0387
3.4726 3.0541 2.0387
3.2152 3.3220 2.0387
2.9371 3.5683 2.0387
2.6402 3.7914 2.0387
2.3263 3.9897 2.0387
0.7300 1.5209 0.7450
0.6055 1.5747 0.7453
0.4771 1.6183 0.7456
0.3456 1.6514 0.7460
0.2118 1.6738 0.7463
3.7495 2.0961 2.0387
3.5683 2.3898 2.0387
3.3641 2.6679 2.0387
3.1382 2.9286 2.0387
2.8921 3.1702 2.0387
2.6274 3.3911 2.0387
2.3458 3.5900 2.0387
0.7485 1.3754 0.7447
0.6357 1.4311 0.7450
0.5187 1.4776 0.7453
0.3983 1.5145 0.7456
0.2754 1.5416 0.7459
0.1507 1.5587 0.7462
0.0249 1.5657 0.7464
-0.1009 1.5625 0.7466
-0.2261 1.5492 0.7469
-0.3498 1.5258 0.7470
-0.4712 1.4925 0.7472
-0.5896 1.4496 0.7474
-0.7040 1.3972 0.7475
-2.2195 3.6429 2.0387
-2.5043 3.4516 2.0387
-2.7729 3.2381 2.0387
-3.0233 3.0039 2.0387
-3.2542 2.7503 2.0387
-3.4640 2.4792 2.0387
-3.6513 2.1922 2.0387
-3.8151 1.8912 2.0387
-3.9542 1.5781 2.0387
-4.0678 1.2548 2.0387
-4.1552 0.9236 2.0387
-4.2157 0.5864 2.0387
-4.2491 0.2455 2.0387
-4.2551 -0.0970 2.0387
-4.2337 -0.4388 2.0387
-4.1850 -0.7779 2.0387
-4.1093 -1.1120 2.0387
-4.0071 -1.4391 2.0387
-3.8790 -1.7569 2.0387
-3.7259 -2.0635 2.0387
-3.5487 -2.3569 2.0387
-3.3486 -2.6352 2.0387
-3.1267 -2.8967 2.0387
-2.8845 -3.1396 2.0387
-2.6236 -3.3623 2.0387
-2.3457 -3.5635 2.0387
-0.7473 -1.3625 0.7423
-0.6353 -1.4180 0.7420
-0.5193 -1.4644 0.7417
-0.3999 -1.5014 0.7414
-0.2780 -1.5287 0.7411
-0.1543 -1.5461 0.7408
-0.0296 -1.5536 0.7406
0.0954 -1.5511 0.7403
0.2197 -1.5386 0.7401
0.3426 -1.5161 0.7399
0.4633 -1.4840 0.7398
0.5811 -1.4422 0.7396
0.6952 -1.3911 0.7395
2.2191 -3.6702 2.0387
2.5075 -3.4813 2.0387
2.7798 -3.2697 2.0387
3.0342 -3.0368 2.0387
3.2690 -2.7841 2.0387
3.4828 -2.5133 2.0387
3.6741 -2.2261 2.0387
3.8417 -1.9243 2.0387
3.9844 -1.6100 2.0387
4.1012 -1.2851 2.0387
4.1915 -0.9518 2.0387
4.2547 -0.6123 2.0387
4.2902 -0.2688 2.0387
4.2980 0.0764 2.0387
4.2778 0.4211 2.0387
4.2299 0.7631 2.0387
4.1546 1.1000 2.0387
4.0524 1.4297 2.0387
3.9239 1.7502 2.0387
3.7700 2.0591 2.0387
3.5918 2.3546 2.0387
3.3903 2.6348 2.0387
3.1670 2.8977 2.0387
2.9233 3.1417 2.0387
2.6608 3.3652 2.0387
2.3811 3.5668 2.0387
0.7620 1.3679 0.7446
0.6497 1.4248 0.7449
0.5332 1.4724 0.7453
0.4132 1.5105 0.7456
0.2906 1.5388 0.7458
0.1660 1.5572 0.7461
0.0404 1.5654 0.7464
-0.0855 1.5634 0.7466
-0.2108 1.5514 0.7468
-0.3348 1.5292 0.7470
-0.4565 1.4971 0.7472
-0.5753 1.4553 0.7473
-0.6902 1.4041 0.7475
-2.1836 3.6648 2.0387
-2.4703 3.4762 2.0387
-2.7409 3.2654 2.0387
-2.9937 3.0336 2.0387
-3.2270 2.7824 2.0387
-3.4395 2.5133 2.0387
-3.6296 2.2282 2.0387
-3.7963 1.9288 2.0387
-3.9385 1.6170 2.0387
-4.0553 1.2949 2.0387
-4.1459 0.9645 2.0387
-4.2098 0.6280 2.0387
-4.2465 0.2874 2.0387
-4.2559 -0.0550 2.0387
-4.2378 -0.3971 2.0387
-4.1924 -0.7366 2.0387
-4.1200 -1.0714 2.0387
-4.0210 -1.3994 2.0387
-3.8961 -1.7185 2.0387
-3.7460 -2.0266 2.0387
-3.5717 -2.3217 2.0387
-3.3743 -2.6020 2.0387
-3.1550 -2.8656 2.0387
-2.9153 -3.1109 2.0387
-2.6566 -3.3362 2.0387
-2.3806 -3.5401 2.0387
-0.7607 -1.3550 0.7424
-0.6493 -1.4117 0.7420
-0.5337 -1.4592 0.7417
-0.4147 -1.4974 0.7414
-0.2930 -1.5259 0.7411
-0.1695 -1.5445 0.7409
-0.0449 -1.5532 0.7406
0.0801 -1.5519 0.7404
0.2045 -1.5406 0.7402
0.3276 -1.5194 0.7400
0.4487 -1.4884 0.7398
0.5669 -1.4478 0.7396
0.6814 -1.3979 0.7395
2.1828 -3.6917 2.0387
2.4730 -3.5056 2.0387
2.7473 -3.2968 2.0387
3.0040 -3.0664 2.0387
3.2414 -2.8161 2.0387
3.4578 -2.5474 2.0387
3.6519 -2.2621 2.0387
3.8225 -1.9620 2.0387
3.9682 -1.6491 2.0387
4.0883 -1.3254 2.0387
4.1819 -0.9930 2.0387
4.2484 -0.6542 2.0387
4.2874 -0.3111 2.0387
4.2985 0.0340 2.0387
4.2818 0.3790 2.0387
4.2373 0.7214 2.0387
4.1653 1.0591 2.0387
4.0663 1.3898 2.0387
3.9410 1.7115 2.0387
3.7902 2.0220 2.0387
3.6149 2.3192 2.0387
3.4162 2.6013 2.0387
3.1955 2.8664 2.0387
2.9542 3.1129 2.0387
2.6939 3.3390 2.0387
2.4163 3.5434 2.0387
0.7754 1.3603 0.7446
0.6637 1.4183 0.7449
0.5477 1.4671 0.7452
0.4281 1.5064 0.7455
0.3057 1.5359 0.7458
0.1813 1.5555 0.7461
0.0558 1.5649 0.7463
-0.0701 1.5642 0.7466
-0.1955 1.5534 0.7468
-0.3197 1.5324 0.7470
-0.4417 1.5016 0.7472
-0.5609 1.4610 0.7473
-0.6764 1.4109 0.7475
-2.1474 3.6863 2.0387
-2.4360 3.5006 2.0387
-2.7087 3.2924 2.0387
-2.9637 3.0631 2.0387
-3.1995 2.8142 2.0387
-3.4146 2.5472 2.0387
-3.6076 2.2639 2.0387
-3.7772 1.9662 2.0387
-3.9225 1.6558 2.0387
-4.0424 1.3349 2.0387
-4.1362 1.0054 2.0387
-4.2034 0.6695 2.0387
-4.2435 0.3293 2.0387
-4.2562 -0.0130 2.0387
-4.2415 -0.3552 2.0387
-4.1995 -0.6952 2.0387
-4.1303 -1.0307 2.0387
-4.0346 -1.3597 2.0387
-3.9128 -1.6800 2.0387
-3.7657 -1.9895 2.0387
-3.5943 -2.2863 2.0387
-3.3997 -2.5685 2.0387
-3.1830 -2.8342 2.0387
-2.9457 -3.0818 2.0387
-2.6892 -3.3097 2.0387
-2.4153 -3.5163 2.0387
-0.7740 -1.3475 0.7424
-0.6632 -1.4052 0.7421
-0.5481 -1.4539 0.7418
-0.4294 -1.4932 0.7415
-0.3081 -1.5229 0.7412
-0.1847 -1.5428 0.7409
-0.0602 -1.5527 0.7406
0.0648 -1.5526 0.7404
0.1893 -1.5426 0.7402
0.3126 -1.5226 0.7400
0.4340 -1.4927 0.7398
0.5526 -1.4533 0.7397
0.6676 -1.4045 0.7395
0.7784 -1.3466 0.7394
2.4382 -3.5297 2.0387
2.7146 -3.3236 2.0387
2.9736 -3.0958 2.0387
3.2134 -2.8478 2.0387
3.4325 -2.5813 2.0387
3.6294 -2.2979 2.0387
3.8029 -1.9995 2.0387
3.9517 -1.6880 2.0387
4.0750 -1.3656 2.0387
4.1719 -1.0341 2.0387
4.2417 -0.6960 2.0387
4.2841 -0.3533 2.0387
4.2986 -0.0083 2.0387
4.2853 0.3368 2.0387
4.2442 0.6797 2.0387
4.1756 1.0180 2.0387
4.0799 1.3498 2.0387
3.9578 1.6727 2.0387
3.8100 1.9846 2.0387
3.6377 2.2836 2.0387
3.4418 2.5676 2.0387
3.2237 2.8349 2.0387
2.9848 3.0837 2.0387
2.7267 3.3124 2.0387
2.4512 3.5195 2.0387
0.7888 1.3526 0.7445
0.6777 1.4117 0.7449
0.5621 1.4616 0.7452
0.4429 1.5021 0.7455
0.3208 1.5328 0.7458
0.1967 1.5536 0.7461
3.4922 1.9522 2.0387
3.3236 2.2257 2.0387
3.1334 2.4848 2.0387
2.9231 2.7276 2.0387
2.6939 2.9527 2.0387
2.4474 3.1585 2.0387
2.1852 3.3437 2.0387
0.6972 1.2809 0.7446
0.5921 1.3328 0.7449
0.4832 1.3761 0.7452
0.3711 1.4105 0.7454
0.2566 1.4357 0.7457
0.1404 1.4516 0.7460
0.0233 1.4581 0.7462
-0.0939 1.4552 0.7464
-0.2105 1.4427 0.7466
-0.3257 1.4210 0.7468
-0.4388 1.3900 0.7470
-0.5490 1.3500 0.7471
-0.6556 1.3013 0.7472
-0.7579 1.2441 0.7473
-2.3330 3.2158 2.0387
-2.5833 3.0170 2.0387
-2.8167 2.7988 2.0387
-3.0318 2.5626 2.0387
-3.2273 2.3100 2.0387
-3.4019 2.0426 2.0387
-3.5546 1.7622 2.0387
-3.6842 1.4704 2.0387
-3.7901 1.1692 2.0387
-3.8715 0.8606 2.0387
-3.9280 0.5464 2.0387
-3.9591 0.2288 2.0387
-3.9647 -0.0904 2.0387
-3.9447 -0.4089 2.0387
-3.8993 -0.7249 2.0387
-3.8288 -1.0362 2.0387
-3.7335 -1.3409 2.0387
-3.6141 -1.6370 2.0387
-3.4714 -1.9227 2.0387
-3.3063 -2.1961 2.0387
-3.1197 -2.4554 2.0387
-2.9130 -2.6989 2.0387
-2.6873 -2.9252 2.0387
-2.4442 -3.1327 2.0387
-2.1851 -3.3201 2.0387
-0.6962 -1.2695 0.7424
-0.5919 -1.3213 0.7421
-0.4838 -1.3645 0.7418
-0.3725 -1.3990 0.7415
-0.2589 -1.4244 0.7413
-0.1437 -1.4407 0.7410
-0.0274 -1.4476 0.7408
0.0890 -1.4453 0.7406
0.2048 -1.4336 0.7404
0.3193 -1.4127 0.7402
0.4318 -1.3827 0.7400
0.5416 -1.3438 0.7399
0.6479 -1.2962 0.7398
0.7500 -1.2403 0.7397
2.3357 -3.2426 2.0387
2.5893 -3.0453 2.0387
2.8262 -2.8284 2.0387
3.0449 -2.5930 2.0387
3.2439 -2.3407 2.0387
3.4221 -2.0732 2.0387
3.5781 -1.7921 2.0387
3.7109 -1.4994 2.0387
3.8197 -1.1968 2.0387
3.9038 -0.8864 2.0387
3.9626 -0.5703 2.0387
3.9957 -0.2504 2.0387
4.0029 0.0711 2.0387
3.9841 0.3922 2.0387
3.9396 0.7106 2.0387
3.8694 1.0244 2.0387
3.7743 1.3316 2.0387
3.6546 1.6300 2.0387
3.5114 1.9177 2.0387
3.3454 2.1930 2.0387
3.1578 2.4539 2.0387
2.9499 2.6988 2.0387
2.7229 2.9261 2.0387
2.4785 3.1343 2.0387
2.2181 3.3222 2.0387
0.7098 1.2740 0.7445
0.6052 1.3269 0.7448
0.4967 1.3713 0.7451
0.3850 1.4068 0.7454
0.2707 1.4331 0.7457
0.1547 1.4502 0.7459
0.0377 1.4578 0.7462
-0.0795 1.4560 0.7464
-0.1963 1.4448 0.7466
-0.3117 1.4241 0.7468
-0.4251 1.3943 0.7469
-0.5356 1.3554 0.7471
-0.6427 1.3077 0.7472
-0.7456 1.2515 0.7473
-2.3013 3.2388 2.0387
-2.5535 3.0424 2.0387
-2.7890 2.8265 2.0387
-3.0065 2.5925 2.0387
-3.2045 2.3418 2.0387
-3.3817 2.0761 2.0387
-3.5371 1.7972 2.0387
-3.6696 1.5067 2.0387
-3.7784 1.2066 2.0387
-3.8629 0.8987 2.0387
-3.9224 0.5852 2.0387
-3.9566 0.2678 2.0387
-3.9654 -0.0512 2.0387
-3.9485 -0.3700 2.0387
-3.9062 -0.6864 2.0387
-3.8387 -0.9984 2.0387
-3.7465 -1.3040 2.0387
-3.6300 -1.6013 2.0387
-3.4901 -1.8883 2.0387
-3.3277 -2.1633 2.0387
-3.1437 -2.4244 2.0387
-2.9393 -2.6700 2.0387
-2.7159 -2.8984 2.0387
-2.4749 -3.1083 2.0387
-2.2177 -3.2982 2.0387
-0.7087 -1.2626 0.7424
-0.6049 -1.3154 0.7421
-0.4972 -1.3597 0.7419
-0.3863 -1.3952 0.7416
-0.2730 -1.4218 0.7413
-0.1578 -1.4392 0.7410
-0.0417 -1.4473 0.7408
0.0747 -1.4461 0.7406
0.1906 -1.4356 0.7404
0.3054 -1.4158 0.7402
0.4182 -1.3869 0.7400
0.5283 -1.3490 0.7399
0.6350 -1.3025 0.7398
0.7377 -1.2476 0.7397
2.3036 -3.2651 2.0387
2.5591 -3.0706 2.0387
2.7981 -2.8560 2.0387
3.0191 -2.6228 2.0387
3.2207 -2.3725 2.0387
3.4014 -2.1067 2.0387
3.5602 -1.8272 2.0387
3.6959 -1.5358 2.0387
3.8077 -1.2343 2.0387
3.8949 -0.9248 2.0387
3.9568 -0.6093 2.0387
3.9930 -0.2897 2.0387
4.0034 0.0317 2.0387
3.9878 0.3529 2.0387
3.9464 0.6718 2.0387
3.8794 0.9863 2.0387
3.7873 1.2944 2.0387
3.6706 1.5940 2.0387
3.5302 1.8831 2.0387
3.3669 2.1600 2.0387
3.1819 2.4227 2.0387
2.9764 2.6697 2.0387
2.7517 2.8992 2.0387
2.5093 3.1099 2.0387
2.2508 3.3003 2.0387
0.7223 1.2669 0.7445
0.6182 1.3209 0.7448
0.5102 1.3663 0.7451
0.3988 1.4029 0.7454
0.2848 1.4304 0.7457
0.1690 1.4486 0.7459
0.0521 1.4574 0.7461
-0.0652 1.4568 0.7464
-0.1820 1.4467 0.7466
-0.2976 1.4272 0.7468
-0.4113 1.3984 0.7469
-0.5223 1.3606 0.7471
-0.6298 1.3140 0.7472
-0.7333 1.2589 0.7473
-2.2693 3.2615 2.0387
-2.5234 3.0676 2.0387
-2.7611 2.8540 2.0387
-2.9809 2.6221 2.0387
-3.1813 2.3734 2.0387
-3.3612 2.1095 2.0387
-3.5193 1.8320 2.0387
-3.6546 1.5429 2.0387
-3.7664 1.2438 2.0387
-3.8539 0.9368 2.0387
-3.9165 0.6238 2.0387
-3.9538 0.3068 2.0387
-3.9657 -0.0121 2.0387
-3.9520 -0.3310 2.0387
-3.9128 -0.6478 2.0387
-3.8483 -0.9604 2.0387
-3.7591 -1.2669 2.0387
-3.6456 -1.5654 2.0387
-3.5085 -1.8538 2.0387
-3.3488 -2.1303 2.0387
-3.1674 -2.3932 2.0387
-2.9654 -2.6408 2.0387
-2.7443 -2.8714 2.0387
-2.5053 -3.0836 2.0387
-2.2500 -3.2761 2.0387
-0.7211 -1.2555 0.7425
-0.6178 -1.3094 0.7422
-0.5106 -1.3547 0.7419
-0.4001 -1.3914 0.7416
-0.2870 -1.4190 0.7413
-0.1720 -1.4375 0.7411
-0.0560 -1.4468 0.7408
0.0604 -1.4467 0.7406
0.1765 -1.4373 0.7404
0.2914 -1.4187 0.7402
0.4045 -1.3909 0.7401
0.5150 -1.3542 0.7399
0.6222 -1.3087 0.7398
0.7254 -1.2547 0.7397
2.2712 -3.2875 2.0387
2.5286 -3.0955 2.0387
2.7697 -2.8833 2.0387
2.9930 -2.6523 2.0387
3.1970 -2.4040 2.0387
3.3804 -2.1401 2.0387
3.5419 -1.8622 2.0387
3.6805 -1.5721 2.0387
3.7953 -1.2718 2.0387
3.8855 -0.9631 2.0387
3.9506 -0.6482 2.0387
3.9900 -0.3290 2.0387
4.0035 -0.0077 2.0387
3.9911 0.3136 2.0387
3.9529 0.6329 2.0387
3.8890 0.9481 2.0387
3.7999 1.2570 2.0387
3.6862 1.5577 2.0387
3.5486 1.8483 2.0387
3.3881 2.1268 2.0387
3.2057 2.3913 2.0387
3.0027 2.6403 2.0387
2.7802 2.8721 2.0387
2.5399 3.0851 2.0387
2.2833 3.2781 2.0387
0.7347 1.2597 0.7445
0.6312 1.3147 0.7448
0.5236 1.3612 0.7451
0.4126 1.3989 0.7453
0.2989 1.4275 0.7456
0.1833 1.4469 0.7459
3.2620 1.8233 2.0387
3.1044 2.0788 2.0387
2.9269 2.3208 2.0387
2.7305 2.5476 2.0387
2.5164 2.7579 2.0387
2.2862 2.9502 2.0387
0.7452 1.1401 0.7442
0.6513 1.1963 0.7445
0.5531 1.2448 0.7448
0.4514 1.2853 0.7451
0.3467 1.3174 0.7453
0.2397 1.3409 0.7456
0.1312 1.3558 0.7458
0.0219 1.3618 0.7460
-0.0876 1.3591 0.7462
-0.1965 1.3475 0.7464
-0.3041 1.3271 0.7466
-0.4097 1.2982 0.7467
-0.5126 1.2609 0.7469
-0.6122 1.2154 0.7470
-0.7078 1.1620 0.7470
-2.1796 3.0047 2.0387
-2.4134 2.8189 2.0387
-2.6315 2.6150 2.0387
-2.8326 2.3944 2.0387
-3.0153 2.1584 2.0387
-3.1785 1.9086 2.0387
-3.3211 1.6465 2.0387
-3.4423 1.3739 2.0387
-3.5412 1.0925 2.0387
-3.6173 0.8041 2.0387
-3.6701 0.5106 2.0387
-3.6992 0.2137 2.0387
-3.7044 -0.0844 2.0387
-3.6857 -0.3821 2.0387
-3.6433 -0.6773 2.0387
-3.5773 -0.9682 2.0387
-3.4883 -1.2529 2.0387
-3.3767 -1.5296 2.0387
-3.2434 -1.7965 2.0387
-3.0890 -2.0519 2.0387
-2.9147 -2.2942 2.0387
-2.7215 -2.5217 2.0387
-2.5106 -2.7331 2.0387
-2.2834 -2.9269 2.0387
-0.7437 -1.1301 0.7428
-0.6504 -1.1862 0.7425
-0.5530 -1.2346 0.7422
-0.4519 -1.2750 0.7419
-0.3480 -1.3072 0.7417
-0.2419 -1.3310 0.7414
-0.1341 -1.3462 0.7412
-0.0255 -1.3527 0.7410
0.0832 -1.3505 0.7408
0.1914 -1.3396 0.7406
0.2985 -1.3201 0.7404
0.4036 -1.2920 0.7403
0.5061 -1.2556 0.7401
0.6054 -1.2112 0.7400
0.7009 -1.1589 0.7399
2.1819 -3.0285 2.0387
2.4187 -2.8444 2.0387
2.6399 -2.6417 2.0387
2.8442 -2.4219 2.0387
3.0301 -2.1862 2.0387
3.1964 -1.9363 2.0387
3.3421 -1.6738 2.0387
3.4661 -1.4003 2.0387
3.5677 -1.1178 2.0387
3.6462 -0.8279 2.0387
3.7011 -0.5326 2.0387
3.7320 -0.2339 2.0387
3.7388 0.0664 2.0387
3.7213 0.3662 2.0387
3.6796 0.6637 2.0387
3.6142 0.9568 2.0387
3.5253 1.2436 2.0387
3.4136 1.5223 2.0387
3.2798 1.7911 2.0387
3.1248 2.0482 2.0387
2.9497 2.2919 2.0387
2.7555 2.5207 2.0387
2.5436 2.7330 2.0387
2.3153 2.9276 2.0387
0.7564 1.1327 0.7442
0.6630 1.1899 0.7445
0.5653 1.2393 0.7447
0.4640 1.2807 0.7450
0.3596 1.3139 0.7453
0.2529 1.3385 0.7455
0.1446 1.3544 0.7458
0.0353 1.3616 0.7460
-0.0742 1.3599 0.7462
-0.1832 1.3494 0.7464
-0.2910 1.3301 0.7466
-0.3969 1.3022 0.7467
-0.5002 1.2659 0.7468
-0.6002 1.2214 0.7470
-0.6963 1.1689 0.7470
-2.1499 3.0261 2.0387
-2.3855 2.8426 2.0387
-2.6057 2.6409 2.0387
-2.8089 2.4223 2.0387
-2.9939 2.1881 2.0387
-3.1596 1.9399 2.0387
-3.3048 1.6793 2.0387
-3.4286 1.4079 2.0387
-3.5303 1.1274 2.0387
-3.6092 0.8398 2.0387
-3.6649 0.5468 2.0387
-3.6969 0.2502 2.0387
-3.7050 -0.0479 2.0387
-3.6893 -0.3457 2.0387
-3.6498 -0.6414 2.0387
-3.5867 -0.9329 2.0387
-3.5004 -1.2185 2.0387
-3.3916 -1.4962 2.0387
-3.2609 -1.7644 2.0387
-3.1090 -2.0213 2.0387
-2.9371 -2.2653 2.0387
-2.7461 -2.4947 2.0387
-2.5373 -2.7081 2.0387
-2.3121 -2.9042 2.0387
-0.7548 -1.1228 0.7428
-0.6621 -1.1797 0.7425
-0.5651 -1.2291 0.7422
-0.4645 -1.2705 0.7420
-0.3609 -1.3037 0.7417
-0.2550 -1.3285 0.7414
-0.1474 -1.3448 0.7412
-0.0389 -1.3523 0.7410
0.0699 -1.3512 0.7408
0.1782 -1.3414 0.7406
0.2854 -1.3229 0.7404
0.3908 -1.2959 0.7403
0.4937 -1.2605 0.7401
0.5935 -1.2170 0.7400
0.6894 -1.1657 0.7399
0.7810 -1.1068 0.7399
2.3905 -2.8680 2.0387
2.6137 -2.6675 2.0387
2.8201 -2.4497 2.0387
3.0083 -2.2159 2.0387
3.1771 -1.9677 2.0387
3.3254 -1.7066 2.0387
3.4521 -1.4344 2.0387
3.5565 -1.1528 2.0387
3.6379 -0.8637 2.0387
3.6957 -0.5690 2.0387
3.7296 -0.2706 2.0387
3.7392 0.0296 2.0387
3.7247 0.3296 2.0387
3.6860 0.6274 2.0387
3.6235 0.9212 2.0387
3.5374 1.2089 2.0387
3.4285 1.4887 2.0387
3.2974 1.7588 2.0387
3.1449 2.0174 2.0387
2.9722 2.2628 2.0387
2.7803 2.4935 2.0387
2.5704 2.7080 2.0387
2.3441 2.9048 2.0387
0.7675 1.1252 0.7441
0.6747 1.1833 0.7444
0.5775 1.2337 0.7447
0.4766 1.2761 0.7450
0.3726 1.3103 0.7453
0.2661 1.3359 0.7455
0.1579 1.3529 0.7457
0.0487 1.3612 0.7460
-0.0608 1.3606 0.7462
-0.1699 1.3511 0.7464
-0.2779 1.3329 0.7465
-0.3840 1.3061 0.7467
-0.4877 1.2708 0.7468
-0.5881 1.2272 0.7469
-0.6848 1.1758 0.7470
-2.1200 3.0472 2.0387
-2.3575 2.8661 2.0387
-2.5796 2.6666 2.0387
-2.7849 2.4500 2.0387
-2.9723 2.2176 2.0387
-3.1403 1.9710 2.0387
-3.2881 1.7118 2.0387
-3.4146 1.4416 2.0387
-3.5191 1.1622 2.0387
-3.6008 0.8754 2.0387
-3.6593 0.5829 2.0387
-3.6942 0.2867 2.0387
-3.7053 -0.0113 2.0387
-3.6925 -0.3093 2.0387
-3.6559 -0.6053 2.0387
-3.5957 -0.8975 2.0387
-3.5122 -1.1838 2.0387
-3.4061 -1.4627 2.0387
-3.2780 -1.7321 2.0387
-3.1287 -1.9905 2.0387
-2.9592 -2.2361 2.0387
-2.7705 -2.4674 2.0387
-2.5638 -2.6829 2.0387
-2.3405 -2.8811 2.0387
-0.7659 -1.1153 0.7428
-0.6737 -1.1731 0.7425
-0.5772 -1.2234 0.7423
-0.4770 -1.2658 0.7420
-0.3737 -1.3001 0.7417
-0.2680 -1.3259 0.7415
-0.1606 -1.3432 0.7412
-0.0522 -1.3519 0.7410
0.0566 -1.3518 0.7408
0.1650 -1.3431 0.7406
0.2724 -1.3256 0.7404
0.3780 -1.2997 0.7403
0.4813 -1.2653 0.7402
0.5814 -1.2228 0.7400
0.6779 -1.1724 0.7400
0.7700 -1.1144 0.7399
2.3620 -2.8913 2.0387
2.5872 -2.6930 2.0387
2.7958 -2.4773 2.0387
2.9863 -2.2454 2.0387
3.1575 -1.9988 2.0387
3.3083 -1.7392 2.0387
3.4378 -1.4683 2.0387
3.5449 -1.1878 2.0387
3.6292 -0.8995 2.0387
3.6899 -0.6054 2.0387
3.7267 -0.3073 2.0387
3.7394 -0.0072 2.0387
3.7278 0.2929 2.0387
3.6920 0.5911 2.0387
3.6324 0.8855 2.0387
3.5492 1.1740 2.0387
3.4430 1.4549 2.0387
3.3146 1.7263 2.0387
3.1647 1.9864 2.0387
2.9944 2.2335 2.0387
2.8048 2.4661 2.0387
2.5971 2.6826 2.0387
2.3726 2.8816 2.0387
0.7785 1.1176 0.7441
0.6863 1.1766 0.7444
0.5896 1.2279 0.7447
0.4891 1.2714 0.7450
0.3855 1.3065 0.7452
0.2793 1.3332 0.7455
0.1712 1.3513 0.7457
3.0543 1.7070 2.0387
2.9068 1.9463 2.0387
2.7406 2.1729 2.0387
2.5567 2.3853 2.0387
2.3564 2.5822 2.0387
0.7812 1.0079 0.7439
0.6978 1.0674 0.7442
0.6098 1.1201 0.7444
0.5179 1.1655 0.7447
0.4227 1.2033 0.7450
0.3247 1.2334 0.7452
0.2245 1.2554 0.7454
0.1230 1.2693 0.7457
0.0206 1.2750 0.7459
-0.0819 1.2724 0.7461
-0.1839 1.2616 0.7462
-0.2846 1.2425 0.7464
-0.3835 1.2154 0.7465
-0.4799 1.1805 0.7466
-0.5731 1.1379 0.7467
-0.6626 1.0879 0.7468
-0.7477 1.0309 0.7469
-2.2601 2.6401 2.0387
-2.4644 2.4492 2.0387
-2.6527 2.2426 2.0387
-2.8239 2.0216 2.0387
-2.9768 1.7876 2.0387
-3.1104 1.5422 2.0387
-3.2239 1.2869 2.0387
-3.3166 1.0233 2.0387
-3.3879 0.7532 2.0387
-3.4373 0.4782 2.0387
-3.4645 0.2002 2.0387
-3.4694 -0.0791 2.0387
-3.4520 -0.3579 2.0387
-3.4122 -0.6344 2.0387
-3.3504 -0.9069 2.0387
-3.2670 -1.1736 2.0387
-3.1625 -1.4327 2.0387
-3.0375 -1.6827 2.0387
-2.8929 -1.9219 2.0387
-2.7296 -2.1487 2.0387
-2.5486 -2.3618 2.0387
-2.3511 -2.5597 2.0387
-0.7794 -0.9991 0.7431
-0.6965 -1.0585 0.7428
-0.6091 -1.1110 0.7425
-0.5178 -1.1563 0.7423
-0.4232 -1.1942 0.7420
-0.3259 -1.2244 0.7418
-0.2264 -1.2466 0.7415
-0.1255 -1.2609 0.7413
-0.0238 -1.2670 0.7411
0.0780 -1.2649 0.7409
0.1794 -1.2547 0.7408
0.2796 -1.2364 0.7406
0.3781 -1.2101 0.7405
0.4741 -1.1761 0.7403
0.5672 -1.1344 0.7402
0.6565 -1.0854 0.7402
0.7417 -1.0294 0.7401
2.2649 -2.6632 2.0387
2.4720 -2.4734 2.0387
2.6632 -2.2675 2.0387
2.8372 -2.0469 2.0387
2.9929 -1.8129 2.0387
3.1292 -1.5671 2.0387
3.2454 -1.3111 2.0387
3.3405 -1.0465 2.0387
3.4140 -0.7751 2.0387
3.4654 -0.4987 2.0387
3.4943 -0.2190 2.0387
3.5006 0.0622 2.0387
3.4842 0.3429 2.0387
3.4452 0.6214 2.0387
3.3840 0.8958 2.0387
3.3008 1.1643 2.0387
3.1962 1.4253 2.0387
3.0710 1.6769 2.0387
2.9259 1.9176 2.0387
2.7620 2.1459 2.0387
2.5802 2.3601 2.0387
2.3818 2.5589 2.0387
0.7911 1.0002 0.7439
0.7083 1.0605 0.7441
0.6208 1.1140 0.7444
0.5294 1.1603 0.7447
0.4345 1.1991 0.7449
0.3368 1.2301 0.7452
0.2369 1.2531 0.7454
0.1355 1.2680 0.7456
0.0331 1.2747 0.7458
-0.0694 1.2732 0.7460
-0.1714 1.2633 0.7462
-0.2724 1.2453 0.7464
-0.3715 1.2192 0.7465
-0.4682 1.1852 0.7466
-0.5619 1.1435 0.7467
-0.6518 1.0944 0.7468
-0.7375 1.0383 0.7469
-2.2340 2.6623 2.0387
-2.4402 2.4735 2.0387
-2.6306 2.2687 2.0387
-2.8039 2.0494 2.0387
-2.9590 1.8169 2.0387
-3.0951 1.5728 2.0387
-3.2111 1.3186 2.0387
-3.3064 1.0560 2.0387
-3.3803 0.7866 2.0387
-3.4324 0.5121 2.0387
-3.4624 0.2344 2.0387
-3.4700 -0.0449 2.0387
-3.4553 -0.3238 2.0387
-3.4183 -0.6007 2.0387
-3.3592 -0.8738 2.0387
-3.2784 -1.1412 2.0387
-3.1764 -1.4014 2.0387
-3.0539 -1.6526 2.0387
-2.9117 -1.8932 2.0387
-2.7506 -2.1216 2.0387
-2.5717 -2.3365 2.0387
-2.3761 -2.5364 2.0387
-2.1651 -2.7199 2.0387
-0.7069 -1.0516 0.7428
-0.6200 -1.1049 0.7426
-0.5292 -1.1512 0.7423
-0.4350 -1.1900 0.7421
-0.3379 -1.2211 0.7418
-0.2387 -1.2443 0.7416
-0.1380 -1.2596 0.7414
-0.0363 -1.2667 0.7411
0.0656 -1.2656 0.7409
0.1670 -1.2564 0.7408
0.2674 -1.2391 0.7406
0.3662 -1.2138 0.7405
0.4625 -1.1806 0.7403
0.5559 -1.1399 0.7402
0.6458 -1.0918 0.7402
0.7315 -1.0366 0.7401
2.2385 -2.6853 2.0387
2.4474 -2.4976 2.0387
2.6406 -2.2936 2.0387
2.8168 -2.0747 2.0387
2.9748 -1.8422 2.0387
3.1136 -1.5978 2.0387
3.2323 -1.3429 2.0387
3.3300 -1.0793 2.0387
3.4061 -0.8087 2.0387
3.4603 -0.5327 2.0387
3.4920 -0.2533 2.0387
3.5010 0.0277 2.0387
3.4874 0.3086 2.0387
3.4512 0.5874 2.0387
3.3926 0.8624 2.0387
3.3121 1.1318 2.0387
3.2102 1.3938 2.0387
3.0874 1.6466 2.0387
2.9447 1.8888 2.0387
2.7830 2.1186 2.0387
2.6034 2.3346 2.0387
2.4069 2.5354 2.0387
2.1950 2.7197 2.0387
0.7187 1.0535 0.7441
0.6318 1.1078 0.7444
0.5408 1.1550 0.7446
0.4463 1.1948 0.7449
0.3489 1.2267 0.7451
0.2492 1.2507 0.7454
0.1479 1.2667 0.7456
0.0457 1.2744 0.7458
-0.0568 1.2738 0.7460
-0.1590 1.2650 0.7462
-0.2601 1.2479 0.7463
-0.3595 1.2228 0.7465
-0.4565 1.1898 0.7466
-0.5506 1.1490 0.7467
-0.6410 1.1008 0.7468
-0.7273 1.0455 0.7469
-2.2077 2.6843 2.0387
-2.4157 2.4975 2.0387
-2.6081 2.2946 2.0387
-2.7836 2.0770 2.0387
-2.9410 1.8461 2.0387
-3.0795 1.6033 2.0387
-3.1980 1.3503 2.0387
-3.2958 1.0886 2.0387
-3.3724 0.8199 2.0387
-3.4272 0.5460 2.0387
-3.4599 0.2685 2.0387
-3.4703 -0.0106 2.0387
-3.4583 -0.2897 2.0387
-3.4240 -0.5670 2.0387
-3.3676 -0.8406 2.0387
-3.2894 -1.1088 2.0387
-3.1900 -1.3700 2.0387
-3.0700 -1.6223 2.0387
-2.9302 -1.8643 2.0387
-2.7713 -2.0944 2.0387
-2.5946 -2.3109 2.0387
-2.4010 -2.5127 2.0387
-2.1918 -2.6983 2.0387
-0.7172 -1.0446 0.7429
-0.6309 -1.0988 0.7426
-0.5405 -1.1459 0.7423
-0.4467 -1.1856 0.7421
-0.3499 -1.2177 0.7418
-0.2510 -1.2419 0.7416
-0.1504 -1.2581 0.7414
-0.0488 -1.2662 0.7412
0.0531 -1.2662 0.7410
0.1546 -1.2580 0.7408
0.2552 -1.2416 0.7406
0.3542 -1.2173 0.7405
0.4509 -1.1851 0.7404
0.5447 -1.1453 0.7403
0.6350 -1.0981 0.7402
0.7213 -1.0438 0.7401
2.2118 -2.7071 2.0387
2.4226 -2.5215 2.0387
2.6179 -2.3194 2.0387
2.7962 -2.1022 2.0387
2.9565 -1.8714 2.0387
3.0977 -1.6283 2.0387
3.2188 -1.3747 2.0387
3.3191 -1.1120 2.0387
3.3980 -0.8422 2.0387
3.4548 -0.5668 2.0387
3.4893 -0.2877 2.0387
3.5011 -0.0068 2.0387
3.4903 0.2742 2.0387
3.4569 0.5534 2.0387
3.4010 0.8290 2.0387
3.3232 1.0991 2.0387
3.2238 1.3621 2.0387
3.1036 1.6162 2.0387
2.9633 1.8598 2.0387
2.8038 2.0912 2.0387
2.6263 2.3089 2.0387
2.4319 2.5117 2.0387
2.2218 2.6981 2.0387
0.7290 1.0463 0.7441
0.6427 1.1016 0.7443
0.5521 1.1497 0.7446
0.4580 1.1903 0.7449
0.3610 1.2232 0.7451
0.2615 1.2482 0.7453
0.1604 1.2652 0.7456
2.8657 1.6015 2.0387
2.7274 1.8260 2.0387
2.5715 2.0386 2.0387
2.3990 2.2379 2.0387
2.2111 2.4227 2.0387
0.7330 0.9456 0.7439
0.6547 1.0015 0.7441
0.5722 1.0509 0.7444
0.4860 1.0934 0.7446
0.3966 1.1289 0.7449
0.3047 1.1571 0.7451
0.2107 1.1778 0.7453
0.1154 1.1908 0.7455
0.0194 1.1962 0.7457
-0.0768 1.1937 0.7459
-0.1724 1.1835 0.7461
-0.2669 1.1657 0.7462
-0.3597 1.1403 0.7463
-0.4501 1.1075 0.7464
-0.5376 1.0675 0.7465
-0.6215 1.0207 0.7466
-0.7014 0.9672 0.7467
-2.1208 2.4777 2.0387
-2.3126 2.2986 2.0387
-2.4894 2.1047 2.0387
-2.6500 1.8973 2.0387
-2.7935 1.6777 2.0387
-2.9189 1.4474 2.0387
-3.0255 1.2078 2.0387
-3.1125 0.9604 2.0387
-3.1794 0.7069 2.0387
-3.2258 0.4488 2.0387
-3.2514 0.1879 2.0387
-3.2560 -0.0742 2.0387
-3.2396 -0.3359 2.0387
-3.2022 -0.5954 2.0387
-3.1442 -0.8512 2.0387
-3.0659 -1.1014 2.0387
-2.9678 -1.3446 2.0387
-2.8506 -1.5792 2.0387
-2.7148 -1.8037 2.0387
-2.5615 -2.0166 2.0387
-2.3916 -2.2166 2.0387
-2.2062 -2.4023 2.0387
-0.7313 -0.9377 0.7431
-0.6536 -0.9934 0.7428
-0.5716 -1.0427 0.7426
-0.4859 -1.0852 0.7423
-0.3971 -1.1208 0.7421
-0.3057 -1.1491 0.7419
-0.2124 -1.1700 0.7417
-0.1177 -1.1834 0.7415
-0.0223 -1.1891 0.7413
0.0733 -1.1872 0.7411
0.1685 -1.1776 0.7409
0.2625 -1.1604 0.7408
0.3549 -1.1357 0.7406
0.4451 -1.1038 0.7405
0.5324 -1.0647 0.7404
0.6163 -1.0187 0.7404
0.6962 -0.9661 0.7403
0.7717 -0.9073 0.7403
2.3195 -2.3206 2.0387
2.4988 -2.1274 2.0387
2.6621 -1.9204 2.0387
2.8081 -1.7008 2.0387
2.9360 -1.4702 2.0387
3.0450 -1.2300 2.0387
3.1342 -0.9818 2.0387
3.2031 -0.7272 2.0387
3.2513 -0.4678 2.0387
3.2785 -0.2054 2.0387
3.2844 0.0583 2.0387
3.2690 0.3217 2.0387
3.2324 0.5829 2.0387
3.1750 0.8404 2.0387
3.0969 1.0923 2.0387
2.9989 1.3372 2.0387
2.8814 1.5733 2.0387
2.7453 1.7991 2.0387
2.5915 2.0132 2.0387
2.4210 2.2143 2.0387
2.2349 2.4009 2.0387
0.7423 0.9384 0.7438
0.6646 0.9950 0.7441
0.5826 1.0452 0.7443
0.4968 1.0886 0.7446
0.4077 1.1250 0.7448
0.3161 1.1540 0.7451
0.2223 1.1757 0.7453
0.1272 1.1896 0.7455
0.0312 1.1959 0.7457
-0.0650 1.1944 0.7459
-0.1607 1.1852 0.7460
-0.2554 1.1683 0.7462
-0.3484 1.1438 0.7463
-0.4392 1.1119 0.7464
-0.5270 1.0728 0.7465
-0.6115 1.0268 0.7466
-0.6919 0.9741 0.7467
-0.7678 0.9151 0.7467
-2.2899 2.3213 2.0387
-2.4685 2.1292 2.0387
-2.6312 1.9234 2.0387
-2.7769 1.7052 2.0387
-2.9046 1.4761 2.0387
-3.0135 1.2376 2.0387
-3.1029 0.9911 2.0387
-3.1723 0.7382 2.0387
-3.2213 0.4806 2.0387
-3.2494 0.2200 2.0387
-3.2566 -0.0421 2.0387
-3.2427 -0.3039 2.0387
-3.2079 -0.5638 2.0387
-3.1525 -0.8201 2.0387
-3.0766 -1.0711 2.0387
-2.9809 -1.3153 2.0387
-2.8659 -1.5510 2.0387
-2.7324 -1.7768 2.0387
-2.5812 -1.9912 2.0387
-2.4133 -2.1928 2.0387
-2.2297 -2.3803 2.0387
-0.7406 -0.9304 0.7431
-0.6633 -0.9869 0.7429
-0.5818 -1.0370 0.7426
-0.4966 -1.0804 0.7424
-0.4081 -1.1168 0.7421
-0.3171 -1.1460 0.7419
-0.2239 -1.1678 0.7417
-0.1294 -1.1821 0.7415
-0.0340 -1.1888 0.7413
0.0616 -1.1878 0.7411
0.1569 -1.1792 0.7409
0.2511 -1.1629 0.7408
0.3437 -1.1392 0.7407
0.4342 -1.1081 0.7405
0.5218 -1.0698 0.7404
0.6062 -1.0247 0.7404
0.6866 -0.9729 0.7403
0.7627 -0.9148 0.7403
2.2965 -2.3433 2.0387
2.4777 -2.1519 2.0387
2.6430 -1.9464 2.0387
2.7912 -1.7284 2.0387
2.9214 -1.4990 2.0387
3.0327 -1.2599 2.0387
3.1243 -1.0126 2.0387
3.1958 -0.7587 2.0387
3.2465 -0.4998 2.0387
3.2763 -0.2377 2.0387
3.2848 0.0260 2.0387
3.2720 0.2895 2.0387
3.2381 0.5511 2.0387
3.1831 0.8091 2.0387
3.1076 1.0618 2.0387
3.0120 1.3076 2.0387
2.8968 1.5449 2.0387
2.7630 1.7721 2.0387
2.6113 1.9877 2.0387
2.4428 2.1904 2.0387
2.2585 2.3788 2.0387
0.7515 0.9310 0.7438
0.6743 0.9884 0.7441
0.5928 1.0394 0.7443
0.5075 1.0836 0.7446
0.4188 1.1209 0.7448
0.3274 1.1509 0.7450
0.2339 1.1734 0.7453
0.1389 1.1883 0.7455
0.0430 1.1956 0.7457
-0.0532 1.1950 0.7459
-0.1491 1.1868 0.7460
-0.2439 1.1708 0.7462
-0.3372 1.1472 0.7463
-0.4282 1.1162 0.7464
-0.5164 1.0780 0.7465
-0.6013 1.0328 0.7466
-0.6823 0.9809 0.7467
-0.7587 0.9227 0.7467
-2.2669 2.3439 2.0387
-2.4475 2.1535 2.0387
-2.6122 1.9493 2.0387
-2.7600 1.7326 2.0387
-2.8899 1.5047 2.0387
-3.0012 1.2673 2.0387
-3.0930 1.0217 2.0387
-3.1649 0.7695 2.0387
-3.2164 0.5124 2.0387
-3.2471 0.2520 2.0387
-3.2568 -0.0100 2.0387
-3.2455 -0.2719 2.0387
-3.2133 -0.5321 2.0387
-3.1604 -0.7889 2.0387
-3.0870 -1.0407 2.0387
-2.9937 -1.2858 2.0387
-2.8810 -1.5226 2.0387
-2.7497 -1.7497 2.0387
-2.6007 -1.9656 2.0387
-2.4347 -2.1688 2.0387
-2.2530 -2.3581 2.0387
-0.7497 -0.9231 0.7432
-0.6730 -0.9803 0.7429
-0.5920 -1.0312 0.7427
-0.5072 -1.0754 0.7424
-0.4191 -1.1127 0.7422
-0.3283 -1.1428 0.7419
-0.2355 -1.1656 0.7417
-0.1410 -1.1808 0.7415
-0.0457 -1.1884 0.7413
0.0499 -1.1883 0.7411
0.1452 -1.1806 0.7410
0.2396 -1.1653 0.7408
0.3325 -1.1425 0.7407
0.4232 -1.1123 0.7406
0.5113 -1.0749 0.7405
0.5960 -1.0306 0.7404
0.6770 -0.9796 0.7403
0.7536 -0.9223 0.7403
2.2732 -2.3656 2.0387
2.4563 -2.1761 2.0387
2.6236 -1.9723 2.0387
2.7740 -1.7557 2.0387
2.9064 -1.5277 2.0387
3.0201 -1.2897 2.0387
3.1142 -1.0433 2.0387
3.1881 -0.7901 2.0387
3.2414 -0.5317 2.0387
3.2738 -0.2699 2.0387
3.2849 -0.0063 2.0387
3.2747 0.2573 2.0387
3.2434 0.5192 2.0387
3.1910 0.7777 2.0387
3.1179 1.0312 2.0387
3.0247 1.2779 2.0387
2.9120 1.5163 2.0387
2.7804 1.7448 2.0387
2.6308 1.9619 2.0387
2.4643 2.1663 2.0387
2.2819 2.3565 2.0387
0.7606 0.9235 0.7438
0.6840 0.9817 0.7440
0.6030 1.0335 0.7443
0.5181 1.0786 0.7445
0.4298 1.1167 0.7448
0.3387 1.1476 0.7450
0.2455 1.1711 0.7452
0.1506 1.1869 0.7454
2.6936 1.5052 2.0387
2.5636 1.7162 2.0387
2.4171 1.9160 2.0387
2.2550 2.1033 2.0387
0.7581 0.8305 0.7436
0.6890 0.8887 0.7438
0.6154 0.9412 0.7441
0.5379 0.9876 0.7443
0.4569 1.0276 0.7446
0.3729 1.0610 0.7448
0.2864 1.0875 0.7450
0.1981 1.1069 0.7452
0.1086 1.1192 0.7454
0.0183 1.1242 0.7456
-0.0721 1.1219 0.7457
-0.1620 1.1123 0.7459
-0.2508 1.0956 0.7460
-0.3380 1.0717 0.7462
-0.4229 1.0409 0.7463
-0.5052 1.0033 0.7464
-0.5841 0.9593 0.7464
-0.6592 0.9090 0.7465
-0.7300 0.8529 0.7465
-2.1738 2.1609 2.0387
-2.3401 1.9786 2.0387
-2.4911 1.7837 2.0387
-2.6260 1.5773 2.0387
-2.7440 1.3607 2.0387
-2.8442 1.1355 2.0387
-2.9260 0.9029 2.0387
-2.9889 0.6646 2.0387
-3.0325 0.4220 2.0387
-3.0566 0.1766 2.0387
-3.0609 -0.0698 2.0387
-3.0455 -0.3158 2.0387
-3.0104 -0.5598 2.0387
-2.9558 -0.8002 2.0387
-2.8822 -1.0355 2.0387
-2.7900 -1.2642 2.0387
-2.6797 -1.4847 2.0387
-2.5520 -1.6957 2.0387
-2.4079 -1.8958 2.0387
-2.2482 -2.0838 2.0387
-0.7562 -0.8235 0.7434
-0.6875 -0.8815 0.7431
-0.6143 -0.9339 0.7429
-0.5373 -0.9803 0.7426
-0.4567 -1.0203 0.7424
-0.3732 -1.0537 0.7422
-0.2874 -1.0803 0.7420
-0.1996 -1.1000 0.7418
-0.1106 -1.1125 0.7416
-0.0209 -1.1179 0.7414
0.0690 -1.1161 0.7412
0.1585 -1.1071 0.7411
0.2469 -1.0910 0.7409
0.3338 -1.0678 0.7408
0.4185 -1.0377 0.7407
0.5006 -1.0009 0.7406
0.5794 -0.9577 0.7405
0.6546 -0.9083 0.7405
0.7256 -0.8530 0.7405
2.1802 -2.1811 2.0387
2.3488 -1.9995 2.0387
2.5022 -1.8049 2.0387
2.6394 -1.5985 2.0387
2.7596 -1.3818 2.0387
2.8620 -1.1560 2.0387
2.9458 -0.9227 2.0387
3.0106 -0.6834 2.0387
3.0559 -0.4397 2.0387
3.0814 -0.1931 2.0387
3.0869 0.0548 2.0387
3.0725 0.3023 2.0387
3.0381 0.5478 2.0387
2.9841 0.7898 2.0387
2.9108 1.0266 2.0387
2.8187 1.2567 2.0387
2.7083 1.4786 2.0387
2.5804 1.6909 2.0387
2.4359 1.8921 2.0387
2.2757 2.0811 2.0387
0.7662 0.8230 0.7436
0.6977 0.8819 0.7438
0.6247 0.9351 0.7441
0.5476 0.9823 0.7443
0.4670 1.0231 0.7445
0.3833 1.0573 0.7448
0.2971 1.0846 0.7450
0.2090 1.1049 0.7452
0.1196 1.1180 0.7454
0.0294 1.1239 0.7456
-0.0610 1.1226 0.7457
-0.1510 1.1139 0.7459
-0.2400 1.0980 0.7460
-0.3274 1.0750 0.7462
-0.4127 1.0450 0.7463
-0.4952 1.0083 0.7463
-0.5746 0.9650 0.7464
-0.6502 0.9155 0.7465
-0.7215 0.8601 0.7465
-2.1525 2.1823 2.0387
-2.3205 2.0017 2.0387
-2.4735 1.8082 2.0387
-2.6104 1.6031 2.0387
-2.7305 1.3878 2.0387
-2.8329 1.1635 2.0387
-2.9170 0.9317 2.0387
-2.9822 0.6940 2.0387
-3.0282 0.4519 2.0387
-3.0547 0.2068 2.0387
-3.0614 -0.0396 2.0387
-3.0484 -0.2858 2.0387
-3.0157 -0.5301 2.0387
-2.9635 -0.7710 2.0387
-2.8922 -1.0070 2.0387
-2.8022 -1.2365 2.0387
-2.6941 -1.4582 2.0387
-2.5686 -1.6704 2.0387
-2.4264 -1.8720 2.0387
-2.2685 -2.0615 2.0387
-0.7643 -0.8160 0.7434
-0.6961 -0.8747 0.7432
-0.6235 -0.9278 0.7429
-0.5469 -0.9749 0.7427
-0.4668 -1.0157 0.7424
-0.3836 -1.0500 0.7422
-0.2980 -1.0774 0.7420
-0.2105 -1.0979 0.7418
-0.1216 -1.1114 0.7416
-0.0319 -1.1177 0.7414
0.0580 -1.1167 0.7412
0.1476 -1.1086 0.7411
0.2361 -1.0933 0.7409
0.3232 -1.0710 0.7408
0.4083 -1.0417 0.7407
0.4907 -1.0058 0.7406
0.5700 -0.9633 0.7406
0.6456 -0.9146 0.7405
0.7171 -0.8601 0.7405
0.7840 -0.7999 0.7405
2.3289 -2.0224 2.0387
2.4842 -1.8294 2.0387
2.6235 -1.6244 2.0387
2.7458 -1.4088 2.0387
2.8504 -1.1841 2.0387
2.9365 -0.9517 2.0387
3.0037 -0.7130 2.0387
3.0514 -0.4697 2.0387
3.0793 -0.2234 2.0387
3.0873 0.0244 2.0387
3.0753 0.2721 2.0387
3.0434 0.5179 2.0387
2.9918 0.7604 2.0387
2.9208 0.9979 2.0387
2.8310 1.2289 2.0387
2.7228 1.4519 2.0387
2.5970 1.6654 2.0387
2.4545 1.8681 2.0387
2.2961 2.0586 2.0387
0.7743 0.8154 0.7435
0.7064 0.8750 0.7438
0.6339 0.9289 0.7440
0.5572 0.9768 0.7443
0.4770 1.0184 0.7445
0.3937 1.0534 0.7447
0.3078 1.0816 0.7449
0.2199 1.1028 0.7452
0.1306 1.1168 0.7454
0.0405 1.1236 0.7455
-0.0499 1.1231 0.7457
-0.1400 1.1153 0.7459
-0.2291 1.1003 0.7460
-0.3168 1.0782 0.7461
-0.4024 1.0491 0.7462
-0.4853 1.0131 0.7463
-0.5651 0.9707 0.7464
-0.6411 0.9219 0.7465
-0.7130 0.8672 0.7465
-2.1309 2.2035 2.0387
-2.3007 2.0245 2.0387
