ply
format ascii 1.0
element vertex 2176
property float32 x
property float32 y
property float32 z
end_header
5.1059 1.9538 1.8859
4.9324 2.3577 1.8859
4.7270 2.7464 1.8859
4.4911 3.1172 1.8859
4.2262 3.4680 1.8859
3.9521 3.8138 1.8946
3.9085 4.4314 2.0383
3.5398 4.7310 2.0383
3.1483 5.0001 2.0383
2.7364 5.2369 2.0383
2.3069 5.4398 2.0383
1.8624 5.6075 2.0383
1.4059 5.7390 2.0383
0.9403 5.8334 2.0383
0.4686 5.8901 2.0383
-0.0061 5.9087 2.0383
-0.4808 5.8891 2.0383
-0.9523 5.8315 2.0383
-1.4177 5.7361 2.0383
-1.8740 5.6037 2.0383
-2.3181 5.4350 2.0383
-2.7472 5.2312 2.0383
-3.1586 4.9936 2.0383
-3.5496 4.7237 2.0383
-3.9176 4.4233 2.0383
-4.2603 4.0943 2.0383
-4.5754 3.7388 2.0383
-4.8610 3.3591 2.0383
-5.1152 2.9577 2.0383
-5.3362 2.5373 2.0383
-5.5228 2.1004 2.0383
-5.6737 1.6499 2.0383
-5.7879 1.1888 2.0383
-5.8647 0.7199 2.0383
-5.9036 0.2464 2.0383
-5.9043 -0.2286 2.0383
-5.8669 -0.7022 2.0383
-5.7915 -1.1713 2.0383
-5.6787 -1.6328 2.0383
-5.5291 -2.0837 2.0383
-5.3439 -2.5212 2.0383
-5.1240 -2.9423 2.0383
-4.8711 -3.3445 2.0383
-4.5867 -3.7250 2.0383
-4.2726 -4.0814 2.0383
-3.9309 -4.4115 2.0383
-3.5638 -4.7130 2.0383
-3.1737 -4.9841 2.0383
-2.7630 -5.2229 2.0383
-2.3345 -5.4280 2.0383
-0.6862 -2.0316 0.7397
-1.4350 -5.7318 2.0383
-0.9699 -5.8286 2.0383
-0.4985 -5.8877 2.0383
-0.0239 -5.9087 2.0383
0.4509 -5.8915 2.0383
0.9227 -5.8362 2.0383
1.3886 -5.7432 2.0383
0.6698 -2.0371 0.7397
2.2905 -5.4467 2.0383
2.7206 -5.2451 2.0383
3.1332 -5.0096 2.0383
3.5256 -4.7417 2.0383
3.8410 -4.3814 2.0099
3.9225 -3.8081 1.8859
4.2157 -3.4807 1.8859
4.4817 -3.1308 1.8859
4.7188 -2.7606 1.8859
4.9253 -2.3726 1.8859
5.1000 -1.9692 1.8859
5.2417 -1.5531 1.8859
5.3495 -1.1270 1.8859
5.4228 -0.6936 1.8859
5.4610 -0.2557 1.8859
5.4638 0.1838 1.8859
5.4314 0.6222 1.8859
5.3639 1.0565 1.8859
5.2617 1.4840 1.8859
5.1254 1.9019 1.8859
4.9561 2.3075 1.8859
4.7547 2.6982 1.8859
4.5225 3.0715 1.8859
4.2612 3.4249 1.8859
3.9723 3.7562 1.8859
3.9283 4.3637 2.0254
3.5877 4.6949 2.0383
3.1989 4.9679 2.0383
2.7894 5.2089 2.0383
2.3620 5.4161 2.0383
1.9192 5.5884 2.0383
1.4641 5.7245 2.0383
0.9994 5.8236 2.0383
0.5284 5.8851 2.0383
0.0539 5.9085 2.0383
-0.4210 5.8937 2.0383
-0.8931 5.8409 2.0383
-1.3594 5.7502 2.0383
-1.8170 5.6224 2.0383
-2.2628 5.4583 2.0383
-2.6940 5.2589 2.0383
-3.1078 5.0254 2.0383
-3.5015 4.7595 2.0383
-3.8725 4.4628 2.0383
-4.2185 4.1373 2.0383
-4.5373 3.7850 2.0383
-4.8267 3.4083 2.0383
-5.0849 3.0095 2.0383
-5.3102 2.5913 2.0383
-5.5012 2.1563 2.0383
-5.6567 1.7074 2.0383
-5.7756 1.2474 2.0383
-5.8571 0.7794 2.0383
-5.9008 0.3063 2.0383
-5.9063 -0.1687 2.0383
-5.8737 -0.6427 2.0383
-5.8031 -1.1124 2.0383
-5.6949 -1.5751 2.0383
-5.5500 -2.0275 2.0383
-5.3692 -2.4668 2.0383
-5.1536 -2.8902 2.0383
-4.9048 -3.2948 2.0383
-4.6243 -3.6782 2.0383
-4.3138 -4.0378 2.0383
-3.9755 -4.3714 2.0383
-3.6114 -4.6766 2.0383
-3.2241 -4.9516 2.0383
-2.8158 -5.1946 2.0383
-2.3894 -5.4041 2.0383
-0.7068 -2.0246 0.7397
-1.4931 -5.7170 2.0383
-1.0290 -5.8184 2.0383
-0.5582 -5.8823 2.0383
-0.0839 -5.9081 2.0383
0.3910 -5.8958 2.0383
0.8634 -5.8453 2.0383
1.3303 -5.7570 2.0383
1.7885 -5.6316 2.0383
2.2351 -5.4697 2.0383
2.6673 -5.2724 2.0383
3.0822 -5.0411 2.0383
3.4773 -4.7772 2.0383
3.8362 -4.4666 2.0310
3.8836 -3.8478 1.8859
4.1802 -3.5233 1.8859
4.4497 -3.1761 1.8859
4.6905 -2.8083 1.8859
4.9009 -2.4224 1.8859
5.0797 -2.0208 1.8859
5.2256 -1.6062 1.8859
5.3378 -1.1812 1.8859
5.4154 -0.7486 1.8859
5.4581 -0.3111 1.8859
5.4654 0.1284 1.8859
5.4375 0.5670 1.8859
5.3743 1.0020 1.8859
5.2765 1.4305 1.8859
5.1445 1.8498 1.8859
4.9792 2.2571 1.8859
4.7818 2.6498 1.8859
4.5535 3.0254 1.8859
4.2957 3.3815 1.8859
4.0102 3.7157 1.8859
3.9313 4.2789 2.0044
3.6351 4.6582 2.0383
3.2491 4.9352 2.0383
2.8422 5.1803 2.0383
2.4168 5.3919 2.0383
1.9758 5.5686 2.0383
1.5221 5.7093 2.0383
1.0585 5.8132 2.0383
0.5881 5.8794 2.0383
0.1138 5.9077 2.0383
-0.3611 5.8977 2.0383
-0.8338 5.8496 2.0383
-1.3010 5.7637 2.0383
-1.7599 5.6406 2.0383
-2.2073 5.4810 2.0383
-2.6405 5.2859 2.0383
-3.0566 5.0567 2.0383
-3.4530 4.7948 2.0383
-3.8270 4.5019 2.0383
-4.1763 4.1799 2.0383
-4.4986 3.8309 2.0383
-4.7918 3.4571 2.0383
-5.0541 3.0609 2.0383
-5.2837 2.6450 2.0383
-5.4791 2.2120 2.0383
-5.6391 1.7647 2.0383
-5.7626 1.3060 2.0383
-5.8489 0.8388 2.0383
-5.8974 0.3662 2.0383
-5.9077 -0.1088 2.0383
-5.8799 -0.5830 2.0383
-5.8141 -1.0535 2.0383
-5.7106 -1.5172 2.0383
-5.5703 -1.9710 2.0383
-5.3939 -2.4122 2.0383
-5.1827 -2.8377 2.0383
-4.9380 -3.2449 2.0383
-4.6613 -3.6311 2.0383
-4.3546 -3.9939 2.0383
-4.0196 -4.3308 2.0383
-3.6587 -4.6396 2.0383
-3.2741 -4.9186 2.0383
-2.8684 -5.1658 2.0383
-2.4441 -5.3795 2.0383
-0.7274 -2.0174 0.7398
-1.5510 -5.7015 2.0383
-1.0880 -5.8077 2.0383
-0.6179 -5.8763 2.0383
-0.1438 -5.9070 2.0383
0.3312 -5.8994 2.0383
0.8041 -5.8538 2.0383
1.2718 -5.7702 2.0383
1.7312 -5.6494 2.0383
2.1795 -5.4921 2.0383
2.6136 -5.2992 2.0383
3.0309 -5.0721 2.0383
3.4286 -4.8123 2.0383
3.8041 -4.5213 2.0383
3.8691 -3.9118 1.8980
4.1442 -3.5655 1.8859
4.4173 -3.2211 1.8859
4.6618 -2.8558 1.8859
4.8761 -2.4720 1.8859
5.0589 -2.0723 1.8859
5.2091 -1.6592 1.8859
5.3255 -1.2354 1.8859
5.4076 -0.8035 1.8859
5.4546 -0.3665 1.8859
5.4665 0.0729 1.8859
5.4429 0.5118 1.8859
5.3842 0.9474 1.8859
5.2907 1.3769 1.8859
5.1630 1.7975 1.8859
5.0019 2.2065 1.8859
4.8085 2.6012 1.8859
4.5839 2.9791 1.8859
4.3298 3.3377 1.8859
4.0477 3.6748 1.8859
3.9342 4.1958 1.9841
3.6822 4.6211 2.0383
3.2991 4.9020 2.0383
2.8946 5.1512 2.0383
2.4714 5.3671 2.0383
2.0323 5.5482 2.0383
1.5800 5.6936 2.0383
1.1175 5.8021 2.0383
0.6477 5.8731 2.0383
0.1738 5.9062 2.0383
-0.3012 5.9011 2.0383
-0.7743 5.8578 2.0383
-1.2424 5.7766 2.0383
-1.7025 5.6581 2.0383
-2.1515 5.5031 2.0383
-2.5867 5.3125 2.0383
-3.0051 5.0875 2.0383
-3.4042 4.8296 2.0383
-3.7811 4.5405 2.0383
-4.1337 4.2221 2.0383
-4.4595 3.8763 2.0383
-4.7565 3.5055 2.0383
-5.0228 3.1121 2.0383
-5.2565 2.6985 2.0383
-5.4563 2.2675 2.0383
-5.6209 1.8218 2.0383
-5.7490 1.3644 2.0383
-5.8401 0.8981 2.0383
-5.8934 0.4260 2.0383
-5.9085 -0.0488 2.0383
-5.8855 -0.5232 2.0383
-5.8244 -0.9944 2.0383
-5.7257 -1.4591 2.0383
-5.5900 -1.9144 2.0383
-5.4181 -2.3573 2.0383
-5.2113 -2.7850 2.0383
-4.9707 -3.1946 2.0383
-4.6980 -3.5836 2.0383
-4.3949 -3.9494 2.0383
-4.0634 -4.2897 2.0383
-3.7056 -4.6024 2.0383
-3.3239 -4.8852 2.0383
-2.9207 -5.1364 2.0383
-2.4986 -5.3544 2.0383
-0.7478 -2.0099 0.7398
-1.6088 -5.6855 2.0383
-1.1469 -5.7964 2.0383
-0.6775 -5.8698 2.0383
-0.2037 -5.9052 2.0383
0.2713 -5.9025 2.0383
0.7446 -5.8616 2.0383
1.2131 -5.7828 2.0383
1.6738 -5.6667 2.0383
0.7708 -2.0013 0.7398
2.5597 -5.3255 2.0383
2.9793 -5.1026 2.0383
3.3796 -4.8468 2.0383
3.7580 -4.5596 2.0383
3.8627 -3.9856 1.9146
4.1078 -3.6074 1.8859
4.3844 -3.2657 1.8859
4.6325 -2.9029 1.8859
4.8508 -2.5214 1.8859
5.0377 -2.1235 1.8859
5.1920 -1.7120 1.8859
5.3127 -1.2893 1.8859
5.3991 -0.8583 1.8859
5.4506 -0.4218 1.8859
5.4669 0.0174 1.8859
5.4478 0.4566 1.8859
5.3936 0.8928 1.8859
5.3044 1.3232 1.8859
5.1810 1.7450 1.8859
5.0240 2.1556 1.8859
4.8346 2.5522 1.8859
4.6139 2.9324 1.8859
4.3635 3.2936 1.8859
4.0848 3.6335 1.8859
3.9370 4.1143 1.9644
3.7289 4.5835 2.0383
3.3487 4.8682 2.0383
2.9467 5.1215 2.0383
2.5258 5.3417 2.0383
2.0885 5.5273 2.0383
1.6376 5.6773 2.0383
1.1762 5.7905 2.0383
0.7072 5.8663 2.0383
0.2337 5.9041 2.0383
-0.2414 5.9038 2.0383
-0.7149 5.8653 2.0383
-1.1838 5.7889 2.0383
-1.6450 5.6751 2.0383
-2.0956 5.5246 2.0383
-2.5327 5.3384 2.0383
-2.9534 5.1177 2.0383
-3.3550 4.8639 2.0383
-3.7349 4.5786 2.0383
-4.0906 4.2638 2.0383
-4.4199 3.9214 2.0383
-4.7207 3.5536 2.0383
-4.9909 3.1629 2.0383
-5.2289 2.7517 2.0383
-5.4330 2.3228 2.0383
-5.6021 1.8788 2.0383
-5.7349 1.4227 2.0383
-5.8307 0.9574 2.0383
-5.8887 0.4857 2.0383
-5.9087 0.0112 2.0383
-5.8905 -0.4636 2.0383
-5.8342 -0.9353 2.0383
-5.7402 -1.4010 2.0383
-5.6091 -1.8576 2.0383
-5.4418 -2.3022 2.0383
-5.2392 -2.7320 2.0383
-5.0028 -3.1440 2.0383
-4.7341 -3.5358 2.0383
-4.4347 -3.9047 2.0383
-4.1067 -4.2483 2.0383
-3.7521 -4.5645 2.0383
-3.3733 -4.8512 2.0383
-2.9727 -5.1065 2.0383
-2.5528 -5.3288 2.0383
-0.7682 -2.0023 0.7398
-1.6664 -5.6689 2.0383
-1.2056 -5.7844 2.0383
-0.7370 -5.8626 2.0383
-0.2637 -5.9028 2.0383
0.2114 -5.9050 2.0383
0.6851 -5.8689 2.0383
1.1544 -5.7949 2.0383
1.6162 -5.6834 2.0383
0.7504 -2.0090 0.7398
2.5055 -5.3512 2.0383
2.9274 -5.1326 2.0383
3.3302 -4.8808 2.0383
3.7116 -4.5975 2.0383
3.8585 -4.0629 1.9329
4.0710 -3.6489 1.8859
4.3510 -3.3100 1.8859
4.6028 -2.9498 1.8859
4.8249 -2.5705 1.8859
5.0158 -2.1746 1.8859
5.1743 -1.7646 1.8859
5.2994 -1.3432 1.8859
5.3901 -0.9131 1.8859
5.4461 -0.4771 1.8859
5.4668 -0.0381 1.8859
5.4522 0.4012 1.8859
5.4023 0.8380 1.8859
5.3176 1.2693 1.8859
5.1984 1.6923 1.8859
5.0456 2.1045 1.8859
4.8603 2.5030 1.8859
4.6435 2.8854 1.8859
4.3967 3.2491 1.8859
4.1214 3.5918 1.8859
3.9397 4.0344 1.9452
3.7752 4.5454 2.0383
3.3978 4.8340 2.0383
2.9985 5.0914 2.0383
2.5798 5.3158 2.0383
2.1444 5.5059 2.0383
1.6952 5.6604 2.0383
1.2349 5.7782 2.0383
0.7668 5.8588 2.0383
0.2936 5.9014 2.0383
-0.1815 5.9059 2.0383
-0.6553 5.8723 2.0383
-1.1250 5.8007 2.0383
-1.5873 5.6915 2.0383
-2.0394 5.5456 2.0383
-2.4784 5.3638 2.0383
-2.9013 5.1474 2.0383
-3.3054 4.8977 2.0383
-3.6882 4.6163 2.0383
-4.0471 4.3051 2.0383
-4.3799 3.9661 2.0383
-4.6844 3.6014 2.0383
-4.9585 3.2134 2.0383
-5.2007 2.8047 2.0383
-5.4092 2.3778 2.0383
-5.5827 1.9355 2.0383
-5.7202 1.4808 2.0383
-5.8207 1.0164 2.0383
-5.8835 0.5454 2.0383
-5.9083 0.0711 2.0383
-5.8949 -0.4039 2.0383
-5.8434 -0.8760 2.0383
-5.7542 -1.3427 2.0383
-5.6277 -1.8006 2.0383
-5.4649 -2.2469 2.0383
-5.2667 -2.6786 2.0383
-5.0345 -3.0931 2.0383
-4.7697 -3.4876 2.0383
-4.4741 -3.8595 2.0383
-4.1496 -4.2064 2.0383
-3.7983 -4.5262 2.0383
-3.4224 -4.8167 2.0383
-3.0243 -5.0761 2.0383
-2.6068 -5.3026 2.0383
-2.1723 -5.4949 2.0383
-1.7239 -5.6517 2.0383
-1.2643 -5.7719 2.0383
-0.7965 -5.8548 2.0383
-0.3236 -5.8999 2.0383
0.1515 -5.9068 2.0383
0.6255 -5.8755 2.0383
1.0955 -5.8063 2.0383
1.5585 -5.6995 2.0383
0.7300 -2.0165 0.7398
2.4511 -5.3763 2.0383
2.8751 -5.1620 2.0383
3.2805 -4.9144 2.0383
3.6647 -4.6349 2.0383
3.8542 -4.1418 1.9517
4.0338 -3.6900 1.8859
4.3172 -3.3540 1.8859
4.5727 -2.9964 1.8859
4.7986 -2.6193 1.8859
4.9935 -2.2253 1.8859
5.1562 -1.8170 1.8859
5.2855 -1.3969 1.8859
5.3806 -0.9677 1.8859
5.4410 -0.5324 1.8859
5.4661 -0.0935 1.8859
5.4560 0.3459 1.8859
5.4106 0.7831 1.8859
5.3302 1.2152 1.8859
5.2153 1.6395 1.8859
5.0667 2.0532 1.8859
4.8854 2.4536 1.8859
4.6725 2.8382 1.8859
4.4294 3.2044 1.8859
4.1576 3.5499 1.8859
3.9424 3.9560 1.9266
3.8212 4.5069 2.0383
3.4467 4.7993 2.0383
3.0500 5.0607 2.0383
2.6336 5.2893 2.0383
2.2002 5.4838 2.0383
1.7525 5.6428 2.0383
1.2935 5.7654 2.0383
0.8262 5.8507 2.0383
0.3535 5.8982 2.0383
-0.1215 5.9075 2.0383
-0.5957 5.8786 2.0383
-1.0660 5.8118 2.0383
-1.5295 5.7074 2.0383
-1.9830 5.5660 2.0383
-2.4238 5.3887 2.0383
-2.8489 5.1766 2.0383
-3.2555 4.9310 2.0383
-3.6412 4.6535 2.0383
-4.0032 4.3459 2.0383
-4.3395 4.0103 2.0383
-4.6476 3.6487 2.0383
-4.9257 3.2635 2.0383
-5.1720 2.8573 2.0383
-5.3848 2.4325 2.0383
-5.5628 1.9921 2.0383
-5.7049 1.5387 2.0383
-5.8100 1.0754 2.0383
-5.8777 0.6053 2.0383
-5.9073 0.1311 2.0383
-5.8987 -0.3438 2.0383
-5.8520 -0.8167 2.0383
-5.7675 -1.2842 2.0383
-5.6457 -1.7434 2.0383
-5.4874 -2.1913 2.0383
-5.2936 -2.6250 2.0383
-5.0656 -3.0418 2.0383
-4.8049 -3.4389 2.0383
-4.5131 -3.8138 2.0383
-4.1921 -4.1641 2.0383
-3.8440 -4.4874 2.0383
-3.4711 -4.7817 2.0383
-3.0757 -5.0451 2.0383
-2.6605 -5.2759 2.0383
-2.2280 -5.4726 2.0383
-1.7811 -5.6339 2.0383
-1.3228 -5.7588 2.0383
-0.8558 -5.8464 2.0383
-0.3834 -5.8963 2.0383
0.0915 -5.9080 2.0383
0.5659 -5.8816 2.0383
1.0366 -5.8171 2.0383
1.5005 -5.7150 2.0383
0.7095 -2.0237 0.7398
2.3964 -5.4009 2.0383
2.8226 -5.1910 2.0383
3.2305 -4.9474 2.0383
3.6175 -4.6719 2.0383
3.8498 -4.2222 1.9710
3.9961 -3.7307 1.8859
4.2829 -3.3977 1.8859
4.5420 -3.0426 1.8859
4.7718 -2.6679 1.8859
4.9707 -2.2759 1.8859
5.1374 -1.8692 1.8859
5.2710 -1.4505 1.8859
5.3705 -1.0223 1.8859
5.4353 -0.5876 1.8859
5.4649 -0.1490 1.8859
5.4592 0.2905 1.8859
5.4182 0.7282 1.8859
5.3422 1.1611 1.8859
5.2317 1.5865 1.8859
5.0873 2.0017 1.8859
4.9101 2.4039 1.8859
4.7011 2.7906 1.8859
4.4617 3.1593 1.8859
4.1935 3.5075 1.8859
3.9449 3.8790 1.9085
3.8667 4.4679 2.0383
3.4953 4.7641 2.0383
3.1012 5.0295 2.0383
2.6872 5.2623 2.0383
2.2557 5.4612 2.0383
1.8097 5.6248 2.0383
1.3520 5.7520 2.0383
0.8855 5.8420 2.0383
0.4133 5.8943 2.0383
-0.0615 5.9084 2.0383
-0.5360 5.8844 2.0383
-1.0070 5.8223 2.0383
-1.4715 5.7226 2.0383
-1.9265 5.5859 2.0383
-2.3690 5.4131 2.0383
-2.7962 5.2052 2.0383
-3.2054 4.9637 2.0383
-3.5938 4.6902 2.0383
-3.9589 4.3863 2.0383
-4.2985 4.0541 2.0383
-4.6103 3.6957 2.0383
-4.8923 3.3133 2.0383
-5.1427 2.9096 2.0383
-5.3598 2.4871 2.0383
-5.5423 2.0484 2.0383
-5.6889 1.5966 2.0383
-5.7988 1.1344 2.0383
-5.8712 0.6650 2.0383
-5.9056 0.1910 2.0383
-5.9019 -0.2840 2.0383
-5.8600 -0.7573 2.0383
-5.7802 -1.2256 2.0383
-5.6631 -1.6860 2.0383
-5.5093 -2.1355 2.0383
-5.3200 -2.5712 2.0383
-5.0962 -2.9903 2.0383
-4.8395 -3.3900 2.0383
-4.5515 -3.7678 2.0383
-4.2341 -4.1213 2.0383
-3.8893 -4.4482 2.0383
-3.5194 -4.7463 2.0383
-3.1267 -5.0137 2.0383
-2.7138 -5.2486 2.0383
-2.2834 -5.4497 2.0383
-1.8382 -5.6155 2.0383
-1.3811 -5.7450 2.0383
-0.9151 -5.8374 2.0383
-0.4432 -5.8921 2.0383
0.0316 -5.9086 2.0383
0.5061 -5.8870 2.0383
0.9775 -5.8273 2.0383
1.4424 -5.7300 2.0383
0.6889 -2.0308 0.7397
2.3415 -5.4250 2.0383
2.7698 -5.2193 2.0383
3.1801 -4.9800 2.0383
3.5699 -4.7084 2.0383
3.8453 -4.3041 1.9910
3.9580 -3.7711 1.8859
4.2482 -3.4410 1.8859
4.5109 -3.0886 1.8859
4.7444 -2.7162 1.8859
4.9473 -2.3263 1.8859
5.1182 -1.9212 1.8859
5.2560 -1.5038 1.8859
5.3599 -1.0767 1.8859
5.4290 -0.6427 1.8859
5.4631 -0.2044 1.8859
5.4619 0.2351 1.8859
5.4253 0.6731 1.8859
5.3537 1.1068 1.8859
5.2475 1.5334 1.8859
5.1074 1.9500 1.8859
4.9342 2.3540 1.8859
4.7291 2.7428 1.8859
4.4935 3.1138 1.8859
4.2288 3.4647 1.8859
3.9530 3.8089 1.8936
3.9118 4.4284 2.0383
3.5434 4.7283 2.0383
3.1521 4.9977 2.0383
2.7404 5.2348 2.0383
2.3110 5.4380 2.0383
1.8667 5.6061 2.0383
1.4103 5.7380 2.0383
0.9448 5.8327 2.0383
0.4731 5.8898 2.0383
-0.0016 5.9087 2.0383
-0.4763 5.8895 2.0383
-0.9479 5.8322 2.0383
-1.4134 5.7372 2.0383
-1.8697 5.6051 2.0383
-2.3140 5.4368 2.0383
-2.7433 5.2333 2.0383
-3.1548 4.9960 2.0383
-3.5460 4.7264 2.0383
-3.9142 4.4263 2.0383
-4.2572 4.0975 2.0383
-4.5726 3.7423 2.0383
-4.8584 3.3628 2.0383
-5.1129 2.9616 2.0383
-5.3343 2.5413 2.0383
-5.5212 2.1046 2.0383
-5.6725 1.6542 2.0383
-5.7870 1.1932 2.0383
-5.8642 0.7244 2.0383
-5.9034 0.2509 2.0383
-5.9045 -0.2241 2.0383
-5.8674 -0.6977 2.0383
-5.7924 -1.1669 2.0383
-5.6799 -1.6284 2.0383
-5.5307 -2.0795 2.0383
-5.3458 -2.5171 2.0383
-5.1263 -2.9384 2.0383
-4.8736 -3.3408 2.0383
-4.5895 -3.7215 2.0383
-4.2757 -4.0782 2.0383
-3.9343 -4.4085 2.0383
-3.5674 -4.7103 2.0383
-3.1774 -4.9817 2.0383
-2.7670 -5.2208 2.0383
-2.3386 -5.4262 2.0383
-0.6878 -2.0311 0.7397
-1.4394 -5.7307 2.0383
-0.9743 -5.8278 2.0383
-0.5030 -5.8873 2.0383
-0.0284 -5.9087 2.0383
0.4464 -5.8918 2.0383
0.9183 -5.8370 2.0383
1.3842 -5.7443 2.0383
0.6682 -2.0376 0.7397
2.2863 -5.4485 2.0383
2.7166 -5.2472 2.0383
3.1294 -5.0120 2.0383
3.5219 -4.7444 2.0383
3.8406 -4.3878 2.0115
3.9196 -3.8111 1.8859
4.2131 -3.4839 1.8859
4.4793 -3.1342 1.8859
4.7167 -2.7642 1.8859
4.9235 -2.3763 1.8859
5.0985 -1.9731 1.8859
5.2405 -1.5571 1.8859
5.3487 -1.1311 1.8859
5.4222 -0.6977 1.8859
5.4608 -0.2599 1.8859
5.4640 0.1797 1.8859
5.4319 0.6180 1.8859
5.3647 1.0524 1.8859
5.2628 1.4800 1.8859
5.1269 1.8980 1.8859
4.9578 2.3038 1.8859
4.7567 2.6946 1.8859
4.5249 3.0680 1.8859
4.2638 3.4216 1.8859
3.9751 3.7531 1.8859
3.9285 4.3573 2.0238
3.5913 4.6921 2.0383
3.2027 4.9655 2.0383
2.7934 5.2067 2.0383
2.3661 5.4143 2.0383
1.9235 5.5869 2.0383
1.4684 5.7234 2.0383
1.0039 5.8228 2.0383
0.5328 5.8847 2.0383
0.0584 5.9085 2.0383
-0.4165 5.8940 2.0383
-0.8887 5.8415 2.0383
-1.3551 5.7513 2.0383
-1.8127 5.6238 2.0383
-2.2587 5.4600 2.0383
-2.6900 5.2609 2.0383
-3.1039 5.0278 2.0383
-3.4978 4.7622 2.0383
-3.8691 4.4658 2.0383
-4.2154 4.1405 2.0383
-4.5344 3.7885 2.0383
-4.8241 3.4120 2.0383
-5.0826 3.0134 2.0383
-5.3082 2.5953 2.0383
-5.4996 2.1605 2.0383
-5.6554 1.7117 2.0383
-5.7746 1.2518 2.0383
-5.8565 0.7839 2.0383
-5.9005 0.3109 2.0383
-5.9064 -0.1642 2.0383
-5.8742 -0.6382 2.0383
-5.8039 -1.1080 2.0383
-5.6961 -1.5707 2.0383
-5.5515 -2.0233 2.0383
-5.3710 -2.4627 2.0383
-5.1558 -2.8862 2.0383
-4.9073 -3.2911 2.0383
-4.6270 -3.6747 2.0383
-4.3169 -4.0346 2.0383
-3.9788 -4.3683 2.0383
-3.6150 -4.6739 2.0383
-3.2278 -4.9492 2.0383
-2.8198 -5.1925 2.0383
-2.3935 -5.4022 2.0383
-0.7084 -2.0241 0.7397
-1.4975 -5.7158 2.0383
-1.0334 -5.8177 2.0383
-0.5627 -5.8819 2.0383
-0.0884 -5.9081 2.0383
0.3866 -5.8961 2.0383
0.8590 -5.8460 2.0383
1.3258 -5.7581 2.0383
1.7841 -5.6329 2.0383
2.2309 -5.4714 2.0383
2.6633 -5.2745 2.0383
3.0784 -5.0434 2.0383
3.4736 -4.7798 2.0383
3.8358 -4.4730 2.0326
3.8815 -3.8514 1.8862
4.1775 -3.5264 1.8859
4.4473 -3.1794 1.8859
4.6884 -2.8119 1.8859
4.8991 -2.4261 1.8859
5.0782 -2.0247 1.8859
5.2244 -1.6102 1.8859
5.3369 -1.1853 1.8859
5.4149 -0.7527 1.8859
5.4578 -0.3153 1.8859
5.4655 0.1242 1.8859
5.4379 0.5629 1.8859
5.3751 0.9979 1.8859
5.2775 1.4265 1.8859
5.1459 1.8459 1.8859
4.9810 2.2533 1.8859
4.7838 2.6462 1.8859
4.5558 3.0220 1.8859
4.2983 3.3782 1.8859
4.0130 3.7126 1.8859
3.9315 4.2727 2.0029
3.6386 4.6555 2.0383
3.2529 4.9327 2.0383
2.8461 5.1781 2.0383
2.4209 5.3900 2.0383
1.9801 5.5671 2.0383
1.5264 5.7082 2.0383
1.0629 5.8123 2.0383
0.5925 5.8790 2.0383
0.1183 5.9076 2.0383
-0.3566 5.8980 2.0383
-0.8293 5.8502 2.0383
-1.2966 5.7647 2.0383
-1.7555 5.6419 2.0383
-2.2031 5.4827 2.0383
-2.6365 5.2879 2.0383
-3.0528 5.0590 2.0383
-3.4493 4.7974 2.0383
-3.8236 4.5048 2.0383
-4.1731 4.1831 2.0383
-4.4957 3.8343 2.0383
-4.7892 3.4608 2.0383
-5.0517 3.0648 2.0383
-5.2816 2.6491 2.0383
-5.4774 2.2162 2.0383
-5.6377 1.7690 2.0383
-5.7616 1.3103 2.0383
-5.8483 0.8432 2.0383
-5.8971 0.3707 2.0383
-5.9078 -0.1043 2.0383
-5.8803 -0.5786 2.0383
-5.8149 -1.0491 2.0383
-5.7118 -1.5128 2.0383
-5.5718 -1.9668 2.0383
-5.3958 -2.4081 2.0383
-5.1849 -2.8338 2.0383
-4.9405 -3.2412 2.0383
-4.6641 -3.6276 2.0383
-4.3576 -3.9905 2.0383
-4.0229 -4.3277 2.0383
-3.6623 -4.6369 2.0383
-3.2779 -4.9162 2.0383
-2.8724 -5.1636 2.0383
-2.4482 -5.3776 2.0383
-0.7289 -2.0168 0.7398
-1.5554 -5.7003 2.0383
-1.0924 -5.8069 2.0383
-0.6224 -5.8759 2.0383
-0.1483 -5.9069 2.0383
0.3267 -5.8997 2.0383
0.7996 -5.8544 2.0383
1.2674 -5.7712 2.0383
1.7269 -5.6507 2.0383
2.1753 -5.4937 2.0383
2.6096 -5.3012 2.0383
3.0271 -5.0744 2.0383
3.4249 -4.8149 2.0383
3.8007 -4.5241 2.0383
3.8681 -3.9173 1.8989
4.1415 -3.5687 1.8859
4.4148 -3.2244 1.8859
4.6596 -2.8593 1.8859
4.8742 -2.4757 1.8859
5.0574 -2.0762 1.8859
5.2078 -1.6632 1.8859
5.3246 -1.2394 1.8859
5.4069 -0.8077 1.8859
5.4544 -0.3707 1.8859
5.4665 0.0687 1.8859
5.4433 0.5077 1.8859
5.3849 0.9433 1.8859
5.2918 1.3729 1.8859
5.1644 1.7936 1.8859
5.0036 2.2027 1.8859
4.8104 2.5975 1.8859
4.5862 2.9756 1.8859
4.3323 3.3344 1.8859
4.0505 3.6717 1.8859
3.9344 4.1897 1.9826
3.6857 4.6183 2.0383
3.3028 4.8995 2.0383
2.8985 5.1490 2.0383
2.4755 5.3652 2.0383
2.0365 5.5467 2.0383
1.5843 5.6924 2.0383
1.1219 5.8013 2.0383
0.6522 5.8726 2.0383
0.1783 5.9060 2.0383
-0.2968 5.9013 2.0383
-0.7699 5.8584 2.0383
-1.2381 5.7776 2.0383
-1.6982 5.6594 2.0383
-2.1474 5.5047 2.0383
-2.5827 5.3144 2.0383
-3.0013 5.0898 2.0383
-3.4004 4.8322 2.0383
-3.7777 4.5434 2.0383
-4.1304 4.2252 2.0383
-4.4566 3.8797 2.0383
-4.7538 3.5091 2.0383
-5.0204 3.1159 2.0383
-5.2545 2.7025 2.0383
-5.4546 2.2716 2.0383
-5.6195 1.8261 2.0383
-5.7480 1.3687 2.0383
-5.8394 0.9025 2.0383
-5.8930 0.4305 2.0383
-5.9086 -0.0443 2.0383
-5.8859 -0.5188 2.0383
-5.8252 -0.9900 2.0383
-5.7268 -1.4548 2.0383
-5.5915 -1.9102 2.0383
-5.4199 -2.3532 2.0383
-5.2134 -2.7810 2.0383
-4.9731 -3.1908 2.0383
-4.7007 -3.5800 2.0383
-4.3979 -3.9461 2.0383
-4.0666 -4.2867 2.0383
-3.7091 -4.5995 2.0383
-3.3276 -4.8827 2.0383
-2.9246 -5.1342 2.0383
-2.5027 -5.3525 2.0383
-0.7493 -2.0094 0.7398
-1.6131 -5.6843 2.0383
-1.1513 -5.7955 2.0383
-0.6819 -5.8692 2.0383
-0.2082 -5.9051 2.0383
0.2668 -5.9027 2.0383
0.7402 -5.8622 2.0383
1.2087 -5.7838 2.0383
1.6695 -5.6680 2.0383
0.7693 -2.0019 0.7398
2.5557 -5.3274 2.0383
2.9754 -5.1049 2.0383
3.3759 -4.8494 2.0383
3.7546 -4.5625 2.0383
3.8624 -3.9912 1.9159
4.1051 -3.6105 1.8859
4.3819 -3.2691 1.8859
4.6303 -2.9065 1.8859
4.8488 -2.5251 1.8859
5.0360 -2.1274 1.8859
5.1907 -1.7159 1.8859
5.3117 -1.2934 1.8859
-5.4052 0.2215 2.0383
-5.4055 -0.2134 2.0383
-5.3709 -0.6470 2.0383
-5.3016 -1.0764 2.0383
-5.1980 -1.4988 2.0383
-5.0608 -1.9116 2.0383
-4.8908 -2.3120 2.0383
-4.6893 -2.6974 2.0383
-4.4574 -3.0654 2.0383
-4.1968 -3.4136 2.0383
-3.9089 -3.7397 2.0383
-3.5959 -4.0417 2.0383
-3.2596 -4.3175 2.0383
-2.9022 -4.5654 2.0383
-2.5260 -4.7838 2.0383
-0.7747 -1.8052 0.7401
-0.6271 -1.8614 0.7400
-0.4755 -1.9055 0.7400
-0.3209 -1.9374 0.7399
-0.1642 -1.9568 0.7399
-0.0064 -1.9637 0.7399
0.1513 -1.9579 0.7399
0.3081 -1.9395 0.7399
0.4630 -1.9086 0.7400
0.6149 -1.8654 0.7400
0.7629 -1.8103 0.7402
2.4946 -4.8003 2.0383
2.8721 -4.5844 2.0383
3.2311 -4.3388 2.0383
3.5693 -4.0652 2.0383
3.8462 -3.7284 2.0182
3.8799 -3.1985 1.8945
4.1054 -2.8632 1.8859
4.3222 -2.5242 1.8859
4.5110 -2.1688 1.8859
4.6707 -1.7994 1.8859
4.8001 -1.4183 1.8859
4.8985 -1.0281 1.8859
4.9653 -0.6313 1.8859
5.0000 -0.2303 1.8859
5.0023 0.1721 1.8859
4.9723 0.5734 1.8859
4.9102 0.9710 1.8859
4.8163 1.3624 1.8859
4.6913 1.7449 1.8859
4.5359 2.1161 1.8859
4.3513 2.4737 1.8859
4.1385 2.8153 1.8859
3.9383 3.1702 1.9049
3.9199 3.7123 2.0341
3.6163 4.0234 2.0383
3.2814 4.3009 2.0383
2.9253 4.5506 2.0383
2.5503 4.7709 2.0383
0.7910 1.8175 0.7468
0.6425 1.8754 0.7469
0.4898 1.9212 0.7470
0.3339 1.9545 0.7471
0.4797 5.3885 2.0383
0.0452 5.4096 2.0383
-0.3895 5.3957 2.0383
-0.3012 1.9598 0.7471
-0.4576 1.9291 0.7470
-0.6111 1.8859 0.7469
-0.7605 1.8305 0.7468
-2.4702 4.8129 2.0383
-2.8488 4.5989 2.0383
-3.2091 4.3551 2.0383
-3.5486 4.0833 2.0383
-3.8652 3.7850 2.0383
-4.1567 3.4622 2.0383
-4.4214 3.1171 2.0383
-4.6576 2.7518 2.0383
-4.8636 2.3688 2.0383
-5.0382 1.9704 2.0383
-5.1802 1.5593 2.0383
-5.2887 1.1380 2.0383
-5.3630 0.7095 2.0383
-5.4027 0.2764 2.0383
-5.4074 -0.1586 2.0383
-5.3772 -0.5925 2.0383
-5.3122 -1.0226 2.0383
-5.2129 -1.4460 2.0383
-5.0799 -1.8601 2.0383
-4.9140 -2.2622 2.0383
-4.7164 -2.6497 2.0383
-4.4883 -3.0200 2.0383
-4.2312 -3.3708 2.0383
-3.9467 -3.6999 2.0383
-3.6367 -4.0050 2.0383
-3.3032 -4.2842 2.0383
-2.9483 -4.5357 2.0383
-2.5744 -4.7579 2.0383
-2.1839 -4.9493 2.0383
-0.6460 -1.8549 0.7401
-0.4948 -1.9006 0.7400
-0.3405 -1.9341 0.7399
-0.1840 -1.9551 0.7399
-0.0264 -1.9635 0.7399
0.1315 -1.9593 0.7399
0.2884 -1.9425 0.7399
0.4436 -1.9132 0.7400
0.5959 -1.8715 0.7400
0.7445 -1.8179 0.7401
2.4457 -4.8253 2.0383
2.8255 -4.6133 2.0383
3.1869 -4.3714 2.0383
3.5278 -4.1012 2.0383
3.8421 -3.8008 2.0362
3.8717 -3.2583 1.9066
4.0762 -2.9048 1.8859
4.2964 -2.5679 1.8859
4.4888 -2.2145 1.8859
4.6522 -1.8467 1.8859
4.7855 -1.4670 1.8859
4.8879 -1.0778 1.8859
4.9586 -0.6816 1.8859
4.9974 -0.2811 1.8859
5.0038 0.1213 1.8859
4.9779 0.5229 1.8859
4.9198 0.9212 1.8859
4.8299 1.3134 1.8859
4.7088 1.6972 1.8859
4.5572 2.0700 1.8859
4.3762 2.4294 1.8859
4.1668 2.7731 1.8859
3.9461 3.1112 1.8933
3.9225 3.6400 2.0162
3.6570 3.9865 2.0383
3.3249 4.2674 2.0383
2.9713 4.5207 2.0383
2.5985 4.7448 2.0383
2.2090 4.9382 2.0383
0.6615 1.8688 0.7469
0.5093 1.9161 0.7470
0.3537 1.9510 0.7471
0.1958 1.9732 0.7471
0.1001 5.4088 2.0383
-0.3347 5.3994 2.0383
-0.2813 1.9628 0.7471
-0.4380 1.9337 0.7470
-0.5919 1.8921 0.7470
-0.7419 1.8382 0.7469
-2.4212 4.8377 2.0383
-2.8020 4.6276 2.0383
-3.1647 4.3875 2.0383
-3.5070 4.1191 2.0383
-3.8265 3.8240 2.0383
-4.1214 3.5042 2.0383
-4.3896 3.1618 2.0383
-4.6294 2.7989 2.0383
-4.8393 2.4180 2.0383
-5.0179 2.0214 2.0383
-5.1641 1.6117 2.0383
-5.2769 1.1917 2.0383
-5.3556 0.7639 2.0383
-5.3996 0.3312 2.0383
-5.4088 -0.1037 2.0383
-5.3829 -0.5379 2.0383
-5.3223 -0.9686 2.0383
-5.2273 -1.3930 2.0383
-5.0985 -1.8085 2.0383
-4.9367 -2.2122 2.0383
-4.7431 -2.6017 2.0383
-4.5187 -2.9743 2.0383
-4.2652 -3.3277 2.0383
-3.9840 -3.6596 2.0383
-3.6772 -3.9679 2.0383
-3.3465 -4.2504 2.0383
-2.9942 -4.5055 2.0383
-2.6226 -4.7315 2.0383
-2.2340 -4.9269 2.0383
-0.6648 -1.8483 0.7401
-0.5141 -1.8955 0.7400
-0.3601 -1.9305 0.7399
-0.2039 -1.9531 0.7399
-0.0463 -1.9631 0.7399
0.1116 -1.9605 0.7399
0.2687 -1.9453 0.7399
0.4242 -1.9175 0.7400
0.5769 -1.8775 0.7400
0.7260 -1.8253 0.7401
2.3966 -4.8499 2.0383
2.7785 -4.6417 2.0383
3.1424 -4.4035 2.0383
3.4860 -4.1368 2.0383
3.8071 -3.8434 2.0383
3.8683 -3.3230 1.9214
4.0465 -2.9460 1.8859
4.2701 -2.6114 1.8859
4.4661 -2.2599 1.8859
4.6332 -1.8938 1.8859
4.7703 -1.5155 1.8859
4.8767 -1.1273 1.8859
4.9515 -0.7319 1.8859
4.9943 -0.3317 1.8859
5.0048 0.0706 1.8859
4.9829 0.4724 1.8859
4.9289 0.8712 1.8859
4.8430 1.2643 1.8859
4.7257 1.6493 1.8859
4.5780 2.0236 1.8859
4.4006 2.3849 1.8859
4.1948 2.7307 1.8859
3.9618 3.0588 1.8859
3.9250 3.5689 1.9988
3.6972 3.9492 2.0383
3.3680 4.2334 2.0383
3.0170 4.4903 2.0383
2.6466 4.7182 2.0383
2.2590 4.9156 2.0383
0.6804 1.8620 0.7469
0.5287 1.9108 0.7470
0.3735 1.9473 0.7471
0.2159 1.9711 0.7471
0.1550 5.4075 2.0383
-0.2799 5.4025 2.0383
-0.2614 1.9656 0.7471
-0.4184 1.9381 0.7470
-0.5727 1.8980 0.7470
-0.7232 1.8456 0.7469
-2.3720 4.8620 2.0383
-2.7549 4.6557 2.0383
-3.1200 4.4194 2.0383
-3.4650 4.1544 2.0383
-3.7875 3.8626 2.0383
-4.0856 3.5459 2.0383
-4.3573 3.2062 2.0383
-4.6008 2.8458 2.0383
-4.8145 2.4670 2.0383
-4.9971 2.0722 2.0383
-5.1475 1.6641 2.0383
-5.2645 1.2451 2.0383
-5.3475 0.8182 2.0383
-5.3960 0.3859 2.0383
-5.4095 -0.0488 2.0383
-5.3881 -0.4832 2.0383
-5.3319 -0.9145 2.0383
-5.2412 -1.3399 2.0383
-5.1166 -1.7567 2.0383
-4.9589 -2.1620 2.0383
-4.7692 -2.5534 2.0383
-4.5487 -2.9283 2.0383
-4.2987 -3.2843 2.0383
-4.0210 -3.6190 2.0383
-3.7172 -3.9303 2.0383
-3.3895 -4.2163 2.0383
-3.0398 -4.4749 2.0383
-2.6705 -4.7047 2.0383
-2.2839 -4.9040 2.0383
-0.6835 -1.8415 0.7401
-0.5333 -1.8902 0.7400
-0.3797 -1.9268 0.7399
-0.2237 -1.9509 0.7399
-0.0662 -1.9626 0.7399
0.0917 -1.9615 0.7399
0.2490 -1.9479 0.7399
0.4047 -1.9217 0.7399
0.5578 -1.8832 0.7400
0.7074 -1.8325 0.7401
2.3473 -4.8740 2.0383
2.7313 -4.6697 2.0383
3.0976 -4.4351 2.0383
3.4439 -4.1720 2.0383
3.7679 -3.8818 2.0383
3.8648 -3.3887 1.9366
4.0164 -2.9869 1.8859
4.2434 -2.6546 1.8859
4.4429 -2.3051 1.8859
4.6137 -1.9407 1.8859
4.7547 -1.5638 1.8859
4.8650 -1.1768 1.8859
4.9438 -0.7821 1.8859
4.9906 -0.3824 1.8859
5.0052 0.0198 1.8859
4.9875 0.4218 1.8859
4.9375 0.8211 1.8859
4.8555 1.2151 1.8859
4.7422 1.6013 1.8859
4.5983 1.9771 1.8859
4.4246 2.3401 1.8859
4.2223 2.6880 1.8859
3.9927 3.0185 1.8859
3.9274 3.4989 1.9818
3.7371 3.9115 2.0383
3.4108 4.1990 2.0383
3.0625 4.4595 2.0383
2.6943 4.6911 2.0383
2.3087 4.8924 2.0383
0.6992 1.8549 0.7469
0.5480 1.9053 0.7470
0.3932 1.9434 0.7471
0.2358 1.9688 0.7471
0.2098 5.4057 2.0383
-0.2251 5.4051 2.0383
-0.2414 1.9681 0.7471
-0.3987 1.9423 0.7471
-0.5534 1.9038 0.7470
-0.7045 1.8529 0.7469
-2.3225 4.8858 2.0383
-2.7075 4.6835 2.0383
-3.0750 4.4508 2.0383
-3.4227 4.1894 2.0383
-3.7482 3.9009 2.0383
-4.0494 3.5872 2.0383
-4.3245 3.2502 2.0383
-4.5716 2.8923 2.0383
-4.7892 2.5157 2.0383
-4.9759 2.1228 2.0383
-5.1303 1.7162 2.0383
-5.2516 1.2985 2.0383
-5.3389 0.8724 2.0383
-5.3918 0.4407 2.0383
-5.4098 0.0061 2.0383
-5.3928 -0.4285 2.0383
-5.3409 -0.8604 2.0383
-5.2545 -1.2867 2.0383
-5.1342 -1.7046 2.0383
-4.9806 -2.1116 2.0383
-4.7949 -2.5049 2.0383
-4.5782 -2.8820 2.0383
-4.3318 -3.2405 2.0383
-4.0575 -3.5780 2.0383
-3.7569 -3.8924 2.0383
-3.4321 -4.1817 2.0383
-3.0851 -4.4438 2.0383
-2.7181 -4.6773 2.0383
-2.3335 -4.8806 2.0383
-0.7022 -1.8345 0.7401
-0.5525 -1.8847 0.7400
-0.3992 -1.9228 0.7399
-0.2435 -1.9486 0.7399
-0.0861 -1.9618 0.7399
0.0718 -1.9624 0.7399
0.2292 -1.9503 0.7399
0.3851 -1.9257 0.7399
0.5387 -1.8887 0.7400
0.6887 -1.8396 0.7401
2.2977 -4.8976 2.0383
2.6837 -4.6971 2.0383
3.0524 -4.4663 2.0383
3.4014 -4.2066 2.0383
3.7283 -3.9198 2.0383
3.8612 -3.4555 1.9523
3.9859 -3.0275 1.8859
4.2162 -2.6975 1.8859
4.4193 -2.3501 1.8859
4.5938 -1.9874 1.8859
4.7386 -1.6120 1.8859
4.8528 -1.2261 1.8859
4.9356 -0.8322 1.8859
4.9865 -0.4330 1.8859
5.0052 -0.0310 1.8859
4.9915 0.3712 1.8859
4.9455 0.7710 1.8859
4.8676 1.1658 1.8859
4.7582 1.5531 1.8859
4.6181 1.9303 1.8859
4.4481 2.2951 1.8859
4.2493 2.6450 1.8859
4.0231 2.9778 1.8859
3.9298 3.4301 1.9653
3.7766 3.8733 2.0383
3.4533 4.1642 2.0383
3.1076 4.4282 2.0383
2.7418 4.6635 2.0383
2.3583 4.8687 2.0383
0.7180 1.8477 0.7469
0.5673 1.8997 0.7470
0.4129 1.9393 0.7471
0.2558 1.9663 0.7471
0.2647 5.4033 2.0383
-0.1702 5.4071 2.0383
-0.2214 1.9705 0.7471
-0.3790 1.9462 0.7471
-0.5341 1.9093 0.7470
-0.6856 1.8600 0.7469
-2.2728 4.9092 2.0383
-2.6599 4.7107 2.0383
-3.0297 4.4818 2.0383
-3.3800 4.2239 2.0383
-3.7084 3.9387 2.0383
-4.0128 3.6281 2.0383
-4.2913 3.2939 2.0383
-4.5421 2.9386 2.0383
-4.7635 2.5642 2.0383
-4.9541 2.1732 2.0383
-5.1126 1.7682 2.0383
-5.2382 1.3517 2.0383
-5.3298 0.9266 2.0383
-5.3870 0.4954 2.0383
-5.4094 0.0610 2.0383
-5.3968 -0.3738 2.0383
-5.3494 -0.8061 2.0383
-5.2673 -1.2333 2.0383
-5.1512 -1.6524 2.0383
-5.0018 -2.0609 2.0383
-4.8201 -2.4561 2.0383
-4.6072 -2.8354 2.0383
-4.3645 -3.1963 2.0383
-4.0936 -3.5367 2.0383
-3.7962 -3.8541 2.0383
-3.4743 -4.1466 2.0383
-3.1300 -4.4123 2.0383
-2.7654 -4.6495 2.0383
-2.3829 -4.8566 2.0383
-0.7208 -1.8273 0.7401
-0.5716 -1.8791 0.7400
-0.4187 -1.9187 0.7399
-0.2632 -1.9460 0.7399
-0.1060 -1.9608 0.7399
0.0518 -1.9630 0.7399
0.2094 -1.9525 0.7399
0.3656 -1.9295 0.7399
0.5195 -1.8941 0.7400
0.6700 -1.8464 0.7401
2.2479 -4.9206 2.0383
2.6359 -4.7241 2.0383
3.0069 -4.4971 2.0383
3.3585 -4.2410 2.0383
3.6883 -3.9575 2.0383
3.8575 -3.5234 1.9684
3.9549 -3.0677 1.8859
4.1886 -2.7402 1.8859
4.3952 -2.3948 1.8859
4.5734 -2.0339 1.8859
4.7220 -1.6600 1.8859
4.8401 -1.2752 1.8859
4.9269 -0.8823 1.8859
4.9819 -0.4836 1.8859
5.0046 -0.0818 1.8859
4.9950 0.3205 1.8859
4.9531 0.7207 1.8859
4.8792 1.1163 1.8859
4.7737 1.5047 1.8859
4.6374 1.8833 1.8859
4.4711 2.2498 1.8859
4.2759 2.6017 1.8859
4.0531 2.9369 1.8859
3.9320 3.3624 1.9493
3.8157 3.8348 2.0383
3.4953 4.1289 2.0383
3.1523 4.3964 2.0383
2.7890 4.6354 2.0383
2.4075 4.8445 2.0383
0.7367 1.8403 0.7469
0.5866 1.8938 0.7470
0.4326 1.9350 0.7470
0.2758 1.9636 0.7471
0.3195 5.4003 2.0383
-0.1154 5.4085 2.0383
-0.2014 1.9726 0.7471
-0.3592 1.9500 0.7471
-0.5147 1.9146 0.7470
-0.6667 1.8669 0.7469
-2.2229 4.9320 2.0383
-2.6119 4.7375 2.0383
-2.9841 4.5123 2.0383
-3.3369 4.2580 2.0383
-3.6682 3.9761 2.0383
-3.9758 3.6686 2.0383
-4.2577 3.3373 2.0383
-4.5120 2.9845 2.0383
-4.7372 2.6124 2.0383
-4.9318 2.2234 2.0383
-5.0944 1.8200 2.0383
-5.2242 1.4048 2.0383
-5.3201 0.9806 2.0383
-5.3817 0.5500 2.0383
-5.4085 0.1159 2.0383
-5.4003 -0.3190 2.0383
-5.3573 -0.7518 2.0383
-5.2795 -1.1798 2.0383
-5.1677 -1.6001 2.0383
-5.0225 -2.0101 2.0383
-4.8447 -2.4071 2.0383
-4.6357 -2.7885 2.0383
-4.3967 -3.1519 2.0383
-4.1293 -3.4949 2.0383
-3.8352 -3.8152 2.0383
-3.5162 -4.1111 2.0383
-3.1746 -4.3803 2.0383
-2.8124 -4.6212 2.0383
-2.4321 -4.8322 2.0383
-0.7393 -1.8199 0.7401
-0.5906 -1.8732 0.7400
-0.4382 -1.9144 0.7400
-0.2830 -1.9433 0.7399
-0.1259 -1.9596 0.7399
0.0319 -1.9634 0.7399
0.1895 -1.9546 0.7399
0.3460 -1.9331 0.7399
0.5002 -1.8992 0.7400
0.6512 -1.8531 0.7401
2.1978 -4.9432 2.0383
2.5879 -4.7506 2.0383
2.9611 -4.5274 2.0383
3.3153 -4.2748 2.0383
3.6480 -3.9947 2.0383
3.8537 -3.5924 1.9850
3.9236 -3.1077 1.8859
4.1606 -2.7825 1.8859
4.3707 -2.4393 1.8859
4.5525 -2.0803 1.8859
4.7049 -1.7078 1.8859
4.8269 -1.3243 1.8859
4.9177 -0.9322 1.8859
4.9767 -0.5341 1.8859
5.0035 -0.1326 1.8859
4.9980 0.2698 1.8859
4.9602 0.6704 1.8859
4.8903 1.0668 1.8859
4.7888 1.4562 1.8859
4.6563 1.8362 1.8859
4.4937 2.2043 1.8859
4.3021 2.5582 1.8859
4.0827 2.8956 1.8859
3.9342 3.2957 1.9337
3.8545 3.7959 2.0383
3.5370 4.0933 2.0383
3.1968 4.3642 2.0383
2.8358 4.6069 2.0383
2.4566 4.8198 2.0383
0.7553 1.8327 0.7469
0.6058 1.8877 0.7470
0.4522 1.9305 0.7470
0.2957 1.9607 0.7471
0.3743 5.3968 2.0383
-0.0605 5.4094 2.0383
-0.1814 1.9746 0.7471
-0.3394 1.9535 0.7471
-0.4952 1.9198 0.7470
-0.6478 1.8736 0.7469
-2.1727 4.9543 2.0383
-2.5637 4.7637 2.0383
-2.9381 4.5424 2.0383
-3.2935 4.2916 2.0383
-3.6277 4.0132 2.0383
-3.9384 3.7088 2.0383
-4.2236 3.3804 2.0383
-4.4815 3.0302 2.0383
-4.7104 2.6603 2.0383
-4.9089 2.2733 2.0383
-5.0757 1.8716 2.0383
-5.2096 1.4578 2.0383
-5.3099 1.0345 2.0383
-5.3759 0.6046 2.0383
-5.4071 0.1708 2.0383
-5.4033 -0.2642 2.0383
-5.3646 -0.6974 2.0383
-5.2912 -1.1261 2.0383
-5.1837 -1.5476 2.0383
-5.0426 -1.9590 2.0383
-4.8689 -2.3578 2.0383
-4.6638 -2.7413 2.0383
-4.4285 -3.1071 2.0383
-4.1645 -3.4528 2.0383
-3.8737 -3.7762 2.0383
-3.5578 -4.0752 2.0383
-3.2189 -4.3479 2.0383
-2.8592 -4.5924 2.0383
-2.4810 -4.8073 2.0383
-0.7578 -1.8124 0.7401
-0.6096 -1.8671 0.7400
-0.4576 -1.9099 0.7400
-0.3027 -1.9403 0.7399
-0.1458 -1.9583 0.7399
0.0120 -1.9636 0.7399
0.1697 -1.9564 0.7399
0.3263 -1.9365 0.7399
0.4809 -1.9042 0.7400
0.6324 -1.8596 0.7401
0.7799 -1.8030 0.7402
2.5395 -4.7766 2.0383
2.9150 -4.5572 2.0383
3.2717 -4.3083 2.0383
3.6073 -4.0315 2.0383
3.8498 -3.6625 2.0020
3.8919 -3.1476 1.8859
4.1321 -2.8246 1.8859
4.3457 -2.4835 1.8859
4.5312 -2.1263 1.8859
4.6873 -1.7555 1.8859
4.8132 -1.3732 1.8859
4.9080 -0.9821 1.8859
4.9710 -0.5846 1.8859
5.0019 -0.1834 1.8859
5.0005 0.2191 1.8859
4.9667 0.6201 1.8859
4.9008 1.0171 1.8859
4.8033 1.4075 1.8859
4.6747 1.7888 1.8859
4.5159 2.1586 1.8859
4.3279 2.5144 1.8859
4.1119 2.8540 1.8859
3.9364 3.2301 1.9185
3.8928 3.7566 2.0383
3.5784 4.0571 2.0383
3.2409 4.3315 2.0383
2.8825 4.5779 2.0383
2.5054 4.7947 2.0383
0.7739 1.8249 0.7468
0.6249 1.8814 0.7469
0.4718 1.9257 0.7470
0.3155 1.9576 0.7471
0.4290 5.3927 2.0383
-0.0056 5.4098 2.0383
-0.4402 5.3918 2.0383
-0.3196 1.9569 0.7471
-0.4757 1.9247 0.7470
-0.6287 1.8801 0.7469
-2.1223 4.9761 2.0383
-2.5152 4.7895 2.0383
-2.8919 4.5719 2.0383
-3.2498 4.3248 2.0383
-3.5868 4.0498 2.0383
-3.9005 3.7485 2.0383
-4.1891 3.4230 2.0383
-4.4505 3.0755 2.0383
-4.6832 2.7080 2.0383
-4.8856 2.3230 2.0383
-5.0564 1.9230 2.0383
-5.1946 1.5106 2.0383
-5.2991 1.0884 2.0383
-5.3695 0.6591 2.0383
-5.4050 0.2256 2.0383
-5.4057 -0.2093 2.0383
-5.3714 -0.6429 2.0383
-5.3024 -1.0724 2.0383
-5.1991 -1.4949 2.0383
-5.0622 -1.9077 2.0383
-4.8926 -2.3082 2.0383
-4.6913 -2.6938 2.0383
-4.4598 -3.0620 2.0383
-4.1994 -3.4104 2.0383
-3.9118 -3.7367 2.0383
-3.5990 -4.0389 2.0383
-3.2628 -4.3150 2.0383
-2.9057 -4.5632 2.0383
-2.5297 -4.7819 2.0383
-0.7761 -1.8046 0.7401
-0.6285 -1.8609 0.7400
-0.4770 -1.9051 0.7400
-0.3223 -1.9372 0.7399
-0.1657 -1.9567 0.7399
-0.0079 -1.9637 0.7399
0.1498 -1.9580 0.7399
0.3067 -1.9397 0.7399
0.4615 -1.9089 0.7400
0.6135 -1.8659 0.7400
0.7615 -1.8108 0.7401
2.4909 -4.8022 2.0383
2.8686 -4.5866 2.0383
3.2278 -4.3413 2.0383
3.5662 -4.0679 2.0383
3.8459 -3.7337 2.0196
3.8791 -3.2029 1.8953
4.1033 -2.8664 1.8859
4.3203 -2.5275 1.8859
4.5094 -2.1722 1.8859
4.6693 -1.8029 1.8859
4.7990 -1.4220 1.8859
4.8978 -1.0318 1.8859
4.9648 -0.6350 1.8859
4.9998 -0.2341 1.8859
5.0024 0.1683 1.8859
4.9728 0.5696 1.8859
4.9109 0.9673 1.8859
4.8173 1.3587 1.8859
4.6926 1.7413 1.8859
4.5375 2.1127 1.8859
4.3532 2.4704 1.8859
4.1406 2.8121 1.8859
3.9384 3.1655 1.9038
3.9201 3.7068 2.0328
3.6194 4.0206 2.0383
3.2847 4.2984 2.0383
2.9288 4.5484 2.0383
2.5539 4.7690 2.0383
0.7924 1.8169 0.7468
0.6439 1.8750 0.7469
0.4913 1.9208 0.7470
0.3354 1.9543 0.7471
0.4838 5.3881 2.0383
0.0493 5.4095 2.0383
-0.3854 5.3960 2.0383
-0.2997 1.9601 0.7471
-0.4562 1.9295 0.7470
-0.6096 1.8864 0.7469
-0.7591 1.8311 0.7468
-2.4665 4.8148 2.0383
-2.8453 4.6010 2.0383
-3.2058 4.3576 2.0383
-3.5455 4.0860 2.0383
-3.8623 3.7879 2.0383
-4.1541 3.4654 2.0383
-4.4191 3.1205 2.0383
-4.6555 2.7554 2.0383
-4.8618 2.3725 2.0383
-5.0367 1.9742 2.0383
-5.1790 1.5632 2.0383
-5.2878 1.1421 2.0383
-5.3625 0.7136 2.0383
-5.4025 0.2805 2.0383
-5.4076 -0.1545 2.0383
-5.3777 -0.5884 2.0383
-5.3130 -1.0185 2.0383
-5.2140 -1.4420 2.0383
-5.0813 -1.8563 2.0383
-4.9158 -2.2585 2.0383
-4.7184 -2.6461 2.0383
-4.4906 -3.0166 2.0383
-4.2337 -3.3676 2.0383
-3.9495 -3.6969 2.0383
-3.6397 -4.0022 2.0383
-3.3065 -4.2817 2.0383
-2.9518 -4.5335 2.0383
-2.5781 -4.7560 2.0383
-2.1876 -4.9477 2.0383
-0.6474 -1.8544 0.7401
-0.4963 -1.9002 0.7400
-0.3420 -1.9338 0.7399
-0.1855 -1.9549 0.7399
-0.0279 -1.9635 0.7399
0.1300 -1.9594 0.7399
0.2870 -1.9427 0.7399
0.4421 -1.9135 0.7400
0.5945 -1.8720 0.7400
0.7431 -1.8184 0.7401
2.4420 -4.8272 2.0383
2.8220 -4.6154 2.0383
3.1836 -4.3738 2.0383
3.5247 -4.1039 2.0383
3.8418 -3.8063 2.0376
3.8714 -3.2631 1.9077
4.0740 -2.9079 1.8859
4.2944 -2.5712 1.8859
4.4871 -2.2179 1.8859
4.6508 -1.8502 1.8859
4.7844 -1.4706 1.8859
4.8870 -1.0815 1.8859
4.9581 -0.6854 1.8859
4.9972 -0.2848 1.8859
5.0039 0.1175 1.8859
4.9783 0.5192 1.8859
4.9205 0.9174 1.8859
4.8309 1.3097 1.8859
4.7100 1.6936 1.8859
4.5588 2.0665 1.8859
4.3780 2.4261 1.8859
4.1689 2.7700 1.8859
3.9469 3.1069 1.8925
3.9227 3.6346 2.0149
3.6600 3.9837 2.0383
3.3281 4.2649 2.0383
2.9748 4.5184 2.0383
2.6022 4.7428 2.0383
2.2127 4.9365 2.0383
0.6629 1.8683 0.7469
0.5107 1.9157 0.7470
0.3552 1.9507 0.7471
0.1974 1.9731 0.7471
0.1042 5.4088 2.0383
-0.3307 5.3997 2.0383
-0.2798 1.9630 0.7471
-0.4366 1.9340 0.7470
-0.5905 1.8925 0.7470
-0.7405 1.8387 0.7469
-2.4175 4.8395 2.0383
-2.7985 4.6297 2.0383
-3.1614 4.3899 2.0383
-3.5038 4.1217 2.0383
-3.8236 3.8269 2.0383
-4.1187 3.5074 2.0383
-4.3872 3.1652 2.0383
-4.6273 2.8025 2.0383
-4.8375 2.4217 2.0383
-5.0164 2.0252 2.0383
-5.1629 1.6157 2.0383
-5.2760 1.1957 2.0383
-5.3550 0.7680 2.0383
-5.3994 0.3353 2.0383
-5.4088 -0.0996 2.0383
-5.3834 -0.5338 2.0383
-5.3231 -0.9645 2.0383
-5.2284 -1.3891 2.0383
-5.0999 -1.8046 2.0383
-4.9384 -2.2085 2.0383
-4.7450 -2.5981 2.0383
-4.5210 -2.9709 2.0383
-4.2677 -3.3245 2.0383
-3.9868 -3.6566 2.0383
-3.6802 -3.9651 2.0383
-3.3497 -4.2479 2.0383
-2.9977 -4.5033 2.0383
-2.6262 -4.7295 2.0383
-2.2377 -4.9252 2.0383
-0.6662 -1.8478 0.7401
-0.5156 -1.8951 0.7400
-0.3616 -1.9303 0.7399
-0.2053 -1.9530 0.7399
-0.0478 -1.9631 0.7399
0.1101 -1.9606 0.7399
0.2672 -1.9455 0.7399
0.4227 -1.9179 0.7399
0.5755 -1.8779 0.7400
0.7246 -1.8259 0.7401
2.3929 -4.8517 2.0383
2.7750 -4.6438 2.0383
3.1391 -4.4059 2.0383
3.4829 -4.1395 2.0383
3.8042 -3.8463 2.0383
3.8680 -3.3279 1.9225
4.0442 -2.9491 1.8859
4.2681 -2.6146 1.8859
4.4643 -2.2633 1.8859
4.6317 -1.8973 1.8859
4.7692 -1.5191 1.8859
4.8758 -1.1310 1.8859
4.9509 -0.7357 1.8859
4.9940 -0.3356 1.8859
5.0048 0.0667 1.8859
4.9833 0.4686 1.8859
4.9295 0.8674 1.8859
4.8439 1.2607 1.8859
4.7270 1.6457 1.8859
4.5795 2.0202 1.8859
4.4024 2.3815 1.8859
4.1968 2.7275 1.8859
3.9642 3.0558 1.8859
3.9252 3.5636 1.9975
3.7003 3.9463 2.0383
3.3713 4.2309 2.0383
3.0205 4.4880 2.0383
2.6502 4.7162 2.0383
2.2627 4.9138 2.0383
0.6818 1.8614 0.7469
0.5301 1.9104 0.7470
0.3750 1.9470 0.7471
0.2174 1.9710 0.7471
0.1591 5.4074 2.0383
-0.2758 5.4027 2.0383
-0.2599 1.9658 0.7471
-0.4169 1.9384 0.7470
-0.5712 1.8985 0.7470
-0.7218 1.8462 0.7469
-2.3682 4.8638 2.0383
-2.7513 4.6579 2.0383
-3.1167 4.4217 2.0383
-3.4618 4.1571 2.0383
-3.7846 3.8655 2.0383
-4.0829 3.5490 2.0383
-4.3548 3.2095 2.0383
-4.5986 2.8493 2.0383
-4.8126 2.4706 2.0383
-4.9956 2.0760 2.0383
-5.1462 1.6680 2.0383
-5.2636 1.2492 2.0383
-5.3469 0.8223 2.0383
-5.3957 0.3901 2.0383
-5.4096 -0.0447 2.0383
-5.3885 -0.4791 2.0383
-5.3326 -0.9104 2.0383
-5.2422 -1.3359 2.0383
-5.1179 -1.7527 2.0383
-4.9606 -2.1582 2.0383
-4.7712 -2.5498 2.0383
-4.5509 -2.9248 2.0383
-4.3012 -3.2810 2.0383
-4.0237 -3.6159 2.0383
-3.7203 -3.9275 2.0383
-3.3927 -4.2137 2.0383
-3.0432 -4.4726 2.0383
-2.6740 -4.7026 2.0383
-2.2876 -4.9023 2.0383
-0.6849 -1.8410 0.7401
-0.5348 -1.8898 0.7400
-0.3812 -1.9265 0.7399
-0.2252 -1.9508 0.7399
-0.0677 -1.9625 0.7399
0.0902 -1.9616 0.7399
0.2475 -1.9481 0.7399
0.4032 -1.9220 0.7399
0.5564 -1.8836 0.7400
0.7060 -1.8331 0.7401
2.3436 -4.8758 2.0383
2.7277 -4.6717 2.0383
3.0942 -4.4375 2.0383
3.4407 -4.1746 2.0383
3.7649 -3.8847 2.0383
3.8645 -3.3937 1.9378
4.0141 -2.9899 1.8859
4.2413 -2.6578 1.8859
4.4411 -2.3085 1.8859
4.6122 -1.9442 1.8859
4.7535 -1.5674 1.8859
4.8641 -1.1804 1.8859
4.9432 -0.7859 1.8859
4.9903 -0.3862 1.8859
5.0052 0.0160 1.8859
4.9878 0.4180 1.8859
4.9381 0.8174 1.8859
4.8565 1.2114 1.8859
4.7434 1.5977 1.8859
4.5998 1.9736 1.8859
4.4263 2.3367 1.8859
4.2243 2.6848 1.8859
3.9950 3.0155 1.8859
3.9276 3.4937 1.9806
3.7401 3.9086 2.0383
3.4140 4.1964 2.0383
3.0659 4.4571 2.0383
2.6979 4.6890 2.0383
2.3125 4.8906 2.0383
0.7007 1.8544 0.7469
0.5495 1.9049 0.7470
0.3947 1.9431 0.7471
0.2373 1.9686 0.7471
0.2140 5.4055 2.0383
-0.2210 5.4053 2.0383
-0.2399 1.9683 0.7471
-0.3972 1.9426 0.7471
-0.5520 1.9042 0.7470
-0.7031 1.8534 0.7469
-2.3188 4.8876 2.0383
-2.7040 4.6855 2.0383
-3.0716 4.4531 2.0383
-3.4195 4.1920 2.0383
-3.7452 3.9037 2.0383
-4.0467 3.5903 2.0383
-4.3220 3.2535 2.0383
-4.5694 2.8958 2.0383
-4.7873 2.5193 2.0383
-4.9742 2.1266 2.0383
-5.1290 1.7201 2.0383
-5.2506 1.3025 2.0383
-5.3383 0.8765 2.0383
-5.3914 0.4448 2.0383
-5.4097 0.0102 2.0383
-5.3931 -0.4244 2.0383
-5.3416 -0.8563 2.0383
-5.2555 -1.2827 2.0383
-5.1355 -1.7007 2.0383
-4.9822 -2.1078 2.0383
-4.7968 -2.5012 2.0383
-4.5803 -2.8785 2.0383
-4.3343 -3.2372 2.0383
-4.0602 -3.5749 2.0383
-3.7599 -3.8896 2.0383
-3.4353 -4.1790 2.0383
-3.0884 -4.4415 2.0383
-2.7216 -4.6753 2.0383
-2.3372 -4.8788 2.0383
-0.7036 -1.8340 0.7401
-0.5539 -1.8843 0.7400
-0.4007 -1.9226 0.7399
-0.2450 -1.9484 0.7399
-0.0876 -1.9617 0.7399
0.0703 -1.9624 0.7399
0.2277 -1.9505 0.7399
0.3837 -1.9260 0.7399
0.5372 -1.8892 0.7400
0.6873 -1.8401 0.7401
2.2939 -4.8993 2.0383
2.6802 -4.6992 2.0383
3.0490 -4.4686 2.0383
3.3982 -4.2093 2.0383
3.7253 -3.9227 2.0383
3.8609 -3.4606 1.9535
3.9836 -3.0305 1.8859
4.2141 -2.7007 1.8859
4.4175 -2.3534 1.8859
4.5923 -1.9909 1.8859
4.7374 -1.6156 1.8859
4.8519 -1.2297 1.8859
4.9350 -0.8360 1.8859
4.9862 -0.4368 1.8859
5.0052 -0.0348 1.8859
4.9918 0.3674 1.8859
4.9461 0.7672 1.8859
4.8685 1.1621 1.8859
4.7594 1.5494 1.8859
4.6196 1.9268 1.8859
4.4498 2.2917 1.8859
4.2513 2.6418 1.8859
4.0254 2.9747 1.8859
3.9299 3.4250 1.9641
3.7796 3.8704 2.0383
3.4564 4.1616 2.0383
3.1109 4.4258 2.0383
2.7453 4.6614 2.0383
2.3619 4.8669 2.0383
0.7194 1.8472 0.7469
0.5688 1.8992 0.7470
0.4144 1.9390 0.7471
0.2573 1.9661 0.7471
0.2688 5.4031 2.0383
-0.1661 5.4072 2.0383
-0.2199 1.9707 0.7471
-0.3775 1.9465 0.7471
-0.5326 1.9097 0.7470
-0.6842 1.8605 0.7469
-2.2691 4.9109 2.0383
-2.6563 4.7127 2.0383
-3.0263 4.4841 2.0383
-3.3767 4.2265 2.0383
-3.7054 3.9415 2.0383
-4.0100 3.6311 2.0383
-4.2888 3.2973 2.0383
-4.5398 2.9420 2.0383
-4.7615 2.5678 2.0383
-4.9524 2.1770 2.0383
-5.1113 1.7720 2.0383
-5.2371 1.3557 2.0383
-5.3291 0.9306 2.0383
-5.3867 0.4995 2.0383
-5.4094 0.0651 2.0383
-5.3971 -0.3697 2.0383
-5.3500 -0.8021 2.0383
-5.2682 -1.2293 2.0383
-5.1525 -1.6485 2.0383
-5.0034 -2.0571 2.0383
-4.8219 -2.4524 2.0383
-4.6093 -2.8319 2.0383
-4.3669 -3.1930 2.0383
-4.0963 -3.5335 2.0383
-3.7992 -3.8512 2.0383
-3.4775 -4.1440 2.0383
-3.1334 -4.4099 2.0383
-2.7689 -4.6474 2.0383
-2.3866 -4.8548 2.0383
-0.7222 -1.8267 0.7401
-0.5730 -1.8786 0.7400
-0.4202 -1.9184 0.7399
-0.2647 -1.9458 0.7399
-0.1075 -1.9607 0.7399
0.0503 -1.9630 0.7399
0.2079 -1.9527 0.7399
0.3641 -1.9298 0.7399
0.5180 -1.8945 0.7400
0.6686 -1.8470 0.7401
2.2441 -4.9223 2.0383
2.6323 -4.7261 2.0383
3.0035 -4.4994 2.0383
3.3553 -4.2436 2.0383
3.6853 -3.9603 2.0383
3.8572 -3.5285 1.9697
3.9526 -3.0708 1.8859
4.1865 -2.7433 1.8859
4.3934 -2.3981 1.8859
4.5718 -2.0374 1.8859
4.7207 -1.6636 1.8859
4.8391 -1.2789 1.8859
4.9262 -0.8860 1.8859
4.9815 -0.4874 1.8859
5.0045 -0.0856 1.8859
4.9952 0.3167 1.8859
4.9537 0.7170 1.8859
4.8800 1.1126 1.8859
4.7749 1.5011 1.8859
4.6389 1.8798 1.8859
4.4728 2.2464 1.8859
4.2779 2.5985 1.8859
4.0553 2.9338 1.8859
3.9322 3.3574 1.9481
3.8187 3.8319 2.0383
3.4985 4.1263 2.0383
3.1557 4.3940 2.0383
2.7925 4.6333 2.0383
2.4112 4.8427 2.0383
0.7381 1.8397 0.7469
0.5880 1.8933 0.7470
0.4341 1.9346 0.7470
0.2772 1.9634 0.7471
0.3236 5.4001 2.0383
-0.1112 5.4086 2.0383
-0.1999 1.9728 0.7471
-0.3577 1.9503 0.7471
-0.5132 1.9150 0.7470
-0.6653 1.8674 0.7469
-2.2191 4.9337 2.0383
-2.6083 4.7394 2.0383
-2.9806 4.5146 2.0383
-3.3337 4.2605 2.0383
-3.6652 3.9790 2.0383
-3.9730 3.6716 2.0383
-4.2551 3.3406 2.0383
-4.5097 2.9879 2.0383
-4.7352 2.6160 2.0383
-4.9301 2.2271 2.0383
-5.0930 1.8239 2.0383
-5.2231 1.4088 2.0383
-5.3194 0.9846 2.0383
-5.3813 0.5541 2.0383
-5.4084 0.1200 2.0383
-5.4006 -0.3149 2.0383
-5.3578 -0.7477 2.0383
-5.2804 -1.1757 2.0383
-5.1689 -1.5962 2.0383
-5.0240 -2.0062 2.0383
-4.8466 -2.4034 2.0383
-4.6378 -2.7850 2.0383
-4.3991 -3.1485 2.0383
-4.1319 -3.4918 2.0383
-3.8381 -3.8124 2.0383
-3.5194 -4.1085 2.0383
-3.1779 -4.3779 2.0383
-2.8160 -4.6191 2.0383
-2.4358 -4.8304 2.0383
-0.7407 -1.8194 0.7401
-0.5921 -1.8727 0.7400
-0.4396 -1.9141 0.7400
-0.2844 -1.9431 0.7399
-0.1274 -1.9596 0.7399
0.0304 -1.9634 0.7399
0.1881 -1.9547 0.7399
0.3445 -1.9334 0.7399
0.4988 -1.8996 0.7400
0.6498 -1.8536 0.7401
2.1941 -4.9448 2.0383
2.5842 -4.7526 2.0383
2.9577 -4.5296 2.0383
3.3120 -4.2774 2.0383
3.6449 -3.9975 2.0383
3.8534 -3.5975 1.9863
3.9212 -3.1108 1.8859
4.1585 -2.7857 1.8859
4.3688 -2.4426 1.8859
4.5509 -2.0837 1.8859
4.7036 -1.7114 1.8859
4.8259 -1.3280 1.8859
4.9170 -0.9360 1.8859
4.9763 -0.5380 1.8859
5.0034 -0.1364 1.8859
4.9982 0.2660 1.8859
4.9607 0.6667 1.8859
4.8911 1.0631 1.8859
4.7899 1.4526 1.8859
4.6577 1.8327 1.8859
4.4954 2.2009 1.8859
4.3041 2.5549 1.8859
4.0849 2.8925 1.8859
3.9344 3.2908 1.9326
3.8573 3.7929 2.0383
3.5402 4.0906 2.0383
3.2001 4.3617 2.0383
2.8394 4.6047 2.0383
2.4602 4.8180 2.0383
0.7567 1.8321 0.7469
0.6072 1.8872 0.7470
0.4537 1.9301 0.7470
0.2972 1.9605 0.7471
0.3784 5.3965 2.0383
-0.0563 5.4095 2.0383
-0.1799 1.9747 0.7471
-0.3379 1.9538 0.7471
-0.4937 1.9202 0.7470
-0.6463 1.8741 0.7469
-2.1689 4.9559 2.0383
-2.5601 4.7657 2.0383
-2.9347 4.5446 2.0383
-3.2903 4.2941 2.0383
-3.6246 4.0159 2.0383
-3.9355 3.7117 2.0383
-4.2210 3.3836 2.0383
-4.4792 3.0335 2.0383
-4.7084 2.6639 2.0383
-4.9072 2.2770 2.0383
-5.0743 1.8754 2.0383
-5.2085 1.4617 2.0383
-5.3091 1.0386 2.0383
-5.3754 0.6087 2.0383
-5.4069 0.1749 2.0383
-5.4035 -0.2601 2.0383
-5.3651 -0.6933 2.0383
-5.2921 -1.1221 2.0383
-5.1849 -1.5436 2.0383
-5.0441 -1.9551 2.0383
-4.8707 -2.3541 2.0383
-4.6659 -2.7377 2.0383
-4.4308 -3.1037 2.0383
-4.1672 -3.4497 2.0383
-3.8766 -3.7733 2.0383
-3.5609 -4.0725 2.0383
-3.2222 -4.3455 2.0383
-2.8627 -4.5903 2.0383
-2.4846 -4.8054 2.0383
-0.7591 -1.8118 0.7401
-0.6110 -1.8667 0.7400
-0.4591 -1.9095 0.7400
-0.3041 -1.9401 0.7399
-0.1473 -1.9582 0.7399
0.0105 -1.9636 0.7399
0.1682 -1.9565 0.7399
0.3249 -1.9368 0.7399
0.4794 -1.9046 0.7400
0.6310 -1.8601 0.7401
0.7785 -1.8036 0.7402
2.5359 -4.7786 2.0383
2.9116 -4.5594 2.0383
3.2684 -4.3108 2.0383
3.6042 -4.0343 2.0383
3.8495 -3.6678 2.0033
3.8894 -3.1506 1.8859
4.1300 -2.8277 1.8859
4.3438 -2.4868 1.8859
4.5295 -2.1298 1.8859
4.6860 -1.7590 1.8859
4.8122 -1.3769 1.8859
4.9072 -0.9858 1.8859
4.9706 -0.5884 1.8859
5.0018 -0.1872 1.8859
5.0006 0.2153 1.8859
4.9672 0.6163 1.8859
4.9016 1.0133 1.8859
4.8044 1.4039 1.8859
4.6761 1.7853 1.8859
4.5175 2.1552 1.8859
4.3298 2.5111 1.8859
4.1140 2.8509 1.8859
3.9365 3.2252 1.9174
3.8956 3.7536 2.0383
3.5815 4.0544 2.0383
3.2442 4.3290 2.0383
2.8859 4.5757 2.0383
2.5090 4.7927 2.0383
0.7753 1.8243 0.7468
0.6263 1.8809 0.7469
0.4732 1.9254 0.7470
0.3170 1.9573 0.7471
0.4332 5.3924 2.0383
-0.0014 5.4098 2.0383
-0.4361 5.3922 2.0383
-0.3181 1.9571 0.7471
-0.4743 1.9251 0.7470
-0.6273 1.8806 0.7469
-2.1186 4.9777 2.0383
-2.5116 4.7914 2.0383
-2.8884 4.5741 2.0383
-3.2465 4.3273 2.0383
-3.5837 4.0525 2.0383
-3.8977 3.7515 2.0383
-4.1864 3.4263 2.0383
-4.4482 3.0788 2.0383
-4.6811 2.7115 2.0383
