ply
format ascii 1.0
element vertex 2177
property float32 x
property float32 y
property float32 z
end_header
0.2166 -2.8769 0.5514
0.4513 -2.8760 0.5534
0.6874 -2.8562 0.5555
0.9231 -2.8170 0.5576
1.1569 -2.7581 0.5598
1.3870 -2.6796 0.5620
5.3780 -8.6147 1.8830
6.1134 -8.2363 1.8937
5.2064 -7.1018 1.8840
5.7865 -6.6912 1.8860
6.3523 -6.2511 1.8940
6.8800 -5.7595 1.9013
6.8749 -4.8727 1.7811
7.8001 -4.6355 1.9136
8.1826 -4.0118 1.9185
8.5077 -3.3535 1.9224
8.7719 -2.6666 1.9253
8.9721 -1.9570 1.9272
9.1063 -1.2313 1.9280
9.1731 -0.4962 1.9278
9.1719 0.2415 1.9265
7.6582 0.8201 1.6188
8.9672 1.6972 1.9209
8.7668 2.4020 1.9166
8.5040 3.0830 1.9114
8.1823 3.7346 1.9053
7.8054 4.3514 1.8985
7.3776 4.9288 1.8909
6.9036 5.4626 1.8827
6.4230 5.9815 1.8840
5.8981 6.4525 1.8840
5.3380 6.8768 1.8840
5.0467 7.7095 2.0029
4.4641 8.1884 2.0364
3.7735 8.4812 2.0364
3.0646 8.7158 2.0364
2.3422 8.8912 2.0364
1.6113 9.0071 2.0364
0.8769 9.0636 2.0364
0.1437 9.0612 2.0364
-0.5836 9.0006 2.0364
-1.3006 8.8830 2.0364
-2.0029 8.7099 2.0364
-2.6864 8.4830 2.0364
-3.3473 8.2045 2.0364
-3.9819 7.8765 2.0364
-4.5867 7.5015 2.0364
-5.1585 7.0823 2.0364
-5.6944 6.6216 2.0364
-6.1917 6.1225 2.0364
-6.6479 5.5881 2.0364
-7.0606 5.0218 2.0364
-7.4280 4.4267 2.0364
-7.7482 3.8064 2.0364
-8.0198 3.1645 2.0364
-8.2413 2.5044 2.0364
-8.4118 1.8299 2.0364
-8.5303 1.1446 2.0364
-8.5963 0.4523 2.0364
-8.6094 -0.2433 2.0364
-8.5694 -0.9383 2.0364
-8.4764 -1.6290 2.0364
-8.3308 -2.3116 2.0364
-8.1330 -2.9822 2.0364
-7.8840 -3.6372 2.0364
-7.5847 -4.2726 2.0364
-7.2364 -4.8848 2.0364
-6.8408 -5.4702 2.0364
-6.3997 -6.0250 2.0364
-5.9152 -6.5458 2.0364
-5.3896 -7.0292 2.0364
-4.8256 -7.4719 2.0364
-4.2262 -7.8706 2.0364
-3.5946 -8.2224 2.0364
-2.9342 -8.5247 2.0364
-0.6032 -2.3536 0.5462
-0.4148 -2.4122 0.5476
-0.2210 -2.4563 0.5491
-0.0228 -2.4852 0.5507
0.1786 -2.4985 0.5524
0.3820 -2.4956 0.5541
0.5861 -2.4763 0.5559
0.7895 -2.4403 0.5578
0.9907 -2.3875 0.5596
1.1884 -2.3178 0.5616
1.4051 -2.2701 0.5733
5.2216 -7.0917 1.8840
5.8015 -6.6805 1.8863
6.3663 -6.2391 1.8942
6.8930 -5.7462 1.9015
6.8968 -4.8669 1.7841
7.8106 -4.6200 1.9138
8.1917 -3.9953 1.9186
8.5153 -3.3362 1.9225
8.7778 -2.6486 1.9254
8.9764 -1.9385 1.9272
9.1089 -1.2125 1.9280
9.1739 -0.4772 1.9278
9.1709 0.2604 1.9265
7.6561 0.8359 1.6188
8.9629 1.7155 1.9208
8.7608 2.4198 1.9165
8.4965 3.1001 1.9113
8.1733 3.7509 1.9052
7.7950 4.3668 1.8983
7.3660 4.9431 1.8907
6.8966 5.4802 1.8840
6.4100 5.9941 1.8840
5.8841 6.4640 1.8840
5.3232 6.8870 1.8840
5.0496 7.7487 2.0106
4.4466 8.1966 2.0364
3.7556 8.4880 2.0364
3.0462 8.7210 2.0364
2.3235 8.8949 2.0364
1.5925 9.0093 2.0364
0.8580 9.0643 2.0364
0.1249 9.0604 2.0364
-0.6022 8.9983 2.0364
-1.3188 8.8793 2.0364
-2.0207 8.7047 2.0364
-2.7037 8.4765 2.0364
-3.3639 8.1967 2.0364
-3.9978 7.8674 2.0364
-4.6018 7.4913 2.0364
-5.1727 7.0709 2.0364
-5.7077 6.6093 2.0364
-6.2039 6.1092 2.0364
-6.6590 5.5740 2.0364
-7.0706 5.0068 2.0364
-7.4368 4.4111 2.0364
-7.7558 3.7902 2.0364
-8.0261 3.1477 2.0364
-8.2463 2.4873 2.0364
-8.4155 1.8124 2.0364
-8.5327 1.1269 2.0364
-8.5973 0.4345 2.0364
-8.6090 -0.2611 2.0364
-8.5677 -0.9561 2.0364
-8.4733 -1.6466 2.0364
-8.3264 -2.3290 2.0364
-8.1273 -2.9993 2.0364
-7.8769 -3.6537 2.0364
-7.5763 -4.2886 2.0364
-7.2269 -4.9002 2.0364
-6.8301 -5.4848 2.0364
-6.3878 -6.0388 2.0364
-5.9022 -6.5587 2.0364
-5.3756 -7.0411 2.0364
-4.8107 -7.4826 2.0364
-4.2104 -7.8802 2.0364
-3.5780 -8.2308 2.0364
-2.9169 -8.5317 2.0364
-0.5984 -2.3553 0.5463
-0.4099 -2.4135 0.5477
-0.2159 -2.4572 0.5492
-0.0177 -2.4857 0.5507
0.1838 -2.4986 0.5524
0.3872 -2.4954 0.5541
0.5913 -2.4756 0.5559
0.7947 -2.4392 0.5578
0.9959 -2.3859 0.5597
1.1935 -2.3157 0.5616
1.4121 -2.2709 0.5742
5.2367 -7.0816 1.8840
5.8164 -6.6699 1.8865
6.3803 -6.2271 1.8944
6.9060 -5.7329 1.9017
6.9188 -4.8611 1.7871
7.8210 -4.6044 1.9139
8.2007 -3.9788 1.9187
8.5228 -3.3189 1.9226
8.7837 -2.6306 1.9254
8.9807 -1.9201 1.9273
9.1114 -1.1937 1.9280
9.1747 -0.4583 1.9278
9.1700 0.2793 1.9264
7.6541 0.8516 1.6188
8.9585 1.7338 1.9207
8.7548 2.4375 1.9164
8.4889 3.1172 1.9111
8.1643 3.7672 1.9050
7.7846 4.3821 1.8981
7.3543 4.9573 1.8905
6.8846 5.4940 1.8840
6.3970 6.0068 1.8840
5.8701 6.4755 1.8840
5.3084 6.8972 1.8840
5.0525 7.7883 2.0184
4.4291 8.2048 2.0364
3.7376 8.4947 2.0364
3.0278 8.7262 2.0364
2.3048 8.8986 2.0364
1.5737 9.0115 2.0364
0.8392 9.0650 2.0364
0.1062 9.0595 2.0364
-0.6207 8.9959 2.0364
-1.3370 8.8755 2.0364
-2.0384 8.6995 2.0364
-2.7209 8.4700 2.0364
-3.3805 8.1888 2.0364
-4.0137 7.8583 2.0364
-4.6168 7.4810 2.0364
-5.1869 7.0596 2.0364
-5.7209 6.5969 2.0364
-6.2161 6.0959 2.0364
-6.6701 5.5598 2.0364
-7.0806 4.9919 2.0364
-7.4456 4.3954 2.0364
-7.7634 3.7740 2.0364
-8.0324 3.1310 2.0364
-8.2513 2.4701 2.0364
-8.4191 1.7949 2.0364
-8.5350 1.1092 2.0364
-8.5983 0.4167 2.0364
-8.6086 -0.2790 2.0364
-8.5659 -0.9739 2.0364
-8.4702 -1.6643 2.0364
-8.3219 -2.3463 2.0364
-8.1215 -3.0163 2.0364
-7.8698 -3.6703 2.0364
-7.5680 -4.3046 2.0364
-7.2173 -4.9156 2.0364
-6.8193 -5.4994 2.0364
-6.3759 -6.0526 2.0364
-5.8891 -6.5716 2.0364
-5.3615 -7.0530 2.0364
-4.7957 -7.4934 2.0364
-4.1946 -7.8898 2.0364
-3.5614 -8.2392 2.0364
-2.8996 -8.5388 2.0364
-0.5937 -2.3569 0.5463
-0.4050 -2.4148 0.5477
-0.2109 -2.4581 0.5492
-0.0125 -2.4863 0.5508
0.1890 -2.4987 0.5525
0.3925 -2.4951 0.5542
0.5965 -2.4749 0.5560
0.7998 -2.4380 0.5578
1.0010 -2.3843 0.5597
1.1985 -2.3137 0.5617
1.4191 -2.2716 0.5750
5.2518 -7.0714 1.8840
4.5749 -6.2368 1.8840
5.0768 -5.8675 1.8840
5.5473 -5.4564 1.8840
5.9902 -5.0125 1.8863
6.4067 -4.5392 1.8920
6.7812 -4.0286 1.8969
7.1096 -3.4846 1.9010
7.3887 -2.9116 1.9044
7.6155 -2.3145 1.9068
7.7876 -1.6983 1.9085
7.9034 -1.0686 1.9092
7.9616 -0.4309 1.9090
7.9618 0.2092 1.9079
7.9042 0.8458 1.9059
7.7896 1.4733 1.9031
7.6195 2.0864 1.8994
7.3958 2.6798 1.8950
7.1213 3.2486 1.8898
6.7989 3.7883 1.8839
6.4550 4.3101 1.8840
6.0693 4.7998 1.8840
5.6454 5.2543 1.8840
5.1867 5.6707 1.8840
4.8997 6.3079 1.9655
4.5173 6.8955 2.0364
3.9324 7.2071 2.0364
3.3264 7.4689 2.0364
2.7034 7.6796 2.0364
2.0680 7.8384 2.0364
1.4244 7.9450 2.0364
0.7770 7.9992 2.0364
0.1299 8.0013 2.0364
-0.5126 7.9520 2.0364
-1.1467 7.8521 2.0364
-1.7684 7.7029 2.0364
-2.3741 7.5059 2.0364
-2.9603 7.2627 2.0364
-3.5236 6.9753 2.0364
-4.0609 6.6460 2.0364
-4.5693 6.2769 2.0364
-5.0460 5.8706 2.0364
-5.4887 5.4298 2.0364
-5.8950 4.9573 2.0364
-6.2627 4.4559 2.0364
-6.5901 3.9287 2.0364
-6.8756 3.3788 2.0364
-7.1176 2.8093 2.0364
-7.3151 2.2234 2.0364
-7.4669 1.6246 2.0364
-7.5723 1.0161 2.0364
-7.6308 0.4013 2.0364
-7.6420 -0.2164 2.0364
-7.6057 -0.8335 2.0364
-7.5222 -1.4465 2.0364
-7.3916 -2.0522 2.0364
-7.2145 -2.6469 2.0364
-6.9918 -3.2273 2.0364
-6.7244 -3.7900 2.0364
-6.4135 -4.3317 2.0364
-6.0606 -4.8490 2.0364
-5.6674 -5.3388 2.0364
-5.2360 -5.7979 2.0364
-4.7684 -6.2233 2.0364
-4.2672 -6.6122 2.0364
-3.7350 -6.9617 2.0364
-3.1747 -7.2693 2.0364
-2.5896 -7.5326 2.0364
-0.5334 -2.0843 0.5477
-0.3662 -2.1345 0.5490
-0.1945 -2.1716 0.5503
-0.0193 -2.1953 0.5517
0.1585 -2.2051 0.5532
0.3377 -2.2006 0.5547
0.5171 -2.1816 0.5563
0.7098 -2.1915 0.5693
0.9202 -2.2153 0.5905
1.1502 -2.2415 0.6178
1.4063 -2.2705 0.6527
4.5882 -6.2279 1.8840
5.0893 -5.8575 1.8840
5.5589 -5.4453 1.8840
6.0014 -5.0008 1.8865
6.4169 -4.5266 1.8921
6.7902 -4.0151 1.8970
7.1174 -3.4703 1.9011
7.3952 -2.8966 1.9044
7.6206 -2.2989 1.9069
7.7913 -1.6823 1.9085
7.9056 -1.0523 1.9092
7.9624 -0.4144 1.9090
7.9611 0.2256 1.9079
7.9020 0.8620 1.9059
7.7859 1.4893 1.9030
7.6144 2.1019 1.8993
7.3894 2.6947 1.8949
7.1136 3.2628 1.8896
6.7901 3.8018 1.8837
6.4456 4.3232 1.8840
6.0589 4.8119 1.8840
5.6340 5.2654 1.8840
5.1745 5.6809 1.8840
4.9018 6.3376 1.9717
4.5026 6.9041 2.0364
3.9171 7.2145 2.0364
3.3106 7.4749 2.0364
2.6873 7.6843 2.0364
2.0516 7.8418 2.0364
1.4078 7.9470 2.0364
0.7603 7.9999 2.0364
0.1133 8.0007 2.0364
-0.5290 7.9500 2.0364
-1.1628 7.8489 2.0364
-1.7842 7.6984 2.0364
-2.3894 7.5002 2.0364
-2.9750 7.2559 2.0364
-3.5377 6.9674 2.0364
-4.0743 6.6370 2.0364
-4.5819 6.2669 2.0364
-5.0578 5.8598 2.0364
-5.4996 5.4181 2.0364
-5.9049 4.9448 2.0364
-6.2716 4.4427 2.0364
-6.5980 3.9149 2.0364
-6.8824 3.3644 2.0364
-7.1233 2.7944 2.0364
-7.3195 2.2082 2.0364
-7.4702 1.6091 2.0364
-7.5744 1.0004 2.0364
-7.6317 0.3854 2.0364
-7.6416 -0.2322 2.0364
-7.6042 -0.8493 2.0364
-7.5194 -1.4622 2.0364
-7.3876 -2.0676 2.0364
-7.2094 -2.6620 2.0364
-6.9855 -3.2420 2.0364
-6.7169 -3.8042 2.0364
-6.4049 -4.3453 2.0364
-6.0510 -4.8619 2.0364
-5.6568 -5.3510 2.0364
-5.2244 -5.8092 2.0364
-4.7560 -6.2338 2.0364
-4.2539 -6.6216 2.0364
-3.7209 -6.9701 2.0364
-3.1600 -7.2766 2.0364
-2.5743 -7.5388 2.0364
-0.5291 -2.0858 0.5478
-0.3619 -2.1356 0.5490
-0.1901 -2.1724 0.5503
-0.0148 -2.1957 0.5518
0.1631 -2.2051 0.5532
0.3423 -2.2003 0.5548
0.5217 -2.1809 0.5564
0.7150 -2.1921 0.5698
0.9258 -2.2160 0.5911
1.1564 -2.2422 0.6186
1.4133 -2.2713 0.6537
4.6014 -6.2189 1.8840
5.1017 -5.8474 1.8840
5.5705 -5.4342 1.8840
6.0125 -4.9892 1.8866
6.4270 -4.5139 1.8922
6.7992 -4.0015 1.8971
7.1252 -3.4559 1.9012
7.4016 -2.8815 1.9045
7.6257 -2.2833 1.9070
7.7950 -1.6663 1.9085
7.9078 -1.0360 1.9092
7.9630 -0.3980 1.9090
7.9603 0.2420 1.9078
7.8997 0.8783 1.9058
7.7822 1.5052 1.9029
7.6093 2.1174 1.8992
7.3829 2.7096 1.8947
7.1059 3.2771 1.8895
6.7812 3.8152 1.8836
6.4362 4.3361 1.8840
6.0484 4.8240 1.8840
5.6227 5.2766 1.8840
5.1622 5.6910 1.8840
4.9039 6.3674 1.9781
4.4878 6.9127 2.0364
3.9018 7.2218 2.0364
3.2948 7.4809 2.0364
2.6711 7.6890 2.0364
2.0351 7.8452 2.0364
1.3912 7.9490 2.0364
0.7437 8.0005 2.0364
0.0968 8.0000 2.0364
-0.5454 7.9481 2.0364
-1.1789 7.8456 2.0364
-1.7999 7.6939 2.0364
-2.4047 7.4945 2.0364
-2.9898 7.2490 2.0364
-3.5518 6.9594 2.0364
-4.0877 6.6280 2.0364
-4.5945 6.2569 2.0364
-5.0696 5.8488 2.0364
-5.5105 5.4063 2.0364
-5.9148 4.9323 2.0364
-6.2805 4.4295 2.0364
-6.6058 3.9010 2.0364
-6.8891 3.3500 2.0364
-7.1289 2.7796 2.0364
-7.3240 2.1930 2.0364
-7.4734 1.5936 2.0364
-7.5765 0.9847 2.0364
-7.6325 0.3696 2.0364
-7.6413 -0.2481 2.0364
-7.6026 -0.8651 2.0364
-7.5166 -1.4778 2.0364
-7.3836 -2.0830 2.0364
-7.2042 -2.6771 2.0364
-6.9791 -3.2566 2.0364
-6.7094 -3.8183 2.0364
-6.3964 -4.3588 2.0364
-6.0414 -4.8748 2.0364
-5.6462 -5.3631 2.0364
-5.2128 -5.8206 2.0364
-4.7435 -6.2442 2.0364
-4.2406 -6.6311 2.0364
-3.7069 -6.9785 2.0364
-3.1453 -7.2839 2.0364
-2.5590 -7.5449 2.0364
-0.5249 -2.0872 0.5478
-0.3575 -2.1367 0.5490
-0.1856 -2.1732 0.5504
-0.0102 -2.1962 0.5518
0.1676 -2.2052 0.5533
0.3469 -2.2000 0.5548
0.5263 -2.1802 0.5564
0.7202 -2.1927 0.5702
0.9314 -2.2166 0.5918
1.1627 -2.2429 0.6194
1.4203 -2.2721 0.6547
4.6146 -6.2099 1.8840
4.0743 -5.5511 1.8840
4.5195 -5.2207 1.8840
4.9366 -4.8535 1.8840
5.3226 -4.4520 1.8840
5.6743 -4.0187 1.8840
5.9884 -3.5564 1.8838
6.2756 -3.0749 1.8875
6.5196 -2.5685 1.8904
6.7179 -2.0412 1.8925
6.8686 -1.4977 1.8939
6.9701 -0.9424 1.8946
7.0217 -0.3802 1.8944
7.0227 0.1841 1.8935
6.9735 0.7456 1.8917
6.8745 1.2994 1.8893
6.7271 1.8410 1.8861
6.5392 2.3681 1.8840
6.3154 2.8794 1.8840
6.0501 3.3693 1.8840
5.7455 3.8343 1.8840
5.4041 4.2713 1.8840
5.0285 4.6774 1.8840
4.7839 5.2270 1.9501
4.5257 5.8224 2.0364
4.0290 6.1455 2.0364
3.5092 6.4260 2.0364
2.9700 6.6622 2.0364
2.4154 6.8531 2.0364
1.8491 6.9979 2.0364
1.2750 7.0961 2.0364
0.6970 7.1476 2.0364
0.1189 7.1525 2.0364
-0.4558 7.1115 2.0364
-1.0233 7.0250 2.0364
-1.5802 6.8943 2.0364
-2.1231 6.7205 2.0364
-2.6490 6.5052 2.0364
-3.1546 6.2500 2.0364
-3.6373 5.9568 2.0364
-4.0943 5.6277 2.0364
-4.5230 5.2649 2.0364
-4.9213 4.8708 2.0364
-5.2870 4.4480 2.0364
-5.6181 3.9988 2.0364
-5.9130 3.5263 2.0364
-6.1701 3.0331 2.0364
-6.3881 2.5220 2.0364
-6.5659 1.9962 2.0364
-6.7026 1.4585 2.0364
-6.7974 0.9121 2.0364
-6.8498 0.3600 2.0364
-6.8595 -0.1946 2.0364
-6.8264 -0.7487 2.0364
-6.7507 -1.2990 2.0364
-6.6325 -1.8425 2.0364
-6.4725 -2.3759 2.0364
-6.2713 -2.8963 2.0364
-6.0300 -3.4005 2.0364
-5.7496 -3.8854 2.0364
-5.4316 -4.3482 2.0364
-5.0775 -4.7859 2.0364
-4.6892 -5.1958 2.0364
-4.2687 -5.5750 2.0364
-3.8183 -5.9212 2.0364
-3.3405 -6.2318 2.0364
-2.8379 -6.5045 2.0364
-2.3134 -6.7374 2.0364
-0.5243 -2.0522 0.6032
-0.3546 -2.0714 0.5961
-0.1864 -2.0903 0.5930
-0.0177 -2.1094 0.5937
0.1538 -2.1288 0.5984
0.3305 -2.1488 0.6072
0.5151 -2.1697 0.6205
0.7108 -2.1919 0.6388
0.9212 -2.2158 0.6629
1.1513 -2.2419 0.6938
1.4075 -2.2710 0.7332
4.0860 -5.5431 1.8840
4.5306 -5.2117 1.8840
4.9470 -4.8437 1.8840
5.3320 -4.4412 1.8840
5.6828 -4.0071 1.8840
5.9963 -3.5444 1.8839
6.2824 -3.0622 1.8875
6.5252 -2.5552 1.8904
6.7223 -2.0275 1.8926
6.8718 -1.4835 1.8940
6.9721 -0.9280 1.8946
7.0223 -0.3657 1.8944
7.0221 0.1985 1.8934
6.9716 0.7599 1.8917
6.8714 1.3135 1.8892
6.7227 1.8547 1.8860
6.5340 2.3815 1.8840
6.3091 2.8922 1.8840
6.0427 3.3815 1.8840
5.7372 3.8459 1.8840
5.3948 4.2821 1.8840
5.0185 4.6874 1.8840
4.7855 5.2505 1.9553
4.5133 5.8311 2.0364
4.0159 6.1533 2.0364
3.4956 6.4326 2.0364
2.9560 6.6676 2.0364
2.4010 6.8574 2.0364
1.8344 7.0010 2.0364
1.2602 7.0980 2.0364
0.6822 7.1483 2.0364
0.1041 7.1521 2.0364
-0.4704 7.1098 2.0364
-1.0377 7.0222 2.0364
-1.5943 6.8904 2.0364
-2.1368 6.7155 2.0364
-2.6622 6.4991 2.0364
-3.1673 6.2429 2.0364
-3.6494 5.9488 2.0364
-4.1056 5.6188 2.0364
-4.5336 5.2552 2.0364
-4.9311 4.8603 2.0364
-5.2959 4.4366 2.0364
-5.6262 3.9870 2.0364
-5.9201 3.5139 2.0364
-6.1762 3.0201 2.0364
-6.3932 2.5087 2.0364
-6.5700 1.9825 2.0364
-6.7055 1.4446 2.0364
-6.7993 0.8980 2.0364
-6.8506 0.3458 2.0364
-6.8592 -0.2089 2.0364
-6.8250 -0.7629 2.0364
-6.7482 -1.3131 2.0364
-6.6289 -1.8563 2.0364
-6.4678 -2.3895 2.0364
-6.2656 -2.9094 2.0364
-6.0233 -3.4132 2.0364
-5.7419 -3.8976 2.0364
-5.4229 -4.3598 2.0364
-5.0679 -4.7968 2.0364
-4.6788 -5.2059 2.0364
-4.2575 -5.5844 2.0364
-3.8064 -5.9296 2.0364
-3.3279 -6.2393 2.0364
-2.8247 -6.5110 2.0364
-2.2997 -6.7428 2.0364
-0.5199 -2.0527 0.6030
-0.3502 -2.0718 0.5960
-0.1821 -2.0908 0.5930
-0.0134 -2.1099 0.5938
0.1582 -2.1293 0.5986
0.3352 -2.1493 0.6075
0.5200 -2.1703 0.6209
0.7160 -2.1925 0.6393
0.9268 -2.2164 0.6636
1.1576 -2.2426 0.6947
1.4145 -2.2718 0.7343
4.0978 -5.5351 1.8840
4.5416 -5.2027 1.8840
4.9572 -4.8337 1.8840
5.3415 -4.4305 1.8840
5.6913 -3.9957 1.8840
6.0041 -3.5323 1.8840
6.2892 -3.0495 1.8876
6.5309 -2.5419 1.8905
6.7268 -2.0137 1.8926
6.8750 -1.4694 1.8940
6.9740 -0.9137 1.8946
7.0230 -0.3512 1.8944
7.0214 0.2130 1.8934
6.9696 0.7742 1.8916
6.8681 1.3276 1.8891
6.7183 1.8684 1.8859
6.5288 2.3948 1.8840
6.3028 2.9051 1.8840
6.0354 3.3938 1.8840
5.7288 3.8574 1.8840
5.3856 4.2929 1.8840
5.0084 4.6973 1.8840
4.7871 5.2741 1.9606
4.5008 5.8399 2.0364
4.0029 6.1610 2.0364
3.4819 6.4392 2.0364
2.9419 6.6731 2.0364
2.3866 6.8616 2.0364
1.8198 7.0040 2.0364
1.2454 7.0998 2.0364
0.6673 7.1490 2.0364
0.0893 7.1516 2.0364
-0.4851 7.1081 2.0364
-1.0521 7.0194 2.0364
-1.6084 6.8864 2.0364
-2.1506 6.7105 2.0364
-2.6754 6.4930 2.0364
-3.1800 6.2358 2.0364
-3.6614 5.9408 2.0364
-4.1170 5.6099 2.0364
-4.5442 5.2454 2.0364
-4.9409 4.8498 2.0364
-5.3048 4.4255 2.0364
-5.6342 3.9751 2.0364
-5.9271 3.5014 2.0364
-6.1823 3.0072 2.0364
-6.3983 2.4954 2.0364
-6.5740 1.9689 2.0364
-6.7085 1.4307 2.0364
-6.8011 0.8839 2.0364
-6.8513 0.3316 2.0364
-6.8589 -0.2231 2.0364
-6.8236 -0.7771 2.0364
-6.7456 -1.3271 2.0364
-6.6253 -1.8701 2.0364
-6.4632 -2.4030 2.0364
-6.2599 -2.9226 2.0364
-6.0165 -3.4258 2.0364
-5.7342 -3.9097 2.0364
-5.4143 -4.3713 2.0364
-5.0584 -4.8077 2.0364
-4.6684 -5.2160 2.0364
-4.2463 -5.5937 2.0364
-3.7945 -5.9380 2.0364
-3.3153 -6.2467 2.0364
-2.8115 -6.5175 2.0364
-2.2859 -6.7482 2.0364
-0.5155 -2.0532 0.6027
-0.3459 -2.0723 0.5959
-0.1778 -2.0913 0.5929
-0.0090 -2.1104 0.5939
0.1627 -2.1298 0.5987
0.3398 -2.1499 0.6077
0.5249 -2.1708 0.6213
0.7212 -2.1931 0.6399
0.9325 -2.2171 0.6643
1.1638 -2.2433 0.6956
1.4215 -2.2726 0.7355
4.1095 -5.5270 1.8840
3.6784 -5.0087 1.8898
4.0665 -4.6949 1.8840
4.4405 -4.3637 1.8840
4.7864 -4.0018 1.8840
5.1015 -3.6117 1.8840
5.3834 -3.1960 1.8840
5.6299 -2.7577 1.8840
5.8391 -2.2997 1.8840
6.0092 -1.8255 1.8840
6.1391 -1.3384 1.8840
6.2240 -0.8415 1.8829
6.2701 -0.3397 1.8827
6.2787 0.1642 1.8840
6.2408 0.6667 1.8840
6.1610 1.1638 1.8840
6.0399 1.6520 1.8840
5.8787 2.1277 1.8840
5.6786 2.5877 1.8840
5.4413 3.0286 1.8840
5.1688 3.4475 1.8840
4.8630 3.8414 1.8840
4.6882 4.3582 1.9513
4.4985 4.9120 2.0364
4.0768 5.2413 2.0364
3.6308 5.5339 2.0364
3.1638 5.7884 2.0364
2.6790 6.0033 2.0364
2.1799 6.1775 2.0364
1.6700 6.3102 2.0364
1.1527 6.4011 2.0364
0.6315 6.4498 2.0364
0.1098 6.4566 2.0364
-0.4091 6.4217 2.0364
-0.9219 6.3458 2.0364
-1.4254 6.2298 2.0364
-1.9167 6.0746 2.0364
-2.3928 5.8818 2.0364
-2.8508 5.6526 2.0364
-3.2883 5.3889 2.0364
-3.7027 5.0925 2.0364
-4.0916 4.7653 2.0364
-4.4531 4.4095 2.0364
-4.7850 4.0274 2.0364
-5.0858 3.6213 2.0364
-5.3536 3.1938 2.0364
-5.5871 2.7473 2.0364
-5.7852 2.2846 2.0364
-5.9467 1.8083 2.0364
-6.0707 1.3212 2.0364
-6.1567 0.8261 2.0364
-6.2041 0.3259 2.0364
-6.2127 -0.1767 2.0364
-6.1823 -0.6786 2.0364
-6.1131 -1.1771 2.0364
-6.0054 -1.6693 2.0364
-5.8596 -2.1522 2.0364
-5.6765 -2.6230 2.0364
-5.4569 -3.0790 2.0364
-5.2020 -3.5173 2.0364
-4.9130 -3.9353 2.0364
-4.5914 -4.3303 2.0364
-4.2389 -4.6999 2.0364
-3.8575 -5.0415 2.0364
-3.4492 -5.3529 2.0364
-3.0163 -5.6319 2.0364
-2.5612 -5.8764 2.0364
-2.0867 -6.0847 2.0364
-0.5235 -2.0526 0.6682
-0.3538 -2.0717 0.6606
-0.1857 -2.0907 0.6574
-0.0169 -2.1098 0.6584
0.1546 -2.1292 0.6638
0.3314 -2.1492 0.6739
0.5161 -2.1701 0.6888
0.7117 -2.1923 0.7094
0.9223 -2.2162 0.7364
1.1525 -2.2424 0.7711
1.4088 -2.2715 0.8150
3.6831 -4.9935 1.8868
4.0764 -4.6868 1.8840
4.4498 -4.3548 1.8840
4.7949 -3.9922 1.8840
5.1092 -3.6013 1.8840
5.3902 -3.1850 1.8840
5.6358 -2.7461 1.8840
5.8439 -2.2878 1.8840
6.0131 -1.8131 1.8840
6.1419 -1.3257 1.8840
6.2257 -0.8287 1.8829
6.2707 -0.3268 1.8827
6.2783 0.1772 1.8840
6.2393 0.6795 1.8840
6.1584 1.1765 1.8840
6.0363 1.6643 1.8840
5.8741 2.1397 1.8840
5.6730 2.5993 1.8840
5.4348 3.0397 1.8840
5.1613 3.4579 1.8840
4.8547 3.8512 1.8840
4.6895 4.3774 1.9557
4.4880 4.9209 2.0364
4.0657 5.2492 2.0364
3.6191 5.5409 2.0364
3.1515 5.7944 2.0364
2.6663 6.0082 2.0364
2.1669 6.1814 2.0364
1.6568 6.3131 2.0364
1.1394 6.4029 2.0364
0.6181 6.4505 2.0364
0.0964 6.4562 2.0364
-0.4223 6.4203 2.0364
-0.9349 6.3433 2.0364
-1.4382 6.2263 2.0364
-1.9291 6.0702 2.0364
-2.4048 5.8763 2.0364
-2.8623 5.6463 2.0364
-3.2992 5.3817 2.0364
-3.7130 5.0844 2.0364
-4.1013 4.7565 2.0364
-4.4620 4.4000 2.0364
-4.7932 4.0173 2.0364
-5.0930 3.6106 2.0364
-5.3600 3.1826 2.0364
-5.5927 2.7357 2.0364
-5.7898 2.2726 2.0364
-5.9503 1.7960 2.0364
-6.0734 1.3086 2.0364
-6.1584 0.8134 2.0364
-6.2048 0.3130 2.0364
-6.2124 -0.1896 2.0364
-6.1810 -0.6915 2.0364
-6.1108 -1.1898 2.0364
-6.0021 -1.6818 2.0364
-5.8554 -2.1644 2.0364
-5.6713 -2.6349 2.0364
-5.4508 -3.0905 2.0364
-5.1950 -3.5283 2.0364
-4.9051 -3.9457 2.0364
-4.5827 -4.3402 2.0364
-4.2295 -4.7090 2.0364
-3.8474 -5.0499 2.0364
-3.4384 -5.3605 2.0364
-3.0049 -5.6386 2.0364
-2.5493 -5.8823 2.0364
-2.0743 -6.0896 2.0364
-0.5192 -2.0531 0.6680
-0.3495 -2.0722 0.6605
-0.1813 -2.0912 0.6574
-0.0126 -2.1103 0.6585
0.1591 -2.1297 0.6640
0.3360 -2.1497 0.6742
0.5209 -2.1707 0.6893
0.7169 -2.1929 0.7100
0.9279 -2.2169 0.7372
1.1587 -2.2431 0.7721
1.4158 -2.2723 0.8163
3.6882 -4.9788 1.8840
4.0863 -4.6787 1.8840
4.4590 -4.3459 1.8840
4.8034 -3.9825 1.8840
5.1168 -3.5910 1.8840
5.3970 -3.1740 1.8840
5.6416 -2.7346 1.8840
5.8488 -2.2758 1.8840
6.0169 -1.8008 1.8840
6.1447 -1.3131 1.8840
6.2274 -0.8159 1.8829
6.2713 -0.3138 1.8827
6.2778 0.1901 1.8840
6.2377 0.6924 1.8840
6.1558 1.1891 1.8840
6.0326 1.6767 1.8840
5.8694 2.1517 1.8840
5.6673 2.6108 1.8840
5.4282 3.0507 1.8840
5.1538 3.4683 1.8840
4.8465 3.8609 1.8840
4.6908 4.3968 1.9602
4.4775 4.9298 2.0364
4.0545 5.2572 2.0364
3.6073 5.5479 2.0364
3.1393 5.8004 2.0364
2.6537 6.0132 2.0364
2.1540 6.1853 2.0364
1.6436 6.3159 2.0364
1.1260 6.4046 2.0364
0.6047 6.4512 2.0364
0.0831 6.4558 2.0364
-0.4356 6.4188 2.0364
-0.9480 6.3408 2.0364
-1.4510 6.2227 2.0364
-1.9415 6.0657 2.0364
-2.4167 5.8709 2.0364
-2.8738 5.6399 2.0364
-3.3101 5.3745 2.0364
-3.7233 5.0764 2.0364
-4.1109 4.7477 2.0364
-4.4709 4.3905 2.0364
-4.8013 4.0071 2.0364
-5.1003 3.5999 2.0364
-5.3664 3.1713 2.0364
-5.5982 2.7240 2.0364
-5.7944 2.2605 2.0364
-5.9539 1.7836 2.0364
-6.0761 1.2960 2.0364
-6.1601 0.8006 2.0364
-6.2055 0.3001 2.0364
-6.2121 -0.2025 2.0364
-6.1797 -0.7043 2.0364
-6.1085 -1.2026 2.0364
-5.9988 -1.6943 2.0364
-5.8511 -2.1767 2.0364
-5.6661 -2.6468 2.0364
-5.4447 -3.1019 2.0364
-5.1879 -3.5393 2.0364
-4.8972 -3.9562 2.0364
-4.5740 -4.3500 2.0364
-4.2200 -4.7181 2.0364
-3.8372 -5.0583 2.0364
-3.4275 -5.3680 2.0364
-2.9934 -5.6453 2.0364
-2.5373 -5.8880 2.0364
-2.0618 -6.0944 2.0364
-0.5148 -2.0536 0.6677
-0.3451 -2.0727 0.6604
-0.1770 -2.0917 0.6573
-0.0082 -2.1108 0.6586
0.1636 -2.1302 0.6642
0.3407 -2.1502 0.6745
0.5258 -2.1712 0.6897
0.7222 -2.1935 0.7106
0.9336 -2.2175 0.7380
1.1650 -2.2438 0.7731
1.4228 -2.2731 0.8176
3.6987 -4.9716 1.8840
3.5982 -4.8965 2.0364
3.7425 -4.3186 1.9106
4.0288 -3.9573 1.8840
4.3417 -3.6285 1.8840
4.6267 -3.2742 1.8840
4.8816 -2.8970 1.8840
5.1044 -2.4994 1.8840
5.2934 -2.0842 1.8840
5.4473 -1.6544 1.8840
5.5648 -1.2130 1.8840
5.6450 -0.7632 1.8840
5.6873 -0.3083 1.8840
5.6914 0.1485 1.8840
5.6574 0.6038 1.8840
5.5856 1.0544 1.8840
5.4765 1.4970 1.8840
5.3311 1.9284 1.8840
5.1505 2.3457 1.8840
4.9363 2.7460 1.8840
4.6900 3.1264 1.8840
4.6061 3.6364 1.9662
4.4418 4.1266 2.0364
4.0851 4.4578 2.0364
3.7034 4.7578 2.0364
3.2994 5.0249 2.0364
2.8761 5.2574 2.0364
2.4364 5.4542 2.0364
1.9836 5.6141 2.0364
1.5206 5.7364 2.0364
1.0506 5.8208 2.0364
0.5768 5.8668 2.0364
0.1022 5.8747 2.0364
-0.3700 5.8447 2.0364
-0.8370 5.7772 2.0364
-1.2958 5.6731 2.0364
-1.7437 5.5333 2.0364
-2.1779 5.3590 2.0364
-2.5959 5.1515 2.0364
-2.9953 4.9122 2.0364
-3.3738 4.6430 2.0364
-3.7292 4.3455 2.0364
-4.0595 4.0217 2.0364
-4.3630 3.6738 2.0364
-4.6380 3.3038 2.0364
-4.8829 2.9141 2.0364
-5.0966 2.5069 2.0364
-5.2777 2.0848 2.0364
-5.4254 1.6502 2.0364
-5.5388 1.2057 2.0364
-5.6174 0.7538 2.0364
-5.6606 0.2972 2.0364
-5.6682 -0.1615 2.0364
-5.6402 -0.6197 2.0364
-5.5766 -1.0746 2.0364
-5.4778 -1.5235 2.0364
-5.3441 -1.9640 2.0364
-5.1763 -2.3932 2.0364
-4.9752 -2.8088 2.0364
-4.7418 -3.2080 2.0364
-4.4774 -3.5885 2.0364
-4.1833 -3.9479 2.0364
-3.8611 -4.2838 2.0364
-3.5126 -4.5941 2.0364
-3.1398 -4.8766 2.0364
-2.7447 -5.1294 2.0364
-2.3296 -5.3506 2.0364
-0.6942 -2.0270 0.7452
-0.5228 -2.0530 0.7345
-0.3530 -2.0721 0.7263
-0.1849 -2.0911 0.7230
-0.0161 -2.1102 0.7243
0.1555 -2.1296 0.7305
0.3323 -2.1496 0.7417
0.5170 -2.1705 0.7584
0.7128 -2.1927 0.7813
0.9234 -2.2167 0.8113
1.1537 -2.2429 0.8497
1.4101 -2.2720 0.8984
3.6085 -4.8894 2.0364
3.7449 -4.3033 1.9072
4.0372 -3.9492 1.8840
4.3494 -3.6197 1.8840
4.6336 -3.2648 1.8840
4.8877 -2.8871 1.8840
5.1097 -2.4890 1.8840
5.2978 -2.0734 1.8840
5.4508 -1.6432 1.8840
5.5673 -1.2015 1.8840
5.6465 -0.7516 1.8840
5.6879 -0.2966 1.8840
5.6910 0.1602 1.8840
5.6560 0.6154 1.8840
5.5832 1.0658 1.8840
5.4732 1.5082 1.8840
5.3269 1.9393 1.8840
5.1454 2.3562 1.8840
4.9304 2.7560 1.8840
4.6833 3.1359 1.8840
4.6072 3.6527 1.9700
4.4330 4.1354 2.0364
4.0756 4.4659 2.0364
3.6933 4.7651 2.0364
3.2888 5.0313 2.0364
2.8650 5.2629 2.0364
2.4250 5.4587 2.0364
1.9718 5.6177 2.0364
1.5086 5.7391 2.0364
1.0385 5.8224 2.0364
0.5646 5.8675 2.0364
0.0901 5.8744 2.0364
-0.3821 5.8434 2.0364
-0.8489 5.7750 2.0364
-1.3075 5.6700 2.0364
-1.7550 5.5293 2.0364
-2.1889 5.3541 2.0364
-2.6064 5.1457 2.0364
-3.0053 4.9057 2.0364
-3.3832 4.6357 2.0364
-3.7380 4.3375 2.0364
-4.0677 4.0131 2.0364
-4.3704 3.6646 2.0364
-4.6447 3.2940 2.0364
-4.8888 2.9038 2.0364
-5.1016 2.4963 2.0364
-5.2819 2.0738 2.0364
-5.4287 1.6389 2.0364
-5.5413 1.1942 2.0364
-5.6189 0.7421 2.0364
-5.6612 0.2854 2.0364
-5.6680 -0.1733 2.0364
-5.6390 -0.6314 2.0364
-5.5745 -1.0862 2.0364
-5.4748 -1.5350 2.0364
-5.3402 -1.9751 2.0364
-5.1716 -2.4041 2.0364
-4.9696 -2.8192 2.0364
-4.7354 -3.2180 2.0364
-4.4702 -3.5980 2.0364
-4.1754 -3.9568 2.0364
-3.8525 -4.2921 2.0364
-3.5034 -4.6017 2.0364
-3.1299 -4.8835 2.0364
-2.7343 -5.1354 2.0364
-2.3187 -5.3559 2.0364
-0.6900 -2.0284 0.7452
-0.5184 -2.0534 0.7342
-0.3487 -2.0726 0.7262
-0.1805 -2.0916 0.7229
-0.0117 -2.1106 0.7244
0.1600 -2.1301 0.7307
0.3369 -2.1501 0.7421
0.5219 -2.1711 0.7590
0.7180 -2.1933 0.7820
0.9290 -2.2173 0.8121
1.1599 -2.2436 0.8508
1.4171 -2.2728 0.8998
3.6188 -4.8823 2.0364
3.7472 -4.2880 1.9037
4.0456 -3.9410 1.8840
4.3571 -3.6109 1.8840
4.6405 -3.2554 1.8840
4.8938 -2.8771 1.8840
5.1149 -2.4785 1.8840
5.3022 -2.0625 1.8840
5.4542 -1.6320 1.8840
5.5698 -1.1901 1.8840
5.6481 -0.7399 1.8840
5.6884 -0.2848 1.8840
5.6906 0.1719 1.8840
5.6546 0.6271 1.8840
5.5809 1.0773 1.8840
5.4699 1.5194 1.8840
5.3227 1.9502 1.8840
5.1403 2.3667 1.8840
4.9244 2.7660 1.8840
4.6766 3.1454 1.8840
4.6083 3.6690 1.9738
4.4241 4.1443 2.0364
4.0661 4.4739 2.0364
3.6832 4.7723 2.0364
3.2781 5.0377 2.0364
2.8539 5.2684 2.0364
2.4135 5.4633 2.0364
1.9600 5.6213 2.0364
1.4966 5.7417 2.0364
1.0264 5.8241 2.0364
0.5524 5.8682 2.0364
0.0779 5.8741 2.0364
-0.3941 5.8421 2.0364
-0.8608 5.7728 2.0364
-1.3191 5.6668 2.0364
-1.7663 5.5252 2.0364
-2.1998 5.3491 2.0364
-2.6169 5.1399 2.0364
-3.0153 4.8991 2.0364
-3.3926 4.6283 2.0364
-3.7467 4.3295 2.0364
-4.0758 4.0044 2.0364
-4.3778 3.6553 2.0364
-4.6513 3.2843 2.0364
-4.8947 2.8936 2.0364
-5.1067 2.4856 2.0364
-5.2861 2.0628 2.0364
-5.4321 1.6276 2.0364
-5.5437 1.1826 2.0364
-5.6205 0.7304 2.0364
-5.6619 0.2736 2.0364
-5.6677 -0.1851 2.0364
-5.6378 -0.6431 2.0364
-5.5724 -1.0978 2.0364
-5.4718 -1.5464 2.0364
-5.3363 -1.9863 2.0364
-5.1668 -2.4149 2.0364
-4.9640 -2.8297 2.0364
-4.7290 -3.2280 2.0364
-4.4630 -3.6075 2.0364
-4.1674 -3.9657 2.0364
-3.8439 -4.3004 2.0364
-3.4941 -4.6093 2.0364
-3.1200 -4.8903 2.0364
-2.7238 -5.1415 2.0364
-2.3078 -5.3611 2.0364
-0.6858 -2.0298 0.7451
-0.5140 -2.0539 0.7339
-0.3444 -2.0731 0.7260
-0.1762 -2.0921 0.7229
-0.0074 -2.1111 0.7245
0.1644 -2.1306 0.7310
0.3416 -2.1506 0.7424
0.5268 -2.1716 0.7595
0.6726 -2.0405 0.7279
0.9346 -2.2180 0.8130
1.1661 -2.2443 0.8519
1.4241 -2.2736 0.9012
3.6291 -4.8751 2.0364
3.2893 -4.4734 2.0364
3.6456 -4.2045 2.0364
3.8006 -3.7313 1.9451
3.9664 -3.3133 1.8840
4.2260 -2.9895 1.8840
4.4582 -2.6448 1.8840
4.6611 -2.2816 1.8840
4.8333 -1.9025 1.8840
4.9735 -1.5101 1.8840
5.0805 -1.1073 1.8840
5.1536 -0.6968 1.8840
5.1923 -0.2816 1.8840
5.1962 0.1352 1.8840
5.1655 0.5508 1.8840
5.1003 0.9621 1.8840
5.0012 1.3662 1.8840
4.8690 1.7603 1.8840
4.7048 2.1415 1.8840
4.5099 2.5073 1.8840
4.5335 3.0203 1.9929
4.3603 3.4403 2.0364
4.0606 3.7701 2.0364
3.7355 4.0736 2.0364
3.3874 4.3488 2.0364
3.0188 4.5939 2.0364
2.6324 4.8077 2.0364
2.2309 4.9888 2.0364
0.6618 1.8708 0.7417
0.5091 1.9174 0.7438
0.3531 1.9516 0.7459
0.1948 1.9730 0.7480
0.0958 5.3803 2.0364
-0.3368 5.3541 2.0364
-0.2832 1.9599 0.7540
-0.4400 1.9298 0.7558
-0.5939 1.8872 0.7576
-0.7439 1.8322 0.7593
-2.3787 4.7243 2.0364
-2.7455 4.5058 2.0364
-3.0932 4.2595 2.0364
-3.4199 3.9873 2.0364
-3.7236 3.6908 2.0364
-4.0027 3.3719 2.0364
-4.2556 3.0326 2.0364
-4.4809 2.6751 2.0364
-4.6775 2.3015 2.0364
-4.8441 1.9141 2.0364
-4.9799 1.5151 2.0364
-5.0843 1.1069 2.0364
-5.1564 0.6919 2.0364
-5.1961 0.2726 2.0364
-5.2030 -0.1486 2.0364
-5.1770 -0.5693 2.0364
-5.1183 -0.9869 2.0364
-5.0271 -1.3990 2.0364
-4.9039 -1.8032 2.0364
-4.7493 -2.1971 2.0364
-4.5641 -2.5781 2.0364
-4.3492 -2.9441 2.0364
-4.1059 -3.2927 2.0364
-3.8353 -3.6218 2.0364
-3.5391 -3.9292 2.0364
-3.2188 -4.2129 2.0364
-2.8763 -4.4710 2.0364
-2.5135 -4.7017 2.0364
-2.1326 -4.9033 2.0364
-0.6351 -1.8567 0.7451
-0.4836 -1.9023 0.7430
-0.3290 -1.9357 0.7409
-0.1722 -1.9565 0.7389
-0.0142 -1.9647 0.7369
0.1439 -1.9603 0.7349
0.3012 -1.9432 0.7329
0.4566 -1.9135 0.7311
0.6091 -1.8715 0.7293
0.7578 -1.8174 0.7276
1.1549 -2.2433 0.9299
1.4114 -2.2726 0.9834
3.2987 -4.4669 2.0364
3.6544 -4.1972 2.0364
3.8027 -3.7179 1.9421
3.9734 -3.3053 1.8840
4.2323 -2.9809 1.8840
4.4638 -2.6357 1.8840
4.6659 -2.2721 1.8840
4.8373 -1.8926 1.8840
4.9766 -1.4999 1.8840
5.0828 -1.0968 1.8840
5.1551 -0.6862 1.8840
5.1928 -0.2709 1.8840
5.1959 0.1459 1.8840
5.1642 0.5614 1.8840
5.0982 0.9726 1.8840
4.9982 1.3764 1.8840
4.8652 1.7702 1.8840
4.7002 2.1511 1.8840
4.5092 2.5191 1.8860
4.5344 3.0344 1.9962
4.3530 3.4491 2.0364
4.0526 3.7783 2.0364
3.7269 4.0810 2.0364
3.3782 4.3554 2.0364
3.0091 4.5998 2.0364
2.6223 4.8127 2.0364
2.2204 4.9930 2.0364
0.6579 1.8721 0.7418
0.5051 1.9185 0.7438
0.3490 1.9523 0.7459
0.5192 5.3724 2.0364
0.0847 5.3800 2.0364
-0.3479 5.3529 2.0364
-0.2872 1.9593 0.7540
-0.4440 1.9289 0.7559
-0.5978 1.8859 0.7577
-0.7477 1.8306 0.7594
-2.3883 4.7191 2.0364
-2.7547 4.4998 2.0364
-3.1019 4.2529 2.0364
-3.4280 3.9800 2.0364
-3.7311 3.6828 2.0364
-4.0095 3.3634 2.0364
-4.2617 3.0237 2.0364
-4.4863 2.6657 2.0364
-4.6821 2.2918 2.0364
-4.8480 1.9040 2.0364
-4.9830 1.5047 2.0364
-5.0865 1.0963 2.0364
-5.1579 0.6812 2.0364
-5.1967 0.2618 2.0364
-5.2027 -0.1594 2.0364
-5.1759 -0.5801 2.0364
-5.1163 -0.9976 2.0364
-5.0243 -1.4095 2.0364
-4.9003 -1.8135 2.0364
-4.7449 -2.2070 2.0364
-4.5589 -2.5877 2.0364
-4.3433 -2.9533 2.0364
-4.0993 -3.3014 2.0364
-3.8280 -3.6300 2.0364
-3.5312 -3.9368 2.0364
-3.2103 -4.2198 2.0364
-2.8672 -4.4773 2.0364
-2.5040 -4.7072 2.0364
-2.1226 -4.9081 2.0364
-0.6312 -1.8580 0.7450
-0.4797 -1.9033 0.7430
-0.3250 -1.9364 0.7409
-0.1681 -1.9569 0.7388
-0.0101 -1.9648 0.7368
0.1480 -1.9600 0.7348
0.3052 -1.9426 0.7329
0.4605 -1.9126 0.7310
0.6130 -1.8703 0.7293
0.7615 -1.8159 0.7276
1.1611 -2.2441 0.9311
1.4184 -2.2734 0.9849
3.3081 -4.4604 2.0364
3.6633 -4.1899 2.0364
3.8047 -3.7046 1.9392
3.9804 -3.2972 1.8840
4.2386 -2.9723 1.8840
4.4693 -2.6266 1.8840
4.6707 -2.2625 1.8840
4.8413 -1.8827 1.8840
4.9798 -1.4897 1.8840
5.0851 -1.0863 1.8840
5.1565 -0.6755 1.8840
5.1933 -0.2602 1.8840
5.1955 0.1566 1.8840
5.1630 0.5720 1.8840
5.0960 0.9830 1.8840
4.9952 1.3867 1.8840
4.8614 1.7802 1.8840
4.6955 2.1607 1.8840
4.5085 2.5309 1.8880
4.5353 3.0486 1.9995
4.3456 3.4578 2.0364
4.0446 3.7864 2.0364
3.7182 4.0884 2.0364
3.3690 4.3621 2.0364
2.9994 4.6057 2.0364
2.6121 4.8178 2.0364
0.8028 1.8152 0.7397
0.6541 1.8735 0.7418
0.5011 1.9195 0.7439
0.3450 1.9530 0.7460
0.5080 5.3730 2.0364
0.0735 5.3798 2.0364
-0.3589 5.3518 2.0364
-0.2913 1.9587 0.7541
-0.4480 1.9279 0.7559
-0.6017 1.8846 0.7577
-0.7514 1.8291 0.7594
-2.3980 4.7138 2.0364
-2.7638 4.4938 2.0364
-3.1105 4.2462 2.0364
-3.4360 3.9726 2.0364
-3.7385 3.6749 2.0364
-4.0163 3.3549 2.0364
-4.2678 3.0147 2.0364
-4.4917 2.6563 2.0364
-4.6867 2.2820 2.0364
-4.8518 1.8939 2.0364
-4.9861 1.4943 2.0364
-5.0887 1.0858 2.0364
-5.1593 0.6705 2.0364
-5.1972 0.2510 2.0364
-5.2024 -0.1702 2.0364
-5.1748 -0.5908 2.0364
-5.1144 -1.0082 2.0364
-5.0215 -1.4200 2.0364
-4.8967 -1.8237 2.0364
-4.7405 -2.2169 2.0364
-4.5537 -2.5973 2.0364
-4.3374 -2.9625 2.0364
-4.0926 -3.3101 2.0364
-3.8207 -3.6381 2.0364
-3.5232 -3.9444 2.0364
-3.2018 -4.2268 2.0364
-2.8582 -4.4835 2.0364
-2.4944 -4.7127 2.0364
-0.7750 -1.8023 0.7471
-0.6274 -1.8593 0.7450
-0.4757 -1.9043 0.7429
-0.3210 -1.9370 0.7408
-0.1641 -1.9573 0.7388
-0.0061 -1.9648 0.7368
0.1520 -1.9597 0.7348
0.3092 -1.9420 0.7329
0.4645 -1.9117 0.7310
0.6168 -1.8690 0.7292
0.7653 -1.8143 0.7275
1.1673 -2.2448 0.9323
1.4254 -2.2742 0.9865
3.3175 -4.4538 2.0364
3.0244 -4.1107 2.0364
3.3513 -3.8629 2.0364
3.6571 -3.5886 2.0364
3.8492 -3.2140 1.9896
3.9149 -2.7683 1.8996
4.0957 -2.4288 1.8840
4.2817 -2.0952 1.8840
4.4395 -1.7470 1.8840
4.5680 -1.3867 1.8840
4.6661 -1.0168 1.8840
4.7332 -0.6399 1.8840
4.7687 -0.2588 1.8840
4.7725 0.1239 1.8840
4.7444 0.5054 1.8840
4.6849 0.8831 1.8840
4.5943 1.2542 1.8840
4.4733 1.6162 1.8840
4.4345 2.0173 1.9326
4.4673 2.4822 2.0307
4.2578 2.8350 2.0364
4.0085 3.1608 2.0364
3.7338 3.4645 2.0364
3.4356 3.7440 2.0364
3.1162 3.9976 2.0364
2.7779 4.2239 2.0364
2.4231 4.4213 2.0364
0.7464 1.6674 0.7399
0.6098 1.7215 0.7418
0.4692 1.7644 0.7438
0.3257 1.7958 0.7457
0.1800 1.8155 0.7476
0.0332 1.8234 0.7495
-0.1137 1.8194 0.7513
-0.2598 1.8035 0.7531
-0.4042 1.7758 0.7549
-0.5458 1.7366 0.7565
-0.6838 1.6860 0.7581
-2.1911 4.3554 2.0364
-2.5297 4.1546 2.0364
-2.8508 3.9282 2.0364
-3.1525 3.6776 2.0364
-3.4331 3.4045 2.0364
-3.6910 3.1107 2.0364
-3.9247 2.7980 2.0364
-4.1330 2.4684 2.0364
-4.3147 2.1238 2.0364
-4.4687 1.7663 2.0364
-4.5943 1.3981 2.0364
-4.6907 1.0214 2.0364
-4.7574 0.6384 2.0364
-4.7939 0.2514 2.0364
-4.8002 -0.1374 2.0364
-4.7760 -0.5257 2.0364
-4.7215 -0.9111 2.0364
-4.6371 -1.2913 2.0364
-4.5230 -1.6641 2.0364
-4.3798 -2.0273 2.0364
-4.2085 -2.3787 2.0364
-4.0097 -2.7159 2.0364
-3.7847 -3.0371 2.0364
-3.5347 -3.3401 2.0364
-3.2610 -3.6229 2.0364
-2.9652 -3.8838 2.0364
-2.6489 -4.1209 2.0364
-2.3141 -4.3327 2.0364
-0.7198 -1.6569 0.7469
-0.5841 -1.7100 0.7450
-0.4446 -1.7520 0.7430
-0.3022 -1.7827 0.7411
-0.1578 -1.8019 0.7392
-0.0123 -1.8095 0.7374
0.1333 -1.8054 0.7356
0.2781 -1.7897 0.7338
0.4212 -1.7623 0.7321
0.5617 -1.7236 0.7304
0.6986 -1.6738 0.7289
1.1561 -2.2438 1.0118
1.4127 -2.2731 1.0703
3.0331 -4.1047 2.0364
3.3594 -3.8562 2.0364
3.6647 -3.5812 2.0364
3.8510 -3.2020 1.9870
3.9174 -2.7580 1.8979
4.1008 -2.4205 1.8840
4.2861 -2.0864 1.8840
4.4432 -1.7379 1.8840
4.5709 -1.3773 1.8840
4.6682 -1.0072 1.8840
4.7345 -0.6302 1.8840
4.7692 -0.2490 1.8840
4.7721 0.1337 1.8840
4.7433 0.5152 1.8840
4.6829 0.8927 1.8840
4.5915 1.2637 1.8840
4.4698 1.6249 1.8840
4.4353 2.0287 1.9349
4.4681 2.4948 2.0336
4.2517 2.8436 2.0364
4.0018 3.1688 2.0364
3.7264 3.4719 2.0364
3.4277 3.7508 2.0364
3.1078 4.0038 2.0364
2.7690 4.2293 2.0364
2.4138 4.4260 2.0364
0.7429 1.6689 0.7400
0.6062 1.7227 0.7419
0.4656 1.7654 0.7438
0.3219 1.7965 0.7457
0.1762 1.8159 0.7476
0.0294 1.8234 0.7495
-0.1175 1.8191 0.7514
-0.2636 1.8029 0.7532
-0.4079 1.7749 0.7549
-0.5494 1.7354 0.7565
-0.6873 1.6846 0.7581
-2.2000 4.3506 2.0364
-2.5381 4.1491 2.0364
-2.8588 3.9220 2.0364
-3.1600 3.6709 2.0364
-3.4400 3.3972 2.0364
-3.6973 3.1029 2.0364
-3.9304 2.7898 2.0364
-4.1380 2.4597 2.0364
-4.3190 2.1147 2.0364
-4.4723 1.7570 2.0364
-4.5972 1.3885 2.0364
-4.6928 1.0116 2.0364
-4.7587 0.6285 2.0364
-4.7945 0.2414 2.0364
-4.7999 -0.1474 2.0364
-4.7750 -0.5356 2.0364
-4.7197 -0.9209 2.0364
-4.6345 -1.3010 2.0364
-4.5196 -1.6736 2.0364
-4.3758 -2.0365 2.0364
-4.2037 -2.3875 2.0364
-4.0043 -2.7244 2.0364
-3.7786 -3.0451 2.0364
-3.5279 -3.3476 2.0364
-3.2537 -3.6299 2.0364
-2.9573 -3.8902 2.0364
-2.6405 -4.1267 2.0364
-2.3053 -4.3378 2.0364
-0.7164 -1.6584 0.7468
-0.5806 -1.7112 0.7449
-0.4410 -1.7529 0.7430
-0.2985 -1.7834 0.7411
-0.1541 -1.8023 0.7392
-0.0086 -1.8096 0.7373
0.1370 -1.8052 0.7355
0.2818 -1.7891 0.7337
0.4249 -1.7615 0.7320
0.5652 -1.7225 0.7304
0.7021 -1.6724 0.7288
1.1623 -2.2446 1.0131
1.4197 -2.2739 1.0719
3.0417 -4.0986 2.0364
3.3675 -3.8495 2.0364
3.6722 -3.5738 2.0364
3.8528 -3.1901 1.9845
3.9201 -2.7478 1.8964
4.1059 -2.4121 1.8840
4.2905 -2.0776 1.8840
4.4468 -1.7288 1.8840
4.5737 -1.3679 1.8840
4.6703 -0.9976 1.8840
4.7358 -0.6204 1.8840
4.7697 -0.2392 1.8840
4.7718 0.1435 1.8840
4.7421 0.5249 1.8840
4.6810 0.9023 1.8840
4.5888 1.2731 1.8840
4.4663 1.6340 1.8840
4.4362 2.0402 1.9371
4.4690 2.5073 2.0364
4.2456 2.8521 2.0364
3.9950 3.1769 2.0364
3.7190 3.4794 2.0364
3.4197 3.7576 2.0364
3.0993 4.0099 2.0364
2.7601 4.2347 2.0364
2.4045 4.4307 2.0364
0.7395 1.6704 0.7400
0.6027 1.7240 0.7419
0.4619 1.7663 0.7439
0.3182 1.7971 0.7458
0.1725 1.8162 0.7477
0.0257 1.8235 0.7496
-0.1212 1.8188 0.7514
-0.2673 1.8023 0.7532
-0.4115 1.7741 0.7549
-0.5530 1.7342 0.7566
-0.6908 1.6831 0.7582
-2.2088 4.3457 2.0364
-2.5466 4.1436 2.0364
-2.8668 3.9159 2.0364
-3.1674 3.6641 2.0364
-3.4469 3.3899 2.0364
-3.7036 3.0951 2.0364
-3.9361 2.7815 2.0364
-4.1430 2.4510 2.0364
-4.3233 2.1057 2.0364
-4.4759 1.7476 2.0364
-4.6000 1.3790 2.0364
-4.6948 1.0019 2.0364
-4.7600 0.6186 2.0364
-4.7950 0.2314 2.0364
-4.7997 -0.1574 2.0364
-4.7739 -0.5455 2.0364
-4.7179 -0.9307 2.0364
-4.6319 -1.3106 2.0364
-4.5163 -1.6830 2.0364
-4.3717 -2.0457 2.0364
-4.1989 -2.3963 2.0364
-3.9988 -2.7328 2.0364
-3.7725 -3.0531 2.0364
-3.5212 -3.3551 2.0364
-3.2463 -3.6368 2.0364
-2.9494 -3.8966 2.0364
-2.6322 -4.1324 2.0364
-2.2965 -4.3429 2.0364
-0.7130 -1.6598 0.7468
-0.5770 -1.7124 0.7449
-0.4374 -1.7539 0.7430
-0.2948 -1.7840 0.7410
-0.1504 -1.8026 0.7392
-0.0048 -1.8096 0.7373
0.1407 -1.8049 0.7355
0.2855 -1.7885 0.7337
0.4285 -1.7606 0.7320
0.5688 -1.7214 0.7303
0.7055 -1.6709 0.7288
1.1686 -2.2453 1.0145
1.4268 -2.2747 1.0736
3.0503 -4.0926 2.0364
2.7945 -3.7958 2.0364
3.0959 -3.5665 2.0364
3.3778 -3.3128 2.0364
3.6382 -3.0366 2.0364
3.8753 -2.7391 2.0364
3.9492 -2.3411 1.9676
4.0024 -1.9579 1.9077
4.0981 -1.6122 1.8840
4.2165 -1.2796 1.8840
4.3069 -0.9383 1.8840
4.3687 -0.5906 1.8840
4.4016 -0.2390 1.8840
4.4051 0.1141 1.8840
4.3794 0.4661 1.8840
4.3247 0.8146 1.8840
4.3437 1.1851 1.9294
4.3747 1.5797 1.9956
4.3147 1.9617 2.0364
4.1371 2.2973 2.0364
3.9327 2.6169 2.0364
3.7031 2.9181 2.0364
3.4499 3.1990 2.0364
3.1751 3.4576 2.0364
2.8805 3.6925 2.0364
2.5685 3.9022 2.0364
2.2410 4.0853 2.0364
0.6908 1.5415 0.7402
0.5645 1.5915 0.7420
0.4345 1.6312 0.7437
0.3018 1.6602 0.7455
0.1671 1.6784 0.7473
0.0314 1.6857 0.7490
-0.1044 1.6820 0.7507
-0.2395 1.6673 0.7524
-0.3730 1.6417 0.7540
-0.5039 1.6055 0.7555
-0.6315 1.5587 0.7570
-0.7549 1.5019 0.7583
-2.3411 3.8477 2.0364
-2.6388 3.6385 2.0364
-2.9187 3.4068 2.0364
-3.1790 3.1542 2.0364
-3.4183 2.8822 2.0364
-3.6352 2.5927 2.0364
-3.8285 2.2874 2.0364
-3.9972 1.9682 2.0364
-4.1402 1.6369 2.0364
-4.2567 1.2957 2.0364
-4.3461 0.9465 2.0364
-4.4080 0.5915 2.0364
-4.4418 0.2328 2.0364
-4.4475 -0.1276 2.0364
-4.4250 -0.4875 2.0364
-4.3743 -0.8447 2.0364
-4.2957 -1.1970 2.0364
-4.1896 -1.5425 2.0364
-4.0566 -1.8789 2.0364
-3.8974 -2.2042 2.0364
-3.7129 -2.5164 2.0364
-3.5040 -2.8136 2.0364
-3.2719 -3.0938 2.0364
-3.0180 -3.3553 2.0364
-2.7436 -3.5963 2.0364
-2.4504 -3.8153 2.0364
-2.1400 -4.0107 2.0364
-0.6652 -1.5329 0.7466
-0.5397 -1.5820 0.7448
-0.4106 -1.6210 0.7431
-0.2789 -1.6494 0.7413
-0.1453 -1.6672 0.7396
-0.0107 -1.6742 0.7378
0.1240 -1.6704 0.7361
0.2580 -1.6558 0.7345
0.3904 -1.6305 0.7329
0.5203 -1.5947 0.7314
0.6470 -1.5486 0.7300
0.7696 -1.4924 0.7286
1.4141 -2.2736 1.1592
2.8025 -3.7902 2.0364
3.1034 -3.5603 2.0364
3.3848 -3.3060 2.0364
3.6446 -3.0292 2.0364
3.8811 -2.7312 2.0364
3.9506 -2.3309 1.9659
4.0037 -1.9484 1.9064
4.1015 -1.6037 1.8840
4.2191 -1.2710 1.8840
4.3088 -0.9295 1.8840
4.3699 -0.5816 1.8840
4.4020 -0.2299 1.8840
4.4048 0.1231 1.8840
4.3784 0.4751 1.8840
4.3243 0.8238 1.8846
4.3445 1.1949 1.9309
4.3755 1.5901 1.9975
4.3105 1.9705 2.0364
4.1322 2.3058 2.0364
3.9271 2.6249 2.0364
3.6968 2.9256 2.0364
3.4431 3.2059 2.0364
3.1677 3.4640 2.0364
2.8727 3.6982 2.0364
2.5602 3.9072 2.0364
2.2324 4.0897 2.0364
0.6876 1.5429 0.7402
0.5612 1.5927 0.7420
0.4312 1.6321 0.7438
0.2984 1.6608 0.7456
0.1637 1.6788 0.7473
0.0279 1.6857 0.7491
-0.1079 1.6817 0.7508
-0.2430 1.6668 0.7524
-0.3764 1.6409 0.7540
-0.5072 1.6044 0.7556
-0.6347 1.5574 0.7570
-0.7580 1.5003 0.7584
-2.3489 3.8426 2.0364
-2.6462 3.6328 2.0364
-2.9256 3.4005 2.0364
-3.1854 3.1474 2.0364
-3.4241 2.8750 2.0364
-3.6405 2.5851 2.0364
-3.8332 2.2794 2.0364
-4.0012 1.9598 2.0364
-4.1435 1.6283 2.0364
-4.2593 1.2868 2.0364
-4.3481 0.9375 2.0364
-4.4092 0.5824 2.0364
-4.4423 0.2235 2.0364
-4.4473 -0.1369 2.0364
-4.4240 -0.4967 2.0364
-4.3726 -0.8538 2.0364
-4.2933 -1.2060 2.0364
-4.1866 -1.5512 2.0364
-4.0529 -1.8874 2.0364
-3.8930 -2.2124 2.0364
-3.7078 -2.5242 2.0364
-3.4983 -2.8210 2.0364
-3.2657 -3.1008 2.0364
-3.0112 -3.3617 2.0364
-2.7363 -3.6022 2.0364
-2.4426 -3.8206 2.0364
-2.1319 -4.0154 2.0364
-0.6621 -1.5343 0.7466
-0.5364 -1.5832 0.7448
-0.4073 -1.6218 0.7430
-0.2755 -1.6500 0.7413
-0.1418 -1.6675 0.7395
-0.0072 -1.6742 0.7378
0.1275 -1.6702 0.7361
0.2614 -1.6553 0.7345
0.3938 -1.6297 0.7329
0.5236 -1.5937 0.7314
0.6502 -1.5473 0.7299
0.7727 -1.4909 0.7286
1.4211 -2.2744 1.1610
2.8104 -3.7846 2.0364
3.1108 -3.5540 2.0364
3.3917 -3.2992 2.0364
3.6510 -3.0216 2.0364
3.8868 -2.7233 2.0364
3.9520 -2.3208 1.9642
4.0050 -1.9387 1.9050
4.1048 -1.5955 1.8840
4.2218 -1.2623 1.8840
4.3108 -0.9206 1.8840
4.3711 -0.5727 1.8840
4.4025 -0.2209 1.8840
4.4045 0.1322 1.8840
4.3773 0.4841 1.8840
4.3245 0.8330 1.8855
4.3453 1.2047 1.9324
4.3763 1.6006 1.9994
4.3063 1.9793 2.0364
4.1272 2.3141 2.0364
3.9215 2.6329 2.0364
3.6906 2.9330 2.0364
3.4363 3.2128 2.0364
3.1604 3.4703 2.0364
2.8649 3.7039 2.0364
2.5520 3.9122 2.0364
2.2238 4.0940 2.0364
0.6844 1.5443 0.7403
0.5579 1.5938 0.7420
0.4278 1.6329 0.7438
0.2949 1.6614 0.7456
0.1602 1.6791 0.7474
0.0244 1.6858 0.7491
-0.1114 1.6815 0.7508
-0.2464 1.6662 0.7525
-0.3798 1.6401 0.7541
-0.5106 1.6033 0.7556
-0.6379 1.5561 0.7570
-0.7611 1.4987 0.7584
-2.3567 3.8375 2.0364
-2.6536 3.6271 2.0364
-2.9325 3.3943 2.0364
-3.1918 3.1407 2.0364
-3.4300 2.8678 2.0364
-3.6457 2.5774 2.0364
-3.8378 2.2713 2.0364
-4.0051 1.9514 2.0364
-4.1468 1.6196 2.0364
-4.2620 1.2780 2.0364
-4.3500 0.9284 2.0364
-4.4104 0.5732 2.0364
-4.4428 0.2143 2.0364
-4.4470 -0.1461 2.0364
-4.4230 -0.5059 2.0364
-4.3709 -0.8629 2.0364
-4.2909 -1.2149 2.0364
-4.1835 -1.5600 2.0364
-4.0491 -1.8958 2.0364
-3.8886 -2.2205 2.0364
-3.7027 -2.5320 2.0364
-3.4926 -2.8284 2.0364
-3.2594 -3.1077 2.0364
-3.0044 -3.3682 2.0364
-2.7290 -3.6081 2.0364
-2.4349 -3.8259 2.0364
-2.1237 -4.0200 2.0364
-0.6589 -1.5357 0.7465
-0.5331 -1.5843 0.7448
-0.4039 -1.6227 0.7430
-0.2721 -1.6506 0.7412
-0.1384 -1.6678 0.7395
-0.0038 -1.6743 0.7377
0.1309 -1.6699 0.7361
0.2648 -1.6548 0.7344
0.3971 -1.6289 0.7328
0.5269 -1.5926 0.7313
0.6534 -1.5459 0.7299
0.7758 -1.4893 0.7285
1.4281 -2.2752 1.1628
2.8184 -3.7790 2.0364
2.5927 -3.5194 2.0364
2.8718 -3.3064 2.0364
3.1328 -3.0709 2.0364
3.3739 -2.8144 2.0364
3.5932 -2.5387 2.0364
3.7894 -2.2455 2.0364
3.9607 -1.9368 2.0364
4.0269 -1.5837 1.9971
4.0716 -1.2354 1.9627
4.1129 -0.8959 1.9410
4.1514 -0.5612 1.9315
4.1877 -0.2275 1.9338
4.2220 0.1091 1.9481
4.2548 0.4524 1.9746
4.2863 0.8068 2.0143
4.2501 1.1588 2.0364
4.1390 1.4936 2.0364
4.0008 1.8178 2.0364
3.8365 2.1292 2.0364
3.6475 2.4256 2.0364
3.4350 2.7052 2.0364
3.2007 2.9659 2.0364
2.9463 3.2062 2.0364
2.6735 3.4245 2.0364
2.3844 3.6195 2.0364
0.7550 1.3750 0.7388
0.6419 1.4307 0.7404
0.5246 1.4771 0.7421
0.4040 1.5140 0.7437
0.2808 1.5409 0.7454
0.1558 1.5578 0.7470
0.0298 1.5645 0.7486
-0.0962 1.5611 0.7502
-0.2216 1.5475 0.7517
-0.3455 1.5237 0.7532
-0.4671 1.4901 0.7546
-0.5855 1.4467 0.7560
-0.7000 1.3940 0.7573
-2.1745 3.5768 2.0364
-2.4516 3.3827 2.0364
-2.7121 3.1676 2.0364
-2.9545 2.9330 2.0364
-3.1773 2.6804 2.0364
-3.3794 2.4113 2.0364
-3.5594 2.1275 2.0364
-3.7165 1.8306 2.0364
-3.8497 1.5225 2.0364
-3.9582 1.2052 2.0364
-4.0415 0.8804 2.0364
-4.0991 0.5501 2.0364
-4.1305 0.2163 2.0364
-4.1357 -0.1190 2.0364
-4.1146 -0.4537 2.0364
-4.0673 -0.7860 2.0364
-3.9940 -1.1137 2.0364
-3.8951 -1.4349 2.0364
-3.7711 -1.7477 2.0364
-3.6227 -2.0500 2.0364
-3.4507 -2.3402 2.0364
-3.2561 -2.6162 2.0364
-3.0399 -2.8764 2.0364
-2.8035 -3.1191 2.0364
-2.5481 -3.3427 2.0364
-2.2753 -3.5457 2.0364
-0.7297 -1.3689 0.7480
-0.6171 -1.4237 0.7464
-0.5006 -1.4694 0.7447
-0.3807 -1.5055 0.7431
-0.2583 -1.5319 0.7415
-0.1343 -1.5485 0.7398
-0.0093 -1.5550 0.7382
0.1158 -1.5514 0.7367
0.2403 -1.5379 0.7351
0.3632 -1.5144 0.7337
0.4839 -1.4811 0.7323
0.6016 -1.4383 0.7309
0.7154 -1.3861 0.7297
1.4155 -2.2742 1.2504
2.6001 -3.5142 2.0364
2.8787 -3.3006 2.0364
3.1392 -3.0646 2.0364
3.3798 -2.8076 2.0364
3.5986 -2.5314 2.0364
3.7941 -2.2377 2.0364
3.9648 -1.9287 2.0364
4.0281 -1.5746 1.9960
4.0727 -1.2265 1.9620
4.1139 -0.8873 1.9406
4.1524 -0.5527 1.9314
4.1886 -0.2189 1.9340
4.2228 0.1178 1.9486
4.2556 0.4614 1.9755
4.2871 0.8161 2.0155
4.2476 1.1675 2.0364
4.1358 1.5021 2.0364
3.9969 1.8260 2.0364
3.8320 2.1370 2.0364
3.6423 2.4330 2.0364
3.4292 2.7121 2.0364
3.1944 2.9723 2.0364
2.9395 3.2121 2.0364
2.6663 3.4298 2.0364
2.3768 3.6242 2.0364
0.7521 1.3765 0.7388
0.6389 1.4320 0.7405
0.5216 1.4782 0.7421
0.4009 1.5148 0.7438
0.2776 1.5415 0.7454
0.1526 1.5581 0.7470
0.0266 1.5646 0.7487
-0.0995 1.5609 0.7502
-0.2248 1.5470 0.7518
-0.3487 1.5230 0.7533
-0.4701 1.4891 0.7547
-0.5885 1.4455 0.7560
-0.7029 1.3925 0.7573
-2.1818 3.5720 2.0364
-2.4585 3.3774 2.0364
-2.7186 3.1618 2.0364
-2.9605 2.9267 2.0364
-3.1828 2.6737 2.0364
-3.3843 2.4042 2.0364
-3.5637 2.1200 2.0364
-3.7202 1.8228 2.0364
-3.8528 1.5145 2.0364
-3.9607 1.1969 2.0364
-4.0433 0.8719 2.0364
-4.1002 0.5415 2.0364
-4.1310 0.2077 2.0364
-4.1355 -0.1276 2.0364
-4.1138 -0.4623 2.0364
-4.0657 -0.7944 2.0364
-3.9918 -1.1220 2.0364
-3.8922 -1.4430 2.0364
-3.7676 -1.7556 2.0364
-3.6186 -2.0576 2.0364
-3.4460 -2.3474 2.0364
-3.2508 -2.6231 2.0364
-3.0341 -2.8829 2.0364
-2.7972 -3.1251 2.0364
-2.5413 -3.3482 2.0364
-2.2680 -3.5506 2.0364
-0.7269 -1.3704 0.7479
-0.6142 -1.4250 0.7463
-0.4975 -1.4704 0.7447
-0.3776 -1.5063 0.7431
-0.2552 -1.5325 0.7414
-0.1311 -1.5487 0.7398
-0.0061 -1.5550 0.7382
0.1191 -1.5512 0.7366
0.2435 -1.5374 0.7351
0.3664 -1.5137 0.7336
0.4870 -1.4801 0.7322
0.6045 -1.4371 0.7309
0.7183 -1.3847 0.7296
1.4225 -2.2750 1.2523
2.6075 -3.5090 2.0364
2.8856 -3.2949 2.0364
3.1457 -3.0582 2.0364
3.3857 -2.8007 2.0364
3.6039 -2.5240 2.0364
3.7988 -2.2300 2.0364
3.9689 -1.9206 2.0364
4.0293 -1.5655 1.9950
4.0738 -1.2177 1.9612
4.1149 -0.8786 1.9402
4.1533 -0.5441 1.9313
4.1895 -0.2103 1.9343
4.2237 0.1265 1.9491
4.2564 0.4703 1.9763
4.2879 0.8254 2.0167
4.2451 1.1762 2.0364
4.1325 1.5105 2.0364
3.9930 1.8341 2.0364
3.8274 2.1448 2.0364
3.6371 2.4404 2.0364
3.4235 2.7190 2.0364
3.1881 2.9787 2.0364
2.9327 3.2179 2.0364
2.6591 3.4351 2.0364
2.3692 3.6289 2.0364
0.7493 1.3781 0.7389
0.6360 1.4333 0.7405
0.5185 1.4793 0.7421
0.3977 1.5156 0.7438
0.2744 1.5420 0.7455
0.1494 1.5584 0.7471
0.0234 1.5646 0.7487
-0.1027 1.5606 0.7503
-0.2280 1.5465 0.7518
-0.3518 1.5223 0.7533
-0.4732 1.4881 0.7547
-0.5915 1.4443 0.7561
-0.7058 1.3910 0.7573
-2.1891 3.5673 2.0364
-2.4654 3.3721 2.0364
-2.7250 3.1560 2.0364
-2.9664 2.9205 2.0364
-3.1882 2.6670 2.0364
-3.3892 2.3971 2.0364
-3.5681 2.1125 2.0364
-3.7239 1.8150 2.0364
-3.8559 1.5065 2.0364
-3.9631 1.1886 2.0364
-4.0451 0.8635 2.0364
-4.1013 0.5330 2.0364
-4.1314 0.1991 2.0364
-4.1353 -0.1362 2.0364
-4.1128 -0.4709 2.0364
-4.0642 -0.8029 2.0364
-3.9895 -1.1303 2.0364
-3.8893 -1.4512 2.0364
-3.7640 -1.7635 2.0364
-3.6144 -2.0652 2.0364
-3.4413 -2.3547 2.0364
-3.2455 -2.6300 2.0364
-3.0283 -2.8893 2.0364
-2.7908 -3.1311 2.0364
-2.5345 -3.3536 2.0364
-2.2608 -3.5555 2.0364
-0.7240 -1.3719 0.7479
-0.6112 -1.4263 0.7463
-0.4945 -1.4715 0.7447
-0.3745 -1.5071 0.7430
-0.2520 -1.5330 0.7414
-0.1279 -1.5490 0.7398
-0.0028 -1.5550 0.7381
0.1223 -1.5510 0.7366
0.2466 -1.5369 0.7351
0.3695 -1.5129 0.7336
0.4900 -1.4792 0.7322
0.6075 -1.4358 0.7308
0.7211 -1.3832 0.7296
1.4295 -2.2758 1.2543
2.6148 -3.5038 2.0364
2.4139 -3.2745 2.0364
2.6733 -3.0760 2.0364
2.9158 -2.8567 2.0364
3.1397 -2.6179 2.0364
3.3435 -2.3612 2.0364
3.5257 -2.0884 2.0364
3.6849 -1.8013 2.0364
3.8199 -1.5018 2.0364
3.9299 -1.1920 2.0364
4.0139 -0.8742 2.0364
4.0714 -0.5504 2.0364
4.1021 -0.2230 2.0364
4.1055 0.1058 2.0364
4.0819 0.4336 2.0364
4.0313 0.7580 2.0364
3.9541 1.0774 2.0364
3.8510 1.3888 2.0364
3.7228 1.6905 2.0364
3.5703 1.9802 2.0364
3.3948 2.2562 2.0364
3.1975 2.5165 2.0364
2.9799 2.7594 2.0364
2.7434 2.9833 2.0364
2.4900 3.1869 2.0364
2.2212 3.3688 2.0364
0.7038 1.2805 0.7391
0.5984 1.3324 0.7406
0.4892 1.3756 0.7422
0.3769 1.4099 0.7437
0.2622 1.4350 0.7452
0.1457 1.4507 0.7468
0.0284 1.4570 0.7483
-0.0890 1.4538 0.7497
-0.2058 1.4411 0.7512
-0.3211 1.4190 0.7526
-0.4343 1.3877 0.7539
-0.5446 1.3473 0.7551
-0.6513 1.2981 0.7563
-0.7536 1.2406 0.7574
-2.2849 3.1548 2.0364
-2.5281 2.9545 2.0364
-2.7545 2.7359 2.0364
-2.9626 2.5004 2.0364
-3.1513 2.2496 2.0364
-3.3195 1.9849 2.0364
-3.4662 1.7080 2.0364
-3.5907 1.4206 2.0364
-3.6920 1.1244 2.0364
-3.7698 0.8213 2.0364
-3.8236 0.5131 2.0364
-3.8529 0.2016 2.0364
-3.8577 -0.1112 2.0364
-3.8379 -0.4236 2.0364
-3.7936 -0.7336 2.0364
