ply
format ascii 1.0
element vertex 2165
property float32 x
property float32 y
property float32 z
end_header
-13.3202 0.3668 2.0371
-13.3264 -0.7079 2.0371
-13.2555 -1.7825 2.0371
-13.1071 -2.8522 2.0371
-12.8813 -3.9121 2.0371
-12.5783 -4.9574 2.0371
-12.1986 -5.9832 2.0371
-11.7427 -6.9842 2.0371
-11.2117 -7.9553 2.0371
-10.6066 -8.8913 2.0371
-9.9291 -9.7867 2.0371
-9.1811 -10.6361 2.0371
-8.3649 -11.4339 2.0371
-7.4833 -12.1746 2.0371
-6.5394 -12.8525 2.0371
-5.5370 -13.4621 2.0371
-4.4805 -13.9979 2.0371
-3.3746 -14.4544 2.0371
-0.5903 -3.9338 0.5405
-0.2771 -4.0353 0.5441
0.0486 -4.1145 0.5479
0.3855 -4.1697 0.5520
0.7318 -4.1992 0.5563
1.0857 -4.2015 0.5608
4.8160 -13.9147 1.8847
6.0178 -13.7137 1.8992
3.7307 -6.9305 0.9893
6.4254 -9.9344 1.4747
9.6142 -12.5321 1.9533
10.7579 -11.9087 1.9701
11.8513 -11.1710 1.9860
12.8800 -10.3220 2.0008
13.8296 -9.3669 2.0142
6.6261 -3.7507 0.9141
7.3082 -3.3946 0.9640
16.0691 -5.9494 2.0443
16.5734 -4.6645 2.0504
16.9416 -3.3304 2.0543
17.1678 -1.9634 2.0559
17.2489 -0.5802 2.0553
17.1845 0.8017 2.0525
16.9766 2.1653 2.0474
-0.6380 -3.2187 0.5430
-0.3826 -3.3045 0.5459
-0.1177 -3.3717 0.5490
0.1556 -3.4191 0.5523
0.4358 -3.4456 0.5557
0.7215 -3.4499 0.5594
1.0108 -3.4312 0.5632
1.3017 -3.3885 0.5671
5.2521 -10.9544 1.8837
4.0020 -6.8722 1.2243
7.1379 -10.2649 1.9119
8.0436 -9.7883 1.9253
8.9114 -9.2251 1.9380
9.7314 -8.5774 1.9498
10.4933 -7.8492 1.9606
6.6308 -4.1757 1.1677
6.7319 -3.5201 1.1283
12.3374 -5.2392 1.9856
12.7769 -4.2537 1.9911
13.1175 -3.2264 1.9950
13.3547 -2.1685 1.9972
13.4851 -1.0916 1.9978
13.5074 -0.0077 1.9967
13.4219 1.0712 1.9939
13.2304 2.1330 1.9895
7.3237 1.7927 1.1230
7.3626 2.4422 1.1598
12.0633 5.1074 1.9675
11.4974 5.9965 1.9575
10.8561 6.8211 1.9465
10.1482 7.5752 1.9345
9.3829 8.2542 1.9218
8.5694 8.8546 1.9084
7.7171 9.3743 1.8945
6.8511 9.8350 1.8847
5.9919 10.2706 1.8847
5.1065 10.6310 1.8847
4.5415 11.7981 2.0371
3.5498 12.0232 2.0371
2.5514 12.1666 2.0371
1.5529 12.2293 2.0371
0.5609 12.2127 2.0371
-0.4188 12.1189 2.0371
-1.3803 11.9504 2.0371
-2.3184 11.7097 2.0371
-3.2282 11.4000 2.0371
-4.1051 11.0244 2.0371
-4.9449 10.5864 2.0371
-5.7437 10.0896 2.0371
-6.4982 9.5377 2.0371
-7.2050 8.9346 2.0371
-7.8614 8.2840 2.0371
-8.4648 7.5901 2.0371
-9.0128 6.8568 2.0371
-9.5035 6.0880 2.0371
-9.9350 5.2880 2.0371
-10.3057 4.4607 2.0371
-10.6143 3.6102 2.0371
-10.8597 2.7406 2.0371
-11.0408 1.8561 2.0371
-11.1568 0.9609 2.0371
-11.2073 0.0591 2.0371
-11.1917 -0.8451 2.0371
-11.1099 -1.7474 2.0371
-10.9620 -2.6435 2.0371
-10.7480 -3.5291 2.0371
-10.4684 -4.3997 2.0371
-10.1239 -5.2509 2.0371
-9.7154 -6.0783 2.0371
-9.2440 -6.8772 2.0371
-8.7111 -7.6431 2.0371
-8.1186 -8.3715 2.0371
-7.4686 -9.0576 2.0371
-6.7634 -9.6970 2.0371
-6.0059 -10.2850 2.0371
-5.1994 -10.8172 2.0371
-4.3475 -11.2890 2.0371
-3.4542 -11.6963 2.0371
-0.6723 -3.2055 0.5426
-0.4184 -3.2938 0.5454
-0.1547 -3.3636 0.5485
0.1175 -3.4138 0.5518
0.3969 -3.4432 0.5552
0.6819 -3.4507 0.5589
0.9708 -3.4352 0.5626
1.2617 -3.3958 0.5665
5.1283 -11.0068 1.8847
3.8853 -6.8445 1.2128
7.0108 -10.3236 1.9100
7.9209 -9.8591 1.9235
8.7946 -9.3077 1.9363
9.6217 -8.6715 1.9482
10.3923 -7.9540 1.9592
6.7556 -4.3592 1.1987
6.6843 -3.5897 1.1274
12.2695 -5.3710 1.9847
12.7221 -4.3921 1.9904
13.0767 -3.3699 1.9945
13.3283 -2.3155 1.9970
13.4736 -1.2405 1.9978
13.5108 -0.1568 1.9969
13.4400 0.9234 1.9944
13.2630 1.9883 1.9902
7.3836 1.7212 1.1286
7.3167 2.3376 1.1478
12.1348 4.9804 1.9688
11.5800 5.8778 1.9590
10.9486 6.7116 1.9481
10.2493 7.4758 1.9362
9.4913 8.1654 1.9236
8.6839 8.7767 1.9103
7.8364 9.3076 1.8964
6.9669 9.7693 1.8847
6.1119 10.2151 1.8847
5.2297 10.5859 1.8847
4.6770 11.7606 2.0371
3.6868 11.9971 2.0371
2.6889 12.1517 2.0371
1.6901 12.2254 2.0371
0.6968 12.2196 2.0371
-0.2849 12.1364 2.0371
-1.2492 11.9779 2.0371
-2.1909 11.7470 2.0371
-3.1048 11.4466 2.0371
-3.9865 11.0799 2.0371
-4.8316 10.6503 2.0371
-5.6363 10.1613 2.0371
-6.3970 9.6169 2.0371
-7.1107 9.0205 2.0371
-7.7742 8.3762 2.0371
-8.3850 7.6880 2.0371
-8.9408 6.9599 2.0371
-9.4395 6.1958 2.0371
-9.8792 5.3998 2.0371
-10.2584 4.5760 2.0371
-10.5756 3.7284 2.0371
-10.8297 2.8613 2.0371
-11.0197 1.9786 2.0371
-11.1447 1.0846 2.0371
-11.2042 0.1834 2.0371
-11.1978 -0.7207 2.0371
-11.1251 -1.6235 2.0371
-10.9863 -2.5207 2.0371
-10.7814 -3.4079 2.0371
-10.5108 -4.2809 2.0371
-10.1752 -5.1351 2.0371
-9.7754 -5.9660 2.0371
-9.3125 -6.7691 2.0371
-8.7881 -7.5398 2.0371
-8.2037 -8.2737 2.0371
-7.5614 -8.9659 2.0371
-6.8636 -9.6120 2.0371
-6.1132 -10.2073 2.0371
-5.3132 -10.7474 2.0371
-4.4673 -11.2278 2.0371
-3.5794 -11.6443 2.0371
-0.7065 -3.1920 0.5422
-0.4539 -3.2827 0.5450
-0.1915 -3.3552 0.5481
0.0796 -3.4081 0.5513
0.3581 -3.4404 0.5548
0.6424 -3.4510 0.5584
0.9309 -3.4387 0.5621
1.2216 -3.4027 0.5660
5.0013 -11.0515 1.8847
3.7928 -6.8568 1.2087
6.7861 -10.2342 1.8812
7.7976 -9.9283 1.9217
8.6769 -9.3887 1.9345
9.5110 -8.7639 1.9466
10.2899 -8.0574 1.9577
11.0039 -7.2739 1.9677
6.6542 -3.6688 1.1296
7.3001 -3.2922 1.1871
12.6655 -4.5296 1.9897
13.0339 -3.5128 1.9941
13.2999 -2.4621 1.9968
13.4600 -1.3892 1.9978
13.5121 -0.3060 1.9972
13.4561 0.7754 1.9948
13.2935 1.8431 1.9909
7.4443 1.6489 1.1345
7.2718 2.2351 1.1361
12.2047 4.8524 1.9700
11.6611 5.7579 1.9604
11.0397 6.6009 1.9496
10.3492 7.3749 1.9379
9.5987 8.0750 1.9254
8.7976 8.6973 1.9121
7.9551 9.2393 1.8984
7.0821 9.7021 1.8847
6.2313 10.1582 1.8847
5.3524 10.5394 1.8847
4.8123 11.7217 2.0371
3.8237 11.9695 2.0371
2.8265 12.1353 2.0371
1.8274 12.2200 2.0371
0.8330 12.2250 2.0371
-0.1507 12.1523 2.0371
-1.1178 12.0041 2.0371
-2.0628 11.7830 2.0371
-2.9809 11.4919 2.0371
-3.8672 11.1341 2.0371
-4.7176 10.7130 2.0371
-5.5281 10.2320 2.0371
-6.2951 9.6949 2.0371
-7.0154 9.1055 2.0371
-7.6859 8.4676 2.0371
-8.3041 7.7852 2.0371
-8.8676 7.0623 2.0371
-9.3743 6.3030 2.0371
-9.8222 5.5111 2.0371
-10.2098 4.6909 2.0371
-10.5357 3.8463 2.0371
-10.7985 2.9816 2.0371
-10.9974 2.1008 2.0371
-11.1314 1.2082 2.0371
-11.1999 0.3077 2.0371
-11.2026 -0.5962 2.0371
-11.1391 -1.4995 2.0371
-11.0093 -2.3977 2.0371
-10.8135 -3.2866 2.0371
-10.5519 -4.1617 2.0371
-10.2252 -5.0188 2.0371
-9.8342 -5.8531 2.0371
-9.3799 -6.6604 2.0371
-8.8638 -7.4359 2.0371
-8.2876 -8.1750 2.0371
-7.6531 -8.8733 2.0371
-6.9629 -9.5260 2.0371
-6.2195 -10.1286 2.0371
-5.4261 -10.6765 2.0371
-4.5863 -11.1654 2.0371
-3.7040 -11.5909 2.0371
-0.7404 -3.1782 0.5418
-0.4893 -3.2713 0.5446
-0.2282 -3.3463 0.5477
0.0418 -3.4020 0.5509
0.3194 -3.4373 0.5543
0.6030 -3.4509 0.5578
0.8910 -3.4418 0.5616
1.1815 -3.4091 0.5654
4.8739 -11.0947 1.8847
3.7233 -6.9104 1.2120
6.7552 -10.4360 1.9062
7.6736 -9.9957 1.9198
8.5584 -9.4680 1.9328
9.3993 -8.8548 1.9450
10.1864 -8.1593 1.9562
10.9098 -7.3861 1.9664
6.6241 -3.7481 1.1319
7.1283 -3.3098 1.1654
12.6070 -4.6663 1.9890
12.9892 -3.6550 1.9936
13.2696 -2.6083 1.9965
13.4443 -1.5378 1.9978
13.5114 -0.4553 1.9973
13.4702 0.6271 1.9953
13.3221 1.6974 1.9915
-0.5445 -2.7543 0.5462
-0.3254 -2.8222 0.5487
-0.0989 -2.8737 0.5514
0.1337 -2.9080 0.5542
0.3713 -2.9241 0.5572
0.6123 -2.9214 0.5603
0.8554 -2.8990 0.5635
1.0987 -2.8564 0.5668
1.3406 -2.7933 0.5701
3.9563 -6.7877 1.4370
5.9395 -8.5352 1.8910
6.6778 -8.1210 1.9019
7.3824 -7.6377 1.9122
8.0456 -7.0879 1.9217
8.6601 -6.4748 1.9304
9.2185 -5.8029 1.9381
6.8414 -3.5760 1.3697
10.1409 -4.3051 1.9504
10.4934 -3.4925 1.9547
10.7670 -2.6478 1.9578
10.9585 -1.7794 1.9596
11.0656 -0.8961 1.9601
11.0870 -0.0071 1.9592
11.0230 0.8785 1.9571
10.8749 1.7516 1.9536
7.4419 1.8202 1.3625
7.6515 2.5361 1.4382
9.9554 4.2120 1.9361
9.5053 4.9540 1.9281
8.9928 5.6463 1.9193
8.4242 6.2838 1.9096
7.8065 6.8623 1.8993
7.1467 7.3787 1.8884
6.4783 7.8626 1.8847
5.7886 8.3020 1.8847
5.0693 8.6802 1.8847
4.6761 9.7234 2.0371
3.8532 9.9959 2.0371
3.0166 10.1994 2.0371
2.1722 10.3338 2.0371
1.3257 10.3998 2.0371
0.4826 10.3982 2.0371
-0.3520 10.3305 2.0371
-1.1731 10.1984 2.0371
-1.9760 10.0040 2.0371
-2.7562 9.7497 2.0371
-3.5098 9.4379 2.0371
-4.2328 9.0714 2.0371
-4.9218 8.6534 2.0371
-5.5735 8.1867 2.0371
-6.1849 7.6747 2.0371
-6.7534 7.1207 2.0371
-7.2766 6.5282 2.0371
-7.7522 5.9005 2.0371
-8.1782 5.2413 2.0371
-8.5530 4.5541 2.0371
-8.8750 3.8427 2.0371
-9.1429 3.1105 2.0371
-9.3556 2.3615 2.0371
-9.5121 1.5992 2.0371
-9.6119 0.8275 2.0371
-9.6543 0.0502 2.0371
-9.6390 -0.7290 2.0371
-9.5660 -1.5060 2.0371
-9.4351 -2.2771 2.0371
-9.2468 -3.0384 2.0371
-9.0016 -3.7859 2.0371
-8.7001 -4.5156 2.0371
-8.3433 -5.2235 2.0371
-7.9324 -5.9057 2.0371
-7.4689 -6.5581 2.0371
-6.9545 -7.1768 2.0371
-6.3913 -7.7578 2.0371
-5.7816 -8.2972 2.0371
-5.1282 -8.7911 2.0371
-4.4341 -9.2359 2.0371
-3.7025 -9.6279 2.0371
-2.9373 -9.9636 2.0371
-0.5741 -2.7437 0.5458
-0.3560 -2.8138 0.5483
-0.1305 -2.8676 0.5510
0.1014 -2.9043 0.5538
0.3383 -2.9230 0.5567
0.5790 -2.9229 0.5598
0.8219 -2.9032 0.5630
1.0653 -2.8635 0.5663
1.3075 -2.8032 0.5697
3.8505 -6.7772 1.4268
5.8357 -8.5867 1.8895
6.5780 -8.1821 1.9004
7.2877 -7.7082 1.9108
7.9571 -7.1674 1.9204
8.5787 -6.5628 1.9292
9.1453 -5.8987 1.9371
6.7826 -3.6411 1.3663
10.0865 -4.4139 1.9497
10.4494 -3.6065 1.9542
10.7342 -2.7657 1.9575
10.9371 -1.9000 1.9595
11.0559 -1.0182 1.9601
11.0892 -0.1295 1.9594
11.0369 0.7571 1.9574
10.9002 1.6325 1.9541
7.5056 1.7482 1.3699
7.4666 2.3837 1.3978
10.0121 4.1063 1.9371
9.5711 4.8547 1.9293
9.0668 5.5541 1.9205
8.5055 6.1995 1.9110
7.8942 6.7863 1.9007
7.2397 7.3114 1.8899
6.5706 7.7976 1.8847
5.8854 8.2451 1.8847
5.1699 8.6319 1.8847
4.7879 9.6805 2.0371
3.9674 9.9625 2.0371
3.1324 10.1755 2.0371
2.2887 10.3194 2.0371
1.4422 10.3947 2.0371
0.5982 10.4024 2.0371
-0.2379 10.3437 2.0371
-1.0611 10.2204 2.0371
-1.8667 10.0344 2.0371
-2.6503 9.7881 2.0371
-3.4078 9.4841 2.0371
-4.1352 9.1250 2.0371
-4.8291 8.7139 2.0371
-5.4861 8.2537 2.0371
-6.1033 7.7478 2.0371
-6.6778 7.1994 2.0371
-7.2074 6.6119 2.0371
-7.6896 5.9889 2.0371
-8.1226 5.3338 2.0371
-8.5045 4.6502 2.0371
-8.8338 3.9419 2.0371
-9.1092 3.2124 2.0371
-9.3296 2.4654 2.0371
-9.4939 1.7048 2.0371
-9.6016 0.9341 2.0371
-9.6519 0.1574 2.0371
-9.6446 -0.6217 2.0371
-9.5794 -1.3994 2.0371
-9.4566 -2.1715 2.0371
-9.2762 -2.9344 2.0371
-9.0387 -3.6840 2.0371
-8.7449 -4.4164 2.0371
-8.3956 -5.1275 2.0371
-7.9921 -5.8135 2.0371
-7.5357 -6.4702 2.0371
-7.0282 -7.0938 2.0371
-6.4716 -7.6802 2.0371
-5.8682 -8.2255 2.0371
-5.2206 -8.7260 2.0371
-4.5319 -9.1777 2.0371
-3.8053 -9.5772 2.0371
-3.0444 -9.9209 2.0371
-0.6034 -2.7329 0.5455
-0.3865 -2.8051 0.5480
-0.1619 -2.8612 0.5506
0.0691 -2.9003 0.5534
0.3055 -2.9215 0.5563
0.5457 -2.9240 0.5594
0.7884 -2.9071 0.5626
1.0318 -2.8702 0.5658
1.2743 -2.8127 0.5692
3.7464 -6.7669 1.4170
5.7314 -8.6369 1.8880
6.4776 -8.2420 1.8990
7.1922 -7.7775 1.9094
7.8676 -7.2457 1.9191
8.4962 -6.6496 1.9281
9.0708 -5.9934 1.9361
6.7529 -3.7217 1.3690
10.0307 -4.5220 1.9490
10.4040 -3.7197 1.9537
10.6998 -2.8831 1.9571
10.9142 -2.0203 1.9593
11.0446 -1.1402 1.9601
11.0897 -0.2519 1.9596
11.0491 0.6356 1.9578
10.9240 1.5130 1.9547
7.5702 1.6754 1.3777
7.4143 2.2772 1.3825
10.0675 3.9998 1.9381
9.6357 4.7545 1.9304
9.1397 5.4610 1.9218
8.5859 6.1140 1.9123
7.9810 6.7091 1.9022
7.3321 7.2429 1.8914
6.6622 7.7313 1.8847
5.9816 8.1871 1.8847
5.2699 8.5823 1.8847
4.8994 9.6362 2.0371
4.0813 9.9278 2.0371
3.2479 10.1503 2.0371
2.4051 10.3037 2.0371
1.5586 10.3884 2.0371
0.7140 10.4053 2.0371
-0.1234 10.3556 2.0371
-0.9487 10.2411 2.0371
-1.7570 10.0636 2.0371
-2.5439 9.8255 2.0371
-3.3052 9.5293 2.0371
-4.0370 9.1776 2.0371
-4.7357 8.7734 2.0371
-5.3980 8.3198 2.0371
-6.0208 7.8200 2.0371
-6.6014 7.2772 2.0371
-7.1372 6.6949 2.0371
-7.6261 6.0766 2.0371
-8.0660 5.4257 2.0371
-8.4550 4.7459 2.0371
-8.7917 4.0407 2.0371
-9.0746 3.3139 2.0371
-9.3026 2.5691 2.0371
-9.4747 1.8101 2.0371
-9.5901 1.0407 2.0371
-9.6484 0.2645 2.0371
-9.6490 -0.5145 2.0371
-9.5918 -1.2925 2.0371
-9.4769 -2.0657 2.0371
-9.3044 -2.8301 2.0371
-9.0748 -3.5817 2.0371
-8.7886 -4.3167 2.0371
-8.4469 -5.0310 2.0371
-8.0508 -5.7207 2.0371
-7.6016 -6.3817 2.0371
-7.1010 -7.0101 2.0371
-6.5511 -7.6019 2.0371
-5.9539 -8.1531 2.0371
-5.3123 -8.6599 2.0371
-4.6290 -9.1186 2.0371
-3.9074 -9.5254 2.0371
-3.1510 -9.8770 2.0371
-0.6327 -2.7217 0.5452
-0.4168 -2.7961 0.5476
-0.1932 -2.8545 0.5502
0.0370 -2.8960 0.5530
0.2727 -2.9197 0.5559
0.5125 -2.9248 0.5590
0.7549 -2.9106 0.5621
0.9983 -2.8765 0.5654
1.2410 -2.8219 0.5687
3.6624 -6.7910 1.4147
5.6267 -8.6857 1.8864
6.3766 -8.3005 1.8975
7.0960 -7.8455 1.9080
7.7773 -7.3228 1.9179
8.4128 -6.7353 1.9269
8.9952 -6.0871 1.9350
6.7232 -3.8027 1.3720
9.9734 -4.6293 1.9482
10.3572 -3.8324 1.9531
10.6638 -3.0000 1.9567
10.8896 -2.1403 1.9590
11.0317 -1.2621 1.9601
11.0886 -0.3743 1.9598
11.0598 0.5138 1.9581
10.9461 1.3932 1.9552
-0.4740 -2.4037 0.5486
-0.2823 -2.4593 0.5508
-0.0848 -2.5004 0.5531
0.1174 -2.5262 0.5556
0.3232 -2.5362 0.5582
0.5314 -2.5296 0.5609
0.7406 -2.5061 0.5637
0.9494 -2.4652 0.5665
1.1562 -2.4067 0.5694
1.3595 -2.3304 0.5724
5.1023 -7.3266 1.8847
5.7007 -6.9281 1.8852
6.2924 -6.5062 1.8938
6.8479 -6.0295 1.9017
7.3614 -5.5012 1.9090
7.8273 -4.9250 1.9154
7.1412 -3.7313 1.6648
8.5955 -3.6478 1.9256
8.8889 -2.9577 1.9292
9.1171 -2.2417 1.9318
9.2773 -1.5064 1.9333
9.3679 -0.7590 1.9337
9.3880 -0.0067 1.9330
9.3375 0.7431 1.9312
9.2174 1.4832 1.9283
7.7619 1.8969 1.6543
8.7767 2.9069 1.9196
8.4621 3.5776 1.9138
8.0897 4.2133 1.9072
7.6643 4.8087 1.8998
7.1907 5.3598 1.8918
6.6743 5.8627 1.8831
6.1560 6.3508 1.8847
5.5961 6.7862 1.8847
5.0051 7.1717 1.8847
4.7424 8.1120 2.0371
4.0516 8.4147 2.0371
3.3425 8.6586 2.0371
2.6201 8.8430 2.0371
1.8897 8.9679 2.0371
1.1561 9.0334 2.0371
0.4240 9.0401 2.0371
-0.3020 8.9892 2.0371
-1.0174 8.8819 2.0371
-1.7181 8.7198 2.0371
-2.4002 8.5048 2.0371
-3.0599 8.2390 2.0371
-3.6938 7.9248 2.0371
-4.2986 7.5646 2.0371
-4.8714 7.1610 2.0371
-5.4094 6.7170 2.0371
-5.9101 6.2353 2.0371
-6.3713 5.7191 2.0371
-6.7907 5.1712 2.0371
-7.1666 4.5950 2.0371
-7.4974 3.9937 2.0371
-7.7816 3.3704 2.0371
-8.0180 2.7286 2.0371
-8.2054 2.0716 2.0371
-8.3432 1.4027 2.0371
-8.4305 0.7255 2.0371
-8.4670 0.0434 2.0371
-8.4524 -0.6402 2.0371
-8.3865 -1.3216 2.0371
-8.2695 -1.9975 2.0371
-8.1017 -2.6642 2.0371
-7.8836 -3.3181 2.0371
-7.6160 -3.9557 2.0371
-7.2998 -4.5735 2.0371
-6.9362 -5.1678 2.0371
-6.5267 -5.7352 2.0371
-6.0729 -6.2721 2.0371
-5.5768 -6.7750 2.0371
-5.0407 -7.2406 2.0371
-4.4670 -7.6656 2.0371
-3.8586 -8.0468 2.0371
-3.2185 -8.3812 2.0371
-0.6838 -2.3237 0.5462
-0.4999 -2.3950 0.5483
-0.3091 -2.4525 0.5505
-0.1123 -2.4957 0.5528
0.0893 -2.5236 0.5553
0.2947 -2.5358 0.5578
0.5027 -2.5315 0.5605
0.7118 -2.5103 0.5633
0.9208 -2.4718 0.5661
1.1280 -2.4158 0.5690
1.3318 -2.3420 0.5720
5.0178 -7.3775 1.8847
5.6168 -6.9817 1.8840
6.2129 -6.5675 1.8926
6.7738 -6.0983 1.9007
7.2935 -5.5769 1.9080
7.7662 -5.0070 1.9146
6.9737 -3.7422 1.6357
8.5502 -3.7404 1.9250
8.8523 -3.0544 1.9288
9.0896 -2.3415 1.9315
9.2594 -1.6085 1.9331
9.3596 -0.8623 1.9337
9.3894 -0.1103 1.9331
9.3486 0.6403 1.9315
9.2380 1.3822 1.9288
7.8323 1.8228 1.6643
8.8153 2.8121 1.9203
8.5089 3.4873 1.9147
8.1443 4.1280 1.9082
7.7258 4.7293 1.9009
7.2585 5.2867 1.8929
6.7478 5.7964 1.8843
6.2303 6.2870 1.8847
5.6751 6.7292 1.8847
5.0881 7.1217 1.8847
4.7731 7.9611 2.0107
4.1479 8.3765 2.0371
3.4409 8.6285 2.0371
2.7202 8.8212 2.0371
1.9905 8.9542 2.0371
1.2570 9.0278 2.0371
0.5245 9.0426 2.0371
-0.2026 8.9996 2.0371
-0.9197 8.8999 2.0371
-1.6227 8.7453 2.0371
-2.3076 8.5374 2.0371
-2.9706 8.2785 2.0371
-3.6082 7.9708 2.0371
-4.2172 7.6168 2.0371
-4.7946 7.2190 2.0371
-5.3376 6.7804 2.0371
-5.8435 6.3038 2.0371
-6.3102 5.7921 2.0371
-6.7355 5.2484 2.0371
-7.1176 4.6759 2.0371
-7.4546 4.0778 2.0371
-7.7453 3.4574 2.0371
-7.9883 2.8179 2.0371
-8.1826 2.1628 2.0371
-8.3272 1.4954 2.0371
-8.4215 0.8191 2.0371
-8.4650 0.1374 2.0371
-8.4574 -0.5461 2.0371
-8.3986 -1.2281 2.0371
-8.2886 -1.9049 2.0371
-8.1278 -2.5731 2.0371
-7.9166 -3.2290 2.0371
-7.6558 -3.8691 2.0371
-7.3462 -4.4898 2.0371
-6.9890 -5.0876 2.0371
-6.5857 -5.6588 2.0371
-6.1379 -6.2001 2.0371
-5.6475 -6.7079 2.0371
-5.1168 -7.1789 2.0371
-4.5481 -7.6097 2.0371
-3.9442 -7.9971 2.0371
-3.3083 -8.3381 2.0371
-2.6437 -8.6298 2.0371
-0.5256 -2.3860 0.5480
-0.3357 -2.4454 0.5502
-0.1397 -2.4906 0.5525
0.0613 -2.5207 0.5549
0.2663 -2.5351 0.5575
0.4740 -2.5331 0.5602
0.6830 -2.5143 0.5629
0.8921 -2.4782 0.5657
1.0996 -2.4245 0.5686
1.3040 -2.3532 0.5716
1.5036 -2.2641 0.5745
5.5380 -7.0416 1.8847
6.1328 -6.6279 1.8915
6.6989 -6.1660 1.8996
7.2246 -5.6516 1.9071
7.7041 -5.0882 1.9137
7.0147 -3.8645 1.6558
8.5037 -3.8323 1.9244
8.8145 -3.1505 1.9283
9.0609 -2.4410 1.9312
9.2401 -1.7103 1.9330
9.3500 -0.9655 1.9337
9.3895 -0.2139 1.9333
9.3584 0.5373 1.9318
9.2573 1.2809 1.9292
7.8337 1.7322 1.6599
7.6092 2.3352 1.6512
8.5546 3.3963 1.9155
8.1977 4.0421 1.9091
7.7864 4.6491 1.9019
7.3256 5.2127 1.8940
6.8204 5.7292 1.8855
6.3040 6.2224 1.8847
5.7536 6.6712 1.8847
5.1707 7.0707 1.8847
4.7624 7.7480 1.9684
4.2438 8.3372 2.0371
3.5392 8.5974 2.0371
2.8200 8.7982 2.0371
2.0913 8.9394 2.0371
1.3580 9.0212 2.0371
0.6251 9.0441 2.0371
-0.1030 9.0089 2.0371
-0.8218 8.9170 2.0371
-1.5269 8.7698 2.0371
-2.2145 8.5691 2.0371
-2.8807 8.3171 2.0371
-3.5221 8.0160 2.0371
-4.1352 7.6681 2.0371
-4.7171 7.2763 2.0371
-5.2650 6.8431 2.0371
-5.7762 6.3715 2.0371
-6.2484 5.8644 2.0371
-6.6795 5.3250 2.0371
-7.0676 4.7563 2.0371
-7.4110 4.1615 2.0371
-7.7081 3.5440 2.0371
-7.9577 2.9069 2.0371
-8.1588 2.2537 2.0371
-8.3103 1.5878 2.0371
-8.4116 0.9126 2.0371
-8.4621 0.2315 2.0371
-8.4615 -0.4521 2.0371
-8.4097 -1.1344 2.0371
-8.3068 -1.8122 2.0371
-8.1529 -2.4818 2.0371
-7.9486 -3.1396 2.0371
-7.6946 -3.7821 2.0371
-7.3916 -4.4056 2.0371
-7.0410 -5.0068 2.0371
-6.6439 -5.5819 2.0371
-6.2021 -6.1275 2.0371
-5.7175 -6.6401 2.0371
-5.1921 -7.1164 2.0371
-4.6285 -7.5529 2.0371
-4.0293 -7.9465 2.0371
-3.3976 -8.2940 2.0371
-2.7367 -8.5927 2.0371
-0.5512 -2.3767 0.5477
-0.3622 -2.4381 0.5499
-0.1670 -2.4853 0.5522
0.0334 -2.5175 0.5546
0.2379 -2.5340 0.5571
0.4453 -2.5343 0.5598
0.6542 -2.5179 0.5625
0.8634 -2.4842 0.5654
1.0712 -2.4330 0.5682
1.2761 -2.3640 0.5712
1.4765 -2.2774 0.5741
5.4565 -7.0979 1.8847
6.0521 -6.6871 1.8903
6.6233 -6.2328 1.8985
7.1549 -5.7254 1.9061
7.6411 -5.1685 1.9129
7.0091 -3.9628 1.6652
8.4561 -3.9236 1.9238
8.7755 -3.2462 1.9278
9.0310 -2.5400 1.9308
9.2195 -1.8118 1.9328
9.3390 -1.0686 1.9336
9.3882 -0.3174 1.9334
9.3668 0.4343 1.9320
9.2753 1.1792 1.9296
-0.4188 -2.1293 0.5505
-0.2487 -2.1761 0.5524
-0.0739 -2.2098 0.5545
0.1047 -2.2299 0.5567
0.2860 -2.2358 0.5590
0.4690 -2.2272 0.5614
0.6523 -2.2037 0.5639
0.8453 -2.1921 0.5735
1.0652 -2.2149 0.5970
1.3080 -2.2402 0.6271
4.4774 -6.4243 1.8847
4.9980 -6.0700 1.8847
5.4886 -5.6717 1.8847
5.9518 -5.2377 1.8868
6.3920 -4.7744 1.8930
6.7907 -4.2709 1.8985
7.1438 -3.7312 1.9032
7.4474 -3.1595 1.9072
7.6982 -2.5608 1.9102
7.8934 -1.9404 1.9124
8.0309 -1.3040 1.9137
8.1093 -0.6573 1.9140
8.1278 -0.0064 1.9135
8.0865 0.6426 1.9119
7.9861 1.2838 1.9095
7.8279 1.9114 1.9062
7.6141 2.5199 1.9021
7.3473 3.1040 1.8972
7.0307 3.6590 1.8916
6.6679 4.1806 1.8852
6.2843 4.6807 1.8847
5.8635 5.1465 1.8847
5.4071 5.5737 1.8847
4.9189 5.9598 1.8847
4.6643 6.6769 1.9966
4.1750 7.1338 2.0371
3.5699 7.4053 2.0371
2.9478 7.6253 2.0371
2.3133 7.7934 2.0371
1.6707 7.9090 2.0371
1.0243 7.9724 2.0371
0.3784 7.9840 2.0371
-0.2630 7.9445 2.0371
-0.8959 7.8549 2.0371
-1.5167 7.7165 2.0371
-2.1217 7.5309 2.0371
-2.7075 7.2998 2.0371
-3.2710 7.0253 2.0371
-3.8093 6.7095 2.0371
-4.3195 6.3547 2.0371
-4.7992 5.9633 2.0371
-5.2459 5.5376 2.0371
-5.6575 5.0812 2.0371
-6.0322 4.5959 2.0371
-6.3681 4.0848 2.0371
-6.6637 3.5510 2.0371
-6.9177 2.9973 2.0371
-7.1289 2.4267 2.0371
-7.2962 1.8424 2.0371
-7.4190 1.2474 2.0371
-7.4966 0.6449 2.0371
-7.5286 0.0380 2.0371
-7.5146 -0.5700 2.0371
-7.4548 -1.1760 2.0371
-7.3492 -1.7767 2.0371
-7.1981 -2.3688 2.0371
-7.0021 -2.9492 2.0371
-6.7619 -3.5146 2.0371
-6.4784 -4.0618 2.0371
-6.1528 -4.5876 2.0371
-5.7865 -5.0887 2.0371
-5.3811 -5.5622 2.0371
-4.9385 -6.0048 2.0371
-4.4608 -6.4137 2.0371
-3.9502 -6.7860 2.0371
-3.4094 -7.1189 2.0371
-2.8413 -7.4098 2.0371
-0.6054 -2.0610 0.5484
-0.4418 -2.1219 0.5502
-0.2724 -2.1704 0.5522
-0.0982 -2.2059 0.5542
0.0799 -2.2279 0.5564
0.2610 -2.2359 0.5587
0.4437 -2.2293 0.5611
0.6271 -2.2078 0.5635
0.8165 -2.1891 0.5707
1.0338 -2.2117 0.5934
1.2730 -2.2365 0.6225
4.4036 -6.4695 1.8847
4.9280 -6.1214 1.8847
5.4230 -5.7290 1.8847
5.8883 -5.2982 1.8859
6.3338 -4.8407 1.8922
6.7384 -4.3425 1.8978
6.9197 -3.7118 1.8548
7.4087 -3.2399 1.9067
7.6669 -2.6446 1.9099
7.8699 -2.0269 1.9122
8.0155 -1.3923 1.9136
8.1021 -0.7467 1.9141
8.1289 -0.0960 1.9136
8.0957 0.5536 1.9122
8.0034 1.1962 1.9099
7.8530 1.8261 1.9067
7.6467 2.4375 1.9027
7.3870 3.0253 1.8979
7.0771 3.5845 1.8924
6.7205 4.1109 1.8862
6.3393 4.6138 1.8847
5.9237 5.0846 1.8847
5.4719 5.5173 1.8847
4.9879 5.9092 1.8847
4.6565 6.5115 1.9610
4.2567 7.0925 2.0371
3.6543 7.3710 2.0371
3.0343 7.5981 2.0371
2.4012 7.7733 2.0371
1.7594 7.8962 2.0371
1.1133 7.9668 2.0371
0.4671 7.9855 2.0371
-0.1751 7.9529 2.0371
-0.8095 7.8701 2.0371
-1.4321 7.7384 2.0371
-2.0395 7.5591 2.0371
-2.6281 7.3343 2.0371
-3.1949 7.0656 2.0371
-3.7368 6.7554 2.0371
-4.2510 6.4057 2.0371
-4.7350 6.0192 2.0371
-5.1864 5.5984 2.0371
-5.6030 5.1458 2.0371
-5.9829 4.6642 2.0371
-6.3242 4.1566 2.0371
-6.6255 3.6257 2.0371
-6.8853 3.0745 2.0371
-7.1024 2.5061 2.0371
-7.2758 1.9235 2.0371
-7.4048 1.3298 2.0371
-7.4887 0.7284 2.0371
-7.5269 0.1217 2.0371
-7.5193 -0.4864 2.0371
-7.4658 -1.0928 2.0371
-7.3664 -1.6944 2.0371
-7.2216 -2.2879 2.0371
-7.0317 -2.8702 2.0371
-6.7975 -3.4378 2.0371
-6.5199 -3.9877 2.0371
-6.2001 -4.5166 2.0371
-5.8393 -5.0213 2.0371
-5.4392 -5.4988 2.0371
-5.0016 -5.9458 2.0371
-4.5285 -6.3596 2.0371
-4.0223 -6.7371 2.0371
-3.4855 -7.0755 2.0371
-2.9210 -7.3724 2.0371
-0.6274 -2.0517 0.5481
-0.4647 -2.1142 0.5499
-0.2960 -2.1645 0.5519
-0.1224 -2.2018 0.5539
0.0552 -2.2257 0.5561
0.2359 -2.2356 0.5584
0.4185 -2.2311 0.5607
0.6019 -2.2116 0.5632
0.7880 -2.1862 0.5680
1.0027 -2.2084 0.5899
1.2385 -2.2329 0.6181
1.5023 -2.2604 0.6540
4.8575 -6.1720 1.8847
5.3568 -5.7856 1.8847
5.8240 -5.3578 1.8850
6.2748 -4.9061 1.8914
6.6853 -4.4133 1.8971
6.9246 -3.8133 1.8678
7.3690 -3.3198 1.9062
7.6346 -2.7280 1.9095
7.8453 -2.1130 1.9119
7.9989 -1.4804 1.9134
8.0937 -0.8360 1.9140
8.1287 -0.1857 1.9137
8.1039 0.4645 1.9125
8.0196 1.1084 1.9103
7.8771 1.7404 1.9072
7.6783 2.3546 1.9033
7.4258 2.9460 1.8986
7.1226 3.5094 1.8932
6.7722 4.0406 1.8871
6.3934 4.5461 1.8847
5.9831 5.0220 1.8847
5.5361 5.4601 1.8847
5.0563 5.8577 1.8847
4.6490 6.3515 1.9268
4.3380 7.0502 2.0371
3.7383 7.3356 2.0371
3.1205 7.5699 2.0371
2.4890 7.7523 2.0371
1.8481 7.8824 2.0371
1.2024 7.9602 2.0371
0.5559 7.9860 2.0371
-0.0871 7.9604 2.0371
-0.7228 7.8844 2.0371
-1.3472 7.7593 2.0371
-1.9569 7.5866 2.0371
-2.5483 7.3678 2.0371
-3.1183 7.1051 2.0371
-3.6638 6.8004 2.0371
-4.1820 6.4561 2.0371
-4.6703 6.0745 2.0371
-5.1263 5.6582 2.0371
-5.5478 5.2099 2.0371
-5.9328 4.7321 2.0371
-6.2796 4.2279 2.0371
-6.5864 3.7000 2.0371
-6.8520 3.1515 2.0371
-7.0751 2.5853 2.0371
-7.2546 2.0044 2.0371
-7.3897 1.4121 2.0371
-7.4798 0.8113 2.0371
-7.5243 0.2053 2.0371
-7.5231 -0.4027 2.0371
-7.4759 -1.0095 2.0371
-7.3828 -1.6120 2.0371
-7.2442 -2.2069 2.0371
-7.0605 -2.7908 2.0371
-6.8323 -3.3607 2.0371
-6.5607 -3.9132 2.0371
-6.2466 -4.4452 2.0371
-5.8913 -4.9534 2.0371
-5.4965 -5.4348 2.0371
-5.0640 -5.8862 2.0371
-4.5956 -6.3047 2.0371
-4.0939 -6.6874 2.0371
-3.5611 -7.0314 2.0371
-3.0002 -7.3341 2.0371
-0.6493 -2.0422 0.5479
-0.4874 -2.1063 0.5497
-0.3196 -2.1583 0.5516
-0.1466 -2.1975 0.5537
0.0306 -2.2233 0.5558
0.2109 -2.2351 0.5581
0.3933 -2.2326 0.5604
0.5767 -2.2152 0.5628
0.7598 -2.1832 0.5654
0.9720 -2.2053 0.5865
1.2046 -2.2294 0.6138
1.4640 -2.2564 0.6485
4.7864 -6.2218 1.8847
5.2899 -5.8413 1.8847
5.7591 -5.4165 1.8841
6.2150 -4.9708 1.8905
6.6314 -4.4835 1.8963
7.0038 -3.9582 1.9014
7.3283 -3.3991 1.9056
7.6012 -2.8109 1.9091
7.8197 -2.1989 1.9116
7.9812 -1.5683 1.9133
8.0842 -0.9252 1.9140
8.1275 -0.2753 1.9138
8.1108 0.3752 1.9127
8.0346 1.0204 1.9106
-0.4047 -2.0632 0.5968
-0.2367 -2.0805 0.5913
-0.0691 -2.0978 0.5897
0.1004 -2.1153 0.5919
0.2740 -2.1333 0.5982
0.4542 -2.1519 0.6086
0.6439 -2.1716 0.6238
0.8466 -2.1926 0.6443
1.0666 -2.2155 0.6710
1.3095 -2.2407 0.7053
3.9834 -5.7111 1.8847
4.4442 -5.3938 1.8847
4.8782 -5.0379 1.8847
5.2818 -4.6456 1.8847
5.6518 -4.2196 1.8847
5.9873 -3.7640 1.8854
6.2951 -3.2866 1.8895
6.5596 -2.7819 1.8929
6.7781 -2.2541 1.8956
6.9484 -1.7078 1.8975
7.0686 -1.1477 1.8986
7.1376 -0.5788 1.8989
7.1547 -0.0062 1.8984
7.1199 0.5649 1.8971
7.0339 1.1296 1.8950
6.8977 1.6829 1.8922
6.7130 2.2200 1.8886
6.4820 2.7364 1.8843
6.2247 3.2372 1.8847
5.9259 3.7126 1.8847
5.5892 4.1598 1.8847
5.2175 4.5759 1.8847
4.8140 4.9582 1.8847
4.5708 5.5331 1.9659
4.2418 6.0664 2.0371
3.7239 6.3563 2.0371
3.1865 6.6018 2.0371
2.6334 6.8019 2.0371
2.0684 6.9557 2.0371
1.4957 7.0630 2.0371
0.9189 7.1237 2.0371
0.3419 7.1380 2.0371
-0.2317 7.1066 2.0371
-0.7984 7.0302 2.0371
-1.3547 6.9099 2.0371
-1.8975 6.7470 2.0371
-2.4236 6.5432 2.0371
-2.9301 6.2999 2.0371
-3.4142 6.0193 2.0371
-3.8736 5.7031 2.0371
-4.3056 5.3538 2.0371
-4.7083 4.9735 2.0371
-5.0796 4.5646 2.0371
-5.4176 4.1297 2.0371
-5.7207 3.6712 2.0371
-5.9876 3.1919 2.0371
-6.2168 2.6945 2.0371
-6.4074 2.1817 2.0371
-6.5583 1.6564 2.0371
-6.6689 1.1213 2.0371
-6.7386 0.5794 2.0371
-6.7670 0.0337 2.0371
-6.7538 -0.5131 2.0371
-6.6991 -1.0578 2.0371
-6.6030 -1.5976 2.0371
-6.4658 -2.1295 2.0371
-6.2881 -2.6505 2.0371
-6.0705 -3.1576 2.0371
-5.8140 -3.6479 2.0371
-5.5197 -4.1186 2.0371
-5.1889 -4.5667 2.0371
-4.8231 -4.9894 2.0371
-4.4241 -5.3841 2.0371
-3.9939 -5.7480 2.0371
-3.5346 -6.0786 2.0371
-3.0487 -6.3735 2.0371
-2.5387 -6.6304 2.0371
-0.5991 -2.0432 0.6079
-0.4280 -2.0608 0.5979
-0.2598 -2.0782 0.5918
-0.0922 -2.0954 0.5897
0.0769 -2.1129 0.5914
0.2497 -2.1308 0.5971
0.4289 -2.1493 0.6069
0.6171 -2.1688 0.6214
0.8178 -2.1896 0.6411
1.0351 -2.2122 0.6670
1.2745 -2.2371 0.7001
3.9181 -5.7516 1.8847
4.3823 -5.4398 1.8847
4.8202 -5.0891 1.8847
5.2282 -4.7016 1.8847
5.6030 -4.2800 1.8847
5.9416 -3.8272 1.8847
6.2552 -3.3540 1.8890
6.5259 -2.8528 1.8925
6.7509 -2.3280 1.8953
6.9279 -1.7839 1.8973
7.0551 -1.2254 1.8985
7.1311 -0.6574 1.8989
7.1554 -0.0851 1.8985
7.1278 0.4866 1.8973
7.0488 1.0525 1.8953
6.9193 1.6076 1.8926
6.7412 2.1472 1.8891
6.5164 2.6667 1.8849
6.2628 3.1698 1.8847
5.9693 3.6488 1.8847
5.6376 4.1001 1.8847
5.2706 4.5206 1.8847
4.8713 4.9077 1.8847
4.5650 5.4035 1.9365
4.3113 6.0231 2.0371
3.7965 6.3190 2.0371
3.2615 6.5707 2.0371
2.7103 6.7771 2.0371
2.1468 6.9373 2.0371
1.5748 7.0510 2.0371
0.9984 7.1181 2.0371
0.4212 7.1388 2.0371
-0.1531 7.1136 2.0371
-0.7210 7.0433 2.0371
-1.2789 6.9290 2.0371
-1.8237 6.7719 2.0371
-2.3522 6.5736 2.0371
-2.8616 6.3357 2.0371
-3.3490 6.0600 2.0371
-3.8119 5.7487 2.0371
-4.2479 5.4038 2.0371
-4.6547 5.0276 2.0371
-5.0304 4.6225 2.0371
-5.3731 4.1910 2.0371
-5.6811 3.7356 2.0371
-5.9531 3.2591 2.0371
-6.1876 2.7640 2.0371
-6.3835 2.2531 2.0371
-6.5399 1.7293 2.0371
-6.6561 1.1954 2.0371
-6.7315 0.6543 2.0371
-6.7655 0.1089 2.0371
-6.7581 -0.4379 2.0371
-6.7091 -0.9831 2.0371
-6.6187 -1.5237 2.0371
-6.4871 -2.0569 2.0371
-6.3149 -2.5795 2.0371
-6.1028 -3.0887 2.0371
-5.8516 -3.5815 2.0371
-5.5624 -4.0551 2.0371
-5.2365 -4.5065 2.0371
-4.8754 -4.9329 2.0371
-4.4809 -5.3316 2.0371
-4.0549 -5.6998 2.0371
-3.5994 -6.0352 2.0371
-3.1170 -6.3352 2.0371
-2.6102 -6.5974 2.0371
-0.6230 -2.0408 0.6096
-0.4513 -2.0584 0.5990
-0.2828 -2.0758 0.5924
-0.1153 -2.0931 0.5898
0.0534 -2.1105 0.5909
0.2256 -2.1283 0.5960
0.4038 -2.1467 0.6053
0.5906 -2.1661 0.6191
0.7893 -2.1867 0.6381
1.0041 -2.2090 0.6630
1.2400 -2.2335 0.6950
1.5040 -2.2610 0.7358
4.3199 -5.4851 1.8847
4.7616 -5.1396 1.8847
5.1739 -4.7570 1.8847
5.5535 -4.3400 1.8847
5.8955 -3.8901 1.8841
6.2146 -3.4209 1.8884
6.4913 -2.9233 1.8921
6.7227 -2.4014 1.8949
6.9064 -1.8598 1.8970
7.0406 -1.3030 1.8984
7.1237 -0.7360 1.8989
7.1552 -0.1639 1.8986
7.1347 0.4082 1.8975
7.0626 0.9751 1.8957
6.9401 1.5320 1.8930
6.7685 2.0740 1.8896
6.5500 2.5966 1.8856
6.3000 3.1018 1.8847
6.0120 3.5844 1.8847
5.6855 4.0397 1.8847
5.3231 4.4646 1.8847
4.9281 4.8565 1.8847
4.5594 5.2775 1.9081
4.3804 5.9789 2.0371
3.8686 6.2808 2.0371
3.3362 6.5387 2.0371
2.7869 6.7514 2.0371
2.2249 6.9180 2.0371
1.6539 7.0381 2.0371
1.0779 7.1116 2.0371
0.5005 7.1387 2.0371
-0.0744 7.1197 2.0371
-0.6433 7.0556 2.0371
-1.2028 6.9473 2.0371
-1.7496 6.7960 2.0371
-2.2806 6.6033 2.0371
-2.7927 6.3707 2.0371
-3.2833 6.1001 2.0371
-3.7497 5.7936 2.0371
-4.1895 5.4532 2.0371
-4.6005 5.0811 2.0371
-4.9806 4.6799 2.0371
-5.3280 4.2518 2.0371
-5.6409 3.7996 2.0371
-5.9178 3.3258 2.0371
-6.1575 2.8331 2.0371
-6.3589 2.3243 2.0371
-6.5208 1.8021 2.0371
-6.6426 1.2694 2.0371
-6.7235 0.7291 2.0371
-6.7633 0.1841 2.0371
-6.7616 -0.3626 2.0371
-6.7183 -0.9082 2.0371
-6.6336 -1.4497 2.0371
-6.5077 -1.9840 2.0371
-6.3410 -2.5083 2.0371
-6.1343 -3.0195 2.0371
-5.8884 -3.5148 2.0371
-5.6044 -3.9912 2.0371
-5.2835 -4.4458 2.0371
-4.9272 -4.8758 2.0371
-4.5371 -5.2784 2.0371
-4.1153 -5.6511 2.0371
-3.6638 -5.9911 2.0371
-3.1849 -6.2961 2.0371
-2.6813 -6.5636 2.0371
-0.6470 -2.0383 0.6114
-0.4747 -2.0560 0.6002
-0.3059 -2.0734 0.5931
-0.1384 -2.0907 0.5899
0.0300 -2.1081 0.5905
0.2016 -2.1258 0.5951
0.3788 -2.1441 0.6038
0.5642 -2.1633 0.6169
0.7611 -2.1838 0.6352
0.9734 -2.2058 0.6592
1.2060 -2.2300 0.6901
1.4657 -2.2570 0.7296
4.2570 -5.5296 1.8847
4.7025 -5.1894 1.8847
5.1190 -4.8118 1.8847
5.5033 -4.3993 1.8847
5.8484 -3.9523 1.8835
6.1731 -3.4873 1.8879
6.4558 -2.9933 1.8916
6.6936 -2.4746 1.8946
6.8841 -1.9353 1.8968
7.0251 -1.3803 1.8982
7.1153 -0.8144 1.8989
7.1539 -0.2428 1.8987
7.1406 0.3296 1.8977
7.0756 0.8976 1.8960
-0.4037 -2.0637 0.6614
-0.2357 -2.0810 0.6556
-0.0680 -2.0983 0.6541
0.1015 -2.1158 0.6569
0.2751 -2.1338 0.6641
0.4554 -2.1524 0.6761
0.6452 -2.1721 0.6932
0.8480 -2.1932 0.7163
1.0681 -2.2161 0.7464
1.3111 -2.2414 0.7848
3.6465 -5.2239 1.9184
3.9952 -4.8454 1.8847
4.3836 -4.5243 1.8847
4.7446 -4.1708 1.8847
5.0755 -3.7873 1.8847
5.3734 -3.3766 1.8847
5.6361 -2.9414 1.8847
5.8613 -2.4849 1.8847
6.0448 -2.0097 1.8839
6.1955 -1.5225 1.8856
6.3021 -1.0232 1.8866
6.3635 -0.5163 1.8868
6.3794 -0.0060 1.8864
6.3496 0.5031 1.8853
6.2745 1.0067 1.8834
6.1676 1.5034 1.8847
6.0152 1.9877 1.8847
5.8229 2.4564 1.8847
5.5924 2.9063 1.8847
5.3257 3.3342 1.8847
5.0251 3.7371 1.8847
4.6929 4.1125 1.8847
4.4940 4.6248 1.9552
4.2639 5.1570 2.0371
3.8208 5.4589 2.0371
3.3562 5.7224 2.0371
2.8736 5.9462 2.0371
2.3765 6.1292 2.0371
1.8682 6.2708 2.0371
1.3524 6.3705 2.0371
0.8325 6.4282 2.0371
0.3119 6.4441 2.0371
-0.2061 6.4186 2.0371
-0.7183 6.3524 2.0371
-1.2215 6.2464 2.0371
-1.7129 6.1017 2.0371
-2.1896 5.9196 2.0371
-2.6488 5.7016 2.0371
-3.0882 5.4495 2.0371
-3.5052 5.1650 2.0371
-3.8977 4.8500 2.0371
-4.2637 4.5067 2.0371
-4.6013 4.1372 2.0371
-4.9088 3.7437 2.0371
-5.1846 3.3287 2.0371
-5.4274 2.8945 2.0371
-5.6360 2.4436 2.0371
-5.8094 1.9787 2.0371
-5.9466 1.5022 2.0371
-6.0471 1.0168 2.0371
-6.1102 0.5252 2.0371
-6.1357 0.0300 2.0371
-6.1233 -0.4659 2.0371
-6.0730 -0.9599 2.0371
-5.9850 -1.4494 2.0371
-5.8595 -1.9313 2.0371
-5.6972 -2.4032 2.0371
-5.4986 -2.8623 2.0371
-5.2647 -3.3058 2.0371
-4.9966 -3.7311 2.0371
-4.6954 -4.1357 2.0371
-4.3627 -4.5170 2.0371
-4.0001 -4.8724 2.0371
-3.6094 -5.1997 2.0371
-3.1926 -5.4966 2.0371
-2.7521 -5.7608 2.0371
-2.2902 -5.9903 2.0371
-0.5981 -2.0437 0.6733
-0.4270 -2.0613 0.6625
-0.2588 -2.0786 0.6561
-0.0912 -2.0959 0.6541
0.0779 -2.1134 0.6562
0.2509 -2.1313 0.6628
0.4301 -2.1498 0.6741
0.6184 -2.1693 0.6905
0.8191 -2.1902 0.7128
1.0366 -2.2128 0.7418
1.2760 -2.2377 0.7789
3.6329 -5.3287 1.9430
3.9397 -4.8870 1.8847
4.3317 -4.5704 1.8847
4.6967 -4.2213 1.8847
5.0318 -3.8418 1.8847
5.3345 -3.4346 1.8847
5.6021 -3.0026 1.8847
5.8326 -2.5489 1.8847
6.0207 -2.0756 1.8836
6.1773 -1.5903 1.8854
6.2900 -1.0925 1.8865
6.3578 -0.5863 1.8868
6.3799 -0.0763 1.8865
6.3564 0.4332 1.8855
6.2875 0.9378 1.8837
6.1854 1.4359 1.8847
6.0386 1.9218 1.8847
5.8517 2.3929 1.8847
5.6264 2.8456 1.8847
5.3645 3.2767 1.8847
5.0684 3.6833 1.8847
4.7404 4.0626 1.8847
4.4894 4.5194 1.9304
4.3230 5.1125 2.0371
3.8831 5.4196 2.0371
3.4213 5.6885 2.0371
2.9410 5.9178 2.0371
2.4456 6.1065 2.0371
1.9387 6.2538 2.0371
1.4237 6.3593 2.0371
0.9042 6.4228 2.0371
0.3835 6.4444 2.0371
-0.1350 6.4246 2.0371
-0.6482 6.3639 2.0371
-1.1529 6.2633 2.0371
-1.6461 6.1238 2.0371
-2.1249 5.9468 2.0371
-2.5868 5.7337 2.0371
-3.0290 5.4862 2.0371
-3.4492 5.2060 2.0371
-3.8452 4.8951 2.0371
-4.2150 4.5556 2.0371
-4.5566 4.1895 2.0371
-4.8683 3.7992 2.0371
-5.1486 3.3870 2.0371
-5.3960 2.9553 2.0371
-5.6094 2.5066 2.0371
-5.7876 2.0434 2.0371
-5.9299 1.5684 2.0371
-6.0355 1.0840 2.0371
-6.1038 0.5931 2.0371
-6.1345 0.0983 2.0371
-6.1273 -0.3977 2.0371
-6.0822 -0.8922 2.0371
-5.9993 -1.3823 2.0371
-5.8790 -1.8655 2.0371
-5.7217 -2.3390 2.0371
-5.5281 -2.7999 2.0371
-5.2990 -3.2458 2.0371
-5.0355 -3.6738 2.0371
-4.7388 -4.0814 2.0371
-4.4103 -4.4660 2.0371
-4.0517 -4.8251 2.0371
-3.6647 -5.1564 2.0371
-3.2514 -5.4576 2.0371
-2.8140 -5.7264 2.0371
-2.3549 -5.9609 2.0371
-0.6220 -2.0413 0.6751
-0.4503 -2.0589 0.6637
-0.2818 -2.0763 0.6567
-0.1143 -2.0935 0.6541
0.0545 -2.1110 0.6557
0.2267 -2.1288 0.6617
0.4049 -2.1472 0.6723
0.5918 -2.1666 0.6879
0.7906 -2.1872 0.7093
1.0055 -2.2096 0.7373
1.2415 -2.2341 0.7732
3.6188 -5.4359 1.9684
3.8838 -4.9279 1.8847
4.2793 -4.6160 1.8847
4.6481 -4.2712 1.8847
4.9876 -3.8957 1.8847
5.2948 -3.4922 1.8847
5.5675 -3.0634 1.8847
5.8032 -2.6125 1.8847
5.9958 -2.1411 1.8833
6.1584 -1.6580 1.8852
6.2772 -1.1616 1.8864
6.3512 -0.6563 1.8868
6.3796 -0.1466 1.8866
6.3623 0.3633 1.8856
6.2996 0.8688 1.8840
6.2024 1.3679 1.8847
6.0612 1.8558 1.8847
5.8797 2.3291 1.8847
5.6596 2.7845 1.8847
5.4026 3.2187 1.8847
5.1111 3.6289 1.8847
4.7873 4.0121 1.8847
4.4849 4.4160 1.9064
4.3817 5.0674 2.0371
3.9451 5.3796 2.0371
3.4861 5.6538 2.0371
3.0081 5.8886 2.0371
2.5146 6.0830 2.0371
2.0090 6.2360 2.0371
1.4950 6.3472 2.0371
0.9759 6.4165 2.0371
0.4551 6.4439 2.0371
-0.0639 6.4297 2.0371
-0.5780 6.3746 2.0371
-1.0840 6.2795 2.0371
-1.5790 6.1453 2.0371
-2.0600 5.9733 2.0371
-2.5243 5.7651 2.0371
-2.9694 5.5222 2.0371
-3.3928 5.2464 2.0371
-3.7922 4.9396 2.0371
-4.1657 4.6039 2.0371
-4.5113 4.2414 2.0371
-4.8272 3.8543 2.0371
-5.1119 3.4449 2.0371
-5.3639 3.0158 2.0371
-5.5821 2.5693 2.0371
-5.7652 2.1079 2.0371
-5.9125 1.6344 2.0371
-6.0232 1.1511 2.0371
-6.0966 0.6610 2.0371
-6.1325 0.1666 2.0371
-6.1305 -0.3295 2.0371
-6.0906 -0.8243 2.0371
-6.0129 -1.3152 2.0371
-5.8977 -1.7995 2.0371
-5.7455 -2.2745 2.0371
-5.5568 -2.7373 2.0371
-5.3326 -3.1854 2.0371
-5.0737 -3.6160 2.0371
-4.7815 -4.0266 2.0371
-4.4574 -4.4145 2.0371
-4.1028 -4.7773 2.0371
-3.7196 -5.1126 2.0371
-3.3098 -5.4180 2.0371
-2.8756 -5.6914 2.0371
-2.4193 -5.9307 2.0371
-0.6460 -2.0388 0.6771
-0.4737 -2.0565 0.6650
-0.3049 -2.0739 0.6574
-0.1374 -2.0911 0.6542
0.0311 -2.1085 0.6552
0.2027 -2.1263 0.6606
0.3800 -2.1446 0.6705
0.5654 -2.1638 0.6855
0.7624 -2.1843 0.7060
0.9748 -2.2064 0.7330
1.2075 -2.2306 0.7678
1.4673 -2.2576 0.8120
3.8357 -4.9768 1.8886
4.2263 -4.6609 1.8847
4.5990 -4.3205 1.8847
4.9427 -3.9491 1.8847
5.2546 -3.5493 1.8847
5.5321 -3.1238 1.8847
5.7730 -2.6757 1.8847
5.9754 -2.2084 1.8847
6.1386 -1.7253 1.8850
6.2635 -1.2305 1.8863
6.3437 -0.7262 1.8868
6.3784 -0.2168 1.8867
6.3674 0.2933 1.8858
6.3109 0.7997 1.8843
-0.4027 -2.0642 0.7271
-0.2347 -2.0815 0.7210
-0.0670 -2.0988 0.7197
0.1026 -2.1163 0.7230
0.2762 -2.1343 0.7312
0.4566 -2.1530 0.7447
0.6464 -2.1727 0.7639
0.7765 -2.0056 0.7219
1.0695 -2.2166 0.8230
1.3126 -2.2420 0.8657
3.5129 -5.0286 2.0371
3.7079 -4.4939 1.9288
3.9740 -4.0990 1.8847
4.3001 -3.7779 1.8847
4.5987 -3.4299 1.8847
4.8677 -3.0574 1.8847
5.1047 -2.6630 1.8847
5.3079 -2.2495 1.8847
5.4758 -1.8200 1.8847
5.6069 -1.3775 1.8847
5.7002 -0.9255 1.8847
5.7550 -0.4671 1.8847
5.7710 -0.0059 1.8847
5.7480 0.4547 1.8847
5.6863 0.9114 1.8847
5.5865 1.3606 1.8847
5.4495 1.7993 1.8847
5.2765 2.2242 1.8847
5.0690 2.6322 1.8847
4.8286 3.0207 1.8847
4.5631 3.3910 1.8870
4.4282 3.8775 1.9602
4.2496 4.3696 2.0371
3.8716 4.6782 2.0371
3.4708 4.9539 2.0371
3.0503 5.1950 2.0371
2.6131 5.4002 2.0371
2.1624 5.5686 2.0371
1.7012 5.6995 2.0371
1.2329 5.7924 2.0371
0.7604 5.8471 2.0371
0.2869 5.8638 2.0371
-0.1846 5.8428 2.0371
-0.6511 5.7847 2.0371
-1.1099 5.6901 2.0371
-1.5581 5.5602 2.0371
-1.9931 5.3961 2.0371
-2.4126 5.1990 2.0371
-2.8141 4.9705 2.0371
-3.1954 4.7123 2.0371
-3.5544 4.4260 2.0371
-3.8894 4.1136 2.0371
-4.1984 3.7771 2.0371
-4.4800 3.4185 2.0371
-4.7326 3.0399 2.0371
-4.9550 2.6437 2.0371
-5.1461 2.2321 2.0371
-5.3049 1.8074 2.0371
-5.4305 1.3721 2.0371
-5.5224 0.9286 2.0371
-5.5801 0.4794 2.0371
-5.6031 0.0270 2.0371
-5.5914 -0.4261 2.0371
-5.5449 -0.8774 2.0371
-5.4638 -1.3243 2.0371
-5.3485 -1.7643 2.0371
-5.1993 -2.1949 2.0371
-5.0170 -2.6135 2.0371
-4.8024 -3.0178 2.0371
-4.5565 -3.4052 2.0371
-4.2806 -3.7734 2.0371
-3.9759 -4.1200 2.0371
-3.6440 -4.4428 2.0371
-3.2867 -4.7397 2.0371
-2.9059 -5.0085 2.0371
-2.5036 -5.2474 2.0371
-0.7639 -2.0011 0.7474
-0.5971 -2.0442 0.7399
-0.4260 -2.0618 0.7283
-0.2577 -2.0791 0.7216
-0.0901 -2.0964 0.7196
0.0790 -2.1139 0.7223
0.2520 -2.1318 0.7298
0.4313 -2.1503 0.7425
0.6196 -2.1699 0.7609
0.7542 -2.0139 0.7222
1.0380 -2.2134 0.8179
1.2776 -2.2383 0.8592
3.4557 -5.0647 2.0371
3.6964 -4.5819 1.9498
3.9272 -4.1410 1.8847
4.2568 -3.8237 1.8847
4.5594 -3.4793 1.8847
4.8325 -3.1100 1.8847
5.0740 -2.7184 1.8847
5.2820 -2.3074 1.8847
5.4548 -1.8799 1.8847
5.5911 -1.4391 1.8847
5.6896 -0.9881 1.8847
5.7498 -0.5305 1.8847
5.7711 -0.0694 1.8847
5.7534 0.3915 1.8847
5.6971 0.8489 1.8847
5.6025 1.2994 1.8847
5.4705 1.7397 1.8847
5.3024 2.1666 1.8847
5.0995 2.5772 1.8847
4.8636 2.9685 1.8847
4.5965 3.3378 1.8847
4.4245 3.7888 1.9390
4.2997 4.3246 2.0371
3.9250 4.6377 2.0371
3.5272 4.9180 2.0371
3.1092 5.1639 2.0371
2.6741 5.3742 2.0371
2.2251 5.5477 2.0371
1.7652 5.6837 2.0371
1.2976 5.7818 2.0371
0.8255 5.8418 2.0371
0.3520 5.8638 2.0371
-0.1199 5.8479 2.0371
-0.5873 5.7949 2.0371
-1.0473 5.7053 2.0371
-1.4971 5.5802 2.0371
-1.9341 5.4206 2.0371
-2.3559 5.2280 2.0371
-2.7599 5.0038 2.0371
-3.1441 4.7495 2.0371
-3.5064 4.4670 2.0371
-3.8448 4.1581 2.0371
-4.1575 3.8248 2.0371
-4.4429 3.4690 2.0371
-4.6996 3.0931 2.0371
-4.9262 2.6992 2.0371
-5.1217 2.2895 2.0371
-5.2850 1.8665 2.0371
-5.4152 1.4326 2.0371
-5.5118 0.9901 2.0371
-5.5742 0.5415 2.0371
-5.6020 0.0894 2.0371
-5.5951 -0.3638 2.0371
-5.5534 -0.8155 2.0371
-5.4771 -1.2631 2.0371
-5.3664 -1.7042 2.0371
-5.2218 -2.1363 2.0371
-5.0440 -2.5567 2.0371
-4.8338 -2.9631 2.0371
-4.5922 -3.3530 2.0371
-4.3203 -3.7239 2.0371
-4.0194 -4.0736 2.0371
-3.6912 -4.3999 2.0371
-3.3373 -4.7004 2.0371
-2.9596 -4.9732 2.0371
-2.5601 -5.2164 2.0371
-2.1412 -5.4279 2.0371
-0.6210 -2.0417 0.7419
-0.4493 -2.0594 0.7296
-0.2808 -2.0767 0.7222
-0.1132 -2.0940 0.7196
0.0556 -2.1114 0.7216
0.2279 -2.1293 0.7285
0.4061 -2.1477 0.7404
0.5930 -2.1671 0.7580
0.7319 -2.0220 0.7226
1.0069 -2.2101 0.8130
1.2430 -2.2347 0.8529
3.3981 -5.1002 2.0371
3.6846 -4.6717 1.9714
3.8798 -4.1824 1.8847
4.2130 -3.8691 1.8847
4.5194 -3.5282 1.8847
4.7967 -3.1622 1.8847
5.0427 -2.7735 1.8847
5.2555 -2.3650 1.8847
5.4332 -1.9396 1.8847
5.5745 -1.5004 1.8847
5.6783 -1.0507 1.8847
5.7438 -0.5937 1.8847
5.7705 -0.1330 1.8847
5.7582 0.3282 1.8847
5.7071 0.7863 1.8847
5.6177 1.2379 1.8847
5.4909 1.6798 1.8847
5.3276 2.1088 1.8847
5.1294 2.5218 1.8847
4.8979 2.9159 1.8847
4.6351 3.2884 1.8847
4.4208 3.7021 1.9185
4.3493 4.2790 2.0371
3.9780 4.5965 2.0371
3.5832 4.8814 2.0371
3.1678 5.1322 2.0371
2.7349 5.3474 2.0371
2.2876 5.5260 2.0371
1.8290 5.6672 2.0371
1.3623 5.7706 2.0371
0.8907 5.8358 2.0371
0.4172 5.8630 2.0371
-0.0552 5.8523 2.0371
-0.5234 5.8043 2.0371
-0.9845 5.7197 2.0371
-1.4359 5.5995 2.0371
-1.8748 5.4446 2.0371
-2.2988 5.2565 2.0371
-2.7055 5.0365 2.0371
-3.0925 4.7863 2.0371
-3.4579 4.5075 2.0371
-3.7997 4.2021 2.0371
-4.1160 3.8720 2.0371
-4.4053 3.5193 2.0371
-4.6660 3.1460 2.0371
-4.8969 2.7544 2.0371
-5.0967 2.3467 2.0371
-5.2644 1.9254 2.0371
-5.3993 1.4928 2.0371
-5.5006 1.0514 2.0371
-5.5677 0.6035 2.0371
-5.6003 0.1517 2.0371
-5.5981 -0.3015 2.0371
-5.5612 -0.7535 2.0371
-5.4896 -1.2019 2.0371
-5.3836 -1.6440 2.0371
-5.2437 -2.0774 2.0371
-5.0704 -2.4996 2.0371
-4.8646 -2.9081 2.0371
-4.6273 -3.3004 2.0371
-4.3594 -3.6741 2.0371
-4.0625 -4.0269 2.0371
-3.7380 -4.3564 2.0371
-3.3875 -4.6607 2.0371
-3.0129 -4.9374 2.0371
-2.6163 -5.1847 2.0371
-2.1999 -5.4007 2.0371
-0.6450 -2.0393 0.7440
-0.4727 -2.0570 0.7310
-0.3039 -2.0744 0.7230
-0.1363 -2.0916 0.7197
0.0322 -2.1090 0.7211
0.2039 -2.1268 0.7272
0.3811 -2.1451 0.7385
0.5667 -2.1644 0.7552
0.7095 -2.0298 0.7229
0.9762 -2.2069 0.8082
1.2090 -2.2312 0.8468
1.4689 -2.2583 0.8959
3.6725 -4.7633 1.9937
3.8320 -4.2236 1.8847
4.1686 -3.9139 1.8847
4.4789 -3.5767 1.8847
4.7604 -3.2140 1.8847
5.0108 -2.8283 1.8847
5.2282 -2.4223 1.8847
5.4109 -1.9991 1.8847
5.5573 -1.5616 1.8847
5.6663 -1.1131 1.8847
5.7371 -0.6569 1.8847
5.7691 -0.1965 1.8847
5.7622 0.2648 1.8847
5.7164 0.7235 1.8847
-0.3749 -1.9272 0.7413
-0.2190 -1.9520 0.7386
-0.0616 -1.9642 0.7359
0.0962 -1.9638 0.7333
0.2535 -1.9508 0.7308
0.4093 -1.9252 0.7283
0.5625 -1.8873 0.7260
0.7122 -1.8372 0.7237
1.0710 -2.2172 0.9012
1.3142 -2.2426 0.9482
3.2098 -4.5910 2.0371
3.5770 -4.3322 2.0371
3.7575 -3.8732 1.9515
3.9256 -3.4469 1.8847
4.1973 -3.1288 1.8847
4.4419 -2.7886 1.8847
4.6575 -2.4286 1.8847
4.8423 -2.0514 1.8847
4.9950 -1.6597 1.8847
5.1143 -1.2563 1.8847
5.1992 -0.8441 1.8847
5.2493 -0.4263 1.8847
5.2640 -0.0058 1.8847
5.2434 0.4141 1.8847
5.1877 0.8306 1.8847
5.0973 1.2404 1.8847
4.9732 1.6407 1.8847
4.8162 2.0286 1.8847
4.6278 2.4013 1.8847
4.4095 2.7560 1.8847
4.3700 3.2449 1.9784
4.2050 3.6790 2.0371
3.8843 3.9905 2.0371
3.5400 4.2737 2.0371
3.1748 4.5269 2.0371
2.7914 4.7487 2.0371
2.3925 4.9379 2.0371
0.7195 1.8500 0.7399
0.5685 1.9010 0.7426
0.4139 1.9397 0.7453
0.2567 1.9659 0.7480
0.2656 5.3706 2.0371
-0.1663 5.3531 2.0371
-0.2204 1.9672 0.7559
-0.3778 1.9420 0.7584
-0.5326 1.9042 0.7608
-0.6838 1.8541 0.7631
-2.2110 4.7702 2.0371
-2.5801 4.5617 2.0371
-2.9307 4.3257 2.0371
-3.2611 4.0637 2.0371
-3.5693 3.7776 2.0371
-3.8538 3.4691 2.0371
-4.1131 3.1402 2.0371
-4.3458 2.7928 2.0371
-4.5507 2.4290 2.0371
-4.7267 2.0509 2.0371
-4.8729 1.6607 2.0371
-4.9886 1.2607 2.0371
-5.0732 0.8531 2.0371
-5.1261 0.4402 2.0371
-5.1471 0.0244 2.0371
-5.1361 -0.3920 2.0371
-5.0929 -0.8067 2.0371
-5.0179 -1.2173 2.0371
-4.9113 -1.6214 2.0371
-4.7735 -2.0167 2.0371
-4.6052 -2.4009 2.0371
-4.4073 -2.7716 2.0371
-4.1806 -3.1267 2.0371
-3.9263 -3.4640 2.0371
-3.6458 -3.7812 2.0371
-3.3403 -4.0764 2.0371
-3.0117 -4.3475 2.0371
-2.6616 -4.5928 2.0371
-2.2921 -4.8103 2.0371
-0.6986 -1.8331 0.7470
-0.5492 -1.8840 0.7443
-0.3962 -1.9228 0.7416
-0.2406 -1.9493 0.7390
-0.0834 -1.9633 0.7363
0.0745 -1.9646 0.7337
0.2319 -1.9533 0.7311
0.3880 -1.9294 0.7287
0.5416 -1.8932 0.7263
0.6919 -1.8448 0.7240
1.0395 -2.2139 0.8956
1.2791 -2.2389 0.9411
3.1577 -4.6242 2.0371
3.5277 -4.3696 2.0371
3.7476 -3.9491 1.9695
3.8862 -3.4884 1.8847
4.1615 -3.1740 1.8847
4.4099 -2.8367 1.8847
4.6296 -2.4793 1.8847
4.8187 -2.1043 1.8847
4.9759 -1.7144 1.8847
5.0999 -1.3124 1.8847
5.1896 -0.9013 1.8847
5.2445 -0.4840 1.8847
5.2641 -0.0637 1.8847
5.2484 0.3565 1.8847
5.1974 0.7736 1.8847
5.1118 1.1845 1.8847
4.9922 1.5863 1.8847
4.8397 1.9760 1.8847
4.6555 2.3510 1.8847
4.4412 2.7086 1.8847
4.3667 3.1684 1.9602
4.2471 3.6340 2.0371
3.9299 3.9492 2.0371
3.5887 4.2364 2.0371
3.2262 4.4939 2.0371
2.8451 4.7201 2.0371
2.4482 4.9138 2.0371
0.7399 1.8420 0.7395
0.5895 1.8947 0.7422
0.4354 1.9352 0.7449
0.2785 1.9630 0.7477
0.3253 5.3703 2.0371
-0.1071 5.3576 2.0371
-0.1986 1.9697 0.7556
-0.3563 1.9463 0.7581
-0.5115 1.9102 0.7605
-0.6633 1.8617 0.7628
-2.1589 4.7966 2.0371
-2.5303 4.5920 2.0371
-2.8836 4.3597 2.0371
-3.2169 4.1013 2.0371
-3.5283 3.8184 2.0371
-3.8162 3.5129 2.0371
-4.0790 3.1866 2.0371
-4.3154 2.8416 2.0371
-4.5242 2.4799 2.0371
-4.7042 2.1037 2.0371
-4.8546 1.7151 2.0371
-4.9745 1.3163 2.0371
-5.0634 0.9096 2.0371
-5.1207 0.4973 2.0371
-5.1461 0.0817 2.0371
-5.1395 -0.3348 2.0371
-5.1008 -0.7498 2.0371
-5.0301 -1.1611 2.0371
-4.9278 -1.5662 2.0371
-4.7943 -1.9629 2.0371
-4.6302 -2.3488 2.0371
-4.4362 -2.7215 2.0371
-4.2135 -3.0789 2.0371
-3.9629 -3.4187 2.0371
-3.6859 -3.7388 2.0371
-3.3838 -4.0371 2.0371
-3.0582 -4.3117 2.0371
-2.7110 -4.5606 2.0371
-2.3440 -4.7821 2.0371
-0.7189 -1.8251 0.7474
-0.5700 -1.8777 0.7447
-0.4174 -1.9182 0.7420
-0.2621 -1.9464 0.7393
-0.1051 -1.9621 0.7367
0.0528 -1.9652 0.7340
0.2103 -1.9556 0.7315
0.3666 -1.9335 0.7290
0.5206 -1.8989 0.7266
0.6714 -1.8522 0.7243
1.0083 -2.2107 0.8902
1.2446 -2.2353 0.9341
3.1053 -4.6567 2.0371
3.4780 -4.4066 2.0371
3.7375 -4.0263 1.9881
3.8463 -3.5303 1.8847
4.1251 -3.2187 1.8847
4.3774 -2.8844 1.8847
4.6011 -2.5296 1.8847
4.7946 -2.1568 1.8847
4.9562 -1.7688 1.8847
5.0848 -1.3683 1.8847
5.1793 -0.9583 1.8847
5.2390 -0.5417 1.8847
5.2635 -0.1217 1.8847
5.2526 0.2988 1.8847
5.2065 0.7165 1.8847
5.1256 1.1284 1.8847
5.0107 1.5316 1.8847
4.8626 1.9232 1.8847
4.6827 2.3004 1.8847
4.4725 2.6605 1.8847
4.3635 3.0933 1.9425
4.2888 3.5885 2.0371
3.9750 3.9075 2.0371
3.6370 4.1986 2.0371
3.2773 4.4602 2.0371
2.8986 4.6908 2.0371
2.5037 4.8891 2.0371
0.7603 1.8338 0.7391
0.6105 1.8882 0.7418
0.4568 1.9303 0.7446
0.3002 1.9599 0.7473
0.3849 5.3694 2.0371
-0.0477 5.3614 2.0371
-0.1768 1.9719 0.7552
-0.3347 1.9502 0.7577
-0.4903 1.9159 0.7601
-0.6426 1.8691 0.7624
-2.1065 4.8225 2.0371
-2.4802 4.6219 2.0371
-2.8361 4.3933 2.0371
-3.1723 4.1383 2.0371
-3.4868 3.8587 2.0371
-3.7780 3.5562 2.0371
-4.0444 3.2327 2.0371
-4.2845 2.8901 2.0371
-4.4971 2.5306 2.0371
-4.6812 2.1563 2.0371
-4.8357 1.7692 2.0371
-4.9599 1.3717 2.0371
-5.0530 0.9659 2.0371
-5.1147 0.5543 2.0371
-5.1445 0.1390 2.0371
-5.1423 -0.2775 2.0371
-5.1080 -0.6929 2.0371
-5.0417 -1.1048 2.0371
-4.9437 -1.5109 2.0371
-4.8145 -1.9089 2.0371
-4.6545 -2.2964 2.0371
-4.4647 -2.6711 2.0371
-4.2458 -3.0307 2.0371
-3.9990 -3.3731 2.0371
-3.7255 -3.6960 2.0371
-3.4268 -3.9975 2.0371
-3.1044 -4.2754 2.0371
-2.7600 -4.5280 2.0371
-2.3956 -4.7533 2.0371
-0.7390 -1.8170 0.7478
-0.5907 -1.8712 0.7451
-0.4386 -1.9134 0.7424
-0.2836 -1.9433 0.7397
-0.1267 -1.9607 0.7370
0.0310 -1.9655 0.7344
0.1887 -1.9577 0.7318
0.3452 -1.9373 0.7293
0.4996 -1.9044 0.7269
0.6509 -1.8593 0.7246
0.9776 -2.2075 0.8849
1.2106 -2.2318 0.9274
1.4706 -2.2589 0.9814
3.4279 -4.4428 2.0371
3.7271 -4.1049 2.0072
3.8076 -3.5728 1.8855
4.0883 -3.2630 1.8847
4.3443 -2.9316 1.8847
4.5721 -2.5795 1.8847
4.7698 -2.2091 1.8847
4.9359 -1.8230 1.8847
5.0691 -1.4241 1.8847
5.1684 -1.0152 1.8847
5.2329 -0.5993 1.8847
5.2622 -0.1796 1.8847
5.2562 0.2410 1.8847
5.2149 0.6593 1.8847
-0.3443 -1.7750 0.7414
-0.2007 -1.7978 0.7390
-0.0558 -1.8091 0.7365
0.0896 -1.8087 0.7341
0.2344 -1.7967 0.7318
0.3779 -1.7731 0.7295
0.5190 -1.7382 0.7273
0.6569 -1.6920 0.7253
0.7907 -1.6350 0.7233
1.3159 -2.2432 1.0325
2.9503 -4.2163 2.0371
3.2868 -3.9778 2.0371
3.6031 -3.7117 2.0371
3.7981 -3.3330 1.9855
3.8639 -2.8788 1.8895
4.0780 -2.5590 1.8847
4.2753 -2.2284 1.8847
4.4445 -1.8822 1.8847
4.5843 -1.5228 1.8847
4.6935 -1.1527 1.8847
4.7714 -0.7746 1.8847
4.8173 -0.3914 1.8847
4.8310 -0.0057 1.8847
4.8124 0.3795 1.8847
4.7617 0.7616 1.8847
4.6793 1.1377 1.8847
4.5659 1.5051 1.8847
4.4299 1.8644 1.8878
4.2954 2.2273 1.9046
4.3168 2.6963 2.0085
4.1346 3.0676 2.0371
3.8649 3.3786 2.0371
3.5711 3.6655 2.0371
3.2557 3.9267 2.0371
2.9209 4.1605 2.0371
2.5691 4.3655 2.0371
0.7977 1.6443 0.7377
0.6631 1.7023 0.7402
0.5242 1.7493 0.7427
0.3819 1.7849 0.7452
0.2372 1.8089 0.7477
0.0911 1.8212 0.7501
-0.0556 1.8216 0.7525
-0.2018 1.8102 0.7549
-0.3467 1.7870 0.7572
-0.4891 1.7522 0.7594
-0.6283 1.7061 0.7615
-2.0367 4.3994 2.0371
-2.3777 4.2080 2.0371
-2.7017 3.9911 2.0371
-3.0071 3.7501 2.0371
