ply
format ascii 1.0
element vertex 2167
property float32 x
property float32 y
property float32 z
end_header
-1.2622 14.8512 2.0384
-2.4474 14.6812 2.0384
-3.6137 14.4177 2.0384
-4.7539 14.0626 2.0384
-5.8608 13.6185 2.0384
-6.9277 13.0885 2.0384
-7.9481 12.4763 2.0384
-8.9157 11.7859 2.0384
-9.8248 11.0217 2.0384
-10.6699 10.1887 2.0384
-11.4459 9.2923 2.0384
-12.1483 8.3379 2.0384
-12.7727 7.3316 2.0384
-13.3156 6.2796 2.0384
-13.7737 5.1884 2.0384
-14.1443 4.0646 2.0384
-14.4250 2.9152 2.0384
-14.6143 1.7472 2.0384
-14.7108 0.5677 2.0384
-14.7140 -0.6163 2.0384
-14.6238 -1.7970 2.0384
-14.4405 -2.9676 2.0384
-14.1652 -4.1209 2.0384
-13.7993 -5.2495 2.0384
-13.3449 -6.3467 2.0384
-12.8046 -7.4055 2.0384
-12.1815 -8.4191 2.0384
-11.4791 -9.3811 2.0384
-10.7016 -10.2855 2.0384
-9.8537 -11.1262 2.0384
-8.9403 -11.8977 2.0384
-7.9671 -12.5950 2.0384
-6.9398 -13.2132 2.0384
-5.8648 -13.7481 2.0384
-4.7489 -14.1959 2.0384
-3.5990 -14.5534 2.0384
-2.4223 -14.8178 2.0384
-1.2264 -14.9870 2.0384
-0.0191 -15.0595 2.0384
0.3223 -4.0653 0.5512
0.6487 -4.0324 0.5512
0.9719 -3.9736 0.5513
1.2899 -3.8892 0.5515
1.6008 -3.7795 0.5518
1.9024 -3.6452 0.5521
2.1929 -3.4870 0.5525
8.3535 -11.1787 1.8697
9.4731 -10.7547 1.9184
10.3924 -10.0430 1.9329
11.2517 -9.2475 1.9465
12.0422 -8.3730 1.9590
8.3034 -4.8339 1.2827
13.3835 -6.4128 1.9805
13.9192 -5.3423 1.9891
14.3563 -4.2233 1.9962
14.6898 -3.0657 2.0018
14.9157 -1.8799 2.0056
15.0311 -0.6771 2.0078
15.0348 0.5317 2.0082
14.9268 1.7351 2.0069
14.7084 2.9217 2.0039
14.3824 4.0806 1.9992
13.9528 5.2013 1.9928
13.4247 6.2741 1.9850
12.8043 7.2899 1.9756
12.0987 8.2405 1.9650
11.3158 9.1190 1.9531
10.4639 9.9193 1.9401
9.5519 10.6363 1.9262
8.5889 11.2664 1.9114
7.5839 11.8066 1.8960
6.5670 12.2943 1.8860
5.5503 12.7630 1.8860
4.7276 13.8105 1.9811
3.7020 14.5329 2.0384
2.5191 14.7609 2.0384
1.3236 14.8931 2.0384
0.1231 14.9292 2.0384
-1.0748 14.8693 2.0384
-2.2623 14.7142 2.0384
-3.4321 14.4652 2.0384
-4.5768 14.1243 2.0384
-5.6894 13.6940 2.0384
-6.7631 13.1773 2.0384
-7.7912 12.5777 2.0384
-8.7675 11.8993 2.0384
-9.6861 11.1464 2.0384
-10.5416 10.3239 2.0384
-11.3288 9.4370 2.0384
-12.0430 8.4914 2.0384
-12.6800 7.4928 2.0384
-13.2359 6.4475 2.0384
-13.7075 5.3621 2.0384
-14.0920 4.2430 2.0384
-14.3869 3.0971 2.0384
-14.5907 1.9316 2.0384
-14.7018 0.7534 2.0384
-14.7197 -0.4302 2.0384
-14.6442 -1.6120 2.0384
-14.4755 -2.7848 2.0384
-14.2145 -3.9412 2.0384
-13.8627 -5.0742 2.0384
-13.4221 -6.1768 2.0384
-12.8951 -7.2420 2.0384
-12.2847 -8.2631 2.0384
-11.5945 -9.2337 2.0384
12.0943 -0.2393 1.9623
12.0700 0.7321 1.9622
11.9585 1.6966 1.9608
11.7609 2.6460 1.9580
11.4795 3.5719 1.9539
11.1174 4.4666 1.9486
10.6786 5.3225 1.9420
10.1676 6.1330 1.9344
9.5900 6.8917 1.9256
8.9515 7.5934 1.9159
5.1613 5.1455 1.1908
7.5173 8.8071 1.8940
6.7493 9.3316 1.8860
5.9711 9.8318 1.8860
5.1561 10.2670 1.8860
4.6579 11.4940 2.0384
3.7153 11.8161 2.0384
2.7509 12.0611 2.0384
1.7712 12.2277 2.0384
0.7825 12.3151 2.0384
-0.2088 12.3231 2.0384
-1.1964 12.2518 2.0384
-2.1740 12.1020 2.0384
-3.1355 11.8749 2.0384
-4.0748 11.5723 2.0384
-4.9861 11.1961 2.0384
-5.8637 10.7491 2.0384
-6.7023 10.2343 2.0384
-7.4966 9.6550 2.0384
-8.2419 9.0149 2.0384
-8.9337 8.3182 2.0384
-9.5676 7.5694 2.0384
-10.1400 6.7731 2.0384
-10.6473 5.9343 2.0384
-11.0864 5.0583 2.0384
-11.4548 4.1505 2.0384
-11.7502 3.2166 2.0384
-11.9708 2.2622 2.0384
-12.1152 1.2933 2.0384
-12.1825 0.3159 2.0384
-12.1723 -0.6641 2.0384
-12.0845 -1.6404 2.0384
-11.9195 -2.6073 2.0384
-11.6784 -3.5585 2.0384
-11.3625 -4.4882 2.0384
-10.9735 -5.3905 2.0384
-10.5138 -6.2598 2.0384
-9.9860 -7.0905 2.0384
-9.3933 -7.8774 2.0384
-8.7392 -8.6154 2.0384
-8.0277 -9.2996 2.0384
-7.2631 -9.9256 2.0384
-6.4500 -10.4892 2.0384
-5.5935 -10.9866 2.0384
-4.6989 -11.4143 2.0384
-3.7717 -11.7695 2.0384
-2.8179 -12.0495 2.0384
-1.8435 -12.2523 2.0384
-0.8548 -12.3762 2.0384
0.1420 -12.4202 2.0384
0.3094 -3.3600 0.5531
0.5789 -3.3285 0.5531
0.8454 -3.2757 0.5532
1.1119 -3.2153 0.5557
1.4074 -3.2090 0.5718
1.7233 -3.2023 0.5928
2.0663 -3.1951 0.6197
2.4452 -3.1871 0.6537
7.8055 -8.6384 1.8932
8.5307 -8.0376 1.9046
9.2051 -7.3722 1.9153
9.8220 -6.6466 1.9251
8.7296 -4.9354 1.6272
10.8594 -5.0357 1.9417
11.2692 -4.1627 1.9483
11.6003 -3.2540 1.9537
11.8491 -2.3172 1.9579
12.0130 -1.3604 1.9607
12.0901 -0.3919 1.9622
12.0796 0.5797 1.9623
11.9817 1.5459 1.9611
11.7975 2.4983 1.9586
11.5291 3.4284 1.9547
11.1795 4.3284 1.9495
10.7524 5.1909 1.9431
10.2525 6.0090 1.9356
9.6849 6.7762 1.9271
9.0555 7.4872 1.9175
5.2534 5.1068 1.1969
7.6366 8.7215 1.8958
6.8678 9.2474 1.8860
6.0959 9.7574 1.8860
5.2863 10.2030 1.8860
4.7681 11.3518 2.0233
3.8649 11.7706 2.0384
2.9036 12.0278 2.0384
1.9259 12.2068 2.0384
0.9381 12.3066 2.0384
-0.0532 12.3271 2.0384
-1.0418 12.2682 2.0384
-2.0214 12.1306 2.0384
-2.9858 11.9156 2.0384
-3.9290 11.6247 2.0384
-4.8450 11.2600 2.0384
-5.7283 10.8240 2.0384
-6.5734 10.3195 2.0384
-7.3750 9.7501 2.0384
-8.1283 9.1193 2.0384
-8.8287 8.4312 2.0384
-9.4720 7.6903 2.0384
-10.0543 6.9011 2.0384
-10.5720 6.0687 2.0384
-11.0221 5.1981 2.0384
-11.4018 4.2950 2.0384
-11.7088 3.3647 2.0384
-11.9412 2.4132 2.0384
-12.0976 1.4462 2.0384
-12.1771 0.4697 2.0384
-12.1790 -0.5102 2.0384
-12.1034 -1.4876 2.0384
-11.9505 -2.4563 2.0384
-11.7213 -3.4104 2.0384
-11.4170 -4.3438 2.0384
-11.0393 -5.2508 2.0384
-10.5906 -6.1257 2.0384
-10.0733 -6.9628 2.0384
-9.4906 -7.7569 2.0384
-8.8459 -8.5029 2.0384
-8.1431 -9.1959 2.0384
-7.3865 -9.8313 2.0384
-6.5807 -10.4049 2.0384
-5.7307 -10.9130 2.0384
-4.8417 -11.3519 2.0384
-3.9193 -11.7186 2.0384
-2.9692 -12.0106 2.0384
-1.9977 -12.2256 2.0384
-1.0107 -12.3620 2.0384
-0.0149 -12.4187 2.0384
0.2669 -3.3630 0.5531
0.5367 -3.3349 0.5531
0.8038 -3.2854 0.5532
1.0670 -3.2162 0.5536
1.3598 -3.2100 0.5690
1.6721 -3.2034 0.5892
2.0103 -3.1963 0.6151
2.3829 -3.1884 0.6478
7.6874 -8.7266 1.8913
8.4200 -8.1363 1.9029
9.1028 -7.4808 1.9137
9.7292 -6.7644 1.9236
8.5485 -4.9764 1.6051
10.7882 -5.1691 1.9405
11.2100 -4.3024 1.9474
11.5537 -3.3988 1.9530
11.8156 -2.4659 1.9573
11.9930 -1.5117 1.9604
12.0838 -0.5445 1.9621
12.0871 0.4272 1.9624
12.0029 1.3949 1.9614
11.8321 2.3499 1.9590
11.5768 3.2841 1.9554
11.2396 4.1894 1.9504
10.8244 5.0582 1.9442
10.3356 5.8837 1.9369
9.7783 6.6593 1.9285
9.1582 7.3794 1.9191
8.4816 8.0391 1.9088
7.7548 8.6341 1.8977
6.9849 9.1611 1.8859
6.2198 9.6815 1.8860
5.4158 10.1374 1.8860
4.7847 11.0003 1.9708
4.0140 11.7231 2.0384
3.0558 11.9925 2.0384
2.0802 12.1839 2.0384
1.0937 12.2962 2.0384
0.1025 12.3291 2.0384
-0.8869 12.2826 2.0384
-1.8684 12.1574 2.0384
-2.8356 11.9545 2.0384
-3.7825 11.6754 2.0384
-4.7032 11.3221 2.0384
-5.5920 10.8970 2.0384
-6.4434 10.4031 2.0384
-7.2522 9.8437 2.0384
-8.0134 9.2223 2.0384
-8.7224 8.5431 2.0384
-9.3749 7.8099 2.0384
-9.9670 7.0280 2.0384
-10.4951 6.2021 2.0384
-10.9560 5.3372 2.0384
-11.3469 4.4388 2.0384
-11.6654 3.5124 2.0384
-11.9096 2.5638 2.0384
-12.0781 1.5989 2.0384
-12.1697 0.6235 2.0384
-12.1839 -0.3563 2.0384
-12.1204 -1.3345 2.0384
-11.9796 -2.3049 2.0384
-11.7623 -3.2617 2.0384
-11.4697 -4.1988 2.0384
-11.1034 -5.1103 2.0384
-10.6657 -5.9906 2.0384
-10.1590 -6.8340 2.0384
-9.5863 -7.6353 2.0384
10.0963 -0.1999 1.9313
10.0766 0.6109 1.9313
9.9854 1.4164 1.9301
9.8236 2.2098 1.9278
9.5928 2.9845 1.9245
9.2954 3.7341 1.9201
8.9346 4.4527 1.9147
8.5138 5.1348 1.9084
8.0372 5.7752 1.9012
7.5094 6.3693 1.8932
5.0721 5.0560 1.3781
6.3571 7.4469 1.8860
5.7330 7.9254 1.8860
5.0730 8.3516 1.8860
4.7355 9.4278 2.0384
3.9590 9.7672 2.0384
3.1585 10.0427 2.0384
2.3393 10.2528 2.0384
1.5067 10.3964 2.0384
0.6662 10.4726 2.0384
-0.1768 10.4812 2.0384
-1.0170 10.4224 2.0384
-1.8490 10.2967 2.0384
-2.6675 10.1052 2.0384
-3.4674 9.8492 2.0384
-4.2436 9.5305 2.0384
-4.9914 9.1512 2.0384
-5.7060 8.7140 2.0384
-6.3831 8.2217 2.0384
-7.0186 7.6774 2.0384
-7.6084 7.0848 2.0384
-8.1490 6.4475 2.0384
-8.6372 5.7698 2.0384
-9.0698 5.0553 2.0384
-9.4443 4.3092 2.0384
-9.7585 3.5359 2.0384
-10.0103 2.7403 2.0384
-10.1982 1.9272 2.0384
-10.3210 1.1017 2.0384
-10.3781 0.2689 2.0384
-10.3689 -0.5659 2.0384
-10.2935 -1.3976 2.0384
-10.1522 -2.2210 2.0384
-9.9460 -3.0310 2.0384
-9.6760 -3.8225 2.0384
-9.3437 -4.5904 2.0384
-8.9511 -5.3300 2.0384
-8.5007 -6.0366 2.0384
-7.9949 -6.7055 2.0384
-7.4371 -7.3326 2.0384
-6.8305 -7.9137 2.0384
-6.1788 -8.4449 2.0384
-5.4861 -8.9229 2.0384
-4.7566 -9.3444 2.0384
-3.9950 -9.7065 2.0384
-3.2060 -10.0067 2.0384
-2.3946 -10.2429 2.0384
-1.5660 -10.4134 2.0384
-0.7256 -10.5168 2.0384
0.1214 -10.5523 2.0384
0.2979 -3.2328 0.6264
0.5615 -3.2272 0.6314
0.8316 -3.2215 0.6407
1.1122 -3.2155 0.6546
1.4077 -3.2093 0.6736
1.7237 -3.2026 0.6985
2.0667 -3.1954 0.7303
2.4456 -3.1874 0.7704
6.5980 -7.3014 1.8860
7.1669 -6.7521 1.8860
7.7165 -6.1796 1.8925
8.2261 -5.5664 1.9006
8.6825 -4.9085 1.9079
9.0812 -4.2109 1.9143
9.4183 -3.4789 1.9198
9.6904 -2.7182 1.9242
9.8948 -1.9351 1.9277
10.0294 -1.1359 1.9300
10.0928 -0.3273 1.9312
10.0845 0.4838 1.9313
10.0044 1.2905 1.9303
9.8536 2.0863 1.9282
9.6335 2.8643 1.9251
9.3464 3.6183 1.9208
8.9953 4.3421 1.9156
8.5837 5.0303 1.9094
8.1156 5.6775 1.9024
7.5955 6.2793 1.8945
5.1832 5.0379 1.3907
6.4516 7.3672 1.8860
5.8335 7.8537 1.8860
5.1789 8.2883 1.8860
4.8094 9.2810 2.0193
4.0827 9.7180 2.0384
3.2856 10.0037 2.0384
2.4690 10.2242 2.0384
1.6381 10.3783 2.0384
0.7985 10.4651 2.0384
-0.0445 10.4843 2.0384
-0.8855 10.4361 2.0384
-1.7191 10.3209 2.0384
-2.5401 10.1396 2.0384
-3.3432 9.8936 2.0384
-4.1235 9.5846 2.0384
-4.8760 9.2147 2.0384
-5.5962 8.7864 2.0384
-6.2795 8.3025 2.0384
-6.9217 7.7662 2.0384
-7.5189 7.1809 2.0384
-8.0675 6.5504 2.0384
-8.5641 5.8785 2.0384
-9.0056 5.1698 2.0384
-9.3895 4.4283 2.0384
-9.7132 3.6590 2.0384
-9.9749 2.8665 2.0384
-10.1729 2.0558 2.0384
-10.3061 1.2319 2.0384
-10.3735 0.4000 2.0384
-10.3747 -0.4348 2.0384
-10.3097 -1.2674 2.0384
-10.1788 -2.0925 2.0384
-9.9827 -2.9049 2.0384
-9.7225 -3.6996 2.0384
-9.3999 -4.4716 2.0384
-9.0167 -5.2159 2.0384
-8.5751 -5.9280 2.0384
-8.0779 -6.6031 2.0384
-7.5280 -7.2370 2.0384
-6.9288 -7.8256 2.0384
-6.2839 -8.3649 2.0384
-5.5974 -8.8515 2.0384
-4.8734 -9.2821 2.0384
-4.1165 -9.6537 2.0384
-3.3315 -9.9637 2.0384
-2.5233 -10.2101 2.0384
-1.6971 -10.3910 2.0384
-0.8581 -10.5050 2.0384
-0.0119 -10.5512 2.0384
0.2640 -3.3241 0.6435
0.5197 -3.2281 0.6304
0.7886 -3.2224 0.6389
1.0673 -3.2165 0.6521
1.3601 -3.2103 0.6703
1.6724 -3.2037 0.6942
2.0107 -3.1966 0.7248
2.3833 -3.1887 0.7635
6.5047 -7.3834 1.8860
7.0805 -6.8414 1.8860
7.6319 -6.2716 1.8912
8.1495 -5.6658 1.8994
8.6145 -5.0146 1.9068
9.0226 -4.3229 1.9134
9.3696 -3.5959 1.9190
9.6521 -2.8394 1.9236
9.8673 -2.0593 1.9272
10.0129 -1.2622 1.9297
10.0876 -0.4547 1.9311
10.0905 0.3565 1.9314
10.0217 1.1644 1.9306
9.8819 1.9623 1.9286
9.6726 2.7435 1.9256
9.3958 3.5017 1.9216
9.0546 4.2307 1.9165
8.6522 4.9248 1.9105
8.1926 5.5788 1.9035
7.6804 6.1879 1.8958
5.3127 5.0349 1.4081
6.5451 7.2863 1.8860
5.9331 7.7806 1.8860
5.2839 8.2236 1.8860
4.8224 9.0252 1.9764
4.2057 9.6673 2.0384
3.4122 9.9631 2.0384
2.5983 10.1940 2.0384
1.7694 10.3585 2.0384
0.9308 10.4559 2.0384
0.0879 10.4858 2.0384
-0.7537 10.4481 2.0384
-1.5889 10.3434 2.0384
-2.4122 10.1724 2.0384
-3.2185 9.9364 2.0384
-4.0026 9.6372 2.0384
-4.7598 9.2767 2.0384
-5.4854 8.8574 2.0384
-6.1747 8.3821 2.0384
-6.8237 7.8538 2.0384
-7.4283 7.2759 2.0384
-7.9847 6.6522 2.0384
-8.4897 5.9867 2.0384
-8.9400 5.2834 2.0384
-9.3331 4.5468 2.0384
-9.6664 3.7815 2.0384
-9.9380 2.9923 2.0384
-10.1461 2.1842 2.0384
-10.2895 1.3620 2.0384
-10.3673 0.5310 2.0384
-10.3789 -0.3038 2.0384
-10.3243 -1.1370 2.0384
-10.2036 -1.9636 2.0384
-10.0177 -2.7783 2.0384
-9.7676 -3.5762 2.0384
-9.4547 -4.3520 2.0384
-9.0808 -5.1011 2.0384
-8.6482 -5.8185 2.0384
-8.1596 -6.4997 2.0384
8.6516 -0.1715 1.9089
8.6351 0.5233 1.9088
8.5581 1.2137 1.9079
8.4213 1.8941 1.9059
8.2261 2.5589 1.9031
7.9744 3.2030 1.8994
7.6686 3.8214 1.8948
7.3116 4.4092 1.8895
6.9163 4.9692 1.8860
6.4902 5.5043 1.8860
5.0483 5.0316 1.5809
5.5167 6.4615 1.8860
4.9758 6.8777 1.8860
4.7594 7.8342 2.0384
4.1112 8.1835 2.0384
3.4376 8.4792 2.0384
2.7431 8.7197 2.0384
2.0321 8.9033 2.0384
1.3093 9.0292 2.0384
0.5793 9.0966 2.0384
-0.1530 9.1053 2.0384
-0.8830 9.0554 2.0384
-1.6061 8.9474 2.0384
-2.3176 8.7820 2.0384
-3.0131 8.5605 2.0384
-3.6882 8.2844 2.0384
-4.3387 7.9556 2.0384
-4.9604 7.5762 2.0384
-5.5496 7.1488 2.0384
-6.1026 6.6761 2.0384
-6.6160 6.1611 2.0384
-7.0866 5.6072 2.0384
-7.5115 5.0179 2.0384
-7.8881 4.3969 2.0384
-8.2141 3.7481 2.0384
-8.4875 3.0758 2.0384
-8.7066 2.3834 2.0384
-8.8701 1.6762 2.0384
-8.9768 0.9581 2.0384
-9.0262 0.2338 2.0384
-9.0179 -0.4924 2.0384
-8.9520 -1.2157 2.0384
-8.8287 -1.9318 2.0384
-8.6488 -2.6360 2.0384
-8.4133 -3.3241 2.0384
-8.1237 -3.9915 2.0384
-7.7817 -4.6342 2.0384
-7.3893 -5.2480 2.0384
-6.9489 -5.8289 2.0384
-6.4633 -6.3733 2.0384
-5.9353 -6.8775 2.0384
-5.3683 -7.3383 2.0384
-4.7658 -7.7526 2.0384
-4.1315 -8.1178 2.0384
-3.4694 -8.4312 2.0384
-2.7837 -8.6908 2.0384
-2.0788 -8.8947 2.0384
-1.3591 -9.0415 2.0384
-0.6292 -9.1300 2.0384
0.1060 -9.1596 2.0384
0.2981 -3.2331 0.7218
0.5617 -3.2275 0.7277
0.8319 -3.2217 0.7385
1.1125 -3.2158 0.7546
1.4081 -3.2095 0.7766
1.7240 -3.2029 0.8054
2.0671 -3.1957 0.8421
2.4461 -3.1877 0.8885
5.7220 -6.3315 1.8860
6.2149 -5.8548 1.8860
6.6677 -5.3394 1.8860
7.0774 -4.7888 1.8860
7.4533 -4.2134 1.8891
7.7915 -3.6128 1.8945
8.0773 -2.9835 1.8991
8.3078 -2.3304 1.9029
8.4808 -1.6586 1.9058
8.5948 -0.9735 1.9078
8.6486 -0.2806 1.9088
8.6417 0.4144 1.9089
8.5742 1.1058 1.9081
8.4467 1.7881 1.9063
8.2606 2.4558 1.9036
8.0176 3.1034 1.9000
7.7201 3.7261 1.8956
7.3709 4.3191 1.8904
6.9734 4.8779 1.8844
6.5600 5.4225 1.8860
5.1564 5.0113 1.5946
5.5985 6.3922 1.8860
5.0629 6.8152 1.8860
4.8377 7.7412 2.0296
4.2148 8.1321 2.0384
3.5449 8.4364 2.0384
2.8534 8.6856 2.0384
2.1446 8.8783 2.0384
1.4234 9.0133 2.0384
0.6943 9.0899 2.0384
-0.0380 9.1079 2.0384
-0.7687 9.0671 2.0384
-1.4932 8.9681 2.0384
-2.2068 8.8117 2.0384
-2.9051 8.5989 2.0384
-3.5837 8.3313 2.0384
-4.2383 8.0106 2.0384
-4.8648 7.6390 2.0384
-5.4594 7.2190 2.0384
-6.0183 6.7532 2.0384
-6.5381 6.2447 2.0384
-7.0156 5.6967 2.0384
-7.4479 5.1127 2.0384
-7.8323 4.4964 2.0384
-8.1664 3.8517 2.0384
-8.4482 3.1825 2.0384
-8.6759 2.4932 2.0384
-8.8481 1.7881 2.0384
-8.9638 1.0714 2.0384
-9.0223 0.3478 2.0384
-9.0231 -0.3784 2.0384
-8.9661 -1.1025 2.0384
-8.8518 -1.8200 2.0384
-8.6807 -2.5264 2.0384
-8.4539 -3.2173 2.0384
-8.1727 -3.8882 2.0384
-7.8388 -4.5351 2.0384
-7.4542 -5.1536 2.0384
-7.0212 -5.7400 2.0384
-6.5424 -6.2903 2.0384
-6.0209 -6.8011 2.0384
-5.4598 -7.2689 2.0384
-4.8626 -7.6908 2.0384
-4.2330 -8.0638 2.0384
-3.5750 -8.3855 2.0384
-2.8928 -8.6537 2.0384
-2.1906 -8.8664 2.0384
-1.4729 -9.0223 2.0384
-0.7443 -9.1200 2.0384
-0.0097 -9.1589 2.0384
0.2639 -3.3202 0.7406
0.5200 -3.2283 0.7264
0.7889 -3.2226 0.7364
1.0676 -3.2167 0.7517
1.3605 -3.2105 0.7727
1.6728 -3.2040 0.8004
2.0111 -3.1968 0.8358
2.3838 -3.1890 0.8805
5.6411 -6.4027 1.8860
6.1400 -5.9323 1.8860
6.5993 -5.4228 1.8860
7.0160 -4.8774 1.8860
7.3956 -4.3048 1.8881
7.7418 -3.7091 1.8937
8.0360 -3.0840 1.8984
8.2753 -2.4343 1.9024
8.4575 -1.7651 1.9054
8.5809 -1.0817 1.9075
8.6442 -0.3897 1.9087
8.6468 0.3053 1.9090
8.5888 0.9977 1.9083
8.4706 1.6818 1.9066
8.2936 2.3521 1.9041
8.0594 3.0032 1.9007
7.7703 3.6302 1.8964
7.4291 4.2281 1.8913
7.0389 4.7926 1.8854
6.6287 5.3399 1.8860
5.2849 5.0080 1.6144
5.6795 6.3219 1.8860
5.1492 6.7517 1.8860
4.8483 7.5444 1.9936
4.3178 8.0794 2.0384
3.6517 8.3922 2.0384
2.9632 8.6502 2.0384
2.2569 8.8518 2.0384
1.5373 8.9959 2.0384
0.8091 9.0818 2.0384
0.0770 9.1089 2.0384
-0.6542 9.0774 2.0384
-1.3800 8.9875 2.0384
-2.0956 8.8400 2.0384
-2.7966 8.6360 2.0384
-3.4786 8.3769 2.0384
-4.1372 8.0644 2.0384
-4.7684 7.7006 2.0384
-5.3683 7.2880 2.0384
-5.9330 6.8293 2.0384
-6.4592 6.3272 2.0384
-6.9436 5.7852 2.0384
-7.3831 5.2066 2.0384
-7.7752 4.5952 2.0384
-8.1173 3.9546 2.0384
-8.4074 3.2891 2.0384
-8.6437 2.6027 2.0384
-8.8248 1.8997 2.0384
-8.9495 1.1846 2.0384
-9.0169 0.4617 2.0384
-9.0268 -0.2644 2.0384
-8.9789 -0.9891 2.0384
-8.8735 -1.7079 2.0384
-8.7113 -2.4164 2.0384
-8.4932 -3.1099 2.0384
-8.2204 -3.7843 2.0384
-7.8946 -4.4353 2.0384
-7.5178 -5.0585 2.0384
-7.0923 -5.6502 2.0384
7.5567 -0.1499 1.8919
7.5426 0.4570 1.8919
7.4761 1.0601 1.8910
7.3579 1.6546 1.8894
7.1891 2.2361 1.8869
6.9797 2.8032 1.8860
6.7286 3.3526 1.8860
6.4341 3.8796 1.8860
6.0981 4.3808 1.8860
5.7229 4.8529 1.8860
5.0244 5.0072 1.7842
4.9019 5.7409 1.9001
4.7435 6.5557 2.0384
4.1985 6.9098 2.0384
3.6272 7.2187 2.0384
3.0333 7.4804 2.0384
2.4208 7.6933 2.0384
1.7937 7.8561 2.0384
1.1560 7.9681 2.0384
0.5119 8.0284 2.0384
-0.1344 8.0369 2.0384
-0.7789 7.9937 2.0384
-1.4174 7.8991 2.0384
-2.0457 7.7538 2.0384
-2.6601 7.5589 2.0384
-3.2564 7.3157 2.0384
-3.8312 7.0259 2.0384
-4.3806 6.6914 2.0384
-4.9014 6.3144 2.0384
-5.3901 5.8971 2.0384
-5.8440 5.4426 2.0384
-6.2600 4.9535 2.0384
-6.6356 4.4331 2.0384
-6.9686 3.8845 2.0384
-7.2568 3.3114 2.0384
-7.4984 2.7172 2.0384
-7.6921 2.1057 2.0384
-7.8365 1.4808 2.0384
-7.9307 0.8464 2.0384
-7.9742 0.2064 2.0384
-7.9667 -0.4351 2.0384
-7.9081 -1.0742 2.0384
-7.7989 -1.7067 2.0384
-7.6396 -2.3288 2.0384
-7.4312 -2.9364 2.0384
-7.1749 -3.5258 2.0384
-6.8723 -4.0931 2.0384
-6.5252 -4.6349 2.0384
-6.1358 -5.1475 2.0384
-5.7065 -5.6277 2.0384
-5.2398 -6.0724 2.0384
-4.7387 -6.4786 2.0384
-4.2064 -6.8438 2.0384
-3.6461 -7.1653 2.0384
-3.0614 -7.4412 2.0384
-2.4559 -7.6695 2.0384
-1.8337 -7.8486 2.0384
-1.1985 -7.9773 2.0384
-0.5545 -8.0546 2.0384
0.0941 -8.0798 2.0384
0.2984 -3.2333 0.8184
0.5620 -3.2277 0.8252
0.8322 -3.2220 0.8375
1.1128 -3.2160 0.8558
1.4084 -3.2098 0.8809
1.7244 -3.2032 0.9136
2.0675 -3.1960 0.9553
2.4466 -3.1880 1.0080
5.1221 -5.6672 1.9152
5.4781 -5.1603 1.8860
5.8769 -4.7058 1.8860
6.2377 -4.2204 1.8860
6.5580 -3.7071 1.8860
6.8358 -3.1695 1.8860
7.0691 -2.6109 1.8860
7.2591 -2.0362 1.8867
7.4089 -1.4490 1.8892
7.5076 -0.8504 1.8909
7.5542 -0.2452 1.8918
7.5483 0.3618 1.8919
7.4900 0.9658 1.8912
7.3798 1.5620 1.8897
7.2189 2.1458 1.8874
7.0150 2.7151 1.8860
6.7710 3.2676 1.8860
6.4832 3.7984 1.8860
6.1535 4.3039 1.8860
5.7844 4.7808 1.8860
5.1296 4.9846 1.7988
4.9376 5.6366 1.8860
4.8265 6.4960 2.0384
4.2860 6.8571 2.0384
3.7185 7.1732 2.0384
3.1279 7.4424 2.0384
2.5181 7.6631 2.0384
1.8930 7.8339 2.0384
1.2567 7.9539 2.0384
0.6133 8.0224 2.0384
-0.0330 8.0390 2.0384
-0.6780 8.0039 2.0384
-1.3176 7.9173 2.0384
-1.9479 7.7799 2.0384
-2.5647 7.5927 2.0384
-3.1641 7.3570 2.0384
-3.7425 7.0744 2.0384
-4.2961 6.7468 2.0384
-4.8216 6.3762 2.0384
-5.3156 5.9652 2.0384
-5.7751 5.5163 2.0384
-6.1972 5.0325 2.0384
-6.5794 4.5167 2.0384
-6.9192 3.9724 2.0384
-7.2145 3.4029 2.0384
-7.4636 2.8117 2.0384
-7.6649 2.2028 2.0384
-7.8171 1.5797 2.0384
-7.9193 0.9465 2.0384
-7.9708 0.3071 2.0384
-7.9713 -0.3344 2.0384
-7.9207 -0.9741 2.0384
-7.8194 -1.6080 2.0384
-7.6679 -2.2319 2.0384
-7.4671 -2.8421 2.0384
-7.2182 -3.4346 2.0384
-6.9228 -4.0056 2.0384
-6.5826 -4.5516 2.0384
-6.1997 -5.0690 2.0384
-5.7765 -5.5546 2.0384
-5.3155 -6.0050 2.0384
-4.8196 -6.4176 2.0384
-4.2919 -6.7892 2.0384
-3.7358 -7.1178 2.0384
-3.1547 -7.4010 2.0384
-2.5523 -7.6369 2.0384
-1.9323 -7.8238 2.0384
-1.2989 -7.9605 2.0384
-0.6561 -8.0459 2.0384
-0.0079 -8.0793 2.0384
0.2639 -3.3162 0.8386
0.5203 -3.2286 0.8237
0.7892 -3.2229 0.8351
1.0679 -3.2170 0.8525
1.3608 -3.2108 0.8765
1.6732 -3.2042 0.9079
2.0115 -3.1971 0.9481
2.3842 -3.1893 0.9989
5.1200 -5.8107 1.9418
5.4122 -5.2287 1.8860
5.8167 -4.7793 1.8860
6.1836 -4.2985 1.8860
6.5105 -3.7895 1.8860
6.7951 -3.2553 1.8860
7.0354 -2.6999 1.8860
7.2310 -2.1271 1.8862
7.3887 -1.5421 1.8889
7.4955 -0.9450 1.8907
7.5503 -0.3405 1.8917
7.5527 0.2665 1.8920
7.5026 0.8713 1.8914
7.4005 1.4691 1.8900
7.2475 2.0551 1.8878
7.0493 2.6265 1.8860
6.8122 3.1822 1.8860
6.5312 3.7167 1.8860
6.2080 4.2263 1.8860
5.8449 4.7079 1.8860
5.2571 4.9810 1.8211
4.9712 5.5327 1.8718
4.8661 6.3795 2.0207
4.3727 6.8033 2.0384
3.8093 7.1266 2.0384
3.2221 7.4033 2.0384
2.6150 7.6317 2.0384
1.9920 7.8104 2.0384
1.3572 7.9384 2.0384
0.7147 8.0150 2.0384
0.0686 8.0398 2.0384
-0.5769 8.0128 2.0384
-1.2177 7.9343 2.0384
-1.8497 7.8048 2.0384
-2.4688 7.6254 2.0384
-3.0713 7.3972 2.0384
-3.6532 7.1219 2.0384
-4.2110 6.8011 2.0384
-4.7411 6.4372 2.0384
-5.2402 6.0324 2.0384
-5.7053 5.5892 2.0384
-6.1335 5.1107 2.0384
-6.5221 4.5997 2.0384
-6.8687 4.0596 2.0384
-7.1712 3.4938 2.0384
-7.4276 2.9059 2.0384
-7.6365 2.2994 2.0384
-7.7965 1.6783 2.0384
-7.9066 1.0465 2.0384
-7.9661 0.4078 2.0384
-7.9746 -0.2337 2.0384
-7.9320 -0.8740 2.0384
-7.8386 -1.5090 2.0384
-7.6950 -2.1347 2.0384
-7.5018 -2.7473 2.0384
-7.2605 -3.3428 2.0384
-6.9722 -3.9175 2.0384
-6.6389 -4.4677 2.0384
-6.2626 -4.9898 2.0384
6.7236 -0.1334 1.8860
6.7113 0.4065 1.8860
6.6553 0.9435 1.8860
6.5561 1.4741 1.8860
6.4142 1.9948 1.8860
6.2308 2.5021 1.8860
6.0070 2.9927 1.8860
5.7445 3.4633 1.8860
5.4448 3.9110 1.8860
5.1102 4.3328 1.8860
4.9081 4.8907 1.9517
4.6964 5.4993 2.0384
4.2368 5.8544 2.0384
3.7503 6.1712 2.0384
3.2403 6.4476 2.0384
2.7101 6.6819 2.0384
2.1632 6.8726 2.0384
1.6030 7.0188 2.0384
1.0334 7.1193 2.0384
0.4579 7.1739 2.0384
-0.1196 7.1821 2.0384
-0.6956 7.1440 2.0384
-1.2663 7.0600 2.0384
-1.8281 6.9307 2.0384
-2.3774 6.7570 2.0384
-2.9107 6.5400 2.0384
-3.4247 6.2813 2.0384
-3.9162 5.9826 2.0384
-4.3820 5.6458 2.0384
-4.8193 5.2730 2.0384
-5.2253 4.8668 2.0384
-5.5975 4.4296 2.0384
-5.9337 3.9643 2.0384
-6.2316 3.4739 2.0384
-6.4895 2.9613 2.0384
-6.7057 2.4300 2.0384
-6.8789 1.8831 2.0384
-7.0080 1.3242 2.0384
-7.0923 0.7568 2.0384
-7.1311 0.1845 2.0384
-7.1242 -0.3893 2.0384
-7.0716 -0.9608 2.0384
-6.9737 -1.5264 2.0384
-6.8310 -2.0826 2.0384
-6.6443 -2.6258 2.0384
-6.4148 -3.1526 2.0384
-6.1439 -3.6597 2.0384
-5.8332 -4.1438 2.0384
-5.4847 -4.6018 2.0384
-5.1006 -5.0308 2.0384
-4.6831 -5.4279 2.0384
-4.2348 -5.7906 2.0384
-3.7587 -6.1164 2.0384
-3.2577 -6.4033 2.0384
-2.7350 -6.6493 2.0384
-2.1938 -6.8527 2.0384
-1.6377 -7.0121 2.0384
-1.0701 -7.1265 2.0384
-0.4948 -7.1949 2.0384
0.0846 -7.2168 2.0384
0.2986 -3.2336 0.9165
0.5623 -3.2280 0.9240
0.8325 -3.2222 0.9379
1.1132 -3.2163 0.9585
1.4088 -3.2101 0.9867
1.7248 -3.2035 1.0234
2.0680 -3.1963 1.0702
4.4168 -5.7548 2.0384
4.8667 -5.3842 2.0384
5.0958 -4.7998 1.9653
5.2459 -4.2003 1.8860
5.5678 -3.7669 1.8860
5.8535 -3.3087 1.8860
6.1013 -2.8288 1.8860
6.3094 -2.3304 1.8860
6.4764 -1.8166 1.8860
6.6013 -1.2910 1.8860
6.6832 -0.7570 1.8860
6.7215 -0.2182 1.8860
6.7161 0.3218 1.8860
6.6670 0.8595 1.8860
6.5745 1.3913 1.8860
6.4393 1.9138 1.8860
6.2623 2.4234 1.8860
6.0448 2.9168 1.8860
5.7882 3.3909 1.8860
5.4943 3.8424 1.8860
5.1650 4.2684 1.8860
4.9144 4.7749 1.9299
4.7659 5.4401 2.0384
4.3108 5.8011 2.0384
3.8284 6.1240 2.0384
3.3219 6.4069 2.0384
2.7946 6.6479 2.0384
2.2500 6.8456 2.0384
1.6917 6.9988 2.0384
1.1234 7.1066 2.0384
0.5486 7.1684 2.0384
-0.0289 7.1839 2.0384
-0.6054 7.1530 2.0384
-1.1772 7.0762 2.0384
-1.7406 6.9540 2.0384
-2.2921 6.7872 2.0384
-2.8281 6.5769 2.0384
-3.3454 6.3247 2.0384
-3.8406 6.0321 2.0384
-4.3107 5.7011 2.0384
-4.7526 5.3339 2.0384
-5.1637 4.9327 2.0384
-5.5414 4.5002 2.0384
-5.8834 4.0391 2.0384
-6.1874 3.5524 2.0384
-6.4517 3.0432 2.0384
-6.6745 2.5145 2.0384
-6.8546 1.9699 2.0384
-6.9907 1.4127 2.0384
-7.0820 0.8464 2.0384
-7.1280 0.2745 2.0384
-7.1283 -0.2992 2.0384
-7.0829 -0.8713 2.0384
-6.9920 -1.4381 2.0384
-6.8563 -1.9960 2.0384
-6.6765 -2.5415 2.0384
-6.4536 -3.0711 2.0384
-6.1891 -3.5815 2.0384
-5.8846 -4.0695 2.0384
-5.5419 -4.5318 2.0384
-5.1632 -4.9655 2.0384
-4.7507 -5.3677 2.0384
-4.3072 -5.7360 2.0384
-3.8353 -6.0678 2.0384
-3.3379 -6.3609 2.0384
-2.8184 -6.6134 2.0384
-2.2799 -6.8236 2.0384
-1.7259 -6.9901 2.0384
-1.1599 -7.1115 2.0384
-0.5855 -7.1872 2.0384
-0.0065 -7.2165 2.0384
0.2638 -3.3122 0.9378
0.5205 -3.2289 0.9224
0.7895 -3.2232 0.9353
1.0682 -3.2173 0.9548
1.3612 -3.2111 0.9817
1.6736 -3.2045 1.0170
2.0119 -3.1974 1.0621
2.3847 -3.1896 1.1191
4.7980 -5.4447 2.0384
5.0939 -4.9208 1.9884
5.1922 -4.2659 1.8860
5.5195 -3.8367 1.8860
5.8111 -3.3822 1.8860
6.0650 -2.9055 1.8860
6.2794 -2.4097 1.8860
6.4530 -1.8982 1.8860
6.5845 -1.3742 1.8860
6.6732 -0.8414 1.8860
6.7184 -0.3030 1.8860
6.7199 0.2371 1.8860
6.6776 0.7753 1.8860
6.5919 1.3083 1.8860
6.4633 1.8325 1.8860
6.2928 2.3443 1.8860
6.0816 2.8405 1.8860
5.8310 3.3178 1.8860
5.5428 3.7731 1.8860
5.2190 4.2033 1.8860
4.9206 4.6615 1.9088
4.8347 5.3801 2.0384
4.3842 5.7469 2.0384
3.9058 6.0759 2.0384
3.4029 6.3652 2.0384
2.8786 6.6129 2.0384
2.3366 6.8175 2.0384
1.7802 6.9777 2.0384
1.2131 7.0927 2.0384
0.6391 7.1617 2.0384
0.0618 7.1845 2.0384
-0.5151 7.1609 2.0384
-1.0878 7.0913 2.0384
-1.6528 6.9761 2.0384
-2.2064 6.8163 2.0384
-2.7451 6.6128 2.0384
-3.2655 6.3670 2.0384
-3.7644 6.0806 2.0384
-4.2386 5.7556 2.0384
-4.6852 5.3939 2.0384
-5.1013 4.9979 2.0384
-5.4844 4.5701 2.0384
-5.8321 4.1133 2.0384
-6.1422 3.6305 2.0384
-6.4129 3.1245 2.0384
-6.6423 2.5987 2.0384
-6.8292 2.0564 2.0384
-6.9723 1.5009 2.0384
-7.0707 0.9358 2.0384
-7.1238 0.3646 2.0384
-7.1313 -0.2091 2.0384
-7.0930 -0.7817 2.0384
-7.0093 -1.3496 2.0384
-6.8806 -1.9091 2.0384
-6.7076 -2.4568 2.0384
-6.4914 -2.9891 2.0384
-6.2334 -3.5028 2.0384
-5.9350 -3.9944 2.0384
-5.5982 -4.4610 2.0384
6.0618 -0.1204 1.8860
6.0509 0.3663 1.8860
6.0005 0.8505 1.8860
5.9112 1.3289 1.8860
5.7836 1.7984 1.8860
5.6184 2.2559 1.8860
5.4169 2.6983 1.8860
5.1804 3.1229 1.8860
4.9455 3.5522 1.8994
4.9116 4.1639 2.0098
4.6236 4.6066 2.0384
4.2363 4.9598 2.0384
3.8220 5.2805 2.0384
3.3835 5.5666 2.0384
2.9236 5.8163 2.0384
2.4455 6.0281 2.0384
1.9522 6.2006 2.0384
1.4469 6.3328 2.0384
0.9330 6.4241 2.0384
0.4137 6.4737 2.0384
-0.1075 6.4816 2.0384
-0.6273 6.4476 2.0384
-1.1425 6.3722 2.0384
-1.6496 6.2559 2.0384
-2.1456 6.0994 2.0384
-2.6272 5.9040 2.0384
-3.0914 5.6707 2.0384
-3.5352 5.4013 2.0384
-3.9560 5.0974 2.0384
-4.3510 4.7611 2.0384
-4.7178 4.3944 2.0384
-5.0540 3.9998 2.0384
-5.3577 3.5797 2.0384
-5.6268 3.1369 2.0384
-5.8598 2.6741 2.0384
-6.0551 2.1943 2.0384
-6.2116 1.7005 2.0384
-6.3282 1.1957 2.0384
-6.4042 0.6833 2.0384
-6.4392 0.1665 2.0384
-6.4328 -0.3516 2.0384
-6.3852 -0.8677 2.0384
-6.2966 -1.3784 2.0384
-6.1675 -1.8806 2.0384
-5.9988 -2.3710 2.0384
-5.7913 -2.8466 2.0384
-5.5465 -3.3043 2.0384
-5.2657 -3.7412 2.0384
-4.9508 -4.1544 2.0384
-4.6038 -4.5414 2.0384
-4.2266 -4.8996 2.0384
-3.8218 -5.2266 2.0384
-3.3919 -5.5203 2.0384
-2.9395 -5.7789 2.0384
-2.4676 -6.0004 2.0384
-1.9791 -6.1836 2.0384
-1.4771 -6.3270 2.0384
-0.9650 -6.4297 2.0384
-0.4459 -6.4910 2.0384
0.0768 -6.5104 2.0384
0.2989 -3.2338 1.0161
0.5626 -3.2282 1.0245
0.8328 -3.2225 1.0400
1.1135 -3.2166 1.0629
1.4091 -3.2104 1.0942
1.7252 -3.2037 1.1350
2.0684 -3.1966 1.1870
3.9830 -5.1891 2.0384
4.3885 -4.8547 2.0384
4.7657 -4.4887 2.0384
5.0708 -4.0598 2.0218
5.0796 -3.4363 1.9083
5.2775 -2.9830 1.8860
5.5008 -2.5503 1.8860
5.6884 -2.1009 1.8860
5.8389 -1.6378 1.8860
5.9515 -1.1640 1.8860
6.0253 -0.6826 1.8860
6.0600 -0.1969 1.8860
6.0552 0.2900 1.8860
6.0110 0.7748 1.8860
5.9278 1.2543 1.8860
5.8061 1.7254 1.8860
5.6468 2.1849 1.8860
5.4509 2.6299 1.8860
5.2198 3.0575 1.8860
4.9591 3.4677 1.8875
4.9171 4.0631 1.9907
4.6818 4.5483 2.0384
4.2990 4.9064 2.0384
3.8887 5.2323 2.0384
3.4538 5.5240 2.0384
2.9971 5.7795 2.0384
2.5216 5.9974 2.0384
2.0305 6.1761 2.0384
1.5269 6.3148 2.0384
1.0141 6.4125 2.0384
0.4955 6.4687 2.0384
-0.0256 6.4831 2.0384
-0.5459 6.4557 2.0384
-1.0620 6.3868 2.0384
-1.5706 6.2768 2.0384
-2.0686 6.1266 2.0384
-2.5526 5.9372 2.0384
-3.0197 5.7098 2.0384
-3.4670 5.4459 2.0384
-3.8915 5.1473 2.0384
-4.2908 4.8160 2.0384
-4.6621 4.4539 2.0384
-5.0033 4.0635 2.0384
-5.3122 3.6473 2.0384
-5.5869 3.2078 2.0384
-5.8257 2.7480 2.0384
-6.0270 2.2706 2.0384
-6.1896 1.7788 2.0384
-6.3125 1.2756 2.0384
-6.3950 0.7642 2.0384
-6.4364 0.2478 2.0384
-6.4366 -0.2703 2.0384
-6.3954 -0.7869 2.0384
-6.3132 -1.2987 2.0384
-6.1905 -1.8024 2.0384
-6.0279 -2.2949 2.0384
-5.8264 -2.7730 2.0384
-5.5873 -3.2337 2.0384
-5.3121 -3.6740 2.0384
-5.0025 -4.0912 2.0384
-4.6603 -4.4825 2.0384
-4.2878 -4.8453 2.0384
-3.8871 -5.1774 2.0384
-3.4610 -5.4765 2.0384
-3.0119 -5.7407 2.0384
-2.5429 -5.9682 2.0384
-2.0568 -6.1574 2.0384
-1.5567 -6.3071 2.0384
-1.0460 -6.4163 2.0384
-0.5277 -6.4842 2.0384
-0.0054 -6.5101 2.0384
0.2637 -3.3082 1.0384
0.5208 -3.2291 1.0228
0.7898 -3.2234 1.0371
1.0685 -3.2175 1.0588
1.3615 -3.2114 1.0887
1.6739 -3.2048 1.1279
2.0124 -3.1977 1.1780
2.3852 -3.1900 1.2412
4.3266 -4.9094 2.0384
4.7084 -4.5481 2.0384
5.0599 -4.1570 2.0384
5.0784 -3.5298 1.9246
5.2393 -3.0493 1.8860
5.4681 -2.6195 1.8860
5.6613 -2.1725 1.8860
5.8178 -1.7113 1.8860
5.9364 -1.2390 1.8860
6.0163 -0.7586 1.8860
6.0572 -0.2733 1.8860
6.0586 0.2135 1.8860
6.0206 0.6989 1.8860
5.9435 1.1794 1.8860
5.8278 1.6521 1.8860
5.6743 2.1136 1.8860
5.4840 2.5611 1.8860
5.2583 2.9916 1.8860
4.9987 3.4021 1.8860
4.9225 3.9640 1.9723
4.7393 4.4893 2.0384
4.3610 4.8523 2.0384
3.9549 5.1834 2.0384
3.5237 5.4805 2.0384
3.0702 5.7419 2.0384
2.5974 5.9657 2.0384
2.1086 6.1507 2.0384
1.6067 6.2957 2.0384
1.0952 6.3999 2.0384
0.5772 6.4626 2.0384
0.0563 6.4836 2.0384
-0.4644 6.4628 2.0384
-0.9814 6.4003 2.0384
-1.4914 6.2968 2.0384
-1.9912 6.1528 2.0384
-2.4776 5.9695 2.0384
-2.9476 5.7480 2.0384
-3.3982 5.4897 2.0384
-3.8265 5.1965 2.0384
-4.2298 4.8701 2.0384
-4.6057 4.5127 2.0384
-4.9518 4.1266 2.0384
-5.2659 3.7143 2.0384
-5.5461 3.2783 2.0384
-5.7906 2.8214 2.0384
-5.9979 2.3466 2.0384
-6.1667 1.8569 2.0384
-6.2959 1.3553 2.0384
-6.3847 0.8449 2.0384
-6.4326 0.3291 2.0384
-6.4393 -0.1890 2.0384
-6.4046 -0.7060 2.0384
-6.3289 -1.2187 2.0384
-6.2124 -1.7239 2.0384
-6.0560 -2.2184 2.0384
-5.8606 -2.6990 2.0384
-5.6273 -3.1626 2.0384
-5.3577 -3.6063 2.0384
-5.0533 -4.0273 2.0384
5.5100 -0.1096 1.8860
5.5001 0.3328 1.8860
5.4544 0.7729 1.8860
5.3734 1.2078 1.8860
5.2575 1.6346 1.8860
5.1075 2.0505 1.8860
4.9649 2.4727 1.9014
4.9407 2.9780 1.9785
4.8253 3.4652 2.0384
4.5293 3.8393 2.0384
4.2042 4.1882 2.0384
3.8522 4.5095 2.0384
3.4757 4.8014 2.0384
3.0772 5.0618 2.0384
2.6591 5.2891 2.0384
2.2245 5.4821 2.0384
1.7759 5.6393 2.0384
1.3165 5.7599 2.0384
0.8491 5.8432 2.0384
0.3768 5.8887 2.0384
-0.0973 5.8962 2.0384
-0.5703 5.8656 2.0384
-1.0390 5.7974 2.0384
-1.5005 5.6918 2.0384
-1.9518 5.5498 2.0384
-2.3901 5.3721 2.0384
-2.8126 5.1601 2.0384
-3.2167 4.9152 2.0384
-3.5997 4.6388 2.0384
-3.9593 4.3328 2.0384
-4.2932 3.9993 2.0384
-4.5994 3.6402 2.0384
-4.8759 3.2582 2.0384
-5.1209 2.8550 2.0384
-5.3330 2.4338 2.0384
-5.5108 1.9971 2.0384
-5.6533 1.5476 2.0384
-5.7594 1.0883 2.0384
-5.8286 0.6219 2.0384
-5.8603 0.1514 2.0384
-5.8545 -0.3202 2.0384
-5.8111 -0.7898 2.0384
-5.7303 -1.2546 2.0384
-5.6126 -1.7116 2.0384
-5.4589 -2.1579 2.0384
-5.2699 -2.5906 2.0384
-5.0469 -3.0070 2.0384
-4.7912 -3.4044 2.0384
-4.5045 -3.7803 2.0384
-4.1884 -4.1322 2.0384
-3.8451 -4.4579 2.0384
-3.4766 -4.7552 2.0384
-3.0853 -5.0222 2.0384
-2.6736 -5.2571 2.0384
-2.2441 -5.4584 2.0384
-1.7997 -5.6246 2.0384
-1.3431 -5.7547 2.0384
-0.8772 -5.8478 2.0384
-0.4051 -5.9032 2.0384
0.0703 -5.9205 2.0384
0.2992 -3.2341 1.1174
0.5629 -3.2285 1.1268
0.8331 -3.2228 1.1439
0.7020 -2.0274 0.7368
1.4095 -3.2107 1.2036
1.7256 -3.2040 1.2485
2.0688 -3.1969 1.3058
3.6211 -4.7171 2.0384
3.9895 -4.4130 2.0384
4.3323 -4.0800 2.0384
4.6472 -3.7204 2.0384
4.9320 -3.3363 2.0384
5.0537 -2.8563 1.9868
5.0582 -2.3450 1.9079
5.1705 -1.9096 1.8860
5.3073 -1.4886 1.8860
5.4096 -1.0580 1.8860
5.4767 -0.6205 1.8860
5.5083 -0.1791 1.8860
5.5040 0.2635 1.8860
5.4640 0.7041 1.8860
5.3885 1.1400 1.8860
5.2780 1.5682 1.8860
5.1397 1.9885 1.8883
4.9744 2.3997 1.8932
4.9448 2.8961 1.9652
4.8690 3.4043 2.0384
4.5778 3.7822 2.0384
4.2571 4.1351 2.0384
3.9092 4.4610 2.0384
3.5364 4.7576 2.0384
3.1411 5.0230 2.0384
2.7260 5.2557 2.0384
2.2937 5.4541 2.0384
1.8472 5.6170 2.0384
1.3892 5.7434 2.0384
0.9229 5.8326 2.0384
0.4512 5.8841 2.0384
-0.0228 5.8975 2.0384
-0.4962 5.8730 2.0384
-0.9658 5.8106 2.0384
-1.4286 5.7108 2.0384
-1.8817 5.5745 2.0384
-2.3222 5.4023 2.0384
-2.7474 5.1956 2.0384
-3.1545 4.9558 2.0384
-3.5410 4.6842 2.0384
-3.9045 4.3828 2.0384
-4.2426 4.0534 2.0384
-4.5532 3.6982 2.0384
-4.8345 3.3197 2.0384
-5.0846 2.9196 2.0384
-5.3019 2.5011 2.0384
-5.4852 2.0666 2.0384
-5.6333 1.6190 2.0384
-5.7452 1.1609 2.0384
-5.8202 0.6955 2.0384
-5.8578 0.2254 2.0384
-5.8579 -0.2461 2.0384
-5.8204 -0.7163 2.0384
-5.7454 -1.1821 2.0384
-5.6335 -1.6405 2.0384
-5.4854 -2.0886 2.0384
-5.3019 -2.5237 2.0384
-5.0841 -2.9428 2.0384
-4.8335 -3.3433 2.0384
-4.5515 -3.7228 2.0384
-4.2399 -4.0786 2.0384
-3.9007 -4.4086 2.0384
-3.5361 -4.7105 2.0384
-3.1482 -4.9823 2.0384
-2.7395 -5.2224 2.0384
-2.3127 -5.4290 2.0384
-0.6792 -2.0338 0.7402
-1.4155 -5.7367 2.0384
-0.9508 -5.8357 2.0384
-0.4795 -5.8970 2.0384
-0.0045 -5.9203 2.0384
0.2636 -3.3041 1.1405
0.5211 -3.2294 1.1249
0.7901 -3.2237 1.1407
0.6763 -2.0360 0.7369
1.3619 -3.2117 1.1975
1.6743 -3.2051 1.2407
2.0128 -3.1980 1.2959
2.3857 -3.1903 1.3656
3.9333 -4.4627 2.0384
4.2803 -4.1342 2.0384
4.5996 -3.7785 2.0384
4.8893 -3.3982 2.0384
5.0527 -2.9405 2.0009
5.0577 -2.4227 1.9191
5.1459 -1.9746 1.8860
5.2880 -1.5555 1.8860
5.3958 -1.1262 1.8860
5.4685 -0.6896 1.8860
5.5057 -0.2485 1.8860
5.5070 0.1940 1.8860
5.4726 0.6351 1.8860
5.4026 1.0719 1.8860
5.2976 1.5016 1.8860
5.1583 1.9212 1.8860
4.9855 2.3280 1.8860
4.9487 2.8151 1.9523
4.9120 3.3428 2.0384
4.6255 3.7244 2.0384
4.3093 4.0814 2.0384
3.9656 4.4117 2.0384
3.5965 4.7130 2.0384
3.2046 4.9835 2.0384
2.7924 5.2214 2.0384
2.3626 5.4252 2.0384
1.9181 5.5937 2.0384
1.4618 5.7260 2.0384
0.9966 5.8211 2.0384
0.5255 5.8785 2.0384
0.0516 5.8979 2.0384
-0.4220 5.8793 2.0384
-0.8924 5.8228 2.0384
-1.3565 5.7289 2.0384
-1.8113 5.5983 2.0384
-2.2540 5.4317 2.0384
-2.6818 5.2303 2.0384
-3.0919 4.9956 2.0384
-3.4818 4.7289 2.0384
-3.8490 4.4320 2.0384
-4.1912 4.1069 2.0384
-4.5063 3.7556 2.0384
-4.7923 3.3804 2.0384
-5.0474 2.9837 2.0384
-5.2700 2.5679 2.0384
-5.4588 2.1357 2.0384
-5.6124 1.6900 2.0384
-5.7300 1.2335 2.0384
-5.8109 0.7689 2.0384
-5.8544 0.2994 2.0384
-5.8604 -0.1721 2.0384
-5.8287 -0.6427 2.0384
-5.7597 -1.1093 2.0384
-5.6535 -1.5691 2.0384
-5.5110 -2.0190 2.0384
-5.3330 -2.4563 2.0384
-5.1205 -2.8781 2.0384
-4.8749 -3.2818 2.0384
-4.5978 -3.6647 2.0384
5.0420 -0.1003 1.8860
5.0330 0.3045 1.8860
5.0083 0.7096 1.8924
4.9892 1.1213 1.9135
4.9741 1.5462 1.9498
4.9562 1.9894 1.9997
4.8711 2.4258 2.0384
4.6588 2.8078 2.0384
4.4165 3.1712 2.0384
4.1457 3.5137 2.0384
3.8484 3.8331 2.0384
3.5264 4.1275 2.0384
3.1819 4.3948 2.0384
2.8172 4.6334 2.0384
2.4347 4.8417 2.0384
0.7456 1.8370 0.7461
0.5957 1.8910 0.7466
0.4419 1.9328 0.7471
0.2853 1.9621 0.7476
0.3455 5.3919 2.0384
-0.0887 5.3990 2.0384
-0.1917 1.9730 0.7487
-0.3495 1.9510 0.7491
-0.5050 1.9163 0.7494
-0.6572 1.8692 0.7496
-2.1887 4.9202 2.0384
-2.5757 4.7262 2.0384
-2.9459 4.5020 2.0384
-3.2969 4.2490 2.0384
-3.6264 3.9689 2.0384
-3.9324 3.6634 2.0384
-4.2129 3.3346 2.0384
-4.4662 2.9845 2.0384
-4.6908 2.6153 2.0384
-4.8852 2.2295 2.0384
-5.0481 1.8294 2.0384
-5.1786 1.4177 2.0384
-5.2758 0.9969 2.0384
-5.3392 0.5696 2.0384
-5.3682 0.1386 2.0384
-5.3628 -0.2934 2.0384
-5.3229 -0.7236 2.0384
-5.2488 -1.1494 2.0384
-5.1410 -1.5680 2.0384
-5.0000 -1.9767 2.0384
-4.8267 -2.3731 2.0384
-4.6223 -2.7544 2.0384
-4.3879 -3.1183 2.0384
-4.1252 -3.4624 2.0384
-3.8356 -3.7846 2.0384
-3.5210 -4.0827 2.0384
-3.1833 -4.3548 2.0384
-2.8249 -4.5991 2.0384
-2.4477 -4.8139 2.0384
-0.7467 -1.8166 0.7409
-0.5984 -1.8706 0.7404
-0.4462 -1.9126 0.7399
-0.2912 -1.9422 0.7395
-0.1343 -1.9594 0.7390
0.0235 -1.9640 0.7387
0.1811 -1.9559 0.7383
0.3376 -1.9353 0.7380
0.4919 -1.9023 0.7377
0.6431 -1.8570 0.7374
1.4099 -3.2109 1.3152
1.7260 -3.2043 1.3644
2.0693 -3.1972 1.4270
3.3141 -4.3168 2.0384
3.6512 -4.0384 2.0384
3.9648 -3.7336 2.0384
4.2528 -3.4044 2.0384
4.5133 -3.0529 2.0384
4.7446 -2.6815 2.0384
4.9451 -2.2925 2.0384
5.0306 -1.8579 2.0053
5.0314 -1.4113 1.9539
5.0300 -0.9838 1.9164
5.0321 -0.5702 1.8937
5.0404 -0.1639 1.8860
5.0366 0.2415 1.8860
5.0117 0.6457 1.8903
4.9913 1.0561 1.9090
4.9767 1.4785 1.9432
4.9592 1.9184 1.9909
4.9016 2.3643 2.0384
4.6942 2.7489 2.0384
4.4565 3.1154 2.0384
4.1901 3.4614 2.0384
3.8967 3.7846 2.0384
3.5785 4.0830 2.0384
3.2374 4.3547 2.0384
2.8757 4.5979 2.0384
2.4958 4.8111 2.0384
0.7687 1.8274 0.7461
0.6195 1.8834 0.7466
0.4663 1.9271 0.7470
0.3100 1.9583 0.7475
0.4136 5.3876 2.0384
-0.0205 5.4002 2.0384
-0.4539 5.3779 2.0384
-0.3248 1.9553 0.7490
-0.4808 1.9226 0.7493
-0.6336 1.8774 0.7496
-2.1265 4.9478 2.0384
-2.5160 4.7587 2.0384
-2.8890 4.5391 2.0384
-3.2431 4.2906 2.0384
-3.5761 4.0146 2.0384
-3.8859 3.7130 2.0384
-4.1706 3.3877 2.0384
-4.4283 3.0408 2.0384
-4.6575 2.6745 2.0384
-4.8567 2.2910 2.0384
-5.0246 1.8931 2.0384
-5.1603 1.4830 2.0384
-5.2628 1.0635 2.0384
-5.3315 0.6370 2.0384
-5.3660 0.2064 2.0384
-5.3660 -0.2256 2.0384
-5.3315 -0.6563 2.0384
-5.2627 -1.0829 2.0384
-5.1601 -1.5028 2.0384
-5.0243 -1.9133 2.0384
-4.8560 -2.3117 2.0384
-4.6564 -2.6956 2.0384
-4.4267 -3.0624 2.0384
-4.1683 -3.4098 2.0384
-3.8827 -3.7356 2.0384
-3.5719 -4.0376 2.0384
-3.2378 -4.3138 2.0384
-2.8825 -4.5626 2.0384
-2.5081 -4.7822 2.0384
-0.7696 -1.8071 0.7410
-0.6219 -1.8629 0.7405
-0.4703 -1.9068 0.7400
-0.3157 -1.9384 0.7395
-0.1590 -1.9575 0.7391
-0.0013 -1.9641 0.7387
0.1564 -1.9580 0.7383
0.3131 -1.9394 0.7380
0.4678 -1.9083 0.7377
0.6196 -1.8649 0.7374
0.7674 -1.8095 0.7372
1.6747 -3.2054 1.3558
2.0133 -3.1984 1.4162
2.3862 -3.1906 1.4924
3.5998 -4.0839 2.0384
3.9172 -3.7831 2.0384
4.2093 -3.4577 2.0384
4.4742 -3.1095 2.0384
4.7103 -2.7412 2.0384
4.9157 -2.3547 2.0384
5.0303 -1.9302 2.0147
5.0314 -1.4800 1.9610
5.0303 -1.0502 1.9214
5.0310 -0.6345 1.8961
5.0381 -0.2275 1.8860
5.0394 0.1770 1.8860
5.0147 0.5818 1.8885
4.9934 0.9906 1.9048
4.9791 1.4110 1.9370
4.9621 1.8479 1.9825
4.9314 2.3024 2.0384
4.7288 2.6897 2.0384
4.4957 3.0592 2.0384
4.2337 3.4085 2.0384
3.9445 3.7354 2.0384
3.6300 4.0378 2.0384
3.2924 4.3138 2.0384
2.9338 4.5616 2.0384
2.5566 4.7796 2.0384
0.7917 1.8176 0.7460
0.6432 1.8754 0.7465
0.4906 1.9210 0.7470
0.3347 1.9542 0.7474
0.4816 5.3825 2.0384
0.0477 5.4005 2.0384
-0.3860 5.3837 2.0384
-0.3001 1.9593 0.7490
-0.4565 1.9285 0.7493
-0.6098 1.8853 0.7495
-0.7592 1.8298 0.7498
-2.4559 4.7905 2.0384
-2.8316 4.5756 2.0384
-3.1888 4.3315 2.0384
-3.5253 4.0597 2.0384
-3.8389 3.7620 2.0384
-4.1276 3.4402 2.0384
-4.3897 3.0966 2.0384
-4.6235 2.7332 2.0384
-4.8274 2.3523 2.0384
-5.0004 1.9565 2.0384
-5.1412 1.5482 2.0384
-5.2489 1.1299 2.0384
-5.3230 0.7043 2.0384
-5.3628 0.2742 2.0384
-5.3682 -0.1577 2.0384
-5.3392 -0.5888 2.0384
-5.2758 -1.0163 2.0384
-5.1785 -1.4374 2.0384
-5.0478 -1.8496 2.0384
-4.8846 -2.2501 2.0384
-4.6898 -2.6364 2.0384
-4.4647 -3.0060 2.0384
-4.2107 -3.3566 2.0384
4.9917 -0.0994 2.0291
4.9838 0.3014 2.0295
4.9642 0.7032 2.0384
4.8907 1.0989 2.0384
4.7854 1.4874 2.0384
4.6492 1.8659 2.0384
4.4829 2.2322 2.0384
4.2876 2.5837 2.0384
4.0647 2.9183 2.0384
3.8157 3.2336 2.0384
3.5422 3.5277 2.0384
3.2460 3.7987 2.0384
2.9290 4.0449 2.0384
2.5935 4.2647 2.0384
2.2415 4.4566 2.0384
0.6863 1.6905 0.7459
0.5483 1.7402 0.7464
0.4068 1.7786 0.7468
0.2627 1.8055 0.7472
0.1168 1.8207 0.7476
-0.0298 1.8241 0.7480
-0.1762 1.8156 0.7483
-0.3215 1.7953 0.7486
-0.4646 1.7634 0.7489
-0.6047 1.7201 0.7491
-0.7408 1.6656 0.7493
-2.3717 4.3524 2.0384
-2.7126 4.1460 2.0384
-3.0359 3.9131 2.0384
-3.3395 3.6552 2.0384
-3.6214 3.3739 2.0384
-3.8798 3.0711 2.0384
-4.1132 2.7487 2.0384
-4.3201 2.4088 2.0384
-4.4992 2.0534 2.0384
-4.6493 1.6850 2.0384
-4.7695 1.3057 2.0384
-4.8590 0.9181 2.0384
-4.9174 0.5246 2.0384
-4.9441 0.1275 2.0384
-4.9391 -0.2704 2.0384
-4.9023 -0.6666 2.0384
-4.8339 -1.0587 2.0384
-4.7345 -1.4442 2.0384
-4.6045 -1.8207 2.0384
-4.4448 -2.1856 2.0384
-4.2564 -2.5367 2.0384
-4.0405 -2.8718 2.0384
-3.7984 -3.1886 2.0384
-3.5316 -3.4851 2.0384
-3.2418 -3.7595 2.0384
-2.9308 -4.0099 2.0384
-2.6006 -4.2346 2.0384
-2.2533 -4.4323 2.0384
-0.6875 -1.6730 0.7411
-0.5509 -1.7227 0.7406
-0.4108 -1.7614 0.7402
-0.2680 -1.7887 0.7398
-0.1235 -1.8045 0.7394
0.0218 -1.8088 0.7390
0.1669 -1.8014 0.7387
0.3110 -1.7824 0.7384
0.4531 -1.7519 0.7381
0.5924 -1.7102 0.7379
0.7279 -1.6575 0.7377
1.7264 -3.2046 1.4827
2.0698 -3.1975 1.5508
3.0501 -3.9724 2.0384
3.3602 -3.7162 2.0384
3.6486 -3.4356 2.0384
3.9136 -3.1326 2.0384
4.1532 -2.8092 2.0384
4.3660 -2.4674 2.0384
4.5505 -2.1094 2.0384
4.7055 -1.7377 2.0384
4.8299 -1.3547 2.0384
4.9230 -0.9629 2.0384
4.9842 -0.5648 2.0384
4.9928 -0.1625 2.0302
4.9852 0.2384 2.0286
4.9729 0.6405 2.0384
4.9043 1.0372 2.0384
4.8040 1.4270 2.0384
4.6726 1.8072 2.0384
4.5109 2.1756 2.0384
4.3202 2.5296 2.0384
4.1015 2.8669 2.0384
3.8565 3.1854 2.0384
3.5867 3.4830 2.0384
3.2939 3.7577 2.0384
2.9801 4.0079 2.0384
2.6473 4.2319 2.0384
2.2977 4.4284 2.0384
0.7075 1.6817 0.7458
0.5703 1.7331 0.7463
0.4292 1.7733 0.7467
0.2854 1.8021 0.7472
0.1398 1.8191 0.7476
-0.0068 1.8243 0.7479
-0.1533 1.8177 0.7483
-0.2988 1.7993 0.7486
-0.4423 1.7692 0.7489
-0.5829 1.7276 0.7491
-0.7197 1.6749 0.7493
-2.3166 4.3823 2.0384
-2.6602 4.1802 2.0384
-2.9864 3.9514 2.0384
-3.2932 3.6973 2.0384
-3.5786 3.4196 2.0384
-3.8409 3.1200 2.0384
-4.0783 2.8006 2.0384
-4.2894 2.4632 2.0384
-4.4729 2.1102 2.0384
-4.6277 1.7436 2.0384
-4.7526 1.3659 2.0384
-4.8470 0.9794 2.0384
-4.9103 0.5866 2.0384
-4.9420 0.1900 2.0384
-4.9420 -0.2079 2.0384
-4.9101 -0.6045 2.0384
-4.8467 -0.9975 2.0384
-4.7521 -1.3842 2.0384
-4.6269 -1.7622 2.0384
-4.4718 -2.1291 2.0384
-4.2879 -2.4826 2.0384
-4.0762 -2.8203 2.0384
-3.8381 -3.1401 2.0384
-3.5750 -3.4400 2.0384
-3.2887 -3.7180 2.0384
-2.9809 -3.9722 2.0384
-2.6536 -4.2011 2.0384
-2.3088 -4.4031 2.0384
-0.7086 -1.6642 0.7412
-0.5726 -1.7156 0.7407
-0.4330 -1.7561 0.7403
-0.2906 -1.7852 0.7398
-0.1463 -1.8028 0.7395
-0.0011 -1.8089 0.7391
0.1442 -1.8033 0.7387
0.2885 -1.7861 0.7384
0.4310 -1.7575 0.7382
0.5708 -1.7175 0.7379
0.7069 -1.6665 0.7377
1.6752 -3.2057 1.4734
2.0137 -3.1987 1.5390
2.3867 -3.1909 1.6219
3.3129 -3.7581 2.0384
3.6048 -3.4812 2.0384
3.8736 -3.1816 2.0384
4.1173 -2.8613 2.0384
4.3344 -2.5222 2.0384
4.5234 -2.1667 2.0384
4.6831 -1.7969 2.0384
4.8124 -1.4155 2.0384
4.9105 -1.0249 2.0384
4.9767 -0.6276 2.0384
4.9937 -0.2256 2.0315
4.9865 0.1754 2.0280
4.9770 0.5773 2.0368
4.9172 0.9753 2.0384
4.8219 1.3663 2.0384
4.6953 1.7482 2.0384
4.5383 2.1188 2.0384
4.3520 2.4750 2.0384
4.1377 2.8151 2.0384
3.8967 3.1367 2.0384
3.6306 3.4377 2.0384
3.3413 3.7162 2.0384
3.0307 3.9703 2.0384
2.7008 4.1986 2.0384
2.3537 4.3994 2.0384
0.7287 1.6726 0.7458
0.5921 1.7258 0.7462
0.4516 1.7678 0.7467
0.3082 1.7983 0.7471
0.1627 1.8172 0.7475
0.0163 1.8243 0.7479
-0.1303 1.8195 0.7482
-0.2760 1.8030 0.7485
-0.4199 1.7747 0.7488
-0.5611 1.7349 0.7491
-0.6985 1.6839 0.7493
-2.2612 4.4115 2.0384
-2.6073 4.2137 2.0384
-2.9364 3.9890 2.0384
-3.2464 3.7388 2.0384
-3.5353 3.4647 2.0384
-3.8013 3.1685 2.0384
-4.0427 2.8520 2.0384
-4.2581 2.5173 2.0384
-4.4460 2.1666 2.0384
-4.6053 1.8020 2.0384
-4.7350 1.4259 2.0384
-4.8343 1.0407 2.0384
-4.9024 0.6487 2.0384
-4.9391 0.2524 2.0384
-4.9441 -0.1454 2.0384
-4.9172 -0.5424 2.0384
-4.8588 -0.9361 2.0384
-4.7690 -1.3239 2.0384
-4.6486 -1.7035 2.0384
-4.4981 -2.0723 2.0384
-4.3187 -2.4281 2.0384
-4.1112 -2.7684 2.0384
-3.8772 -3.0912 2.0384
4.6359 -0.0925 2.0384
4.6278 0.2797 2.0384
4.5896 0.6499 2.0384
4.5216 1.0158 2.0384
4.4244 1.3749 2.0384
4.2985 1.7250 2.0384
4.1449 2.0636 2.0384
3.9645 2.3887 2.0384
3.7585 2.6980 2.0384
3.5284 2.9897 2.0384
3.2756 3.2617 2.0384
3.0018 3.5124 2.0384
2.7088 3.7401 2.0384
2.3986 3.9435 2.0384
0.7580 1.5068 0.7453
0.6346 1.5629 0.7457
0.5071 1.6089 0.7462
0.3763 1.6444 0.7466
0.2430 1.6692 0.7469
0.1081 1.6833 0.7473
-0.0274 1.6864 0.7476
-0.1628 1.6785 0.7480
-0.2971 1.6598 0.7482
-0.4294 1.6303 0.7485
-0.5589 1.5903 0.7487
-0.6848 1.5399 0.7489
-2.1937 4.0264 2.0384
-2.5092 3.8356 2.0384
-2.8084 3.6202 2.0384
-3.0893 3.3817 2.0384
-3.3502 3.1215 2.0384
-3.5894 2.8414 2.0384
-3.8054 2.5432 2.0384
-3.9968 2.2286 2.0384
-4.1625 1.8999 2.0384
-4.3015 1.5590 2.0384
-4.4127 1.2081 2.0384
-4.4956 0.8494 2.0384
-4.5495 0.4852 2.0384
-4.5742 0.1179 2.0384
-4.5695 -0.2502 2.0384
-4.5354 -0.6168 2.0384
-4.4721 -0.9797 2.0384
-4.3800 -1.3363 2.0384
-4.2597 -1.6846 2.0384
-4.1119 -2.0221 2.0384
-3.9375 -2.3469 2.0384
-3.7376 -2.6568 2.0384
-3.5135 -2.9498 2.0384
-3.2666 -3.2241 2.0384
-2.9984 -3.4778 2.0384
-2.7106 -3.7093 2.0384
-2.4051 -3.9170 2.0384
-0.7582 -1.4918 0.7417
-0.6359 -1.5478 0.7413
-0.5095 -1.5938 0.7408
-0.3799 -1.6296 0.7404
-0.2478 -1.6549 0.7401
-0.1142 -1.6695 0.7397
0.0203 -1.6734 0.7394
0.1546 -1.6666 0.7391
0.2879 -1.6490 0.7388
0.4194 -1.6208 0.7385
0.5482 -1.5822 0.7383
0.6735 -1.5334 0.7381
1.7268 -3.2050 1.6038
2.0702 -3.1978 1.6775
2.8202 -3.6727 2.0384
3.1068 -3.4356 2.0384
3.3734 -3.1762 2.0384
3.6183 -2.8961 2.0384
3.8398 -2.5970 2.0384
4.0364 -2.2810 2.0384
4.2070 -1.9501 2.0384
4.3502 -1.6065 2.0384
4.4652 -1.2524 2.0384
4.5513 -0.8902 2.0384
4.6078 -0.5223 2.0384
4.6345 -0.1510 2.0384
4.6310 0.2215 2.0384
4.5975 0.5920 2.0384
4.5343 0.9588 2.0384
4.4416 1.3191 2.0384
4.3202 1.6707 2.0384
4.1708 2.0113 2.0384
3.9945 2.3386 2.0384
3.7925 2.6506 2.0384
3.5661 2.9451 2.0384
3.3167 3.2203 2.0384
3.0461 3.4745 2.0384
2.7560 3.7060 2.0384
2.4484 3.9132 2.0384
0.7770 1.4971 0.7452
0.6543 1.5548 0.7457
0.5274 1.6023 0.7461
0.3970 1.6395 0.7465
0.2640 1.6660 0.7469
0.1294 1.6818 0.7473
-0.0061 1.6866 0.7476
-0.1416 1.6805 0.7479
-0.2761 1.6635 0.7482
-0.4088 1.6357 0.7485
-0.5388 1.5973 0.7487
-0.6653 1.5485 0.7489
-2.1428 4.0541 2.0384
-2.4607 3.8672 2.0384
-2.7626 3.6556 2.0384
-3.0465 3.4206 2.0384
-3.3106 3.1638 2.0384
-3.5533 2.8867 2.0384
-3.7730 2.5911 2.0384
-3.9684 2.2790 2.0384
-4.1383 1.9524 2.0384
-4.2815 1.6132 2.0384
-4.3971 1.2637 2.0384
-4.4844 0.9061 2.0384
-4.5430 0.5427 2.0384
-4.5723 0.1757 2.0384
-4.5722 -0.1924 2.0384
-4.5427 -0.5595 2.0384
-4.4840 -0.9230 2.0384
-4.3964 -1.2808 2.0384
-4.2804 -1.6305 2.0384
-4.1369 -1.9699 2.0384
-3.9666 -2.2969 2.0384
-3.7706 -2.6092 2.0384
-3.5503 -2.9050 2.0384
-3.3068 -3.1823 2.0384
-3.0418 -3.4394 2.0384
-2.7570 -3.6744 2.0384
-2.4542 -3.8860 2.0384
-0.7770 -1.4821 0.7418
-0.6554 -1.5396 0.7413
-0.5296 -1.5873 0.7409
-0.4004 -1.6247 0.7405
-0.2687 -1.6516 0.7401
-0.1352 -1.6679 0.7398
-0.0009 -1.6735 0.7394
0.1335 -1.6684 0.7391
0.2670 -1.6525 0.7388
0.3989 -1.6259 0.7386
0.5282 -1.5890 0.7383
0.6541 -1.5417 0.7381
0.7759 -1.4846 0.7380
2.0142 -3.1990 1.6648
2.3872 -3.1913 1.7544
3.0631 -3.4744 2.0384
3.3330 -3.2184 2.0384
3.5814 -2.9414 2.0384
3.8066 -2.6452 2.0384
4.0073 -2.3317 2.0384
4.1820 -2.0030 2.0384
4.3296 -1.6612 2.0384
4.4491 -1.3086 2.0384
4.5397 -0.9475 2.0384
4.6009 -0.5803 2.0384
4.6323 -0.2093 2.0384
4.6336 0.1628 2.0384
4.6048 0.5340 2.0384
4.5461 0.9015 2.0384
4.4581 1.2630 2.0384
4.3411 1.6162 2.0384
4.1961 1.9586 2.0384
4.0240 2.2881 2.0384
3.8259 2.6027 2.0384
3.6032 2.9001 2.0384
3.3573 3.1785 2.0384
3.0899 3.4360 2.0384
2.8028 3.6712 2.0384
2.4978 3.8823 2.0384
0.7958 1.4872 0.7452
0.6739 1.5464 0.7456
0.5476 1.5955 0.7460
0.4177 1.6344 0.7464
0.2851 1.6626 0.7468
0.1506 1.6800 0.7472
0.0152 1.6866 0.7475
-0.1203 1.6822 0.7479
-0.2551 1.6669 0.7482
-0.3881 1.6407 0.7484
-0.5186 1.6040 0.7486
-0.6457 1.5568 0.7488
-0.7685 1.4996 0.7490
-2.4118 3.8982 2.0384
-2.7163 3.6904 2.0384
-3.0031 3.4590 2.0384
-3.2705 3.2055 2.0384
-3.5167 2.9314 2.0384
-3.7401 2.6387 2.0384
-3.9394 2.3291 2.0384
-4.1133 2.0046 2.0384
-4.2608 1.6672 2.0384
-4.3808 1.3192 2.0384
-4.4726 0.9628 2.0384
-4.5357 0.6001 2.0384
-4.5696 0.2335 2.0384
-4.5742 -0.1346 2.0384
-4.5493 -0.5020 2.0384
-4.4951 -0.8662 2.0384
-4.4120 -1.2251 2.0384
-4.3005 -1.5762 2.0384
-4.1612 -1.9174 2.0384
-3.9951 -2.2464 2.0384
-3.8031 -2.5612 2.0384
-3.5864 -2.8597 2.0384
4.3029 -0.0859 2.0384
4.2954 0.2595 2.0384
4.2600 0.6031 2.0384
4.1970 0.9427 2.0384
4.1068 1.2760 2.0384
3.9901 1.6010 2.0384
3.8475 1.9153 2.0384
3.6802 2.2171 2.0384
3.4891 2.5042 2.0384
3.2755 2.7750 2.0384
3.0409 3.0276 2.0384
