ply
format ascii 1.0
element vertex 2175
property float32 x
property float32 y
property float32 z
end_header
0.5784 1.7303 0.7467
0.4375 1.7713 0.7467
0.2938 1.8009 0.7468
0.1481 1.8187 0.7468
0.0015 1.8248 0.7468
-0.1451 1.8190 0.7468
-0.2908 1.8014 0.7468
-0.4345 1.7720 0.7467
-0.5755 1.7312 0.7467
-0.7126 1.6792 0.7466
-2.2906 4.3808 2.0232
-2.6352 4.1826 2.0232
-2.9628 3.9573 2.0232
-3.2712 3.7064 2.0232
-3.5584 3.4316 2.0232
-3.8226 3.1346 2.0232
-4.0621 2.8173 2.0232
-4.2754 2.4818 2.0232
-4.4609 2.1303 2.0232
-4.6177 1.7649 2.0232
-4.7446 1.3882 2.0232
-4.8408 1.0024 2.0232
-4.9057 0.6103 2.0232
-4.9388 0.2141 2.0232
-4.9401 -0.1834 2.0232
-4.9094 -0.5797 2.0232
-4.8469 -0.9723 2.0232
-4.7531 -1.3586 2.0232
-4.6286 -1.7362 2.0232
-4.4741 -2.1025 2.0232
-4.2907 -2.4552 2.0232
-4.0796 -2.7919 2.0232
-3.8420 -3.1108 2.0232
-3.5797 -3.4094 2.0232
-3.2941 -3.6860 2.0232
-2.9873 -3.9388 2.0232
-2.6612 -4.1661 2.0232
-2.3178 -4.3664 2.0232
-0.7171 -1.6609 0.7404
-0.5812 -1.7129 0.7403
-0.4417 -1.7539 0.7402
-0.2993 -1.7836 0.7402
-0.1550 -1.8018 0.7402
-0.0097 -1.8084 0.7401
0.1356 -1.8034 0.7402
0.2801 -1.7867 0.7402
0.4228 -1.7586 0.7402
0.5628 -1.7191 0.7403
0.6991 -1.6685 0.7404
2.2707 -4.3911 2.0232
2.6162 -4.1945 2.0232
2.9447 -3.9707 2.0232
3.2543 -3.7213 2.0232
3.5427 -3.4478 2.0232
3.8083 -3.1520 2.0232
3.8696 -2.7099 1.9335
3.9428 -2.3129 1.8708
4.1159 -1.9885 1.8708
4.2624 -1.6514 1.8708
4.3813 -1.3036 1.8708
4.4719 -0.9473 1.8708
4.5335 -0.5849 1.8708
4.5659 -0.2188 1.8708
4.5687 0.1488 1.8708
4.5420 0.5154 1.8708
4.4859 0.8787 1.8708
4.4008 1.2363 1.8708
4.2872 1.5859 1.8708
4.1459 1.9253 1.8708
3.9778 2.2522 1.8708
3.9237 2.6592 1.9399
3.8562 3.0932 2.0232
3.5951 3.3931 2.0232
3.3109 3.6710 2.0232
3.0052 3.9251 2.0232
2.6801 4.1539 2.0232
2.3377 4.3558 2.0232
0.7307 1.6714 0.7466
0.5941 1.7249 0.7467
0.4536 1.7672 0.7467
0.3102 1.7981 0.7468
0.1647 1.8173 0.7468
0.0181 1.8247 0.7468
-0.1285 1.8202 0.7468
-0.2744 1.8039 0.7468
-0.4184 1.7759 0.7467
-0.5597 1.7364 0.7467
-0.6973 1.6856 0.7466
-2.2507 4.4014 2.0232
-2.5970 4.2064 2.0232
-2.9266 3.9841 2.0232
-3.2373 3.7360 2.0232
-3.5270 3.4639 2.0232
-3.7939 3.1693 2.0232
-4.0363 2.8542 2.0232
-4.2526 2.5206 2.0232
-4.4414 2.1708 2.0232
-4.6014 1.8069 2.0232
-4.7317 1.4313 2.0232
-4.8314 1.0465 2.0232
-4.8999 0.6549 2.0232
-4.9367 0.2591 2.0232
-4.9415 -0.1384 2.0232
-4.9144 -0.5350 2.0232
-4.8556 -0.9282 2.0232
-4.7653 -1.3153 2.0232
-4.6442 -1.6940 2.0232
-4.4931 -2.0616 2.0232
-4.3129 -2.4160 2.0232
-4.1048 -2.7547 2.0232
-3.8702 -3.0756 2.0232
-3.6106 -3.3767 2.0232
-3.3276 -3.6559 2.0232
-3.0231 -3.9114 2.0232
-2.6990 -4.1417 2.0232
-2.3575 -4.3451 2.0232
-0.7322 -1.6543 0.7404
-0.5968 -1.7076 0.7403
-0.4576 -1.7498 0.7403
-0.3155 -1.7808 0.7402
-0.1714 -1.8003 0.7402
-0.0262 -1.8082 0.7401
0.1192 -1.8045 0.7402
0.2638 -1.7892 0.7402
0.4067 -1.7623 0.7402
0.5471 -1.7241 0.7403
0.6839 -1.6748 0.7404
2.2306 -4.4116 2.0232
2.5779 -4.2181 2.0232
2.9085 -3.9973 2.0232
3.2202 -3.7507 2.0232
3.5112 -3.4798 2.0232
3.7795 -3.1865 2.0232
3.8670 -2.7609 1.9446
3.9216 -2.3486 1.8708
4.0976 -2.0259 1.8708
4.2472 -1.6901 1.8708
4.3693 -1.3434 1.8708
4.4631 -0.9880 1.8708
4.5280 -0.6262 1.8708
4.5637 -0.2603 1.8708
4.5699 0.1072 1.8708
4.5465 0.4741 1.8708
4.4937 0.8378 1.8708
4.4118 1.1962 1.8708
4.3015 1.5468 1.8708
4.1633 1.8874 1.8708
3.9981 2.2159 1.8708
3.9253 2.6084 1.9289
3.8842 3.0580 2.0232
3.6259 3.3602 2.0232
3.3442 3.6407 2.0232
3.0408 3.8976 2.0232
2.7178 4.1294 2.0232
2.3772 4.3344 2.0232
0.7458 1.6646 0.7465
0.6097 1.7194 0.7466
0.4697 1.7630 0.7467
0.3265 1.7952 0.7468
0.1812 1.8157 0.7468
0.0347 1.8245 0.7468
-0.1120 1.8213 0.7468
-0.2579 1.8064 0.7468
-0.4022 1.7797 0.7468
-0.5439 1.7414 0.7467
-0.6819 1.6919 0.7466
-2.2105 4.4217 2.0232
-2.5586 4.2298 2.0232
-2.8902 4.0106 2.0232
-3.2031 3.7654 2.0232
-3.4953 3.4958 2.0232
-3.7649 3.2036 2.0232
-4.0102 2.8908 2.0232
-4.2295 2.5592 2.0232
-4.4214 2.2111 2.0232
-4.5848 1.8487 2.0232
-4.7185 1.4743 2.0232
-4.8217 1.0904 2.0232
-4.8937 0.6995 2.0232
-4.9341 0.3040 2.0232
-4.9426 -0.0934 2.0232
-4.9191 -0.4903 2.0232
-4.8638 -0.8839 2.0232
-4.7771 -1.2719 2.0232
-4.6594 -1.6516 2.0232
-4.5116 -2.0207 2.0232
-4.3347 -2.3766 2.0232
-4.1297 -2.7172 2.0232
-3.8980 -3.0403 2.0232
-3.6411 -3.3437 2.0232
-3.3607 -3.6254 2.0232
-3.0585 -3.8837 2.0232
-2.7366 -4.1169 2.0232
-2.3969 -4.3235 2.0232
-0.7472 -1.6476 0.7404
-0.6123 -1.7021 0.7403
-0.4735 -1.7456 0.7403
-0.3317 -1.7779 0.7402
-0.1878 -1.7987 0.7402
-0.0427 -1.8079 0.7401
0.1027 -1.8055 0.7402
0.2475 -1.7915 0.7402
0.3907 -1.7659 0.7402
0.5314 -1.7290 0.7403
0.6686 -1.6809 0.7404
2.1904 -4.4317 2.0232
2.5394 -4.2414 2.0232
2.8720 -4.0237 2.0232
3.1860 -3.7799 2.0232
3.4794 -3.5117 2.0232
3.7503 -3.2207 2.0232
3.8643 -2.8125 1.9561
3.9001 -2.3842 1.8708
4.0790 -2.0631 1.8708
4.2316 -1.7287 1.8708
4.3568 -1.3831 1.8708
4.4539 -1.0286 1.8708
4.5221 -0.6674 1.8708
4.5611 -0.3018 1.8708
4.5706 0.0656 1.8708
4.5506 0.4327 1.8708
4.5011 0.7969 1.8708
4.4225 1.1560 1.8708
4.3154 1.5076 1.8708
4.1803 1.8495 1.8708
4.0181 2.1794 1.8708
3.9267 2.5582 1.9181
3.9118 3.0225 2.0232
3.6563 3.3271 2.0232
3.3772 3.6101 2.0232
3.0762 3.8698 2.0232
2.7553 4.1045 2.0232
2.4166 4.3126 2.0232
0.7609 1.6578 0.7465
0.6254 1.7138 0.7466
0.4857 1.7587 0.7467
0.3428 1.7921 0.7468
0.1977 1.8140 0.7468
0.0513 1.8241 0.7468
-0.0954 1.8223 0.7468
-0.2415 1.8087 0.7468
-0.3860 1.7833 0.7468
-0.5280 1.7464 0.7467
-0.6665 1.6981 0.7466
-2.1702 4.4417 2.0232
-2.5200 4.2529 2.0232
-2.8536 4.0367 2.0232
-3.1687 3.7944 2.0232
-3.4634 3.5275 2.0232
-3.7356 3.2378 2.0232
-3.9837 2.9272 2.0232
-4.2060 2.5976 2.0232
-4.4011 2.2513 2.0232
-4.5678 1.8903 2.0232
-4.7049 1.5172 2.0232
-4.8116 1.1343 2.0232
-4.8872 0.7440 2.0232
-4.9312 0.3489 2.0232
-4.9432 -0.0485 2.0232
-4.9234 -0.4455 2.0232
-4.8717 -0.8397 2.0232
-4.7884 -1.2284 2.0232
-4.6743 -1.6091 2.0232
-4.5299 -1.9795 2.0232
-4.3561 -2.3371 2.0232
-4.1543 -2.6796 2.0232
-3.9255 -3.0047 2.0232
-3.6714 -3.3104 2.0232
-3.3936 -3.5947 2.0232
-3.0938 -3.8557 2.0232
-2.7739 -4.0919 2.0232
-2.4362 -4.3015 2.0232
-0.7622 -1.6408 0.7405
-0.6278 -1.6965 0.7403
-0.4894 -1.7413 0.7403
-0.3479 -1.7748 0.7402
-0.2042 -1.7969 0.7402
-0.0591 -1.8075 0.7401
0.0863 -1.8064 0.7402
0.2312 -1.7937 0.7402
0.3746 -1.7694 0.7402
0.5156 -1.7337 0.7403
0.6533 -1.6869 0.7404
2.1499 -4.4515 2.0232
2.5007 -4.2643 2.0232
2.8352 -4.0496 2.0232
3.1514 -3.8087 2.0232
3.4473 -3.5432 2.0232
3.7208 -3.2547 2.0232
3.8616 -2.8646 1.9678
3.8906 -2.4273 1.8768
4.0601 -2.1002 1.8708
4.2157 -1.7672 1.8708
4.3441 -1.4227 1.8708
4.4443 -1.0691 1.8708
4.5159 -0.7085 1.8708
4.5582 -0.3434 1.8708
4.5711 0.0240 1.8708
4.5543 0.3912 1.8708
4.5082 0.7559 1.8708
4.4329 1.1157 1.8708
4.3289 1.4683 1.8708
4.1969 1.8114 1.8708
4.0378 2.1427 1.8708
3.9282 2.5085 1.9075
3.9139 2.9676 2.0103
3.6864 3.2937 2.0232
3.4099 3.5792 2.0232
3.1113 3.8416 2.0232
2.7925 4.0792 2.0232
2.4557 4.2904 2.0232
0.7760 1.6507 0.7465
0.6409 1.7080 0.7466
0.5017 1.7542 0.7467
0.3591 1.7889 0.7468
0.2142 1.8121 0.7468
0.0679 1.8235 0.7468
-0.0788 1.8231 0.7468
-0.2250 1.8108 0.7468
-0.3698 1.7867 0.7468
-0.5121 1.7511 0.7467
-0.6511 1.7041 0.7466
-2.1296 4.4613 2.0232
-2.4812 4.2757 2.0232
-2.8168 4.0625 2.0232
-3.1341 3.8230 2.0232
-3.4311 3.5589 2.0232
-3.7060 3.2717 2.0232
-3.9569 2.9633 2.0232
-4.1822 2.6358 2.0232
-4.3805 2.2912 2.0232
-4.5504 1.9318 2.0232
-4.6909 1.5600 2.0232
-4.8011 1.1780 2.0232
-4.8802 0.7884 2.0232
-4.9278 0.3938 2.0232
-4.9435 -0.0035 2.0232
-4.9272 -0.4007 2.0232
-4.8791 -0.7953 2.0232
-4.7994 -1.1847 2.0232
-4.6887 -1.5665 2.0232
-4.5477 -1.9382 2.0232
-4.3772 -2.2974 2.0232
-4.1785 -2.6416 2.0232
-3.9527 -2.9689 2.0232
-3.7014 -3.2769 2.0232
-3.4261 -3.5637 2.0232
-3.1287 -3.8274 2.0232
-2.8111 -4.0664 2.0232
-2.4752 -4.2792 2.0232
-0.7771 -1.6338 0.7405
-0.6432 -1.6907 0.7404
-0.5053 -1.7368 0.7403
-0.3640 -1.7716 0.7402
-0.2205 -1.7950 0.7402
-0.0756 -1.8069 0.7402
0.0699 -1.8071 0.7402
0.2148 -1.7957 0.7402
0.3585 -1.7727 0.7402
0.4998 -1.7383 0.7403
0.6379 -1.6928 0.7404
0.7720 -1.6363 0.7405
2.4618 -4.2869 2.0232
2.7982 -4.0753 2.0232
3.1166 -3.8372 2.0232
3.4149 -3.5744 2.0232
3.6911 -3.2885 2.0232
3.8588 -2.9174 1.9799
3.8830 -2.4725 1.8839
4.0484 -2.1410 1.8743
4.1995 -1.8055 1.8708
4.3310 -1.4622 1.8708
4.4344 -1.1095 1.8708
4.5092 -0.7496 1.8708
4.5549 -0.3848 1.8708
4.5711 -0.0176 1.8708
4.5577 0.3498 1.8708
4.5149 0.7148 1.8708
4.4428 1.0753 1.8708
4.3421 1.4288 1.8708
4.2132 1.7731 1.8708
4.0571 2.1059 1.8708
3.9296 2.4593 1.8973
3.9157 2.9132 1.9975
3.7163 3.2600 2.0232
3.4423 3.5480 2.0232
3.1461 3.8131 2.0232
2.8295 4.0536 2.0232
2.4947 4.2679 2.0232
0.7909 1.6436 0.7465
0.6564 1.7020 0.7466
0.5176 1.7495 0.7467
0.3754 1.7856 0.7468
0.2307 1.8101 0.7468
0.0845 1.8228 0.7468
-0.0622 1.8237 0.7468
-0.2085 1.8128 0.7468
-0.3535 1.7900 0.7468
-0.4961 1.7557 0.7467
-0.6355 1.7100 0.7466
-0.7708 1.6531 0.7465
-2.4422 4.2981 2.0232
-2.7797 4.0880 2.0232
-3.0992 3.8514 2.0232
-3.3986 3.5899 2.0232
-3.6760 3.3053 2.0232
-3.9297 2.9992 2.0232
-4.1580 2.6737 2.0232
-4.3594 2.3310 2.0232
-4.5326 1.9732 2.0232
-4.6765 1.6026 2.0232
-4.7901 1.2216 2.0232
-4.8728 0.8328 2.0232
-4.9240 0.4386 2.0232
-4.9433 0.0415 2.0232
-4.9307 -0.3558 2.0232
-4.8861 -0.7508 2.0232
-4.8100 -1.1410 2.0232
-4.7028 -1.5238 2.0232
-4.5651 -1.8967 2.0232
-4.3980 -2.2574 2.0232
-4.2024 -2.6035 2.0232
-3.9796 -2.9328 2.0232
-3.7311 -3.2431 2.0232
-3.4584 -3.5323 2.0232
-3.1634 -3.7988 2.0232
-2.8480 -4.0407 2.0232
-2.5141 -4.2565 2.0232
-2.1639 -4.4447 2.0232
-0.6586 -1.6848 0.7404
-0.5210 -1.7321 0.7403
-0.3802 -1.7682 0.7402
-0.2368 -1.7929 0.7402
-0.0920 -1.8061 0.7402
0.0534 -1.8077 0.7402
0.1985 -1.7976 0.7402
0.3423 -1.7759 0.7402
0.4839 -1.7428 0.7403
0.6225 -1.6985 0.7404
0.7570 -1.6432 0.7405
2.4226 -4.3092 2.0232
2.7610 -4.1006 2.0232
3.0816 -3.8655 2.0232
3.3822 -3.6053 2.0232
3.6610 -3.3219 2.0232
3.8560 -2.9708 1.9922
3.8790 -2.5194 1.8930
4.0212 -2.1737 1.8708
4.1828 -1.8436 1.8708
4.3175 -1.5015 1.8708
4.4242 -1.1498 1.8708
4.5022 -0.7906 1.8708
4.5512 -0.4263 1.8708
4.5707 -0.0592 1.8708
4.5607 0.3083 1.8708
4.5212 0.6737 1.8708
4.4524 1.0348 1.8708
4.3549 1.3892 1.8708
4.2292 1.7346 1.8708
4.0761 2.0689 1.8708
3.9309 2.4107 1.8873
3.9174 2.8595 1.9850
3.7458 3.2260 2.0232
3.4745 3.5166 2.0232
3.1807 3.7844 2.0232
2.8663 4.0277 2.0232
2.5334 4.2450 2.0232
2.1841 4.4348 2.0232
0.6719 1.6960 0.7466
0.5335 1.7447 0.7467
0.3916 1.7821 0.7468
0.2472 1.8079 0.7468
0.1011 1.8220 0.7468
-0.0456 1.8242 0.7468
-0.1920 1.8146 0.7468
-0.3372 1.7932 0.7468
-0.4801 1.7602 0.7467
-0.6200 1.7157 0.7466
-0.7557 1.6601 0.7465
-2.4030 4.3201 2.0232
-2.7424 4.1131 2.0232
-3.0640 3.8794 2.0232
-3.3658 3.6207 2.0232
-3.6458 3.3386 2.0232
-3.9023 3.0348 2.0232
-4.1335 2.7115 2.0232
-4.3380 2.3706 2.0232
-4.5145 2.0144 2.0232
-4.6617 1.6451 2.0232
-4.7788 1.2652 2.0232
-4.8650 0.8771 2.0232
-4.9198 0.4834 2.0232
-4.9427 0.0865 2.0232
-4.9337 -0.3109 2.0232
-4.8928 -0.7063 2.0232
-4.8202 -1.0972 2.0232
-4.7164 -1.4809 2.0232
-4.5822 -1.8551 2.0232
-4.4183 -2.2173 2.0232
-4.2259 -2.5651 2.0232
-4.0061 -2.8964 2.0232
-3.7604 -3.2089 2.0232
-3.4904 -3.5007 2.0232
-3.1979 -3.7698 2.0232
-2.8846 -4.0146 2.0232
-2.5527 -4.2334 2.0232
-2.2043 -4.4248 2.0232
-0.6739 -1.6788 0.7404
-0.5368 -1.7273 0.7403
-0.3962 -1.7647 0.7402
-0.2531 -1.7907 0.7402
-0.1084 -1.8052 0.7402
0.0370 -1.8081 0.7401
0.1821 -1.7993 0.7402
0.3261 -1.7789 0.7402
0.4680 -1.7471 0.7403
0.6070 -1.7040 0.7403
0.7420 -1.6500 0.7404
2.3833 -4.3310 2.0232
2.7236 -4.1255 2.0232
3.0463 -3.8934 2.0232
3.3493 -3.6360 2.0232
3.6306 -3.3551 2.0232
3.8531 -3.0248 2.0049
3.8766 -2.5683 1.9032
4.0012 -2.2102 1.8708
4.1659 -1.8816 1.8708
2.9682 3.4774 2.0232
2.6792 3.7047 2.0232
2.3729 3.9080 2.0232
0.7566 1.5071 0.7463
0.6331 1.5632 0.7464
0.5055 1.6092 0.7464
0.3746 1.6448 0.7465
0.2413 1.6697 0.7466
0.1063 1.6837 0.7466
-0.0293 1.6868 0.7466
-0.1647 1.6790 0.7466
-0.2991 1.6602 0.7465
-0.4315 1.6307 0.7465
-0.5611 1.5906 0.7464
-0.6870 1.5402 0.7463
-2.1919 4.0123 2.0232
-2.5072 3.8232 2.0232
-2.8063 3.6094 2.0232
-3.0872 3.3722 2.0232
-3.3482 3.1133 2.0232
-3.5875 2.8342 2.0232
-3.8036 2.5368 2.0232
-3.9952 2.2229 2.0232
-4.1609 1.8947 2.0232
-4.2997 1.5543 2.0232
-4.4106 1.2038 2.0232
-4.4931 0.8455 2.0232
-4.5465 0.4817 2.0232
-4.5705 0.1148 2.0232
-4.5650 -0.2528 2.0232
-4.5299 -0.6188 2.0232
-4.4655 -0.9807 2.0232
-4.3723 -1.3364 2.0232
-4.2508 -1.6834 2.0232
-4.1018 -2.0195 2.0232
-3.9263 -2.3425 2.0232
-3.7253 -2.6504 2.0232
-3.5003 -2.9412 2.0232
-3.2527 -3.2129 2.0232
-2.9840 -3.4639 2.0232
-2.6961 -3.6924 2.0232
-2.3906 -3.8971 2.0232
-0.7578 -1.4925 0.7407
-0.6353 -1.5483 0.7406
-0.5088 -1.5942 0.7405
-0.3790 -1.6298 0.7405
-0.2468 -1.6549 0.7404
-0.1130 -1.6693 0.7404
0.0214 -1.6730 0.7404
0.1558 -1.6659 0.7404
0.2892 -1.6480 0.7404
0.4207 -1.6196 0.7405
0.5495 -1.5807 0.7406
0.6748 -1.5316 0.7407
2.1736 -4.0222 2.0232
2.4898 -3.8346 2.0232
2.7898 -3.6221 2.0232
3.0718 -3.3862 2.0232
3.3340 -3.1285 2.0232
3.5746 -2.8505 2.0232
3.7921 -2.5540 2.0232
3.8693 -2.1760 1.9645
3.8864 -1.7911 1.8937
3.9692 -1.4553 1.8708
4.0733 -1.1317 1.8708
4.1511 -0.8007 1.8708
4.2020 -0.4646 1.8708
4.2257 -0.1254 1.8708
4.2221 0.2145 1.8708
4.1912 0.5531 1.8708
4.1333 0.8881 1.8708
4.0485 1.2173 1.8708
3.9376 1.5389 1.8708
3.9181 1.9069 1.9283
3.9075 2.3072 2.0081
3.7374 2.6334 2.0232
3.5137 2.9252 2.0232
3.2673 3.1981 2.0232
2.9998 3.4503 2.0232
2.7128 3.6801 2.0232
2.4084 3.8862 2.0232
0.7702 1.5001 0.7462
0.6473 1.5574 0.7464
0.5201 1.6045 0.7464
0.3896 1.6413 0.7465
0.2564 1.6674 0.7466
0.1217 1.6827 0.7466
-0.0139 1.6870 0.7466
-0.1495 1.6804 0.7466
-0.2840 1.6629 0.7465
-0.4166 1.6346 0.7465
-0.5466 1.5957 0.7464
-0.6729 1.5464 0.7463
-2.1553 4.0321 2.0232
-2.4723 3.8459 2.0232
-2.7733 3.6348 2.0232
-3.0564 3.4002 2.0232
-3.3197 3.1436 2.0232
-3.5616 2.8667 2.0232
-3.7804 2.5713 2.0232
-3.9748 2.2592 2.0232
-4.1435 1.9325 2.0232
-4.2853 1.5934 2.0232
-4.3995 1.2439 2.0232
-4.4852 0.8864 2.0232
-4.5419 0.5231 2.0232
-4.5693 0.1564 2.0232
-4.5671 -0.2112 2.0232
-4.5353 -0.5775 2.0232
-4.4742 -0.9402 2.0232
-4.3843 -1.2965 2.0232
-4.2659 -1.6446 2.0232
-4.1200 -1.9820 2.0232
-3.9474 -2.3067 2.0232
-3.7493 -2.6164 2.0232
-3.5270 -2.9092 2.0232
-3.2818 -3.1832 2.0232
-3.0154 -3.4366 2.0232
-2.7296 -3.6678 2.0232
-2.4260 -3.8752 2.0232
-0.7713 -1.4855 0.7407
-0.6494 -1.5425 0.7406
-0.5233 -1.5895 0.7405
-0.3938 -1.6263 0.7405
-0.2619 -1.6526 0.7404
-0.1282 -1.6682 0.7404
0.0062 -1.6731 0.7404
0.1406 -1.6672 0.7404
0.2741 -1.6506 0.7404
0.4059 -1.6233 0.7405
0.5351 -1.5856 0.7406
0.6608 -1.5377 0.7407
0.7824 -1.4798 0.7408
2.4548 -3.8571 2.0232
2.7567 -3.6474 2.0232
3.0409 -3.4141 2.0232
3.3054 -3.1587 2.0232
3.5485 -2.8829 2.0232
3.7687 -2.5885 2.0232
3.8672 -2.2214 1.9736
3.8846 -1.8333 1.9009
3.9558 -1.4913 1.8708
4.0628 -1.1687 1.8708
4.1436 -0.8384 1.8708
4.1976 -0.5028 1.8708
4.2244 -0.1639 1.8708
4.2239 0.1761 1.8708
4.1961 0.5149 1.8708
4.1412 0.8504 1.8708
4.0595 1.1804 1.8708
3.9515 1.5028 1.8708
3.9191 1.8635 1.9204
3.9088 2.2603 1.9982
3.7612 2.5993 2.0232
3.5402 2.8931 2.0232
3.2963 3.1682 2.0232
3.0310 3.4228 2.0232
2.7462 3.6553 2.0232
2.4436 3.8641 2.0232
0.7839 1.4930 0.7462
0.6614 1.5514 0.7463
0.5347 1.5997 0.7464
0.4045 1.6377 0.7465
0.2716 1.6650 0.7465
0.1370 1.6815 0.7466
0.0014 1.6871 0.7466
-0.1341 1.6817 0.7466
-0.2688 1.6654 0.7465
-0.4018 1.6383 0.7465
-0.5320 1.6006 0.7464
-0.6589 1.5525 0.7463
-2.1185 4.0515 2.0232
-2.4372 3.8682 2.0232
-2.7401 3.6599 2.0232
-3.0253 3.4279 2.0232
-3.2910 3.1737 2.0232
-3.5353 2.8990 2.0232
-3.7568 2.6056 2.0232
-3.9540 2.2953 2.0232
-4.1257 1.9702 2.0232
-4.2707 1.6323 2.0232
-4.3880 1.2839 2.0232
-4.4770 0.9271 2.0232
-4.5370 0.5644 2.0232
-4.5677 0.1980 2.0232
-4.5688 -0.1696 2.0232
-4.5404 -0.5363 2.0232
-4.4826 -0.8994 2.0232
-4.3959 -1.2565 2.0232
-4.2807 -1.6057 2.0232
-4.1379 -1.9445 2.0232
-3.9682 -2.2706 2.0232
-3.7730 -2.5821 2.0232
-3.5533 -2.8770 2.0232
-3.3106 -3.1532 2.0232
-3.0466 -3.4090 2.0232
-2.7628 -3.6428 2.0232
-2.4612 -3.8530 2.0232
-0.7848 -1.4785 0.7408
-0.6634 -1.5365 0.7406
-0.5377 -1.5847 0.7406
-0.4086 -1.6226 0.7405
-0.2769 -1.6501 0.7404
-0.1434 -1.6670 0.7404
-0.0090 -1.6731 0.7404
0.1254 -1.6684 0.7404
0.2591 -1.6530 0.7404
0.3911 -1.6269 0.7405
0.5206 -1.5904 0.7406
0.6468 -1.5436 0.7406
0.7689 -1.4869 0.7407
2.4195 -3.8793 2.0232
2.7234 -3.6723 2.0232
3.0097 -3.4416 2.0232
3.2765 -3.1886 2.0232
3.5221 -2.9151 2.0232
3.7449 -2.6227 2.0232
3.8650 -2.2672 1.9829
3.8828 -1.8759 1.9083
3.9421 -1.5272 1.8708
4.0585 -1.2075 1.8738
4.1358 -0.8761 1.8708
4.1928 -0.5410 1.8708
4.2227 -0.2023 1.8708
4.2253 0.1376 1.8708
4.2006 0.4767 1.8708
4.1487 0.8127 1.8708
4.0700 1.1434 1.8708
3.9650 1.4667 1.8708
3.9201 1.8204 1.9127
3.9102 2.2138 1.9885
3.7847 2.5650 2.0232
3.5664 2.8608 2.0232
3.3250 3.1381 2.0232
3.0621 3.3951 2.0232
2.7794 3.6301 2.0232
2.4787 3.8417 2.0232
2.1620 4.0285 2.0232
0.6755 1.5453 0.7463
0.5492 1.5948 0.7464
0.4194 1.6339 0.7465
0.2868 1.6624 0.7465
0.1523 1.6802 0.7466
0.0168 1.6870 0.7466
-0.1188 1.6829 0.7466
-0.2537 1.6678 0.7465
-0.3868 1.6419 0.7465
-0.5175 1.6054 0.7464
-0.6447 1.5584 0.7463
-0.7677 1.5014 0.7462
-2.4019 3.8902 2.0232
-2.7067 3.6847 2.0232
-2.9940 3.4553 2.0232
-3.2619 3.2035 2.0232
-3.5088 2.9311 2.0232
-3.7330 2.6397 2.0232
-3.9330 2.3312 2.0232
-4.1076 2.0076 2.0232
-4.2556 1.6711 2.0232
-4.3761 1.3238 2.0232
-4.4683 0.9678 2.0232
-4.5317 0.6057 2.0232
-4.5657 0.2396 2.0232
-4.5702 -0.1281 2.0232
-4.5451 -0.4950 2.0232
-4.4907 -0.8584 2.0232
-4.4071 -1.2166 2.0232
-4.2952 -1.5667 2.0232
-4.1554 -1.9067 2.0232
-3.9887 -2.2344 2.0232
-3.7963 -2.5477 2.0232
-3.5793 -2.8445 2.0232
-3.3392 -3.1229 2.0232
-3.0775 -3.3811 2.0232
-2.7959 -3.6175 2.0232
-2.4962 -3.8304 2.0232
-2.1803 -4.0186 2.0232
-0.6774 -1.5305 0.7407
-0.5521 -1.5798 0.7406
-0.4234 -1.6189 0.7405
-0.2919 -1.6475 0.7404
-0.1586 -1.6656 0.7404
-0.0242 -1.6729 0.7404
0.1103 -1.6695 0.7404
0.2441 -1.6553 0.7404
0.3763 -1.6304 0.7405
0.5061 -1.5951 0.7405
0.6327 -1.5494 0.7406
0.7553 -1.4938 0.7407
2.3841 -3.9011 2.0232
2.6899 -3.6969 2.0232
2.9782 -3.4688 2.0232
3.2473 -3.2183 2.0232
3.4954 -2.9470 2.0232
3.7209 -2.6566 2.0232
3.8627 -2.3134 1.9925
3.8810 -1.9188 1.9159
3.9280 -1.5631 1.8708
4.0409 -1.2424 1.8708
4.1277 -0.9137 1.8708
4.1877 -0.5791 1.8708
4.2207 -0.2408 1.8708
4.2264 0.0992 1.8708
4.2048 0.4384 1.8708
4.1560 0.7749 1.8708
4.0838 1.1072 1.8724
3.9782 1.4306 1.8708
3.9211 1.7776 1.9052
3.9114 2.1678 1.9790
3.8079 2.5304 2.0232
3.5922 2.8282 2.0232
3.3534 3.1077 2.0232
3.0928 3.3671 2.0232
2.8123 3.6047 2.0232
2.5136 3.8190 2.0232
2.1986 4.0086 2.0232
0.6896 1.5391 0.7463
0.5637 1.5897 0.7464
0.4342 1.6300 0.7465
0.3019 1.6597 0.7465
0.1675 1.6787 0.7466
0.0321 1.6868 0.7466
-0.1035 1.6839 0.7466
-0.2385 1.6701 0.7466
-0.3719 1.6454 0.7465
-0.5028 1.6101 0.7464
-0.6305 1.5643 0.7464
-0.7540 1.5083 0.7462
-2.3664 3.9119 2.0232
-2.6730 3.7092 2.0232
-2.9624 3.4824 2.0232
-3.2326 3.2331 2.0232
-3.4820 2.9629 2.0232
-3.7088 2.6735 2.0232
-3.9116 2.3669 2.0232
-4.0891 2.0449 2.0232
-4.2402 1.7098 2.0232
-4.3639 1.3635 2.0232
-4.4594 1.0085 2.0232
-4.5260 0.6469 2.0232
-4.5633 0.2811 2.0232
-4.5711 -0.0865 2.0232
-4.5494 -0.4535 2.0232
-4.4983 -0.8175 2.0232
-4.4180 -1.1764 2.0232
-4.3092 -1.5275 2.0232
-4.1726 -1.8688 2.0232
-4.0089 -2.1980 2.0232
-3.8194 -2.5130 2.0232
-3.6051 -2.8118 2.0232
-3.3675 -3.0924 2.0232
-3.1081 -3.3530 2.0232
-2.8287 -3.5919 2.0232
-2.5309 -3.8075 2.0232
-2.2168 -3.9986 2.0232
-0.6913 -1.5243 0.7407
-0.5665 -1.5747 0.7406
-0.4381 -1.6150 0.7405
-0.3069 -1.6448 0.7404
-0.1737 -1.6641 0.7404
-0.0395 -1.6726 0.7404
0.0951 -1.6704 0.7404
0.2290 -1.6574 0.7404
0.3614 -1.6338 0.7405
0.4916 -1.5996 0.7405
0.6186 -1.5551 0.7406
0.7416 -1.5005 0.7407
2.3485 -3.9227 2.0232
2.6561 -3.7213 2.0232
2.9465 -3.4958 2.0232
3.2179 -3.2478 2.0232
3.4685 -2.9787 2.0232
3.6966 -2.6904 2.0232
3.8604 -2.3600 2.0023
3.8791 -1.9620 1.9237
3.9136 -1.5986 1.8708
4.0294 -1.2792 1.8708
4.1192 -0.9513 1.8708
4.1823 -0.6172 1.8708
4.2184 -0.2792 1.8708
4.2271 0.0607 1.8708
4.2086 0.4001 1.8708
4.1628 0.7370 1.8708
4.0902 1.0691 1.8708
3.9910 1.3943 1.8708
3.9220 1.7352 1.8979
3.9127 2.1222 1.9698
3.8307 2.4956 2.0232
3.6178 2.7954 2.0232
3.3815 3.0770 2.0232
3.1234 3.3388 2.0232
2.8450 3.5790 2.0232
2.5482 3.7960 2.0232
2.2350 3.9885 2.0232
0.7035 1.5327 0.7463
0.5782 1.5845 0.7464
0.4490 1.6260 0.7465
0.3170 1.6569 0.7465
0.1828 1.6771 0.7466
0.0475 1.6864 0.7466
-0.0882 1.6847 0.7466
-0.2233 1.6722 0.7466
-0.3569 1.6487 0.7465
-0.4882 1.6146 0.7464
-0.6162 1.5700 0.7464
-0.7403 1.5152 0.7463
-2.3307 3.9333 2.0232
-2.6392 3.7333 2.0232
-2.9306 3.5092 2.0232
-3.2031 3.2624 2.0232
-3.4549 2.9945 2.0232
-3.6843 2.7072 2.0232
-3.8899 2.4024 2.0232
-4.0704 2.0821 2.0232
-4.2245 1.7483 2.0232
-4.3513 1.4032 2.0232
-4.4500 1.0490 2.0232
-4.5199 0.6881 2.0232
-4.5606 0.3227 2.0232
-4.5717 -0.0448 2.0232
-4.5534 -0.4120 2.0232
-4.5055 -0.7768 2.0232
-4.4286 -1.1361 2.0232
-4.3230 -1.4882 2.0232
-4.1894 -1.8308 2.0232
-4.0288 -2.1615 2.0232
-3.8421 -2.4782 2.0232
-3.6305 -2.7789 2.0232
-3.3955 -3.0616 2.0232
-3.1385 -3.3245 2.0232
-2.8612 -3.5660 2.0232
-2.5655 -3.7843 2.0232
-2.2531 -3.9782 2.0232
-0.7051 -1.5179 0.7407
-0.5808 -1.5695 0.7406
-0.4528 -1.6109 0.7405
-0.3219 -1.6420 0.7405
-0.1889 -1.6624 0.7404
-0.0547 -1.6722 0.7404
0.0799 -1.6712 0.7404
0.2139 -1.6594 0.7404
0.3465 -1.6370 0.7405
0.4770 -1.6040 0.7405
0.6044 -1.5606 0.7406
0.7279 -1.5072 0.7407
2.3127 -3.9439 2.0232
2.6221 -3.7453 2.0232
2.9146 -3.5225 2.0232
3.1882 -3.2769 2.0232
3.4412 -3.0101 2.0232
3.6719 -2.7239 2.0232
3.8581 -2.4070 2.0124
3.8772 -2.0055 1.9317
3.9028 -1.6360 1.8727
4.0176 -1.3158 1.8708
4.1103 -0.9887 1.8708
4.1765 -0.6553 1.8708
4.2156 -0.3176 1.8708
4.2275 0.0222 1.8708
4.2121 0.3618 1.8708
4.1694 0.6991 1.8708
4.0997 1.0318 1.8708
4.0036 1.3579 1.8708
3.9229 1.6931 1.8908
3.9139 2.0769 1.9608
3.8533 2.4607 2.0232
3.6431 2.7623 2.0232
3.4094 3.0461 2.0232
3.1536 3.3102 2.0232
2.8774 3.5529 2.0232
2.5827 3.7726 2.0232
2.2712 3.9680 2.0232
0.7174 1.5262 0.7463
0.5926 1.5791 0.7464
0.4638 1.6218 0.7465
0.3320 1.6539 0.7465
0.1981 1.6754 0.7466
0.0628 1.6859 0.7466
-0.0728 1.6855 0.7466
-0.2080 1.6741 0.7466
-0.3419 1.6519 0.7465
-0.4735 1.6190 0.7465
-0.6019 1.5755 0.7464
-0.7265 1.5219 0.7463
-2.2948 3.9544 2.0232
-2.6051 3.7572 2.0232
-2.8985 3.5357 2.0232
-3.1733 3.2914 2.0232
-3.4275 3.0258 2.0232
-3.6595 2.7406 2.0232
-3.8679 2.4377 2.0232
-4.0512 2.1190 2.0232
-4.2084 1.7867 2.0232
-4.3384 1.4427 2.0232
-4.4403 1.0895 2.0232
-4.5134 0.7292 2.0232
-4.5574 0.3642 2.0232
-4.5720 -0.0032 2.0232
-4.5569 -0.3706 2.0232
-4.5124 -0.7357 2.0232
-4.4387 -1.0957 2.0232
-4.3363 -1.4489 2.0232
-4.2059 -1.7926 2.0232
-4.0483 -2.1247 2.0232
-3.8645 -2.4431 2.0232
-3.6557 -2.7457 2.0232
-3.4232 -3.0306 2.0232
-3.1686 -3.2958 2.0232
-2.8936 -3.5398 2.0232
-2.5998 -3.7608 2.0232
-2.2892 -3.9576 2.0232
-0.7189 -1.5115 0.7407
-0.5951 -1.5642 0.7406
-0.4674 -1.6067 0.7405
-0.3368 -1.6390 0.7405
-0.2040 -1.6607 0.7404
-0.0699 -1.6716 0.7404
0.0646 -1.6718 0.7404
0.1988 -1.6613 0.7404
0.3316 -1.6400 0.7405
0.4624 -1.6082 0.7405
0.5902 -1.5660 0.7406
0.7142 -1.5138 0.7407
2.2767 -3.9648 2.0232
2.5879 -3.7690 2.0232
2.8824 -3.5489 2.0232
3.1583 -3.3058 2.0232
3.4137 -3.0413 2.0232
3.6470 -2.7572 2.0232
3.8557 -2.4546 2.0227
3.8752 -2.0494 1.9400
3.8976 -1.6757 1.8775
4.0055 -1.3523 1.8708
4.1012 -1.0261 1.8708
4.1704 -0.6932 1.8708
4.2126 -0.3559 1.8708
4.2275 -0.0163 1.8708
4.2152 0.3235 1.8708
4.1756 0.6611 1.8708
4.1089 0.9945 1.8708
4.0158 1.3214 1.8708
3.9249 1.6516 1.8845
3.9150 2.0321 1.9520
3.8755 2.4255 2.0232
3.6681 2.7290 2.0232
3.4370 3.0150 2.0232
3.1836 3.2814 2.0232
2.9097 3.5266 2.0232
2.6169 3.7490 2.0232
2.3072 3.9471 2.0232
0.7313 1.5196 0.7463
0.6069 1.5736 0.7464
0.4786 1.6175 0.7465
0.3471 1.6508 0.7465
0.2133 1.6735 0.7466
0.0782 1.6853 0.7466
-0.0575 1.6861 0.7466
-0.1928 1.6760 0.7466
-0.3268 1.6550 0.7465
-0.4587 1.6232 0.7465
-0.5876 1.5810 0.7464
-0.7126 1.5284 0.7463
-2.2587 3.9751 2.0232
-2.5708 3.7807 2.0232
-2.8662 3.5620 2.0232
-3.1432 3.3201 2.0232
-3.3998 3.0569 2.0232
-3.6344 2.7738 2.0232
-3.8455 2.4728 2.0232
-4.0318 2.1558 2.0232
-4.1920 1.8249 2.0232
-4.3251 1.4822 2.0232
-4.4302 1.1299 2.0232
-4.5066 0.7702 2.0232
-4.5539 0.4056 2.0232
-4.5718 0.0384 2.0232
-4.5601 -0.3291 2.0232
-4.5189 -0.6945 2.0232
-4.4485 -1.0553 2.0232
-4.3493 -1.4094 2.0232
-4.2220 -1.7542 2.0232
-4.0674 -2.0878 2.0232
-3.8865 -2.4078 2.0232
-3.6805 -2.7123 2.0232
-3.4507 -2.9993 2.0232
-3.1985 -3.2668 2.0232
-2.9257 -3.5133 2.0232
-2.6339 -3.7370 2.0232
-2.3251 -3.9366 2.0232
-0.7327 -1.5049 0.7407
-0.6093 -1.5587 0.7406
-0.4820 -1.6024 0.7405
-0.3517 -1.6359 0.7405
-0.2191 -1.6587 0.7404
-0.0851 -1.6709 0.7404
0.0494 -1.6724 0.7404
0.1836 -1.6630 0.7404
0.3167 -1.6430 0.7405
0.4477 -1.6123 0.7405
0.5759 -1.5713 0.7406
0.7004 -1.5202 0.7407
2.2406 -3.9853 2.0232
2.5535 -3.7924 2.0232
2.8500 -3.5750 2.0232
3.1280 -3.3344 2.0232
3.3858 -3.0723 2.0232
3.6218 -2.7903 2.0232
3.8342 -2.4903 2.0232
3.8732 -2.0937 1.9484
3.8923 -1.7157 1.8824
3.9930 -1.3887 1.8708
4.0917 -1.0634 1.8708
4.1639 -0.7312 1.8708
4.2092 -0.3942 1.8708
4.2272 -0.0547 1.8708
4.2180 0.2851 1.8708
4.1814 0.6231 1.8708
4.1178 0.9570 1.8708
4.0276 1.2848 1.8708
3.9295 1.6117 1.8795
3.9162 1.9877 1.9435
3.8975 2.3901 2.0232
3.6928 2.6956 2.0232
3.4643 2.9836 2.0232
3.2133 3.2523 2.0232
2.9416 3.5000 2.0232
2.6509 3.7250 2.0232
2.3430 3.9260 2.0232
0.7451 1.5128 0.7463
0.6212 1.5680 0.7464
0.4932 1.6130 0.7465
0.3621 1.6476 0.7465
0.2285 1.6715 0.7466
0.0935 1.6845 0.7466
-0.0422 1.6865 0.7466
-0.1775 1.6777 0.7466
-0.3117 1.6579 0.7465
-0.4439 1.6274 0.7465
-0.5732 1.5863 0.7464
-0.6987 1.5349 0.7463
-2.2224 3.9955 2.0232
-2.5363 3.8040 2.0232
-2.8337 3.5879 2.0232
-3.1128 3.3486 2.0232
-3.3718 3.0877 2.0232
-3.6090 2.8068 2.0232
-3.8229 2.5077 2.0232
-4.0120 2.1924 2.0232
-4.1752 1.8630 2.0232
-4.3114 1.5215 2.0232
-4.4197 1.1701 2.0232
-4.4994 0.8112 2.0232
-4.5501 0.4471 2.0232
-4.5713 0.0800 2.0232
-4.5629 -0.2876 2.0232
-4.5250 -0.6535 2.0232
-4.4579 -1.0148 2.0232
-4.3620 -1.3695 2.0232
-4.2378 -1.7157 2.0232
-4.0863 -2.0507 2.0232
-3.9083 -2.3724 2.0232
-3.7050 -2.6787 2.0232
-3.4778 -2.9678 2.0232
-3.2281 -3.2376 2.0232
-2.9575 -3.4865 2.0232
-2.6678 -3.7129 2.0232
-2.3609 -3.9152 2.0232
-0.7464 -1.4982 0.7407
-0.6235 -1.5531 0.7406
-0.4966 -1.5980 0.7405
-0.3666 -1.6326 0.7405
-0.2342 -1.6567 0.7404
-0.1003 -1.6701 0.7404
0.0342 -1.6727 0.7404
0.1685 -1.6646 0.7404
0.3017 -1.6458 0.7404
0.4330 -1.6163 0.7405
0.5615 -1.5765 0.7406
0.6865 -1.5265 0.7407
2.2042 -4.0055 2.0232
2.5189 -3.8155 2.0232
2.8173 -3.6008 2.0232
3.0976 -3.3627 2.0232
3.3577 -3.1030 2.0232
3.5962 -2.8231 2.0232
3.8114 -2.5250 2.0232
3.8711 -2.1383 1.9571
3.8879 -1.7560 1.8879
2.7559 3.2287 2.0232
2.4876 3.4396 2.0232
2.2031 3.6284 2.0232
0.7023 1.3989 0.7461
0.5877 1.4510 0.7462
0.4692 1.4937 0.7462
0.3477 1.5267 0.7463
0.2239 1.5498 0.7463
0.0987 1.5628 0.7464
-0.0272 1.5657 0.7464
-0.1529 1.5584 0.7463
-0.2776 1.5410 0.7463
-0.4005 1.5136 0.7463
-0.5208 1.4764 0.7462
-0.6377 1.4296 0.7461
-0.7504 1.3736 0.7460
-2.3278 3.5497 2.0232
-2.6055 3.3512 2.0232
-2.8664 3.1310 2.0232
-3.1087 2.8906 2.0232
-3.3309 2.6314 2.0232
-3.5315 2.3553 2.0232
-3.7094 2.0639 2.0232
-3.8632 1.7592 2.0232
-3.9921 1.4431 2.0232
-4.0951 1.1177 2.0232
-4.1717 0.7850 2.0232
-4.2213 0.4473 2.0232
-4.2436 0.1067 2.0232
-4.2384 -0.2347 2.0232
-4.2058 -0.5745 2.0232
-4.1461 -0.9105 2.0232
-4.0595 -1.2407 2.0232
-3.9467 -1.5629 2.0232
-3.8084 -1.8750 2.0232
-3.6454 -2.1749 2.0232
-3.4588 -2.4608 2.0232
-3.2499 -2.7308 2.0232
-3.0200 -2.9831 2.0232
-2.7706 -3.2161 2.0232
-2.5032 -3.4283 2.0232
-2.2196 -3.6183 2.0232
-0.7037 -1.3861 0.7409
-0.5900 -1.4380 0.7408
-0.4725 -1.4806 0.7407
-0.3520 -1.5136 0.7407
-0.2292 -1.5369 0.7406
-0.1050 -1.5503 0.7406
0.0199 -1.5537 0.7406
0.1447 -1.5471 0.7406
0.2686 -1.5306 0.7407
0.3907 -1.5041 0.7407
0.5103 -1.4680 0.7408
0.6267 -1.4224 0.7409
0.7391 -1.3677 0.7410
2.3116 -3.5603 2.0232
2.5902 -3.3630 2.0232
2.8521 -3.1440 2.0232
3.0955 -2.9047 2.0232
3.3189 -2.6465 2.0232
3.5208 -2.3713 2.0232
3.6999 -2.0808 2.0232
3.8552 -1.7767 2.0232
3.8765 -1.4213 1.9679
3.8882 -1.0802 1.9234
3.8975 -0.7518 1.8919
3.9120 -0.4325 1.8759
3.9234 -0.1163 1.8708
3.9225 0.1993 1.8720
3.9154 0.5166 1.8823
3.9111 0.8403 1.9067
3.9075 1.1749 1.9448
3.9016 1.5245 1.9965
3.8168 1.8576 2.0232
3.6552 2.1583 2.0232
3.4700 2.4450 2.0232
3.2623 2.7159 2.0232
3.0336 2.9693 2.0232
2.7852 3.2035 2.0232
2.5188 3.4169 2.0232
2.2361 3.6082 2.0232
0.7150 1.3924 0.7460
0.6008 1.4456 0.7461
0.4828 1.4893 0.7462
0.3616 1.5234 0.7463
0.2380 1.5477 0.7463
0.1129 1.5618 0.7464
-0.0129 1.5659 0.7464
-0.1387 1.5597 0.7463
-0.2636 1.5435 0.7463
-0.3867 1.5172 0.7463
-0.5073 1.4811 0.7462
-0.6246 1.4354 0.7461
-0.7378 1.3804 0.7460
-2.2954 3.5707 2.0232
-2.5749 3.3748 2.0232
-2.8377 3.1570 2.0232
-3.0822 2.9187 2.0232
-3.3068 2.6616 2.0232
-3.5100 2.3873 2.0232
-3.6904 2.0976 2.0232
-3.8470 1.7943 2.0232
-3.9788 1.4794 2.0232
-4.0848 1.1549 2.0232
-4.1644 0.8229 2.0232
-4.2170 0.4857 2.0232
-4.2424 0.1453 2.0232
-4.2404 -0.1961 2.0232
-4.2109 -0.5362 2.0232
-4.1542 -0.8728 2.0232
-4.0706 -1.2037 2.0232
-3.9608 -1.5269 2.0232
-3.8253 -1.8402 2.0232
-3.6650 -2.1416 2.0232
-3.4811 -2.4292 2.0232
-3.2747 -2.7011 2.0232
-3.0470 -2.9555 2.0232
-2.7997 -3.1907 2.0232
-2.5343 -3.4054 2.0232
-2.2525 -3.5980 2.0232
-0.7163 -1.3796 0.7409
-0.6031 -1.4325 0.7408
-0.4860 -1.4762 0.7408
-0.3658 -1.5104 0.7407
-0.2432 -1.5348 0.7407
-0.1191 -1.5493 0.7406
0.0058 -1.5538 0.7406
0.1306 -1.5484 0.7406
0.2546 -1.5329 0.7407
0.3770 -1.5076 0.7407
0.4969 -1.4726 0.7408
0.6137 -1.4281 0.7409
0.7266 -1.3743 0.7410
2.2791 -3.5811 2.0232
2.5595 -3.3864 2.0232
2.8233 -3.1698 2.0232
3.0689 -2.9327 2.0232
3.2946 -2.6766 2.0232
3.4991 -2.4033 2.0232
3.6808 -2.1144 2.0232
3.8388 -1.8118 2.0232
3.8750 -1.4609 1.9738
3.8870 -1.1181 1.9278
3.8965 -0.7885 1.8948
3.9104 -0.4684 1.8771
3.9222 -0.1521 1.8708
3.9227 0.1635 1.8713
3.9166 0.4806 1.8808
3.9114 0.8032 1.9032
3.9081 1.1364 1.9398
3.9024 1.4841 1.9899
3.8336 1.8228 2.0232
3.6747 2.1250 2.0232
3.4921 2.4134 2.0232
3.2869 2.6861 2.0232
3.0605 2.9416 2.0232
2.8142 3.1780 2.0232
2.5498 3.3938 2.0232
2.2688 3.5877 2.0232
0.7276 1.3858 0.7460
0.6140 1.4400 0.7461
0.4963 1.4849 0.7462
0.3754 1.5201 0.7463
0.2521 1.5454 0.7463
0.1271 1.5607 0.7464
0.0013 1.5659 0.7464
-0.1245 1.5609 0.7464
-0.2495 1.5458 0.7463
-0.3729 1.5207 0.7463
-0.4938 1.4857 0.7462
-0.6115 1.4410 0.7461
-0.7253 1.3870 0.7460
-2.2628 3.5915 2.0232
-2.5441 3.3981 2.0232
-2.8089 3.1827 2.0232
-3.0555 2.9467 2.0232
-3.2824 2.6916 2.0232
-3.4881 2.4192 2.0232
-3.6712 2.1311 2.0232
-3.8305 1.8292 2.0232
-3.9651 1.5155 2.0232
-4.0741 1.1920 2.0232
-4.1567 0.8608 2.0232
-4.2124 0.5240 2.0232
-4.2409 0.1839 2.0232
-4.2420 -0.1575 2.0232
-4.2156 -0.4978 2.0232
-4.1620 -0.8349 2.0232
-4.0814 -1.1666 2.0232
-3.9745 -1.4908 2.0232
-3.8419 -1.8053 2.0232
-3.6844 -2.1082 2.0232
-3.5031 -2.3974 2.0232
-3.2991 -2.6711 2.0232
-3.0738 -2.9276 2.0232
-2.8286 -3.1651 2.0232
-2.5652 -3.3822 2.0232
-2.2851 -3.5773 2.0232
-0.7289 -1.3731 0.7409
-0.6161 -1.4270 0.7408
-0.4994 -1.4717 0.7408
-0.3795 -1.5070 0.7407
-0.2572 -1.5325 0.7407
-0.1332 -1.5482 0.7406
-0.0084 -1.5538 0.7406
0.1165 -1.5495 0.7406
0.2406 -1.5352 0.7407
0.3632 -1.5110 0.7407
0.4835 -1.4770 0.7408
0.6007 -1.4336 0.7408
0.7140 -1.3808 0.7409
2.2465 -3.6017 2.0232
2.5286 -3.4096 2.0232
2.7944 -3.1954 2.0232
3.0421 -2.9605 2.0232
3.2701 -2.7065 2.0232
3.4770 -2.4351 2.0232
3.6614 -2.1478 2.0232
3.8222 -1.8466 2.0232
3.8734 -1.5007 1.9799
3.8858 -1.1562 1.9323
3.8956 -0.8252 1.8980
3.9087 -0.5043 1.8785
3.9206 -0.1879 1.8708
3.9231 0.1277 1.8708
3.9177 0.4446 1.8793
3.9116 0.7662 1.8998
3.9085 1.0980 1.9350
3.9031 1.4438 1.9835
3.8500 1.7879 2.0232
3.6939 2.0914 2.0232
3.5139 2.3815 2.0232
3.3112 2.6561 2.0232
3.0871 2.9136 2.0232
2.8430 3.1522 2.0232
2.5805 3.3705 2.0232
2.3014 3.5669 2.0232
0.7402 1.3791 0.7460
0.6270 1.4343 0.7461
0.5098 1.4803 0.7462
0.3893 1.5166 0.7463
0.2662 1.5430 0.7463
0.1413 1.5595 0.7464
0.0156 1.5658 0.7464
-0.1103 1.5620 0.7464
-0.2354 1.5480 0.7463
-0.3590 1.5240 0.7463
-0.4803 1.4901 0.7462
-0.5984 1.4465 0.7461
-0.7126 1.3936 0.7460
-2.2300 3.6119 2.0232
-2.5130 3.4211 2.0232
-2.7798 3.2081 2.0232
-3.0286 2.9744 2.0232
-3.2578 2.7214 2.0232
-3.4659 2.4508 2.0232
-3.6516 2.1644 2.0232
-3.8137 1.8640 2.0232
-3.9512 1.5515 2.0232
-4.0631 1.2291 2.0232
-4.1487 0.8986 2.0232
-4.2075 0.5624 2.0232
-4.2391 0.2225 2.0232
-4.2432 -0.1189 2.0232
-4.2200 -0.4594 2.0232
-4.1694 -0.7970 2.0232
-4.0919 -1.1295 2.0232
-3.9879 -1.4546 2.0232
-3.8581 -1.7703 2.0232
-3.7034 -2.0746 2.0232
-3.5247 -2.3654 2.0232
-3.3233 -2.6410 2.0232
-3.1003 -2.8995 2.0232
-2.8573 -3.1392 2.0232
-2.5959 -3.3587 2.0232
-2.3176 -3.5564 2.0232
-0.7414 -1.3664 0.7410
-0.6291 -1.4214 0.7409
-0.5128 -1.4672 0.7408
-0.3932 -1.5035 0.7407
-0.2711 -1.5301 0.7407
-0.1473 -1.5469 0.7406
-0.0225 -1.5537 0.7406
0.1024 -1.5505 0.7406
0.2267 -1.5373 0.7406
0.3495 -1.5142 0.7407
0.4700 -1.4814 0.7408
0.5876 -1.4390 0.7408
0.7014 -1.3873 0.7409
2.2136 -3.6220 2.0232
2.4975 -3.4325 2.0232
2.7652 -3.2207 2.0232
3.0150 -2.9881 2.0232
3.2454 -2.7362 2.0232
3.4547 -2.4666 2.0232
3.6417 -2.1810 2.0232
3.8052 -1.8813 2.0232
3.8719 -1.5408 1.9862
3.8845 -1.1944 1.9370
3.8946 -0.8622 1.9012
3.9069 -0.5403 1.8799
3.9191 -0.2236 1.8710
3.9241 0.0922 1.8708
3.9187 0.4086 1.8779
3.9119 0.7293 1.8966
3.9090 1.0599 1.9304
3.9039 1.4038 1.9773
3.8661 1.7527 2.0232
3.7128 2.0577 2.0232
3.5355 2.3494 2.0232
3.3353 2.6259 2.0232
3.1135 2.8854 2.0232
2.8716 3.1262 2.0232
2.6111 3.3468 2.0232
2.3337 3.5458 2.0232
0.7527 1.3723 0.7460
0.6401 1.4286 0.7461
0.5233 1.4755 0.7462
0.4030 1.5130 0.7463
0.2802 1.5405 0.7463
0.1555 1.5581 0.7463
0.0298 1.5656 0.7464
-0.0961 1.5629 0.7464
-0.2213 1.5501 0.7463
-0.3452 1.5272 0.7463
-0.4667 1.4944 0.7462
-0.5852 1.4520 0.7461
-0.6999 1.4001 0.7461
-2.1971 3.6321 2.0232
-2.4818 3.4438 2.0232
-2.7505 3.2333 2.0232
-3.0014 3.0018 2.0232
-3.2329 2.7509 2.0232
-3.4435 2.4823 2.0232
-3.6318 2.1976 2.0232
-3.7966 1.8987 2.0232
-3.9369 1.5874 2.0232
-4.0517 1.2660 2.0232
-4.1403 0.9363 2.0232
-4.2022 0.6006 2.0232
-4.2369 0.2610 2.0232
-4.2441 -0.0802 2.0232
-4.2240 -0.4210 2.0232
-4.1765 -0.7590 2.0232
-4.1020 -1.0922 2.0232
-4.0010 -1.4182 2.0232
-3.8741 -1.7351 2.0232
-3.7221 -2.0408 2.0232
-3.5461 -2.3333 2.0232
-3.3472 -2.6106 2.0232
-3.1266 -2.8712 2.0232
-2.8858 -3.1131 2.0232
-2.6263 -3.3349 2.0232
-2.3499 -3.5351 2.0232
-0.7538 -1.3596 0.7410
-0.6420 -1.4156 0.7409
-0.5261 -1.4624 0.7408
-0.4069 -1.4999 0.7407
-0.2850 -1.5276 0.7407
-0.1614 -1.5455 0.7406
-0.0367 -1.5534 0.7406
0.0883 -1.5514 0.7406
0.2127 -1.5393 0.7406
0.3357 -1.5173 0.7407
0.4565 -1.4856 0.7407
0.5745 -1.4442 0.7408
0.6888 -1.3936 0.7409
2.1805 -3.6420 2.0232
2.4661 -3.4550 2.0232
2.7358 -3.2457 2.0232
2.9877 -3.0154 2.0232
3.2203 -2.7656 2.0232
3.4321 -2.4979 2.0232
3.6217 -2.2141 2.0232
3.7879 -1.9159 2.0232
3.8703 -1.5811 1.9927
3.8832 -1.2328 1.9419
3.8936 -0.8992 1.9046
3.9050 -0.5763 1.8814
3.9181 -0.2593 1.8716
3.9247 0.0562 1.8708
3.9196 0.3727 1.8766
3.9120 0.6926 1.8936
3.9094 1.0219 1.9260
3.9046 1.3641 1.9713
3.8819 1.7175 2.0232
3.7314 2.0238 2.0232
3.5567 2.3171 2.0232
3.3590 2.5954 2.0232
3.1396 2.8569 2.0232
2.8999 3.1000 2.0232
2.6415 3.3229 2.0232
2.3659 3.5244 2.0232
0.7651 1.3654 0.7460
0.6530 1.4227 0.7461
0.5367 1.4707 0.7462
0.4168 1.5092 0.7463
0.2942 1.5379 0.7463
0.1697 1.5567 0.7463
0.0441 1.5653 0.7464
-0.0819 1.5638 0.7464
-0.2072 1.5521 0.7463
-0.3313 1.5303 0.7463
-0.4531 1.4986 0.7462
-0.5720 1.4572 0.7462
-0.6872 1.4064 0.7461
-2.1639 3.6519 2.0232
-2.4504 3.4663 2.0232
-2.7210 3.2581 2.0232
-2.9739 3.0290 2.0232
-3.2077 2.7802 2.0232
-3.4207 2.5135 2.0232
-3.6116 2.2305 2.0232
-3.7792 1.9331 2.0232
-3.9223 1.6232 2.0232
-4.0400 1.3028 2.0232
-4.1316 0.9740 2.0232
-4.1965 0.6388 2.0232
-4.2343 0.2996 2.0232
-4.2447 -0.0416 2.0232
-4.2276 -0.3825 2.0232
-4.1832 -0.7210 2.0232
-4.1118 -1.0548 2.0232
-4.0137 -1.3817 2.0232
-3.8897 -1.6998 2.0232
-3.7406 -2.0068 2.0232
-3.5672 -2.3009 2.0232
-3.3708 -2.5801 2.0232
-3.1526 -2.8426 2.0232
-2.9140 -3.0867 2.0232
-2.6566 -3.3109 2.0232
-2.3819 -3.5136 2.0232
-0.7661 -1.3527 0.7410
-0.6549 -1.4097 0.7409
-0.5394 -1.4576 0.7408
-0.4205 -1.4961 0.7407
-0.2989 -1.5250 0.7407
-0.1754 -1.5440 0.7406
-0.0508 -1.5530 0.7406
0.0742 -1.5521 0.7406
0.1986 -1.5412 0.7406
0.3218 -1.5203 0.7407
0.4430 -1.4896 0.7407
0.5613 -1.4494 0.7408
0.6760 -1.3998 0.7409
2.1473 -3.6617 2.0232
2.4346 -3.4773 2.0232
2.7061 -3.2705 2.0232
2.9601 -3.0425 2.0232
3.1950 -2.7948 2.0232
3.4093 -2.5290 2.0232
3.6014 -2.2469 2.0232
3.7703 -1.9503 2.0232
3.8686 -1.6217 1.9993
3.8819 -1.2713 1.9469
3.8925 -0.9363 1.9082
3.9030 -0.6127 1.8830
3.9171 -0.2951 1.8723
3.9251 0.0207 1.8708
3.9204 0.3368 1.8755
3.9122 0.6559 1.8907
3.9098 0.9841 1.9217
3.9052 1.3246 1.9655
3.8974 1.6821 2.0232
3.7496 1.9898 2.0232
3.5776 2.2846 2.0232
3.3825 2.5647 2.0232
3.1655 2.8282 2.0232
2.9280 3.0734 2.0232
2.6716 3.2987 2.0232
2.3979 3.5027 2.0232
0.7775 1.3584 0.7460
0.6659 1.4166 0.7461
0.5500 1.4657 0.7462
0.4305 1.5053 0.7463
0.3082 1.5352 0.7463
0.1838 1.5550 0.7463
0.0583 1.5648 0.7464
-0.0676 1.5644 0.7464
-0.1931 1.5539 0.7463
-0.3173 1.5333 0.7463
-0.4395 1.5027 0.7462
-0.5587 1.4624 0.7462
-0.6743 1.4126 0.7461
-2.1306 3.6715 2.0232
-2.4187 3.4884 2.0232
-2.6912 3.2828 2.0232
-2.9463 3.0559 2.0232
-3.1823 2.8093 2.0232
-3.3977 2.5445 2.0232
-3.5912 2.2633 2.0232
-3.7614 1.9674 2.0232
-3.9073 1.6589 2.0232
-4.0280 1.3395 2.0232
-4.1226 1.0115 2.0232
-4.1906 0.6770 2.0232
-4.2314 0.3381 2.0232
-4.2449 -0.0030 2.0232
-4.2309 -0.3440 2.0232
-4.1896 -0.6829 2.0232
-4.1212 -1.0173 2.0232
-4.0261 -1.3452 2.0232
-3.9050 -1.6643 2.0232
-3.7587 -1.9727 2.0232
-3.5880 -2.2683 2.0232
-3.3942 -2.5493 2.0232
-3.1783 -2.8138 2.0232
-2.9420 -3.0601 2.0232
-2.6866 -3.2865 2.0232
-2.4138 -3.4918 2.0232
-0.7784 -1.3457 0.7410
-0.6677 -1.4037 0.7409
-0.5527 -1.4527 0.7408
-0.4341 -1.4922 0.7407
-0.3128 -1.5222 0.7407
-0.1895 -1.5423 0.7406
-0.0649 -1.5525 0.7406
0.0600 -1.5527 0.7406
0.1846 -1.5429 0.7406
0.3080 -1.5232 0.7407
0.4294 -1.4936 0.7407
0.5481 -1.4544 0.7408
0.6633 -1.4058 0.7409
0.7742 -1.3482 0.7410
2.4028 -3.4994 2.0232
2.6762 -3.2950 2.0232
2.9323 -3.0693 2.0232
3.1695 -2.8238 2.0232
3.3861 -2.5600 2.0232
3.5808 -2.2796 2.0232
3.7524 -1.9845 2.0232
3.8669 -1.6625 2.0062
3.8805 -1.3101 1.9522
3.8915 -0.9736 1.9120
3.9009 -0.6484 1.8848
3.9159 -0.3308 1.8731
3.9251 -0.0150 1.8708
3.9211 0.3009 1.8744
3.9123 0.6194 1.8880
3.9102 0.9464 1.9175
3.9059 1.2853 1.9599
3.8991 1.6409 2.0163
3.7676 1.9556 2.0232
3.5983 2.2520 2.0232
3.4057 2.5338 2.0232
3.1911 2.7993 2.0232
2.9559 3.0466 2.0232
2.7015 3.2743 2.0232
2.4297 3.4808 2.0232
0.7898 1.3512 0.7460
0.6788 1.4105 0.7461
0.5633 1.4607 0.7462
0.4442 1.5013 0.7462
0.3221 1.5323 0.7463
0.1980 1.5533 0.7463
0.0725 1.5642 0.7464
-0.0534 1.5650 0.7464
-0.1789 1.5556 0.7463
-0.3034 1.5361 0.7463
-0.4258 1.5067 0.7462
-0.5454 1.4675 0.7462
-0.6615 1.4187 0.7461
-0.7732 1.3608 0.7460
-2.3869 3.5103 2.0232
-2.6612 3.3072 2.0232
-2.9183 3.0826 2.0232
-3.1566 2.8382 2.0232
-3.3744 2.5754 2.0232
-3.5704 2.2959 2.0232
-3.7434 2.0016 2.0232
-3.8921 1.6943 2.0232
-4.0156 1.3761 2.0232
-4.1132 1.0490 2.0232
-4.1842 0.7151 2.0232
-4.2282 0.3766 2.0232
-4.2447 0.0357 2.0232
-4.2339 -0.3055 2.0232
-4.1956 -0.6447 2.0232
-4.1303 -0.9798 2.0232
-4.0382 -1.3085 2.0232
-3.9200 -1.6287 2.0232
-3.7765 -1.9384 2.0232
-3.6085 -2.2356 2.0232
-3.4172 -2.5183 2.0232
-3.2038 -2.7847 2.0232
-2.9697 -3.0331 2.0232
-2.7164 -3.2620 2.0232
-2.4455 -3.4697 2.0232
-2.1588 -3.6550 2.0232
-0.6804 -1.3976 0.7409
-0.5659 -1.4476 0.7408
-0.4477 -1.4882 0.7407
-0.3266 -1.5193 0.7407
-0.2035 -1.5405 0.7406
-0.0790 -1.5519 0.7406
0.0459 -1.5532 0.7406
0.1706 -1.5445 0.7406
0.2941 -1.5259 0.7407
0.4158 -1.4974 0.7407
0.5348 -1.4593 0.7408
0.6504 -1.4118 0.7409
0.7619 -1.3552 0.7410
2.3709 -3.5211 2.0232
2.6461 -3.3192 2.0232
2.9043 -3.0959 2.0232
3.1436 -2.8525 2.0232
3.3627 -2.5907 2.0232
3.5599 -2.3121 2.0232
3.7342 -2.0186 2.0232
3.8652 -1.7036 2.0133
3.8791 -1.3491 1.9575
3.8904 -1.0110 1.9159
3.8991 -0.6846 1.8869
3.9146 -0.3666 1.8740
3.9248 -0.0509 1.8708
3.9217 0.2651 1.8734
3.9128 0.5828 1.8856
3.9106 0.9089 1.9136
3.9065 1.2462 1.9544
3.9000 1.5996 2.0091
3.7852 1.9212 2.0232
3.6186 2.2191 2.0232
3.4286 2.5027 2.0232
3.2164 2.7701 2.0232
2.9835 3.0196 2.0232
2.7312 3.2496 2.0232
2.4613 3.4585 2.0232
2.1754 3.6451 2.0232
0.6916 1.4042 0.7461
0.5766 1.4554 0.7462
0.4578 1.4972 0.7462
0.3361 1.5293 0.7463
0.2121 1.5514 0.7463
0.0868 1.5635 0.7464
-0.0391 1.5654 0.7464
-0.1648 1.5572 0.7463
-0.2894 1.5388 0.7463
-0.4120 1.5105 0.7463
-0.5320 1.4724 0.7462
-0.6485 1.4247 0.7461
-0.7608 1.3678 0.7460
-2.3548 3.5318 2.0232
-2.6310 3.3312 2.0232
-2.8901 3.1091 2.0232
-3.1306 2.8668 2.0232
-3.3508 2.6060 2.0232
-3.5494 2.3283 2.0232
-3.7250 2.0356 2.0232
-3.8765 1.7297 2.0232
-4.0030 1.4126 2.0232
-4.1035 1.0864 2.0232
-4.1775 0.7532 2.0232
-4.2246 0.4151 2.0232
-4.2442 0.0743 2.0232
-4.2365 -0.2670 2.0232
-4.2013 -0.6065 2.0232
-4.1390 -0.9421 2.0232
-4.0499 -1.2716 2.0232
-3.9347 -1.5930 2.0232
-3.7940 -1.9040 2.0232
-3.6287 -2.2026 2.0232
-3.4400 -2.4871 2.0232
-3.2290 -2.7554 2.0232
-2.9972 -3.0060 2.0232
-2.7460 -3.2371 2.0232
-2.4770 -3.4473 2.0232
-2.1920 -3.6351 2.0232
-0.6931 -1.3914 0.7409
-0.5790 -1.4424 0.7408
-0.4612 -1.4841 0.7407
-0.3405 -1.5162 0.7407
-0.2175 -1.5386 0.7406
-0.0932 -1.5511 0.7406
0.0318 -1.5535 0.7406
0.1565 -1.5460 0.7406
0.2802 -1.5285 0.7407
0.4022 -1.5011 0.7407
0.5215 -1.4641 0.7408
0.6375 -1.4176 0.7409
0.7495 -1.3620 0.7410
2.3387 -3.5425 2.0232
2.6158 -3.3432 2.0232
2.8760 -3.1222 2.0232
3.1175 -2.8810 2.0232
3.3389 -2.6212 2.0232
3.5388 -2.3444 2.0232
3.7157 -2.0525 2.0232
3.8634 -1.7450 2.0205
2.5672 3.0077 2.0232
2.3173 3.2042 2.0232
0.7565 1.2459 0.7458
0.6540 1.3028 0.7459
0.5473 1.3513 0.7460
0.4370 1.3911 0.7460
0.3238 1.4218 0.7461
0.2086 1.4433 0.7461
0.0919 1.4554 0.7462
-0.0253 1.4581 0.7462
-0.1424 1.4513 0.7461
-0.2585 1.4351 0.7461
-0.3730 1.4096 0.7461
-0.4850 1.3750 0.7460
-0.5939 1.3314 0.7459
-0.6988 1.2792 0.7458
-2.1685 3.3067 2.0232
-2.4272 3.1218 2.0232
-2.6701 2.9167 2.0232
-2.8959 2.6927 2.0232
-3.1029 2.4513 2.0232
-3.2898 2.1941 2.0232
-3.4554 1.9226 2.0232
-3.5988 1.6388 2.0232
-3.7188 1.3443 2.0232
-3.8148 1.0412 2.0232
-3.8861 0.7313 2.0232
-3.9323 0.4167 2.0232
-3.9531 0.0993 2.0232
-3.9483 -0.2186 2.0232
-3.9179 -0.5352 2.0232
-3.8623 -0.8482 2.0232
-3.7816 -1.1558 2.0232
-3.6765 -1.4559 2.0232
-3.5477 -1.7466 2.0232
-3.3958 -2.0260 2.0232
-3.2221 -2.2923 2.0232
-3.0275 -2.5438 2.0232
-2.8133 -2.7789 2.0232
-2.5809 -2.9959 2.0232
-2.3318 -3.1936 2.0232
-0.7575 -1.2348 0.7412
-0.6557 -1.2915 0.7411
-0.5498 -1.3399 0.7410
-0.4403 -1.3796 0.7409
-0.3280 -1.4104 0.7409
-0.2136 -1.4321 0.7408
-0.0978 -1.4446 0.7408
0.0186 -1.4478 0.7408
0.1348 -1.4416 0.7408
0.2502 -1.4262 0.7409
0.3640 -1.4015 0.7409
0.4755 -1.3679 0.7410
0.5840 -1.3254 0.7410
0.6886 -1.2743 0.7411
2.1534 -3.3165 2.0232
2.4129 -3.1328 2.0232
2.6568 -2.9288 2.0232
2.8836 -2.7058 2.0232
3.0917 -2.4654 2.0232
3.2798 -2.2090 2.0232
3.4467 -1.9384 2.0232
3.5913 -1.6551 2.0232
3.7126 -1.3612 2.0232
3.8100 -1.0585 2.0232
3.8740 -0.7473 2.0187
3.8812 -0.4291 1.9979
3.8860 -0.1153 1.9892
3.8887 0.1976 1.9922
3.8892 0.5132 2.0072
3.8661 0.8306 2.0232
3.7868 1.1386 2.0232
3.6831 1.4392 2.0232
3.5556 1.7305 2.0232
3.4050 2.0106 2.0232
3.2325 2.2777 2.0232
3.0390 2.5300 2.0232
2.8259 2.7660 2.0232
2.5945 2.9842 2.0232
2.3463 3.1830 2.0232
0.7678 1.2389 0.7458
0.6659 1.2968 0.7459
0.5596 1.3463 0.7460
0.4496 1.3870 0.7460
0.3368 1.4188 0.7461
0.2217 1.4413 0.7461
0.1052 1.4545 0.7462
-0.0121 1.4583 0.7462
-0.1292 1.4526 0.7462
-0.2455 1.4374 0.7461
-0.3602 1.4130 0.7461
-0.4725 1.3794 0.7460
-0.5817 1.3368 0.7459
-0.6872 1.2856 0.7458
-2.1383 3.3263 2.0232
-2.3986 3.1438 2.0232
-2.6435 2.9409 2.0232
-2.8712 2.7189 2.0232
-3.0804 2.4795 2.0232
-3.2697 2.2239 2.0232
-3.4378 1.9540 2.0232
-3.5837 1.6715 2.0232
-3.7064 1.3781 2.0232
-3.8052 1.0758 2.0232
-3.8793 0.7666 2.0232
-3.9283 0.4524 2.0232
-3.9520 0.1353 2.0232
-3.9501 -0.1827 2.0232
-3.9226 -0.4994 2.0232
-3.8698 -0.8130 2.0232
-3.7920 -1.1213 2.0232
-3.6896 -1.4224 2.0232
-3.5634 -1.7143 2.0232
-3.4141 -1.9951 2.0232
-3.2428 -2.2629 2.0232
-3.0505 -2.5162 2.0232
-2.8385 -2.7531 2.0232
-2.6081 -2.9723 2.0232
-2.3608 -3.1723 2.0232
-0.7687 -1.2279 0.7412
-0.6675 -1.2855 0.7411
-0.5619 -1.3348 0.7410
-0.4528 -1.3755 0.7409
-0.3408 -1.4073 0.7409
-0.2266 -1.4301 0.7408
-0.1110 -1.4436 0.7408
0.0054 -1.4479 0.7408
0.1217 -1.4428 0.7408
0.2372 -1.4284 0.7408
0.3513 -1.4048 0.7409
0.4630 -1.3721 0.7410
0.5719 -1.3306 0.7410
0.6770 -1.2805 0.7411
0.7778 -1.2222 0.7412
2.3843 -3.1546 2.0232
2.6301 -2.9528 2.0232
2.8588 -2.7320 2.0232
3.0691 -2.4934 2.0232
3.2595 -2.2388 2.0232
3.4289 -1.9696 2.0232
3.5761 -1.6877 2.0232
3.7001 -1.3950 2.0232
3.8002 -1.0931 2.0232
3.8731 -0.7837 2.0218
3.8805 -0.4648 1.9997
3.8856 -0.1508 1.9896
3.8885 0.1621 1.9913
3.8892 0.4772 2.0049
3.8735 0.7954 2.0232
3.7971 1.1041 2.0232
3.6961 1.4056 2.0232
3.5712 1.6980 2.0232
3.4232 1.9795 2.0232
3.2531 2.2481 2.0232
3.0619 2.5023 2.0232
2.8510 2.7402 2.0232
2.6216 2.9604 2.0232
2.3752 3.1615 2.0232
0.7790 1.2319 0.7458
0.6776 1.2907 0.7459
0.5718 1.3411 0.7460
0.4622 1.3829 0.7460
0.3497 1.4156 0.7461
0.2348 1.4392 0.7461
0.1184 1.4535 0.7462
0.0012 1.4583 0.7462
-0.1160 1.4537 0.7462
-0.2324 1.4396 0.7461
-0.3473 1.4162 0.7461
-0.4599 1.3836 0.7460
-0.5695 1.3421 0.7459
-0.6755 1.2918 0.7459
-2.1079 3.3456 2.0232
-2.3699 3.1654 2.0232
-2.6166 2.9648 2.0232
-2.8464 2.7450 2.0232
-3.0577 2.5074 2.0232
-3.2493 2.2536 2.0232
-3.4199 1.9852 2.0232
-3.5683 1.7040 2.0232
-3.6937 1.4118 2.0232
-3.7952 1.1104 2.0232
-3.8722 0.8019 2.0232
-3.9241 0.4882 2.0232
-3.9506 0.1713 2.0232
-3.9516 -0.1467 2.0232
-3.9270 -0.4637 2.0232
-3.8771 -0.7778 2.0232
-3.8020 -1.0868 2.0232
-3.7024 -1.3888 2.0232
-3.5789 -1.6818 2.0232
-3.4322 -1.9639 2.0232
-3.2633 -2.2333 2.0232
-3.0733 -2.4883 2.0232
-2.8634 -2.7272 2.0232
-2.6350 -2.9484 2.0232
-2.3896 -3.1506 2.0232
-0.7799 -1.2209 0.7412
-0.6791 -1.2794 0.7411
-0.5741 -1.3297 0.7410
-0.4653 -1.3713 0.7409
-0.3536 -1.4042 0.7409
-0.2396 -1.4280 0.7408
-0.1241 -1.4426 0.7408
-0.0078 -1.4478 0.7408
0.1086 -1.4438 0.7408
0.2242 -1.4305 0.7408
0.3385 -1.4079 0.7409
0.4505 -1.3763 0.7409
0.5597 -1.3358 0.7410
0.6653 -1.2866 0.7411
0.7667 -1.2292 0.7412
2.3555 -3.1762 2.0232
2.6031 -2.9767 2.0232
2.8338 -2.7579 2.0232
3.0463 -2.5213 2.0232
3.2390 -2.2683 2.0232
3.4108 -2.0007 2.0232
3.5605 -1.7202 2.0232
3.6872 -1.4286 2.0232
3.7901 -1.1277 2.0232
3.8685 -0.8195 2.0232
3.8797 -0.5006 2.0015
3.8851 -0.1862 1.9901
3.8883 0.1266 1.9905
3.8892 0.4413 2.0027
3.8806 0.7601 2.0232
3.8069 1.0695 2.0232
3.7087 1.3719 2.0232
3.5865 1.6655 2.0232
3.4411 1.9483 2.0232
3.2734 2.2184 2.0232
3.0846 2.4743 2.0232
2.8758 2.7141 2.0232
2.6484 2.9364 2.0232
2.4039 3.1397 2.0232
0.7902 1.2247 0.7457
0.6893 1.2844 0.7458
0.5840 1.3358 0.7459
0.4748 1.3786 0.7460
0.3625 1.4124 0.7461
0.2479 1.4370 0.7461
0.1316 1.4524 0.7462
0.0145 1.4583 0.7462
-0.1027 1.4547 0.7462
-0.2193 1.4417 0.7461
-0.3344 1.4193 0.7461
-0.4473 1.3878 0.7460
-0.5573 1.3472 0.7460
-0.6637 1.2979 0.7459
-0.7657 1.2402 0.7458
-2.3410 3.1869 2.0232
-2.5895 2.9885 2.0232
-2.8213 2.7707 2.0232
-3.0348 2.5351 2.0232
-3.2287 2.2831 2.0232
-3.4017 2.0163 2.0232
-3.5527 1.7364 2.0232
-3.6807 1.4453 2.0232
-3.7849 1.1449 2.0232
-3.8647 0.8371 2.0232
-3.9195 0.5239 2.0232
-3.9489 0.2072 2.0232
-3.9528 -0.1107 2.0232
-3.9311 -0.4280 2.0232
-3.8840 -0.7425 2.0232
-3.8118 -1.0521 2.0232
-3.7149 -1.3550 2.0232
-3.5940 -1.6491 2.0232
-3.4499 -1.9326 2.0232
-3.2835 -2.2035 2.0232
-3.0958 -2.4602 2.0232
