ply
format ascii 1.0
element vertex 2168
property float32 x
property float32 y
property float32 z
end_header
8.7037 11.5481 1.8905
7.6190 12.0020 1.8777
6.5640 12.4445 1.8777
5.8763 13.7031 2.0106
4.7552 14.1205 2.0301
3.5707 14.3095 2.0301
2.3871 14.4046 2.0301
1.2117 14.4078 2.0301
0.0510 14.3217 2.0301
-1.0887 14.1494 2.0301
-2.2018 13.8942 2.0301
-3.2829 13.5592 2.0301
-4.3273 13.1483 2.0301
-5.3304 12.6653 2.0301
-6.2881 12.1142 2.0301
-7.1968 11.4988 2.0301
-8.0531 10.8229 2.0301
-8.8536 10.0918 2.0301
-9.5958 9.3083 2.0301
-10.2769 8.4770 2.0301
-10.8946 7.6020 2.0301
-11.4467 6.6875 2.0301
-11.9312 5.7378 2.0301
-12.3464 4.7569 2.0301
-12.6904 3.7492 2.0301
-12.9620 2.7190 2.0301
-13.1596 1.6707 2.0301
-13.2821 0.6086 2.0301
-13.3285 -0.4626 2.0301
-13.2978 -1.5382 2.0301
-13.1894 -2.6137 2.0301
-13.0027 -3.6840 2.0301
-12.7375 -4.7441 2.0301
-12.3936 -5.7888 2.0301
-11.9712 -6.8128 2.0301
-11.4709 -7.8106 2.0301
-10.8933 -8.7765 2.0301
-10.2399 -9.7047 2.0301
-9.5120 -10.5893 2.0301
-8.7119 -11.4241 2.0301
-7.8420 -12.2031 2.0301
-6.9056 -12.9200 2.0301
-5.9063 -13.5687 2.0301
-4.8485 -14.1431 2.0301
-3.7372 -14.6371 2.0301
-2.5784 -15.0449 2.0301
-0.3595 -4.0069 0.5295
-0.0378 -4.0825 0.5319
0.2938 -4.1332 0.5345
0.6334 -4.1576 0.5372
0.9787 -4.1543 0.5400
1.3275 -4.1221 0.5430
1.6771 -4.0600 0.5461
6.9971 -13.7105 1.8981
8.2113 -13.3317 1.9163
9.4019 -12.8356 1.9341
6.9635 -8.0633 1.2872
11.6558 -11.4921 1.9671
12.6901 -10.6496 1.9820
13.6431 -9.7001 1.9955
14.5011 -8.6518 2.0073
15.2510 -7.5147 2.0174
15.8814 -6.3009 2.0255
7.4662 -2.2898 0.9259
8.0570 -1.7802 0.9792
16.9715 -2.3455 2.0371
17.0515 -0.9766 2.0365
16.9881 0.3894 2.0337
16.7843 1.7357 2.0287
16.4454 3.0467 2.0217
15.9789 4.3077 2.0128
15.3940 5.5057 2.0021
14.7017 6.6296 1.9899
13.9137 7.6698 1.9763
13.0425 8.6192 1.9616
12.1008 9.4723 1.9459
11.1014 10.2255 1.9294
10.0567 10.8769 1.9123
8.9785 11.4261 1.8949
5.5788 8.4086 1.3294
6.8314 12.3418 1.8777
5.8237 12.8583 1.8986
5.0521 14.0581 2.0301
3.8685 14.2709 2.0301
2.6840 14.3894 2.0301
-3.3030 -11.9690 2.0301
-2.3529 -12.3008 2.0301
-1.3711 -12.5571 2.0301
-0.0956 -3.3490 0.5339
0.1752 -3.3871 0.5360
0.4514 -3.4036 0.5382
0.7314 -3.3975 0.5405
1.0132 -3.3681 0.5429
1.2947 -3.3148 0.5454
1.5737 -3.2372 0.5479
6.3224 -10.7259 1.8836
7.2545 -10.3191 1.8975
8.1549 -9.8234 1.9107
9.0135 -9.2405 1.9232
9.8200 -8.5736 1.9348
10.5644 -7.8271 1.9453
11.2372 -7.0071 1.9546
11.8295 -6.1207 1.9626
12.3334 -5.1767 1.9691
7.5110 -2.4667 1.1637
7.7170 -1.8659 1.1693
13.2547 -2.1003 1.9793
13.3525 -1.0311 1.9793
13.3436 0.0403 1.9778
13.2290 1.1021 1.9746
13.0118 2.1428 1.9698
12.6962 3.1517 1.9636
12.2879 4.1190 1.9559
11.7934 5.0358 1.9471
11.2206 5.8944 1.9370
10.5776 6.6884 1.9260
9.8732 7.4126 1.9142
9.1163 8.0631 1.9016
8.3157 8.6372 1.8884
7.4918 9.1472 1.8777
5.7008 8.2262 1.6029
5.8343 10.0544 1.8777
5.3696 11.2439 2.0301
4.4126 11.5385 2.0301
3.4434 11.7542 2.0301
2.4684 11.8916 2.0301
1.4939 11.9518 2.0301
0.5256 11.9362 2.0301
-0.4309 11.8468 2.0301
-1.3703 11.6856 2.0301
-2.2879 11.4552 2.0301
-3.1790 11.1582 2.0301
-4.0393 10.7975 2.0301
-4.8650 10.3763 2.0301
-5.6523 9.8976 2.0301
-6.3980 9.3648 2.0301
-7.0989 8.7813 2.0301
-7.7522 8.1506 2.0301
-8.3552 7.4763 2.0301
-8.9056 6.7619 2.0301
-9.4012 6.0112 2.0301
-9.8399 5.2279 2.0301
-10.2200 4.4157 2.0301
-10.5400 3.5785 2.0301
-10.7982 2.7201 2.0301
-10.9935 1.8445 2.0301
-11.1248 0.9558 2.0301
-11.1911 0.0580 2.0301
-11.1917 -0.8447 2.0301
-11.1260 -1.7480 2.0301
-10.9937 -2.6476 2.0301
-10.7947 -3.5391 2.0301
-10.5290 -4.4179 2.0301
-10.1970 -5.2794 2.0301
-9.7993 -6.1189 2.0301
-9.3368 -6.9315 2.0301
-8.8108 -7.7124 2.0301
-8.2229 -8.4566 2.0301
-7.5750 -9.1592 2.0301
-6.8696 -9.8151 2.0301
-6.1094 -10.4194 2.0301
-5.2978 -10.9672 2.0301
-4.4386 -11.4537 2.0301
-3.5360 -11.8742 2.0301
-2.5948 -12.2244 2.0301
-1.6205 -12.5000 2.0301
-0.1626 -3.3361 0.5334
0.1066 -3.3795 0.5355
0.3816 -3.4015 0.5376
0.6608 -3.4012 0.5399
0.9423 -3.3778 0.5423
1.2241 -3.3305 0.5448
1.5040 -3.2590 0.5473
1.7796 -3.1629 0.5499
7.0229 -10.4297 1.8940
7.9322 -9.9562 1.9075
7.7029 -8.2217 1.6804
9.6228 -8.7489 1.9320
10.3837 -8.0219 1.9428
11.0754 -7.2196 1.9524
11.6887 -6.3492 1.9607
12.2155 -5.4188 1.9676
7.5654 -2.6544 1.1801
7.5884 -1.9972 1.1555
13.2133 -2.3672 1.9790
13.3380 -1.3004 1.9795
13.3558 -0.2284 1.9783
13.2676 0.8368 1.9755
13.0759 1.8839 1.9711
12.7845 2.9018 1.9653
12.3988 3.8804 1.9580
11.9254 4.8106 1.9494
11.3715 5.6845 1.9397
10.7453 6.4953 1.9289
10.0555 7.2375 1.9172
9.3109 7.9068 1.9048
8.5204 8.5003 1.8918
7.6930 9.0159 1.8783
5.9299 8.1987 1.6171
6.0488 9.9562 1.8777
5.6074 11.1575 2.0301
4.6545 11.4719 2.0301
3.6877 11.7074 2.0301
2.7136 11.8644 2.0301
1.7384 11.9439 2.0301
0.7680 11.9472 2.0301
-0.1920 11.8761 2.0301
-1.1362 11.7327 2.0301
-2.0597 11.5195 2.0301
-2.9578 11.2389 2.0301
-3.8262 10.8940 2.0301
-4.6610 10.4877 2.0301
-5.4583 10.0231 2.0301
-6.2148 9.5036 2.0301
-6.9272 8.9325 2.0301
-7.5927 8.3133 2.0301
-8.2086 7.6496 2.0301
-8.7724 6.9450 2.0301
-9.2819 6.2031 2.0301
-9.7351 5.4276 2.0301
-10.1301 4.6222 2.0301
-10.4653 3.7910 2.0301
-10.7392 2.9375 2.0301
-10.9504 2.0659 2.0301
-11.0979 1.1801 2.0301
-11.1806 0.2842 2.0301
-11.1977 -0.6177 2.0301
-11.1488 -1.5212 2.0301
-11.0332 -2.4222 2.0301
-10.8510 -3.3161 2.0301
-10.6020 -4.1986 2.0301
-10.2866 -5.0649 2.0301
-9.9054 -5.9103 2.0301
-9.4591 -6.7301 2.0301
-8.9489 -7.5195 2.0301
-8.3763 -8.2733 2.0301
-7.7433 -8.9868 2.0301
-7.0521 -9.6549 2.0301
-6.3054 -10.2727 2.0301
-5.5064 -10.8351 2.0301
-4.6588 -11.3375 2.0301
-3.7666 -11.7750 2.0301
-2.8347 -12.1433 2.0301
-1.8681 -12.4380 2.0301
-0.2291 -3.3219 0.5329
0.0383 -3.3706 0.5349
0.3120 -3.3980 0.5371
0.5904 -3.4034 0.5393
0.8715 -3.3859 0.5417
1.1534 -3.3446 0.5441
1.4340 -3.2793 0.5467
1.7109 -3.1894 0.5492
6.7894 -10.5347 1.8906
7.7070 -10.0835 1.9042
7.3465 -8.1645 1.6399
9.4218 -8.9190 1.9291
10.1987 -8.2118 1.9402
10.9086 -7.4279 1.9501
11.5424 -6.5739 1.9588
12.0917 -5.6577 1.9660
12.5490 -4.6885 1.9718
7.5296 -2.1446 1.1526
13.1653 -2.6331 1.9786
13.3167 -1.5694 1.9795
13.3614 -0.4976 1.9788
13.2996 0.5705 1.9764
13.1336 1.6231 1.9724
12.8668 2.6493 1.9669
12.5043 3.6387 1.9599
12.0522 4.5819 1.9517
11.5178 5.4706 1.9422
10.9090 6.2978 1.9317
10.2343 7.0577 1.9202
9.5027 7.7457 1.9080
8.7229 8.3584 1.8951
7.9039 8.8937 1.8817
7.0913 9.3995 1.8777
6.2617 9.8535 1.8777
5.6214 10.6449 1.9528
4.8954 11.4003 2.0301
3.9315 11.6556 2.0301
2.9587 11.8323 2.0301
1.9832 11.9311 2.0301
1.0110 11.9534 2.0301
0.0480 11.9009 2.0301
-0.9007 11.7754 2.0301
-1.8298 11.5795 2.0301
-2.7348 11.3156 2.0301
-3.6111 10.9866 2.0301
-4.4546 10.5953 2.0301
-5.2617 10.1451 2.0301
-6.0287 9.6391 2.0301
-6.7525 9.0806 2.0301
-7.4300 8.4732 2.0301
-8.0586 7.8204 2.0301
-8.6357 7.1257 2.0301
-9.1591 6.3928 2.0301
-9.6266 5.6254 2.0301
-10.0364 4.8272 2.0301
-10.3868 4.0021 2.0301
-10.6762 3.1538 2.0301
-10.9033 2.2864 2.0301
-11.0669 1.4038 2.0301
-11.1659 0.5101 2.0301
-11.1996 -0.3907 2.0301
-11.1673 -1.2942 2.0301
-11.0685 -2.1963 2.0301
-10.9031 -3.0924 2.0301
-10.6708 -3.9782 2.0301
-10.3721 -4.8490 2.0301
-10.0073 -5.7001 2.0301
-9.5772 -6.5268 2.0301
-9.0830 -7.3243 2.0301
-8.5260 -8.0875 2.0301
-7.9079 -8.8116 2.0301
-7.2311 -9.4916 2.0301
-6.4981 -10.1225 2.0301
-5.7119 -10.6993 2.0301
-4.8761 -11.2172 2.0301
-3.9947 -11.6714 2.0301
-3.0723 -12.0575 2.0301
-2.1139 -12.3711 2.0301
-0.2951 -3.3065 0.5324
-0.0295 -3.3603 0.5344
0.2428 -3.3932 0.5365
0.5201 -3.4042 0.5388
0.8007 -3.3925 0.5411
1.0826 -3.3573 0.5435
1.3637 -3.2980 0.5460
1.6418 -3.2143 0.5486
6.5543 -10.6340 1.8871
7.4795 -10.2052 1.9008
7.2212 -8.3577 1.6511
9.2173 -9.0840 1.9262
10.0094 -8.3970 1.9375
10.7371 -7.6318 1.9477
11.3908 -6.7947 1.9567
11.9621 -5.8933 1.9644
12.4431 -4.9365 1.9705
7.4803 -2.2943 1.1518
7.8839 -1.7425 1.1895
13.2887 -1.8379 1.9794
13.3602 -0.7670 1.9791
13.3251 0.3031 1.9771
13.1850 1.3607 1.9735
12.9431 2.3946 1.9684
12.6040 3.3941 1.9618
12.1738 4.3497 1.9539
11.6594 5.2529 1.9447
11.0685 6.0961 1.9344
10.4096 6.8734 1.9232
9.6914 7.5798 1.9111
8.9229 8.2117 1.8984
8.1129 8.7666 1.8851
7.2946 9.2743 1.8777
5.5338 8.3321 1.6053
5.6226 10.1463 1.8777
5.1355 11.3238 2.0301
4.1748 11.5989 2.0301
3.2036 11.7952 2.0301
2.2282 11.9135 2.0301
-2.7998 -10.1652 2.0301
-1.9905 -10.4337 2.0301
-0.3042 -2.7982 0.5340
-0.0798 -2.8430 0.5357
0.1498 -2.8701 0.5375
0.3831 -2.8788 0.5394
0.6188 -2.8683 0.5414
0.8550 -2.8383 0.5434
1.0902 -2.7883 0.5455
1.3225 -2.7181 0.5476
1.5500 -2.6277 0.5498
1.7707 -2.5172 0.5520
6.7509 -8.1279 1.8867
7.4471 -7.6313 1.8968
8.0992 -7.0686 1.9062
8.6998 -6.4437 1.9146
9.2418 -5.7615 1.9221
9.7188 -5.0278 1.9285
10.1249 -4.2494 1.9337
7.6511 -2.5128 1.4180
7.8845 -1.9068 1.4291
10.8744 -1.7242 1.9419
10.9586 -0.8477 1.9421
10.9582 0.0313 1.9409
10.8741 0.9037 1.9384
10.7081 1.7608 1.9347
10.4631 2.5943 1.9298
10.1431 3.3966 1.9237
9.7528 4.1606 1.9167
9.2978 4.8800 1.9087
8.7840 5.5495 1.8998
8.2179 6.1645 1.8902
7.6061 6.7216 1.8800
6.9869 7.2504 1.8777
6.3388 7.7321 1.8777
5.6580 8.1561 1.8777
5.3516 9.2123 2.0301
4.5622 9.5410 2.0301
3.7547 9.8034 2.0301
2.9347 9.9992 2.0301
2.1077 10.1285 2.0301
1.2789 10.1919 2.0301
0.4536 10.1904 2.0301
-0.3636 10.1252 2.0301
-1.1679 9.9981 2.0301
-1.9551 9.8108 2.0301
-2.7210 9.5654 2.0301
-3.4617 9.2643 2.0301
-4.1737 8.9101 2.0301
-4.8535 8.5053 2.0301
-5.4982 8.0528 2.0301
-6.1046 7.5554 2.0301
-6.6703 7.0163 2.0301
-7.1927 6.4385 2.0301
-7.6696 5.8253 2.0301
-8.0988 5.1798 2.0301
-8.4787 4.5055 2.0301
-8.8074 3.8057 2.0301
-9.0835 3.0839 2.0301
-9.3056 2.3436 2.0301
-9.4727 1.5885 2.0301
-9.5837 0.8222 2.0301
-9.6379 0.0484 2.0301
-9.6347 -0.7291 2.0301
-9.5737 -1.5064 2.0301
-9.4546 -2.2797 2.0301
-9.2776 -3.0449 2.0301
-9.0428 -3.7979 2.0301
-8.7507 -4.5347 2.0301
-8.4022 -5.2511 2.0301
-7.9982 -5.9429 2.0301
-7.5400 -6.6058 2.0301
-7.0294 -7.2357 2.0301
-6.4682 -7.8283 2.0301
-5.8587 -8.3794 2.0301
-5.2038 -8.8848 2.0301
-4.5064 -9.3406 2.0301
-3.7701 -9.7429 2.0301
-2.9986 -10.0879 2.0301
-2.1963 -10.3722 2.0301
-1.3680 -10.5925 2.0301
-0.1367 -2.8334 0.5353
0.0917 -2.8650 0.5370
0.3242 -2.8784 0.5389
0.5594 -2.8728 0.5408
0.7957 -2.8477 0.5429
1.0314 -2.8027 0.5449
1.2646 -2.7376 0.5471
1.4934 -2.6523 0.5492
1.7160 -2.5469 0.5514
6.5699 -8.2419 1.8841
7.2760 -7.7624 1.8944
7.9399 -7.2160 1.9039
8.5541 -6.6063 1.9126
9.1115 -5.9380 1.9203
9.6054 -5.2166 1.9270
10.0298 -4.4488 1.9325
7.8396 -2.7506 1.4629
7.7109 -2.0298 1.4045
10.8399 -1.9429 1.9417
10.9454 -1.0685 1.9421
10.9663 -0.1893 1.9413
10.9030 0.6856 1.9391
10.7573 1.5473 1.9357
10.5319 2.3875 1.9311
10.2303 3.1984 1.9253
9.8572 3.9726 1.9185
9.4179 4.7037 1.9108
8.9183 5.3862 1.9021
8.3647 6.0153 1.8927
7.7638 6.5872 1.8826
7.1439 7.1206 1.8777
6.5049 7.6164 1.8777
5.8319 8.0551 1.8777
5.4687 8.9916 2.0017
4.7625 9.4647 2.0301
3.9590 9.7438 2.0301
3.1416 9.9563 2.0301
2.3158 10.1022 2.0301
1.4871 10.1821 2.0301
0.6604 10.1968 2.0301
-0.1593 10.1475 2.0301
-0.9673 10.0358 2.0301
-1.7592 9.8634 2.0301
-2.5307 9.6324 2.0301
-3.2781 9.3451 2.0301
-3.9977 9.0039 2.0301
-4.6859 8.6116 2.0301
-5.3397 8.1708 2.0301
-5.9560 7.6845 2.0301
-6.5322 7.1555 2.0301
-7.0656 6.5872 2.0301
-7.5541 5.9825 2.0301
-7.9956 5.3448 2.0301
-8.3880 4.6774 2.0301
-8.7297 3.9837 2.0301
-9.0191 3.2671 2.0301
-9.2550 2.5312 2.0301
-9.4360 1.7795 2.0301
-9.5611 1.0156 2.0301
-9.6297 0.2433 2.0301
-9.6409 -0.5336 2.0301
-9.5944 -1.3114 2.0301
-9.4900 -2.0860 2.0301
-9.3275 -2.8536 2.0301
-9.1072 -3.6100 2.0301
-8.8295 -4.3513 2.0301
-8.4950 -5.0732 2.0301
-8.1048 -5.7716 2.0301
-7.6602 -6.4422 2.0301
-7.1625 -7.0808 2.0301
-6.6138 -7.6831 2.0301
-6.0162 -8.2450 2.0301
-5.3725 -8.7623 2.0301
-4.6854 -9.2310 2.0301
-3.9585 -9.6471 2.0301
-3.1955 -10.0068 2.0301
-2.4006 -10.3067 2.0301
-1.5783 -10.5434 2.0301
-0.1933 -2.8227 0.5348
0.0338 -2.8588 0.5366
0.2655 -2.8768 0.5384
0.5002 -2.8760 0.5404
0.7363 -2.8559 0.5424
0.9723 -2.8159 0.5444
1.2063 -2.7559 0.5465
1.4364 -2.6756 0.5487
1.6608 -2.5752 0.5509
1.8774 -2.4549 0.5530
7.1022 -7.8893 1.8919
7.7775 -7.3594 1.9016
8.4049 -6.7652 1.9105
8.9772 -6.1111 1.9185
9.4876 -5.4025 1.9254
9.9300 -4.6457 1.9312
10.2990 -3.8478 1.9359
7.6500 -2.1792 1.4009
10.8002 -2.1609 1.9414
10.9268 -1.2890 1.9422
10.9689 -0.4101 1.9416
10.9268 0.4666 1.9398
10.8016 1.3325 1.9367
10.5958 2.1789 1.9324
10.3130 2.9978 1.9269
9.9574 3.7819 1.9203
9.5342 4.5244 1.9128
9.0491 5.2196 1.9044
8.5085 5.8625 1.8951
7.9188 6.4491 1.8852
7.2985 6.9873 1.8777
6.6689 7.4971 1.8777
6.0039 7.9504 1.8777
5.4452 8.5595 1.9260
4.9615 9.3841 2.0301
4.1624 9.6799 2.0301
3.3479 9.9091 2.0301
2.5238 10.0718 2.0301
1.6953 10.1682 2.0301
0.8676 10.1992 2.0301
0.0457 10.1658 2.0301
-0.7656 10.0696 2.0301
-1.5619 9.9123 2.0301
-2.3390 9.6958 2.0301
-3.0928 9.4224 2.0301
-3.8197 9.0946 2.0301
-4.5161 8.7148 2.0301
-5.1788 8.2860 2.0301
-5.8048 7.8108 2.0301
-6.3913 7.2923 2.0301
-6.9357 6.7335 2.0301
-7.4357 6.1377 2.0301
-7.8892 5.5080 2.0301
-8.2941 4.8477 2.0301
-8.6487 4.1603 2.0301
-8.9514 3.4491 2.0301
-9.2008 2.7177 2.0301
-9.3957 1.9696 2.0301
-9.5350 1.2085 2.0301
-9.6178 0.4379 2.0301
-9.6435 -0.3382 2.0301
-9.6116 -1.1161 2.0301
-9.5217 -1.8919 2.0301
-9.3738 -2.6616 2.0301
-9.1680 -3.4213 2.0301
-8.9046 -4.1667 2.0301
-8.5844 -4.8939 2.0301
-8.2081 -5.5986 2.0301
-7.7769 -6.2766 2.0301
-7.2924 -6.9236 2.0301
-6.7563 -7.5354 2.0301
-6.1709 -8.1079 2.0301
-5.5384 -8.6368 2.0301
-4.8620 -9.1180 2.0301
-4.1447 -9.5477 2.0301
-3.3904 -9.9219 2.0301
-2.6031 -10.2371 2.0301
-1.7872 -10.4900 2.0301
-0.2495 -2.8108 0.5344
-0.0237 -2.8514 0.5361
0.2069 -2.8740 0.5380
0.4410 -2.8780 0.5399
0.6770 -2.8628 0.5418
0.9131 -2.8278 0.5439
1.1478 -2.7729 0.5460
1.3791 -2.6977 0.5481
1.6051 -2.6023 0.5503
1.8238 -2.4870 0.5525
6.9260 -8.0119 1.8893
7.6120 -7.4988 1.8992
8.2521 -6.9204 1.9083
8.8389 -6.2808 1.9166
9.3655 -5.5853 1.9238
9.8256 -4.8400 1.9299
10.2135 -4.0517 1.9348
7.6140 -2.3355 1.4024
10.7552 -2.3778 1.9410
10.9029 -1.5091 1.9421
10.9663 -0.6311 1.9419
10.9452 0.2470 1.9404
10.8407 1.1164 1.9376
10.6549 1.9685 1.9336
10.3911 2.7950 1.9284
10.0533 3.5885 1.9221
9.6466 4.3421 1.9148
9.1765 5.0497 1.9066
8.6492 5.7061 1.8975
8.0712 6.3072 1.8878
7.4492 6.8495 1.8774
6.8306 7.3742 1.8777
6.1740 7.8419 1.8777
5.4810 8.2440 1.8760
5.1592 9.2994 2.0301
4.3648 9.6118 2.0301
3.5537 9.8578 2.0301
2.7315 10.0372 2.0301
1.9036 10.1502 2.0301
-2.4249 -8.8216 2.0301
-1.7211 -9.0460 2.0301
-0.2630 -2.4308 0.5356
-0.0681 -2.4665 0.5371
0.1309 -2.4866 0.5386
0.3326 -2.4907 0.5403
0.5357 -2.4782 0.5420
0.7388 -2.4490 0.5437
0.9405 -2.4026 0.5455
1.1391 -2.3390 0.5474
1.3332 -2.2584 0.5492
1.5894 -2.2580 0.5759
1.8955 -2.2809 0.6162
6.3355 -6.4893 1.8781
6.8816 -6.0037 1.8859
7.3838 -5.4673 1.8930
7.8366 -4.8842 1.8992
8.2349 -4.2594 1.9045
8.5743 -3.5983 1.9089
8.0077 -2.6301 1.7300
9.0619 -2.1921 1.9145
9.2048 -1.4603 1.9157
9.2784 -0.7189 1.9159
9.2823 0.0249 1.9149
9.2169 0.7640 1.9129
9.0837 1.4914 1.9099
8.8847 2.2004 1.9059
8.6230 2.8846 1.9009
8.3020 3.5383 1.8951
7.9261 4.1563 1.8884
7.4998 4.7340 1.8810
7.0457 5.2806 1.8777
6.5626 5.7942 1.8777
6.0414 6.2635 1.8777
5.4865 6.6859 1.8777
5.3001 7.6322 2.0301
4.6416 7.9811 2.0301
3.9613 8.2738 2.0301
3.2639 8.5093 2.0301
2.5544 8.6874 2.0301
1.8374 8.8078 2.0301
1.1176 8.8709 2.0301
0.3994 8.8773 2.0301
-0.3128 8.8279 2.0301
-1.0151 8.7240 2.0301
-1.7034 8.5670 2.0301
-2.3740 8.3587 2.0301
-3.0234 8.1010 2.0301
-3.6484 7.7960 2.0301
-4.2458 7.4460 2.0301
-4.8127 7.0533 2.0301
-5.3465 6.6206 2.0301
-5.8446 6.1506 2.0301
-6.3047 5.6458 2.0301
-6.7249 5.1093 2.0301
-7.1030 4.5440 2.0301
-7.4374 3.9529 2.0301
-7.7266 3.3390 2.0301
-7.9691 2.7055 2.0301
-8.1637 2.0556 2.0301
-8.3095 1.3927 2.0301
-8.4055 0.7200 2.0301
-8.4510 0.0410 2.0301
-8.4457 -0.6409 2.0301
-8.3892 -1.3221 2.0301
-8.2814 -1.9992 2.0301
-8.1223 -2.6685 2.0301
-7.9125 -3.3263 2.0301
-7.6523 -3.9691 2.0301
-7.3427 -4.5930 2.0301
-6.9846 -5.1943 2.0301
-6.5795 -5.7694 2.0301
-6.1288 -6.3145 2.0301
-5.6346 -6.8260 2.0301
-5.0989 -7.3002 2.0301
-4.5245 -7.7337 2.0301
-3.9140 -8.1231 2.0301
-3.2707 -8.4651 2.0301
-2.5981 -8.7566 2.0301
-1.9000 -8.9949 2.0301
-1.1806 -9.1772 2.0301
-0.1175 -2.4589 0.5367
0.0806 -2.4830 0.5382
0.2817 -2.4912 0.5398
0.4846 -2.4829 0.5415
0.6879 -2.4579 0.5433
0.8900 -2.4159 0.5451
1.0896 -2.3566 0.5469
1.2849 -2.2803 0.5488
1.5189 -2.2528 0.5672
1.8144 -2.2749 0.6051
6.1976 -6.6089 1.8777
6.7483 -6.1307 1.8840
7.2620 -5.6066 1.8913
7.7278 -5.0349 1.8977
8.1402 -4.4201 1.9033
8.4948 -3.7675 1.9079
8.7876 -3.0832 1.9115
7.8606 -2.0696 1.6689
9.1754 -1.6454 1.9155
9.2665 -0.9057 1.9160
9.2879 -0.1618 1.9153
9.2398 0.5792 1.9135
9.1234 1.3101 1.9108
8.9407 2.0243 1.9070
8.6945 2.7153 1.9022
8.3880 3.3772 1.8966
8.0255 4.0047 1.8902
7.6114 4.5929 1.8830
7.1606 5.1449 1.8777
6.6877 5.6692 1.8777
6.1757 6.1499 1.8777
5.6288 6.5843 1.8777
5.3303 7.3549 1.9813
4.8093 7.8987 2.0301
4.1340 8.2056 2.0301
3.4405 8.4555 2.0301
2.7336 8.6481 2.0301
2.0180 8.7830 2.0301
1.2985 8.8604 2.0301
0.5795 8.8810 2.0301
-0.1347 8.8455 2.0301
-0.8398 8.7551 2.0301
-1.5320 8.6113 2.0301
-2.2073 8.4158 2.0301
-2.8624 8.1703 2.0301
-3.4939 7.8769 2.0301
-4.0984 7.5380 2.0301
-4.6733 7.1559 2.0301
-5.2156 6.7330 2.0301
-5.7229 6.2720 2.0301
-6.1928 5.7758 2.0301
-6.6232 5.2470 2.0301
-7.0120 4.6886 2.0301
-7.3576 4.1037 2.0301
-7.6583 3.4952 2.0301
-7.9126 2.8663 2.0301
-8.1194 2.2203 2.0301
-8.2775 1.5603 2.0301
-8.3861 0.8898 2.0301
-8.4444 0.2120 2.0301
-8.4519 -0.4695 2.0301
-8.4082 -1.1512 2.0301
-8.3133 -1.8297 2.0301
-8.1671 -2.5013 2.0301
-7.9700 -3.1623 2.0301
-7.7224 -3.8092 2.0301
-7.4251 -4.4382 2.0301
-7.0791 -5.0455 2.0301
-6.6856 -5.6276 2.0301
-6.2462 -6.1805 2.0301
-5.7627 -6.7008 2.0301
-5.2373 -7.1848 2.0301
-4.6723 -7.6288 2.0301
-4.0706 -8.0296 2.0301
-3.4352 -8.3838 2.0301
-2.7697 -8.6883 2.0301
-2.0776 -8.9401 2.0301
-1.3631 -9.1368 2.0301
-0.1666 -2.4504 0.5363
0.0305 -2.4784 0.5378
0.2310 -2.4906 0.5394
0.4336 -2.4866 0.5411
0.6369 -2.4658 0.5428
0.8394 -2.4280 0.5446
1.0398 -2.3731 0.5464
1.2363 -2.3011 0.5483
1.4505 -2.2477 0.5590
1.7362 -2.2690 0.5947
6.0585 -6.7267 1.8777
6.6123 -6.2543 1.8821
7.1373 -5.7430 1.8895
7.6156 -5.1828 1.8962
8.0419 -4.5783 1.9019
8.4114 -3.9347 1.9068
8.7200 -3.2578 1.9107
7.8298 -2.2307 1.6713
9.1416 -1.8297 1.9153
9.2501 -1.0922 1.9160
9.2890 -0.3487 1.9156
9.2584 0.3936 1.9141
9.1590 1.1278 1.9116
8.9928 1.8468 1.9080
8.7621 2.5442 1.9035
8.4705 3.2140 1.8981
8.1216 3.8505 1.8918
7.7200 4.4490 1.8848
7.2727 5.0067 1.8777
6.8104 5.5415 1.8777
6.3078 6.0334 1.8777
5.7693 6.4797 1.8777
5.3136 7.0293 1.9190
4.9756 7.8128 2.0301
4.3056 8.1338 2.0301
3.6162 8.3981 2.0301
2.9122 8.6051 2.0301
2.1984 8.7545 2.0301
1.4794 8.8464 2.0301
0.7599 8.8811 2.0301
0.0441 8.8596 2.0301
-0.6637 8.7829 2.0301
-1.3595 8.6524 2.0301
-2.0394 8.4697 2.0301
-2.6999 8.2365 2.0301
-3.3376 7.9550 2.0301
-3.9492 7.6273 2.0301
-4.5318 7.2557 2.0301
-5.0825 6.8429 2.0301
-5.5989 6.3913 2.0301
-6.0784 5.9036 2.0301
-6.5189 5.3827 2.0301
-6.9183 4.8315 2.0301
-7.2749 4.2530 2.0301
-7.5870 3.6501 2.0301
-7.8531 3.0261 2.0301
-8.0720 2.3840 2.0301
-8.2424 1.7273 2.0301
-8.3635 1.0591 2.0301
-8.4345 0.3828 2.0301
-8.4548 -0.2981 2.0301
-8.4240 -0.9801 2.0301
-8.3420 -1.6597 2.0301
-8.2086 -2.3334 2.0301
-8.0243 -2.9974 2.0301
-7.7893 -3.6482 2.0301
-7.5044 -4.2820 2.0301
-7.1705 -4.8952 2.0301
-6.7888 -5.4839 2.0301
-6.3608 -6.0445 2.0301
-5.8882 -6.5734 2.0301
-5.3731 -7.0668 2.0301
-4.8178 -7.5212 2.0301
-4.2251 -7.9332 2.0301
-3.5979 -8.2994 2.0301
-2.9395 -8.6166 2.0301
-2.2537 -8.8820 2.0301
-1.5445 -9.0927 2.0301
-0.2155 -2.4410 0.5359
-0.0194 -2.4729 0.5374
0.1804 -2.4891 0.5390
0.3825 -2.4891 0.5407
0.5858 -2.4726 0.5424
0.7887 -2.4391 0.5442
0.9897 -2.3885 0.5460
1.1874 -2.3208 0.5478
1.3842 -2.2427 0.5514
1.6608 -2.2634 0.5849
5.9170 -6.8414 1.8777
6.4737 -6.3747 1.8801
7.0095 -5.8762 1.8877
7.5001 -5.3279 1.8946
7.9399 -4.7341 1.9006
8.3241 -4.0998 1.9057
8.6484 -3.4307 1.9098
8.9091 -2.7329 1.9129
9.1034 -2.0132 1.9149
9.2294 -1.2784 1.9159
9.2858 -0.5357 1.9158
9.2726 0.2076 1.9146
9.1904 0.9445 1.9123
9.0407 1.6679 1.9090
8.8260 2.3714 1.9047
8.5493 3.0486 1.8995
8.2144 3.6940 1.8935
7.8256 4.3025 1.8867
7.3876 4.8696 1.8791
6.9305 5.4110 1.8777
6.4376 5.9140 1.8777
5.9077 6.3720 1.8777
5.3451 6.7824 1.8777
5.1403 7.7233 2.0301
4.4760 8.0584 2.0301
3.7910 8.3371 2.0301
3.0902 8.5585 2.0301
2.3784 8.7224 2.0301
1.6603 8.8287 2.0301
-2.1345 -7.7805 2.0301
-1.5127 -7.9726 2.0301
-0.2311 -2.1457 0.5368
-0.0590 -2.1748 0.5381
0.1163 -2.1903 0.5395
0.2937 -2.1916 0.5409
0.4719 -2.1783 0.5424
0.6614 -2.1891 0.5538
0.8638 -2.2042 0.5706
1.0824 -2.2205 0.5928
1.3223 -2.2384 0.6213
1.5907 -2.2585 0.6577
1.8968 -2.2814 0.7041
5.5448 -5.6769 1.8777
5.9955 -5.2287 1.8777
6.4040 -4.7403 1.8768
6.7920 -4.2321 1.8821
7.1332 -3.6890 1.8867
7.4242 -3.1154 1.8904
7.6617 -2.5165 1.8933
7.8433 -1.8977 1.8953
7.9673 -1.2647 1.8963
8.0325 -0.6234 1.8965
8.0385 0.0202 1.8957
7.9857 0.6603 1.8940
7.8751 1.2910 1.8915
7.7084 1.9067 1.8881
7.4878 2.5022 1.8839
7.2161 3.0726 1.8789
6.9134 3.6220 1.8777
6.5714 4.1443 1.8777
6.1886 4.6341 1.8777
5.7683 5.0884 1.8777
5.3142 5.5045 1.8777
5.2218 6.3572 2.0301
4.6695 6.7171 2.0301
4.0928 7.0293 2.0301
3.4960 7.2925 2.0301
2.8834 7.5057 2.0301
2.2590 7.6683 2.0301
1.6272 7.7802 2.0301
0.9919 7.8414 2.0301
0.3571 7.8523 2.0301
-0.2732 7.8137 2.0301
-0.8954 7.7265 2.0301
-1.5060 7.5920 2.0301
-2.1016 7.4115 2.0301
-2.6790 7.1868 2.0301
-3.2352 6.9195 2.0301
-3.7672 6.6117 2.0301
-4.2724 6.2655 2.0301
-4.7484 5.8832 2.0301
-5.1927 5.4671 2.0301
-5.6033 5.0197 2.0301
-5.9783 4.5436 2.0301
-6.3157 4.0414 2.0301
-6.6140 3.5159 2.0301
-6.8717 2.9698 2.0301
-7.0876 2.4062 2.0301
-7.2606 1.8278 2.0301
-7.3897 1.2379 2.0301
-7.4741 0.6393 2.0301
-7.5132 0.0352 2.0301
-7.5067 -0.5712 2.0301
-7.4543 -1.1767 2.0301
-7.3561 -1.7780 2.0301
-7.2120 -2.3719 2.0301
-7.0227 -2.9551 2.0301
-6.7885 -3.5242 2.0301
-6.5104 -4.0760 2.0301
-6.1894 -4.6070 2.0301
-5.8268 -5.1140 2.0301
-5.4241 -5.5937 2.0301
-4.9832 -6.0428 2.0301
-4.5062 -6.4583 2.0301
-3.9953 -6.8371 2.0301
-3.4533 -7.1762 2.0301
-2.8830 -7.4729 2.0301
-2.2876 -7.7247 2.0301
-1.6707 -7.9290 2.0301
-1.0358 -8.0838 2.0301
-0.1025 -2.1688 0.5378
0.0721 -2.1877 0.5391
0.2490 -2.1926 0.5406
0.4271 -2.1830 0.5421
0.6126 -2.1854 0.5503
0.8116 -2.2003 0.5659
1.0257 -2.2162 0.5867
1.2597 -2.2337 0.6135
1.5201 -2.2532 0.6478
1.8157 -2.2753 0.6914
5.4258 -5.7832 1.8777
5.8858 -5.3450 1.8777
6.3075 -4.8681 1.8777
6.6987 -4.3633 1.8809
7.0521 -3.8285 1.8856
7.3560 -3.2621 1.8896
7.6072 -2.6691 1.8927
7.8030 -2.0548 1.8949
7.9416 -1.4248 1.8962
8.0217 -0.7850 1.8965
8.0426 -0.1414 1.8960
8.0045 0.5001 1.8945
7.9083 1.1337 1.8922
7.7554 1.7537 1.8890
7.5481 2.3548 1.8850
7.2890 2.9319 1.8802
6.9926 3.4861 1.8777
6.6613 4.0160 1.8777
6.2884 4.5143 1.8777
5.8772 4.9778 1.8777
5.4313 5.4037 1.8777
5.2219 6.1025 1.9792
4.8107 6.6311 2.0301
4.2398 6.9554 2.0301
3.6477 7.2310 2.0301
3.0386 7.4569 2.0301
2.4167 7.6322 2.0301
1.7864 7.7568 2.0301
1.1516 7.8307 2.0301
0.5164 7.8543 2.0301
-0.1154 7.8280 2.0301
-0.7400 7.7530 2.0301
-1.3539 7.6302 2.0301
-1.9536 7.4611 2.0301
-2.5358 7.2473 2.0301
-3.0976 6.9905 2.0301
-3.6359 6.6927 2.0301
-4.1481 6.3560 2.0301
-4.6316 5.9826 2.0301
-5.0841 5.5747 2.0301
-5.5034 5.1349 2.0301
-5.8875 4.6658 2.0301
-6.2345 4.1699 2.0301
-6.5428 3.6499 2.0301
-6.8109 3.1088 2.0301
-7.0374 2.5493 2.0301
-7.2212 1.9744 2.0301
-7.3614 1.3870 2.0301
-7.4571 0.7903 2.0301
-7.5077 0.1873 2.0301
-7.5127 -0.4188 2.0301
-7.4718 -1.0248 2.0301
-7.3851 -1.6275 2.0301
-7.2525 -2.2236 2.0301
-7.0745 -2.8098 2.0301
-6.8515 -3.3827 2.0301
-6.5844 -3.9392 2.0301
-6.2740 -4.4757 2.0301
-5.9217 -4.9891 2.0301
-5.5290 -5.4759 2.0301
-5.0975 -5.9330 2.0301
-4.6293 -6.3573 2.0301
-4.1267 -6.7455 2.0301
-3.5923 -7.0949 2.0301
-3.0288 -7.4025 2.0301
-2.4394 -7.6658 2.0301
-1.8275 -7.8822 2.0301
-1.1968 -8.0497 2.0301
-0.1459 -2.1619 0.5374
0.0279 -2.1843 0.5388
0.2044 -2.1927 0.5402
0.3823 -2.1868 0.5417
0.5645 -2.1818 0.5471
0.7603 -2.1964 0.5615
0.9702 -2.2121 0.5809
1.1987 -2.2292 0.6061
1.4518 -2.2481 0.6384
1.7375 -2.2694 0.6794
5.3046 -5.8868 1.8777
5.7737 -5.4589 1.8777
6.2054 -4.9913 1.8777
6.6026 -4.4922 1.8796
6.9678 -3.9660 1.8845
7.2845 -3.4071 1.8887
7.5492 -2.8203 1.8920
7.7591 -2.2108 1.8944
7.9123 -1.5842 1.8959
8.0071 -0.9464 1.8965
8.0429 -0.3032 1.8962
8.0196 0.3395 1.8950
7.9378 0.9756 1.8929
7.7990 1.5995 1.8899
7.6052 2.2058 1.8861
7.3588 2.7894 1.8815
7.0689 3.3483 1.8777
6.7485 3.8857 1.8777
6.3858 4.3922 1.8777
5.9840 4.8647 1.8777
5.5464 5.3003 1.8777
5.2093 5.8451 1.9268
4.9503 6.5421 2.0301
4.3854 6.8785 2.0301
3.7982 7.1665 2.0301
3.1930 7.4049 2.0301
2.5739 7.5929 2.0301
1.9453 7.7303 2.0301
1.3113 7.8169 2.0301
0.6758 7.8531 2.0301
0.0428 7.8392 2.0301
-0.5840 7.7764 2.0301
-1.2009 7.6654 2.0301
-1.8044 7.5079 2.0301
-2.3914 7.3051 2.0301
-2.9585 7.0590 2.0301
-3.5030 6.7713 2.0301
-4.0220 6.4442 2.0301
-4.5130 6.0797 2.0301
-4.9735 5.6803 2.0301
-5.4013 5.2483 2.0301
-5.7944 4.7863 2.0301
-6.1509 4.2968 2.0301
-6.4691 3.7827 2.0301
-6.7474 3.2466 2.0301
-6.9845 2.6915 2.0301
-7.1791 2.1201 2.0301
-7.3303 1.5356 2.0301
-7.4373 0.9410 2.0301
-7.4992 0.3393 2.0301
-7.5157 -0.2664 2.0301
-7.4864 -0.8727 2.0301
-7.4112 -1.4765 2.0301
-7.2901 -2.0746 2.0301
-7.1235 -2.6636 2.0301
-6.9117 -3.2402 2.0301
-6.6556 -3.8011 2.0301
-6.3560 -4.3429 2.0301
-6.0141 -4.8624 2.0301
-5.6314 -5.3562 2.0301
-5.2094 -5.8211 2.0301
-4.7503 -6.2539 2.0301
-4.2561 -6.6515 2.0301
-3.7294 -7.0109 2.0301
-3.1729 -7.3293 2.0301
-2.5897 -7.6039 2.0301
-1.9832 -7.8324 2.0301
-1.3569 -8.0123 2.0301
-0.1891 -2.1541 0.5371
-0.0160 -2.1799 0.5384
0.1599 -2.1919 0.5398
0.3375 -2.1897 0.5413
0.5171 -2.1783 0.5442
0.7100 -2.1927 0.5575
0.9159 -2.2080 0.5755
1.1392 -2.2247 0.5992
1.3855 -2.2431 0.6295
1.6621 -2.2638 0.6681
5.1814 -5.9878 1.8777
5.6592 -5.5702 1.8777
6.1006 -5.1124 1.8777
6.5036 -4.6187 1.8782
6.8805 -4.1015 1.8833
7.2097 -3.5504 1.8877
7.4877 -2.9701 1.8912
7.7116 -2.3658 1.8939
7.8792 -1.7430 1.8956
7.9888 -1.1074 1.8965
8.0395 -0.4649 1.8964
8.0309 0.1784 1.8954
7.9638 0.8167 1.8935
7.8392 1.4442 1.8907
7.6589 2.0554 1.8871
7.4255 2.6452 1.8827
7.1418 3.2086 1.8776
6.8331 3.7534 1.8777
6.4808 4.2680 1.8777
6.0884 4.7494 1.8777
5.6595 5.1945 1.8777
5.2071 5.6111 1.8812
5.0883 6.4501 2.0301
4.5296 6.7985 2.0301
3.9476 7.0987 2.0301
3.3465 7.3497 2.0301
2.7306 7.5504 2.0301
2.1040 7.7006 2.0301
1.4709 7.7999 2.0301
-1.9025 -6.9490 2.0301
-1.3465 -7.1164 2.0301
-0.2276 -2.1232 0.5954
-0.0568 -2.1359 0.5928
0.1152 -2.1487 0.5940
0.2907 -2.1617 0.5991
0.4722 -2.1752 0.6086
0.6625 -2.1894 0.6226
0.8649 -2.2045 0.6418
1.0835 -2.2208 0.6671
1.3236 -2.2388 0.6995
1.5920 -2.2589 0.7408
1.8982 -2.2818 0.7933
4.9232 -5.0383 1.8777
5.3218 -4.6394 1.8777
5.6856 -4.2073 1.8777
6.0119 -3.7451 1.8777
6.2978 -3.2564 1.8777
6.5358 -2.7424 1.8762
6.7435 -2.2150 1.8787
6.9027 -1.6705 1.8804
7.0120 -1.1138 1.8814
7.0704 -0.5497 1.8815
7.0775 0.0166 1.8808
7.0336 0.5801 1.8794
6.9395 1.1358 1.8772
6.8090 1.6822 1.8777
6.6315 2.2138 1.8777
6.4106 2.7270 1.8777
6.1484 3.2182 1.8777
5.8472 3.6843 1.8777
5.5095 4.1220 1.8777
5.1384 4.5288 1.8777
5.1211 5.2995 2.0301
4.6572 5.6643 2.0301
4.1674 5.9885 2.0301
3.6553 6.2705 2.0301
3.1246 6.5092 2.0301
2.5791 6.7034 2.0301
2.0226 6.8526 2.0301
1.4586 6.9566 2.0301
0.8910 7.0152 2.0301
0.3232 7.0288 2.0301
-0.2413 6.9980 2.0301
-0.7991 6.9233 2.0301
-1.3470 6.8060 2.0301
-1.8819 6.6472 2.0301
-2.4008 6.4483 2.0301
-2.9011 6.2109 2.0301
-3.3799 5.9368 2.0301
-3.8349 5.6277 2.0301
-4.2638 5.2858 2.0301
-4.6643 4.9131 2.0301
-5.0345 4.5119 2.0301
-5.3725 4.0845 2.0301
-5.6767 3.6334 2.0301
-5.9456 3.1611 2.0301
-6.1777 2.6702 2.0301
-6.3720 2.1632 2.0301
-6.5274 1.6429 2.0301
-6.6430 1.1122 2.0301
-6.7182 0.5737 2.0301
-6.7524 0.0305 2.0301
-6.7453 -0.5147 2.0301
-6.6967 -1.0588 2.0301
-6.6066 -1.5988 2.0301
-6.4752 -2.1319 2.0301
-6.3029 -2.6548 2.0301
-6.0904 -3.1647 2.0301
-5.8384 -3.6585 2.0301
-5.5479 -4.1332 2.0301
-5.2203 -4.5858 2.0301
-4.8569 -5.0134 2.0301
-4.4595 -5.4131 2.0301
-4.0301 -5.7822 2.0301
-3.5709 -6.1179 2.0301
-3.0842 -6.4177 2.0301
-2.5728 -6.6792 2.0301
-2.0396 -6.9001 2.0301
-1.4877 -7.0785 2.0301
-0.2706 -2.1201 0.5967
-0.0998 -2.1327 0.5931
0.0717 -2.1454 0.5933
0.2461 -2.1584 0.5975
0.4259 -2.1718 0.6058
0.6137 -2.1858 0.6186
0.8127 -2.2006 0.6365
1.0268 -2.2166 0.6601
1.2609 -2.2341 0.6906
1.5214 -2.2536 0.7295
1.8171 -2.2757 0.7789
4.8180 -5.1330 1.8777
5.2248 -4.7428 1.8777
5.5976 -4.3188 1.8777
5.9336 -3.8639 1.8777
6.2299 -3.3814 1.8777
6.4841 -2.8751 1.8777
6.6958 -2.3493 1.8781
6.8673 -1.8087 1.8800
6.9893 -1.2545 1.8812
7.0605 -0.6919 1.8815
7.0805 -0.1256 1.8811
7.0494 0.4390 1.8798
6.9674 0.9972 1.8777
6.8466 1.5463 1.8777
6.6803 2.0817 1.8777
6.4701 2.5999 1.8777
6.2181 3.0970 1.8777
5.9264 3.5697 1.8777
5.5976 4.0148 1.8777
5.2346 4.4295 1.8777
5.1328 5.1020 1.9912
4.7764 5.5764 2.0301
4.2927 5.9109 2.0301
3.7859 6.2037 2.0301
3.2595 6.4533 2.0301
2.7174 6.6588 2.0301
2.1632 6.8194 2.0301
1.6008 6.9347 2.0301
1.0338 7.0047 2.0301
0.4657 7.0296 2.0301
-0.1000 7.0099 2.0301
-0.6597 6.9461 2.0301
-1.2104 6.8395 2.0301
-1.7489 6.6910 2.0301
-2.2721 6.5020 2.0301
-2.7773 6.2741 2.0301
-3.2618 6.0090 2.0301
-3.7230 5.7085 2.0301
-4.1586 5.3746 2.0301
-4.5664 5.0095 2.0301
-4.9444 4.6153 2.0301
-5.2907 4.1942 2.0301
-5.6035 3.7489 2.0301
-5.8814 3.2816 2.0301
-6.1229 2.7951 2.0301
-6.3268 2.2919 2.0301
-6.4921 1.7747 2.0301
-6.6178 1.2464 2.0301
-6.7032 0.7096 2.0301
-6.7477 0.1673 2.0301
-6.7510 -0.3777 2.0301
-6.7128 -0.9223 2.0301
-6.6331 -1.4637 2.0301
-6.5121 -1.9988 2.0301
-6.3500 -2.5245 2.0301
-6.1475 -3.0380 2.0301
-5.9053 -3.5361 2.0301
-5.6244 -4.0158 2.0301
-5.3060 -4.4744 2.0301
-4.9515 -4.9085 2.0301
-4.5625 -5.3155 2.0301
-4.1409 -5.6925 2.0301
-3.6890 -6.0368 2.0301
-3.2089 -6.3459 2.0301
-2.7035 -6.6172 2.0301
-2.1754 -6.8485 2.0301
-1.6279 -7.0378 2.0301
-1.0642 -7.1831 2.0301
-0.1427 -2.1295 0.5936
0.0284 -2.1422 0.5929
0.2019 -2.1551 0.5960
0.3801 -2.1684 0.6033
0.5656 -2.1822 0.6149
0.7615 -2.1968 0.6315
0.9714 -2.2125 0.6536
1.1999 -2.2295 0.6822
1.4530 -2.2485 0.7188
1.7389 -2.2699 0.7653
4.7109 -5.2253 1.8777
5.1257 -4.8442 1.8777
5.5073 -4.4284 1.8777
5.8528 -3.9809 1.8777
6.1593 -3.5050 1.8777
6.4243 -3.0044 1.8777
6.6450 -2.4825 1.8775
6.8288 -1.9460 1.8796
6.9634 -1.3948 1.8810
7.0474 -0.8338 1.8815
7.0803 -0.2680 1.8813
7.0620 0.2976 1.8802
6.9930 0.8578 1.8784
6.8813 1.4094 1.8777
6.7263 1.9488 1.8777
6.5269 2.4716 1.8777
6.2852 2.9743 1.8777
6.0033 3.4534 1.8777
5.6836 3.9057 1.8777
5.3289 4.3283 1.8777
5.1228 4.8910 1.9464
4.8938 5.4859 2.0301
4.4166 5.8307 2.0301
3.9152 6.1342 2.0301
3.3934 6.3947 2.0301
2.8549 6.6114 2.0301
2.3034 6.7833 2.0301
1.7427 6.9100 2.0301
1.1765 6.9914 2.0301
0.6083 7.0276 2.0301
0.0417 7.0190 2.0301
-0.5198 6.9663 2.0301
-1.0731 6.8703 2.0301
-1.6149 6.7321 2.0301
-2.1422 6.5532 2.0301
-2.6522 6.3349 2.0301
-3.1421 6.0790 2.0301
-3.6094 5.7872 2.0301
-4.0517 5.4616 2.0301
-4.4667 5.1041 2.0301
-4.8524 4.7169 2.0301
-5.2068 4.3024 2.0301
-5.5282 3.8629 2.0301
-5.8149 3.4010 2.0301
-6.0657 2.9190 2.0301
-6.2792 2.4198 2.0301
-6.4542 1.9059 2.0301
-6.5899 1.3800 2.0301
-6.6855 0.8451 2.0301
-6.7404 0.3039 2.0301
-6.7540 -0.2407 2.0301
-6.7263 -0.7857 2.0301
-6.6570 -1.3281 2.0301
-6.5463 -1.8651 2.0301
-6.3946 -2.3935 2.0301
-6.2022 -2.9103 2.0301
-5.9699 -3.4126 2.0301
-5.6986 -3.8973 2.0301
-5.3895 -4.3613 2.0301
-5.0439 -4.8019 2.0301
-4.6634 -5.2160 2.0301
-4.2498 -5.6007 2.0301
-3.8052 -5.9535 2.0301
-3.3320 -6.2717 2.0301
-2.8327 -6.5527 2.0301
-2.3101 -6.7943 2.0301
-1.7671 -6.9943 2.0301
-1.2072 -7.1508 2.0301
-0.1856 -2.1264 0.5944
-0.0147 -2.1390 0.5927
0.1580 -2.1519 0.5949
0.3347 -2.1650 0.6011
0.5181 -2.1787 0.6116
0.7111 -2.1930 0.6268
0.9171 -2.2084 0.6474
1.1404 -2.2251 0.6743
1.3867 -2.2435 0.7088
1.6634 -2.2642 0.7526
4.6019 -5.3153 1.8777
5.0244 -4.9433 1.8777
5.4147 -4.5359 1.8777
5.7696 -4.0961 1.8777
6.0861 -3.6271 1.8777
6.3618 -3.1324 1.8777
6.5913 -2.6144 1.8769
6.7872 -2.0824 1.8792
6.9343 -1.5344 1.8807
7.0311 -0.9754 1.8815
7.0769 -0.4103 1.8814
7.0714 0.1558 1.8806
7.0150 0.7178 1.8789
6.9088 1.2709 1.8766
6.7694 1.8146 1.8777
6.5811 2.3420 1.8777
6.3498 2.8501 1.8777
6.0778 3.3355 1.8777
5.7673 3.7948 1.8777
5.4211 4.2251 1.8777
5.1131 4.6885 1.9041
5.0095 5.3930 2.0301
4.5389 5.7479 2.0301
4.0432 6.0619 2.0301
3.5262 6.3334 2.0301
2.9915 6.5611 2.0301
2.4430 6.7443 2.0301
1.8842 6.8824 2.0301
1.3191 6.9752 2.0301
-1.7127 -6.2686 2.0301
-1.2106 -6.4165 2.0301
-0.2265 -2.1236 0.6608
-0.0558 -2.1362 0.6581
0.1162 -2.1490 0.6598
0.2918 -2.1621 0.6659
0.4733 -2.1756 0.6766
0.6636 -2.1898 0.6925
0.8661 -2.2049 0.7142
1.0847 -2.2212 0.7425
1.3248 -2.2392 0.7789
1.5933 -2.2593 0.8252
1.8997 -2.2823 0.8839
4.4205 -4.5217 1.8777
4.7771 -4.1629 1.8777
5.1026 -3.7746 1.8777
5.3944 -3.3597 1.8777
5.6503 -2.9211 1.8777
5.8683 -2.4621 1.8777
6.0465 -1.9862 1.8777
6.1837 -1.4969 1.8777
6.2789 -0.9979 1.8777
6.3314 -0.4931 1.8777
6.3410 0.0137 1.8777
6.3078 0.5189 1.8777
6.2322 1.0185 1.8777
6.1150 1.5089 1.8777
5.9575 1.9866 1.8777
5.7611 2.4483 1.8777
5.5276 2.8906 1.8777
5.2590 3.3106 1.8777
5.0322 3.7614 1.9060
5.0011 4.4036 2.0301
4.6125 4.7686 2.0301
4.1969 5.0993 2.0301
3.7576 5.3937 2.0301
3.2978 5.6505 2.0301
2.8208 5.8684 2.0301
2.3300 6.0465 2.0301
1.8288 6.1840 2.0301
1.3203 6.2808 2.0301
0.8081 6.3366 2.0301
0.2953 6.3518 2.0301
-0.2150 6.3266 2.0301
-0.7197 6.2617 2.0301
-1.2158 6.1580 2.0301
-1.7005 6.0166 2.0301
-2.1711 5.8386 2.0301
-2.6250 5.6254 2.0301
-3.0597 5.3786 2.0301
-3.4730 5.0999 2.0301
-3.8626 4.7912 2.0301
-4.2266 4.4542 2.0301
-4.5631 4.0911 2.0301
-4.8704 3.7041 2.0301
-5.1470 3.2952 2.0301
-5.3913 2.8670 2.0301
-5.6022 2.4216 2.0301
-5.7786 1.9617 2.0301
-5.9194 1.4896 2.0301
-6.0240 1.0080 2.0301
-6.0916 0.5194 2.0301
-6.1219 0.0266 2.0301
-6.1145 -0.4678 2.0301
-6.0692 -0.9611 2.0301
-5.9862 -1.4505 2.0301
-5.8656 -1.9333 2.0301
-5.7079 -2.4066 2.0301
-5.5136 -2.8678 2.0301
-5.2836 -3.3139 2.0301
-5.0188 -3.7424 2.0301
-4.7204 -4.1505 2.0301
-4.3898 -4.5356 2.0301
-4.0287 -4.8951 2.0301
-3.6389 -5.2265 2.0301
-3.2224 -5.5274 2.0301
-2.7815 -5.7955 2.0301
-2.3186 -6.0288 2.0301
-1.8365 -6.2252 2.0301
-1.3381 -6.3830 2.0301
-0.2695 -2.1204 0.6622
-0.0987 -2.1331 0.6584
0.0728 -2.1458 0.6590
0.2472 -2.1588 0.6639
0.4270 -2.1721 0.6735
0.6148 -2.1861 0.6880
0.8139 -2.2010 0.7081
1.0280 -2.2170 0.7347
1.2621 -2.2345 0.7689
1.5227 -2.2540 0.8125
1.8185 -2.2762 0.8678
4.3264 -4.6069 1.8777
4.6903 -4.2559 1.8777
5.0238 -3.8748 1.8777
5.3244 -3.4663 1.8777
5.5895 -3.0333 1.8777
5.8172 -2.5791 1.8777
6.0055 -2.1071 1.8777
6.1532 -1.6209 1.8777
6.2590 -1.1240 1.8777
6.3223 -0.6203 1.8777
6.3426 -0.1136 1.8777
6.3201 0.3923 1.8777
6.2551 0.8936 1.8777
6.1483 1.3867 1.8777
6.0008 1.8680 1.8777
5.8141 2.3340 1.8777
5.5897 2.7814 1.8777
5.3296 3.2073 1.8777
5.0365 3.6091 1.8778
5.0565 4.2748 2.0151
4.7128 4.6801 2.0301
4.3037 5.0195 2.0301
3.8700 5.3232 2.0301
3.4151 5.5896 2.0301
2.9421 5.8174 2.0301
2.4544 6.0055 2.0301
1.9555 6.1533 2.0301
1.4486 6.2603 2.0301
0.9370 6.3264 2.0301
0.4240 6.3518 2.0301
-0.0872 6.3367 2.0301
-0.5936 6.2817 2.0301
-1.0922 6.1877 2.0301
-1.5800 6.0556 2.0301
-2.0544 5.8867 2.0301
-2.5127 5.6822 2.0301
-2.9524 5.4437 2.0301
-3.3713 5.1729 2.0301
-3.7671 4.8715 2.0301
-4.1377 4.5414 2.0301
-4.4813 4.1847 2.0301
-4.7961 3.8033 2.0301
-5.0805 3.3999 2.0301
-5.3330 2.9763 2.0301
-5.5524 2.5350 2.0301
-5.7376 2.0785 2.0301
-5.8874 1.6092 2.0301
-6.0012 1.1297 2.0301
-6.0781 0.6427 2.0301
-6.1178 0.1507 2.0301
-6.1199 -0.3436 2.0301
-6.0842 -0.8375 2.0301
-6.0106 -1.3281 2.0301
-5.8994 -1.8128 2.0301
-5.7510 -2.2887 2.0301
-5.5658 -2.7532 2.0301
-5.3447 -3.2034 2.0301
-5.0885 -3.6366 2.0301
-4.7984 -4.0501 2.0301
-4.4758 -4.4412 2.0301
-4.1222 -4.8073 2.0301
-3.7394 -5.1460 2.0301
-3.3294 -5.4548 2.0301
-2.8944 -5.7313 2.0301
-2.4368 -5.9736 2.0301
-1.9593 -6.1794 2.0301
-1.4647 -6.3471 2.0301
-0.9559 -6.4750 2.0301
-0.1416 -2.1299 0.6590
0.0295 -2.1426 0.6584
0.2030 -2.1555 0.6622
0.3812 -2.1687 0.6706
0.5667 -2.1825 0.6838
0.7626 -2.1972 0.7025
0.9725 -2.2128 0.7274
1.2011 -2.2299 0.7595
1.4543 -2.2489 0.8006
1.7402 -2.2703 0.8526
4.2923 -4.7587 1.9051
4.6016 -4.3470 1.8777
4.9430 -3.9732 1.8777
5.2521 -3.5713 1.8777
5.5264 -3.1442 1.8777
5.7636 -2.6951 1.8777
5.9620 -2.2272 1.8777
6.1200 -1.7442 1.8777
6.2364 -1.2496 1.8777
6.3104 -0.7473 1.8777
6.3416 -0.2410 1.8777
6.3298 0.2655 1.8777
6.2754 0.7683 1.8777
6.1790 1.2638 1.8777
6.0416 1.7484 1.8777
5.8646 2.2185 1.8777
5.6495 2.6709 1.8777
5.3982 3.1025 1.8777
5.1129 3.5104 1.8777
5.0482 4.0965 1.9764
4.8113 4.5893 2.0301
4.4089 4.9375 2.0301
3.9811 5.2504 2.0301
3.5312 5.5263 2.0301
3.0624 5.7638 2.0301
2.5782 5.9620 2.0301
2.0817 6.1200 2.0301
1.5765 6.2373 2.0301
1.0658 6.3137 2.0301
0.5528 6.3492 2.0301
0.0409 6.3443 2.0301
-0.4670 6.2992 2.0301
-0.9678 6.2149 2.0301
-1.4586 6.0923 2.0301
-1.9366 5.9325 2.0301
-2.3992 5.7368 2.0301
-2.8438 5.5067 2.0301
-3.2681 5.2439 2.0301
-3.6699 4.9500 2.0301
-4.0470 4.6269 2.0301
-4.3976 4.2767 2.0301
-4.7198 3.9014 2.0301
-5.0119 3.5032 2.0301
-5.2726 3.0845 2.0301
-5.5005 2.6474 2.0301
-5.6943 2.1945 2.0301
-5.8531 1.7282 2.0301
-5.9760 1.2510 2.0301
-6.0623 0.7656 2.0301
-6.1114 0.2746 2.0301
-6.1229 -0.2194 2.0301
-6.0967 -0.7136 2.0301
-6.0326 -1.2053 2.0301
-5.9309 -1.6917 2.0301
-5.7918 -2.1701 2.0301
-5.6158 -2.6377 2.0301
-5.4036 -3.0917 2.0301
-5.1561 -3.5295 2.0301
-4.8744 -3.9482 2.0301
-4.5598 -4.3452 2.0301
-4.2139 -4.7178 2.0301
-3.8382 -5.0636 2.0301
-3.4349 -5.3801 2.0301
-3.0059 -5.6650 2.0301
-2.5538 -5.9160 2.0301
-2.0810 -6.1312 2.0301
-1.5904 -6.3087 2.0301
-1.0849 -6.4467 2.0301
-0.1845 -2.1267 0.6598
-0.0136 -2.1394 0.6581
0.1590 -2.1522 0.6609
0.3358 -2.1653 0.6681
0.5192 -2.1790 0.6800
0.7122 -2.1934 0.6973
0.9182 -2.2088 0.7205
1.1416 -2.2255 0.7507
1.3880 -2.2439 0.7893
1.6648 -2.2647 0.8383
4.2708 -4.9304 1.9404
4.5110 -4.4362 1.8777
4.8602 -4.0699 1.8777
5.1776 -3.6748 1.8777
5.4609 -3.2537 1.8777
5.7076 -2.8098 1.8777
5.9159 -2.3463 1.8777
6.0841 -1.8668 1.8777
6.2111 -1.3748 1.8777
6.2958 -0.8740 1.8777
6.3378 -0.3684 1.8777
6.3368 0.1384 1.8777
6.2931 0.6425 1.8777
6.2071 1.1402 1.8777
6.0800 1.6278 1.8777
5.9127 2.1019 1.8777
5.7070 2.5591 1.8777
5.4646 2.9962 1.8777
5.1877 3.4103 1.8777
5.0400 3.9245 1.9399
4.9081 4.4965 2.0301
4.5125 4.8533 2.0301
4.0908 5.1752 2.0301
3.6461 5.4605 2.0301
3.1818 5.7078 2.0301
2.7011 5.9160 2.0301
2.2074 6.0841 2.0301
1.7041 6.2117 2.0301
1.1944 6.2983 2.0301
-1.5543 -5.7006 2.0301
-1.0973 -5.8328 2.0301
-0.2255 -2.1239 0.7274
-0.0547 -2.1366 0.7247
0.1173 -2.1494 0.7268
0.2928 -2.1624 0.7337
0.4744 -2.1759 0.7459
0.6648 -2.1901 0.7637
0.7879 -2.0034 0.7157
1.0860 -2.2216 0.8194
1.3261 -2.2396 0.8598
1.5946 -2.2597 0.9110
1.9011 -2.2828 0.9761
4.3026 -4.3991 2.0173
4.3757 -3.8117 1.8989
4.6208 -3.4171 1.8777
4.8844 -3.0413 1.8777
5.1156 -2.6442 1.8777
5.3126 -2.2288 1.8777
5.4738 -1.7981 1.8777
5.5981 -1.3555 1.8777
5.6846 -0.9040 1.8777
5.7327 -0.4473 1.8777
5.7421 0.0114 1.8777
5.7130 0.4687 1.8777
5.6456 0.9211 1.8777
5.5408 1.3655 1.8777
5.3996 1.7986 1.8777
5.2231 2.2174 1.8777
5.0130 2.6190 1.8777
4.9677 3.1244 1.9551
4.8644 3.6327 2.0301
4.5406 3.9944 2.0301
4.1895 4.3271 2.0301
3.8138 4.6291 2.0301
3.4162 4.8984 2.0301
2.9997 5.1337 2.0301
2.5673 5.3338 2.0301
2.1220 5.4978 2.0301
1.6668 5.6252 2.0301
1.2047 5.7155 2.0301
0.7387 5.7685 2.0301
0.2719 5.7844 2.0301
-0.1930 5.7636 2.0301
-0.6531 5.7065 2.0301
-1.1057 5.6138 2.0301
-1.5482 5.4866 2.0301
-1.9780 5.3258 2.0301
-2.3927 5.1327 2.0301
-2.7901 4.9087 2.0301
-3.1681 4.6554 2.0301
-3.5246 4.3744 2.0301
-3.8577 4.0674 2.0301
-4.1657 3.7363 2.0301
-4.4469 3.3831 2.0301
-4.7000 3.0099 2.0301
-4.9236 2.6188 2.0301
-5.1165 2.2119 2.0301
-5.2777 1.7916 2.0301
-5.4063 1.3602 2.0301
-5.5016 0.9200 2.0301
-5.5630 0.4736 2.0301
-5.5901 0.0233 2.0301
-5.5826 -0.4284 2.0301
-5.5403 -0.8788 2.0301
-5.4635 -1.3256 2.0301
-5.3522 -1.7660 2.0301
-5.2070 -2.1976 2.0301
-5.0284 -2.6179 2.0301
-4.8171 -3.0242 2.0301
-4.5741 -3.4140 2.0301
-4.3006 -3.7850 2.0301
-3.9979 -4.1347 2.0301
-3.6675 -4.4608 2.0301
-3.3111 -4.7610 2.0301
-2.9307 -5.0331 2.0301
-2.5283 -5.2752 2.0301
-0.7686 -2.0017 0.7408
-1.6670 -5.6617 2.0301
-1.2132 -5.8030 2.0301
-0.2684 -2.1207 0.7288
-0.0976 -2.1334 0.7249
0.0738 -2.1461 0.7258
0.2483 -2.1591 0.7315
0.4281 -2.1725 0.7423
0.6159 -2.1865 0.7586
0.7474 -2.0186 0.7162
1.0292 -2.2174 0.8107
1.2634 -2.2349 0.8487
1.5240 -2.2545 0.8970
1.8199 -2.2767 0.9582
4.2379 -4.5106 2.0301
4.3583 -3.9531 1.9262
4.5498 -3.5079 1.8777
4.8212 -3.1378 1.8777
5.0607 -2.7458 1.8777
5.2664 -2.3347 1.8777
5.4367 -1.9076 1.8777
5.5704 -1.4676 1.8777
5.6665 -1.0181 1.8777
5.7243 -0.5624 1.8777
5.7434 -0.1038 1.8777
5.7239 0.3541 1.8777
5.6661 0.8081 1.8777
5.5707 1.2548 1.8777
5.4384 1.6910 1.8777
5.2707 2.1137 1.8777
5.0689 2.5199 1.8777
4.9607 2.9824 1.9266
4.9412 3.5375 2.0301
4.6247 3.9061 2.0301
4.2802 4.2464 2.0301
3.9104 4.5562 2.0301
3.5180 4.8339 2.0301
3.1060 5.0778 2.0301
2.6773 5.2869 2.0301
2.2349 5.4601 2.0301
1.7819 5.5967 2.0301
1.3213 5.6963 2.0301
0.8560 5.7587 2.0301
0.3891 5.7839 2.0301
-0.0766 5.7723 2.0301
-0.5381 5.7242 2.0301
-0.9928 5.6404 2.0301
-1.4381 5.5218 2.0301
-1.8713 5.3693 2.0301
-2.2900 5.1842 2.0301
-2.6920 4.9678 2.0301
-3.0751 4.7217 2.0301
-3.4371 4.4475 2.0301
-3.7763 4.1468 2.0301
-4.0907 3.8216 2.0301
-4.3789 3.4738 2.0301
-4.6392 3.1055 2.0301
-4.8703 2.7186 2.0301
-5.0710 2.3155 2.0301
-5.2403 1.8984 2.0301
-5.3771 1.4695 2.0301
-5.4809 1.0313 2.0301
-5.5508 0.5862 2.0301
-5.5865 0.1366 2.0301
-5.5877 -0.3149 2.0301
-5.5542 -0.7659 2.0301
-5.4860 -1.2138 2.0301
-5.3834 -1.6562 2.0301
-5.2467 -2.0902 2.0301
-5.0764 -2.5135 2.0301
-4.8732 -2.9235 2.0301
-4.6381 -3.3178 2.0301
-4.3721 -3.6937 2.0301
-4.0766 -4.0490 2.0301
-3.7530 -4.3812 2.0301
-3.4030 -4.6881 2.0301
-3.0284 -4.9675 2.0301
-2.6313 -5.2173 2.0301
-2.2140 -5.4356 2.0301
-1.7789 -5.6207 2.0301
-1.3285 -5.7709 2.0301
-0.8656 -5.8848 2.0301
-0.1405 -2.1302 0.7254
0.0306 -2.1429 0.7251
0.2040 -2.1558 0.7296
0.3823 -2.1691 0.7391
0.5678 -2.1829 0.7540
0.7065 -2.0330 0.7168
0.9737 -2.2132 0.8025
1.2024 -2.2303 0.8382
1.4556 -2.2493 0.8837
1.7416 -2.2708 0.9414
4.1443 -4.5922 2.0301
4.3403 -4.0984 1.9552
4.4768 -3.5973 1.8777
4.7559 -3.2330 1.8777
5.0036 -2.8462 1.8777
5.2180 -2.4396 1.8777
5.3974 -2.0162 1.8777
5.5404 -1.5792 1.8777
5.6459 -1.1318 1.8777
5.7134 -0.6773 1.8777
5.7422 -0.2191 1.8777
5.7324 0.2393 1.8777
5.6842 0.6946 1.8777
5.5981 1.1434 1.8777
5.4750 1.5826 1.8777
5.3161 2.0089 1.8777
5.1227 2.4195 1.8777
4.9537 2.8442 1.8997
4.9818 3.4172 2.0163
4.7069 3.8160 2.0301
4.3692 4.1637 2.0301
4.0055 4.4813 2.0301
3.6186 4.7672 2.0301
3.2112 5.0198 2.0301
2.7864 5.2377 2.0301
2.3472 5.4200 2.0301
1.8966 5.5658 2.0301
1.4375 5.6747 2.0301
0.9732 5.7465 2.0301
0.5064 5.7811 2.0301
0.0402 5.7786 2.0301
-0.4227 5.7397 2.0301
-0.8794 5.6648 2.0301
-1.3272 5.5548 2.0301
-1.7637 5.4107 2.0301
-2.1863 5.2337 2.0301
-2.5927 5.0251 2.0301
-2.9807 4.7863 2.0301
-3.3482 4.5189 2.0301
-3.6933 4.2248 2.0301
-4.0141 3.9056 2.0301
-4.3090 3.5632 2.0301
-4.5764 3.1998 2.0301
-4.8150 2.8174 2.0301
-5.0235 2.4182 2.0301
-5.2007 2.0044 2.0301
-5.3458 1.5782 2.0301
-5.4580 1.1422 2.0301
-5.5364 0.6986 2.0301
-5.5808 0.2499 2.0301
-5.5907 -0.2014 2.0301
-5.5659 -0.6528 2.0301
-5.5064 -1.1017 2.0301
-5.4124 -1.5456 2.0301
-5.2842 -1.9820 2.0301
-5.1223 -2.4083 2.0301
-4.9273 -2.8219 2.0301
-4.7001 -3.2203 2.0301
-4.4418 -3.6011 2.0301
-4.1536 -3.9618 2.0301
-3.8369 -4.3000 2.0301
-3.4933 -4.6135 2.0301
-3.1247 -4.9000 2.0301
-2.7331 -5.1574 2.0301
-2.3206 -5.3838 2.0301
-0.6882 -2.0312 0.7393
-1.4429 -5.7365 2.0301
-0.9830 -5.8597 2.0301
-0.1834 -2.1270 0.7263
-0.0126 -2.1397 0.7248
0.1601 -2.1525 0.7280
0.3369 -2.1657 0.7362
0.5203 -2.1794 0.7497
0.7134 -2.1938 0.7690
0.9194 -2.2092 0.7949
1.1429 -2.2259 0.8284
1.3893 -2.2443 0.8713
1.6661 -2.2651 0.9256
4.0490 -4.6718 2.0301
4.3216 -4.2481 1.9857
4.4027 -3.6854 1.8780
4.6887 -3.3267 1.8777
4.9445 -2.9454 1.8777
5.1674 -2.5435 1.8777
5.3557 -2.1240 1.8777
5.5079 -1.6901 1.8777
5.6230 -1.2450 1.8777
5.7000 -0.7920 1.8777
5.7386 -0.3344 1.8777
5.7385 0.1243 1.8777
5.6999 0.5806 1.8777
5.6233 1.0314 1.8777
5.5094 1.4733 1.8777
5.3593 1.9032 1.8777
5.1744 2.3180 1.8777
4.9583 2.7160 1.8785
4.9746 3.2672 1.9846
4.7874 3.7243 2.0301
4.4566 4.0791 2.0301
4.0992 4.4044 2.0301
3.7178 4.6985 2.0301
3.3153 4.9595 2.0301
2.8946 5.1863 2.0301
2.4588 5.3776 2.0301
2.0107 5.5326 2.0301
1.5535 5.6509 2.0301
1.0902 5.7320 2.0301
-0.5158 -1.8960 0.7376
-0.3624 -1.9321 0.7348
-0.2066 -1.9558 0.7321
-0.0494 -1.9669 0.7295
0.1083 -1.9655 0.7270
0.2652 -1.9515 0.7245
0.4206 -1.9251 0.7222
0.5734 -1.8863 0.7201
0.7226 -1.8354 0.7180
1.0872 -2.2220 0.8977
1.3274 -2.2400 0.9422
1.5960 -2.2602 0.9986
1.9026 -2.2832 1.0701
3.9516 -4.0382 2.0301
4.2685 -3.7167 2.0301
4.4112 -3.2611 1.9649
4.4736 -2.7847 1.8854
4.6659 -2.4113 1.8777
4.8453 -2.0325 1.8777
4.9923 -1.6400 1.8777
5.1057 -1.2365 1.8777
5.1848 -0.8251 1.8777
5.2290 -0.4087 1.8777
5.2382 0.0095 1.8777
5.2124 0.4264 1.8777
5.1518 0.8392 1.8777
5.0572 1.2447 1.8777
4.9293 1.6401 1.8777
4.8823 2.0704 1.9222
4.9081 2.5617 2.0127
4.7130 2.9613 2.0301
4.4459 3.3170 2.0301
4.1514 3.6485 2.0301
3.8318 3.9538 2.0301
3.4896 4.2311 2.0301
3.1271 4.4788 2.0301
2.7471 4.6956 2.0301
2.3523 4.8803 2.0301
0.7149 1.8493 0.7461
0.5641 1.8999 0.7489
0.4096 1.9382 0.7517
0.2526 1.9640 0.7544
0.2519 5.3015 2.0301
-0.1743 5.2840 2.0301
-0.2239 1.9645 0.7621
-0.3810 1.9391 0.7644
-0.5355 1.9011 0.7666
-0.6865 1.8508 0.7687
-2.1942 4.7118 2.0301
-2.5597 4.5071 2.0301
-2.9074 4.2753 2.0301
-3.2354 4.0178 2.0301
-3.5419 3.7363 2.0301
-3.8254 3.4326 2.0301
-4.0843 3.1084 2.0301
-4.3173 2.7656 2.0301
-4.5231 2.4062 2.0301
-4.7006 2.0323 2.0301
-4.8488 1.6460 2.0301
-4.9669 1.2494 2.0301
-5.0543 0.8447 2.0301
-5.1104 0.4343 2.0301
-5.1348 0.0203 2.0301
-5.1273 -0.3946 2.0301
-5.0878 -0.8084 2.0301
-5.0164 -1.2187 2.0301
-4.9133 -1.6230 2.0301
-4.7790 -2.0191 2.0301
-4.6139 -2.4044 2.0301
-4.4188 -2.7768 2.0301
-4.1947 -3.1338 2.0301
-3.9427 -3.4733 2.0301
-3.6639 -3.7931 2.0301
-3.3598 -4.0909 2.0301
-3.0321 -4.3647 2.0301
-2.6826 -4.6127 2.0301
-2.3131 -4.8329 2.0301
-0.7030 -1.8338 0.7411
-0.5539 -1.8850 0.7383
-0.4012 -1.9242 0.7355
-0.2459 -1.9510 0.7328
-0.0889 -1.9653 0.7302
0.0687 -1.9671 0.7276
0.2259 -1.9562 0.7251
0.3818 -1.9329 0.7228
0.5353 -1.8971 0.7206
0.6855 -1.8493 0.7185
1.0304 -2.2178 0.8881
1.2647 -2.2353 0.9300
1.5254 -2.2549 0.9831
1.8213 -2.2771 1.0505
3.8679 -4.1147 2.0301
4.1913 -3.8000 2.0301
4.3958 -3.3881 1.9885
4.4545 -2.8984 1.9019
4.6159 -2.5039 1.8777
4.8032 -2.1291 1.8777
4.9584 -1.7398 1.8777
5.0804 -1.3388 1.8777
5.1682 -0.9290 1.8777
5.2212 -0.5136 1.8777
5.2392 -0.0956 1.8777
5.2221 0.3219 1.8777
5.1703 0.7360 1.8777
5.0841 1.1436 1.8777
4.9645 1.5419 1.8777
4.8758 1.9533 1.9024
4.9016 2.4343 1.9881
4.7755 2.8685 2.0301
4.5157 3.2298 2.0301
4.2279 3.5676 2.0301
3.9144 3.8797 2.0301
3.5775 4.1641 2.0301
3.2199 4.4194 2.0301
2.8441 4.6441 2.0301
2.4527 4.8369 2.0301
0.7521 1.8347 0.7453
0.6023 1.8883 0.7482
0.4487 1.9298 0.7510
0.2922 1.9587 0.7537
0.3594 5.3006 2.0301
-0.0675 5.2915 2.0301
-0.1841 1.9688 0.7615
-0.3417 1.9466 0.7638
-0.4970 1.9118 0.7661
-0.6489 1.8645 0.7682
-2.0998 4.7587 2.0301
-2.4695 4.5611 2.0301
-2.8218 4.3360 2.0301
-3.1549 4.0848 2.0301
-3.4670 3.8092 2.0301
-3.7565 3.5109 2.0301
-4.0217 3.1916 2.0301
-4.2613 2.8533 2.0301
-4.4740 2.4979 2.0301
-4.6587 2.1275 2.0301
-4.8143 1.7441 2.0301
-4.9401 1.3498 2.0301
-5.0353 0.9472 2.0301
-5.0993 0.5379 2.0301
-5.1317 0.1246 2.0301
-5.1322 -0.2903 2.0301
-5.1007 -0.7047 2.0301
-5.0373 -1.1161 2.0301
-4.9422 -1.5221 2.0301
-4.8156 -1.9205 2.0301
-4.6582 -2.3087 2.0301
-4.4706 -2.6846 2.0301
-4.2537 -3.0457 2.0301
-4.0086 -3.3898 2.0301
-3.7364 -3.7147 2.0301
