ply
format ascii 1.0
element vertex 2175
property float32 x
property float32 y
property float32 z
end_header
4.7930 4.4599 2.0034
4.4814 4.8966 2.0361
4.0639 5.2262 2.0361
3.6219 5.5200 2.0361
3.1586 5.7761 2.0361
2.6773 5.9932 2.0361
2.1813 6.1701 2.0361
1.6740 6.3059 2.0361
1.1589 6.4002 2.0361
0.6393 6.4526 2.0361
0.1187 6.4632 2.0361
-0.3997 6.4322 2.0361
-0.9125 6.3602 2.0361
-1.4166 6.2480 2.0361
-1.9090 6.0966 2.0361
-2.3866 5.9072 2.0361
-2.8466 5.6813 2.0361
-3.2864 5.4205 2.0361
-3.7034 5.1266 2.0361
-4.0953 4.8016 2.0361
-4.4598 4.4476 2.0361
-4.7950 4.0669 2.0361
-5.0991 3.6618 2.0361
-5.3702 3.2348 2.0361
-5.6071 2.7885 2.0361
-5.8083 2.3257 2.0361
-5.9729 1.8489 2.0361
-6.0999 1.3610 2.0361
-6.1886 0.8649 2.0361
-6.2386 0.3634 2.0361
-6.2494 -0.1405 2.0361
-6.2212 -0.6439 2.0361
-6.1539 -1.1440 2.0361
-6.0478 -1.6377 2.0361
-5.9035 -2.1221 2.0361
-5.7217 -2.5945 2.0361
-5.5033 -3.0519 2.0361
-5.2495 -3.4916 2.0361
-4.9615 -3.9109 2.0361
-4.6410 -4.3071 2.0361
-4.2896 -4.6777 2.0361
-3.9092 -5.0204 2.0361
-3.5021 -5.3327 2.0361
-3.0705 -5.6126 2.0361
-2.6169 -5.8581 2.0361
-2.1440 -6.0674 2.0361
-0.5439 -2.0509 0.6693
-0.3743 -2.0708 0.6618
-0.2065 -2.0906 0.6586
-0.0382 -2.1104 0.6597
0.1328 -2.1306 0.6652
0.3088 -2.1514 0.6752
0.4925 -2.1731 0.6901
0.6869 -2.1961 0.7106
0.8958 -2.2208 0.7375
1.1240 -2.2478 0.7719
1.3775 -2.2779 0.8155
3.6596 -5.0821 1.9140
3.9998 -4.7076 1.8837
4.3729 -4.3812 1.8837
4.7185 -4.0244 1.8837
5.0339 -3.6397 1.8837
5.3167 -3.2296 1.8837
5.5648 -2.7970 1.8837
5.7764 -2.3449 1.8837
5.9498 -1.8765 1.8837
6.0837 -1.3949 1.8837
6.1771 -0.9038 1.8837
6.2294 -0.4064 1.8837
6.2401 0.0934 1.8837
6.2091 0.5921 1.8837
6.1369 1.0863 1.8837
6.0240 1.5724 1.8837
5.8713 2.0470 1.8837
5.6800 2.5067 1.8837
5.4516 2.9483 1.8837
5.1880 3.3689 1.8837
4.8962 3.7695 1.8857
4.7834 4.3354 1.9746
4.5471 4.8394 2.0361
4.1339 5.1747 2.0361
3.6957 5.4745 2.0361
3.2356 5.7369 2.0361
2.7570 5.9604 2.0361
2.2632 6.1439 2.0361
1.7575 6.2865 2.0361
1.2435 6.3876 2.0361
0.7244 6.4469 2.0361
0.2037 6.4643 2.0361
-0.3153 6.4401 2.0361
-0.8292 6.3748 2.0361
-1.3350 6.2691 2.0361
-1.8294 6.1240 2.0361
-2.3096 5.9407 2.0361
-2.7727 5.7207 2.0361
-3.2160 5.4655 2.0361
-3.6369 5.1768 2.0361
-4.0331 4.8568 2.0361
-4.4022 4.5074 2.0361
-4.7423 4.1308 2.0361
-5.0516 3.7295 2.0361
-5.3282 3.3059 2.0361
-5.5708 2.8627 2.0361
-5.7779 2.4023 2.0361
-5.9486 1.9276 2.0361
-6.0817 1.4414 2.0361
-6.1767 0.9464 2.0361
-6.2331 0.4456 2.0361
-6.2503 -0.0581 2.0361
-6.2285 -0.5618 2.0361
-6.1675 -1.0626 2.0361
-1.8804 5.4998 2.0361
-2.3110 5.3175 2.0361
-2.7249 5.1021 2.0361
-3.1197 4.8554 2.0361
-3.4931 4.5789 2.0361
-3.8430 4.2745 2.0361
-4.1674 3.9442 2.0361
-4.4646 3.5900 2.0361
-4.7327 3.2142 2.0361
-4.9705 2.8191 2.0361
-5.1764 2.4070 2.0361
-5.3495 1.9804 2.0361
-5.4888 1.5420 2.0361
-5.5934 1.0943 2.0361
-5.6629 0.6399 2.0361
-5.6968 0.1812 2.0361
-5.6949 -0.2787 2.0361
-5.6571 -0.7372 2.0361
-5.5837 -1.1917 2.0361
-5.4751 -1.6394 2.0361
-5.3316 -2.0778 2.0361
-5.1542 -2.5041 2.0361
-4.9437 -2.9158 2.0361
-4.7012 -3.3104 2.0361
-4.4281 -3.6854 2.0361
-4.1257 -4.0384 2.0361
-3.7959 -4.3672 2.0361
-3.4405 -4.6696 2.0361
-3.0614 -4.9436 2.0361
-2.6609 -5.1873 2.0361
-2.2413 -5.3990 2.0361
-0.6595 -2.0375 0.7439
-0.4875 -2.0578 0.7325
-0.3187 -2.0776 0.7260
-0.1509 -2.0974 0.7242
0.0180 -2.1173 0.7272
0.1904 -2.1377 0.7349
0.3687 -2.1587 0.7479
0.5556 -2.1808 0.7664
0.6954 -2.0322 0.7296
0.9690 -2.2298 0.8237
1.2047 -2.2577 0.8648
1.4683 -2.2890 0.9169
3.6652 -4.8158 2.0361
3.7702 -4.2068 1.8968
4.0743 -3.8718 1.8837
4.3784 -3.5391 1.8837
4.6544 -3.1820 1.8837
4.9002 -2.8028 1.8837
5.1141 -2.4042 1.8837
5.2944 -1.9889 1.8837
5.4397 -1.5599 1.8837
5.5490 -1.1200 1.8837
5.6215 -0.6726 1.8837
5.6566 -0.2207 1.8837
5.6542 0.2325 1.8837
5.6142 0.6837 1.8837
5.5370 1.1298 1.8837
5.4232 1.5676 1.8837
5.2737 1.9941 1.8837
5.0898 2.4063 1.8837
4.8727 2.8014 1.8837
4.6611 3.2020 1.8987
4.6979 3.8152 2.0361
4.3677 4.1702 2.0361
4.0103 4.4962 2.0361
3.6282 4.7914 2.0361
3.2242 5.0538 2.0361
2.8012 5.2820 2.0361
2.3621 5.4747 2.0361
1.9100 5.6308 2.0361
1.4479 5.7496 2.0361
0.9789 5.8305 2.0361
0.5061 5.8735 2.0361
0.0327 5.8784 2.0361
-0.4385 5.8455 2.0361
-0.9043 5.7754 2.0361
-1.3620 5.6687 2.0361
-1.8087 5.5264 2.0361
-2.2417 5.3495 2.0361
-2.6585 5.1395 2.0361
-3.0565 4.8978 2.0361
-3.4336 4.6261 2.0361
-3.7875 4.3261 2.0361
-4.1162 3.9999 2.0361
-4.4179 3.6494 2.0361
-4.6909 3.2770 2.0361
-4.9337 2.8849 2.0361
-5.1450 2.4754 2.0361
-5.3235 2.0511 2.0361
-5.4684 1.6144 2.0361
-5.5787 1.1678 2.0361
-5.6540 0.7144 2.0361
-5.6937 0.2563 2.0361
-5.6976 -0.2035 2.0361
-5.6657 -0.6624 2.0361
-5.5982 -1.1178 2.0361
-5.4952 -1.5668 2.0361
-5.3574 -2.0069 2.0361
-5.1855 -2.4354 2.0361
-4.9803 -2.8496 2.0361
-4.7430 -3.2472 2.0361
-4.4747 -3.6255 2.0361
-4.1771 -3.9823 2.0361
-3.8516 -4.3152 2.0361
-3.5002 -4.6221 2.0361
-3.1249 -4.9009 2.0361
-2.7277 -5.1497 2.0361
-2.3111 -5.3667 2.0361
-0.6866 -2.0298 0.7446
-0.5153 -2.0545 0.7340
-0.3461 -2.0744 0.7267
-0.1784 -2.0942 0.7242
-0.0097 -2.1140 0.7263
0.1619 -2.1343 0.7333
0.3391 -2.1552 0.7454
0.5243 -2.1771 0.7630
0.7209 -2.2004 0.7868
0.9326 -2.2254 0.8178
1.1645 -2.2529 0.8574
1.4230 -2.2836 0.9076
3.6005 -4.8617 2.0361
3.7533 -4.3001 1.9171
4.0220 -3.9237 1.8837
4.3305 -3.5952 1.8837
4.6113 -3.2419 1.8837
4.8622 -2.8662 1.8837
5.0814 -2.4705 1.8837
5.2673 -2.0578 1.8837
5.4184 -1.6308 1.8837
5.5337 -1.1925 1.8837
5.6122 -0.7461 1.8837
5.6535 -0.2947 1.8837
5.6571 0.1585 1.8837
5.6233 0.6102 1.8837
5.5521 1.0574 1.8837
5.4442 1.4968 1.8837
5.3005 1.9253 1.8837
5.1221 2.3400 1.8837
4.9104 2.7381 1.8837
4.6669 3.1168 1.8837
4.7012 3.7167 2.0156
4.4236 4.1142 2.0361
4.0705 4.4450 2.0361
3.6922 4.7453 2.0361
3.2916 5.0132 2.0361
2.8715 5.2471 2.0361
2.4348 5.4457 2.0361
1.9846 5.6078 2.0361
1.5239 5.7327 2.0361
1.0559 5.8199 2.0361
0.5835 5.8691 2.0361
0.1100 5.8802 2.0361
-0.3618 5.8535 2.0361
-0.8287 5.7894 2.0361
-1.2879 5.6886 2.0361
-1.7365 5.5520 2.0361
-2.1720 5.3808 2.0361
-2.5916 5.1760 2.0361
-2.9929 4.9394 2.0361
-3.3735 4.6724 2.0361
-3.7313 4.3770 2.0361
-4.0643 4.0549 2.0361
-4.3706 3.7083 2.0361
-4.6484 3.3393 2.0361
-4.8962 2.9502 2.0361
-5.1127 2.5434 2.0361
-5.2966 2.1213 2.0361
-5.4470 1.6865 2.0361
-5.5631 1.2414 2.0361
-5.6441 0.7889 2.0361
-5.6896 0.3314 2.0361
-5.6994 -0.1284 2.0361
-5.6734 -0.5877 2.0361
-5.6116 -1.0438 2.0361
-5.5144 -1.4940 2.0361
-5.3823 -1.9357 2.0361
-5.2159 -2.3663 2.0361
-5.0161 -2.7830 2.0361
-4.7839 -3.1835 2.0361
-4.5206 -3.5651 2.0361
-4.2277 -3.9256 2.0361
-3.9067 -4.2625 2.0361
-3.5594 -4.5738 2.0361
-3.1878 -4.8573 2.0361
-2.7940 -5.1111 2.0361
-2.3804 -5.3334 2.0361
-0.7132 -2.0205 0.7449
-0.5432 -2.0512 0.7357
-0.3736 -2.0711 0.7276
-0.2058 -2.0909 0.7243
-0.0374 -2.1108 0.7257
0.1336 -2.1309 0.7318
0.3096 -2.1517 0.7430
0.4934 -2.1735 0.7597
0.6878 -2.1965 0.7824
0.8968 -2.2212 0.8122
1.1250 -2.2482 0.8503
1.3786 -2.2783 0.8986
3.5353 -4.9068 2.0361
3.7376 -4.3969 1.9389
3.9691 -3.9749 1.8837
4.2820 -3.6507 1.8837
4.5674 -3.3013 1.8837
4.8233 -2.9290 1.8837
5.0478 -2.5364 1.8837
5.2392 -2.1263 1.8837
5.3961 -1.7014 1.8837
5.5173 -1.2648 1.8837
5.6019 -0.8195 1.8837
5.6493 -0.3687 1.8837
5.6591 0.0844 1.8837
5.6313 0.5366 1.8837
5.5662 0.9847 1.8837
5.4643 1.4256 1.8837
5.3264 1.8561 1.8837
5.1536 2.2733 1.8837
4.9472 2.6743 1.8837
4.7089 3.0566 1.8837
4.6931 3.6114 1.9910
4.4788 4.0572 2.0361
4.1300 4.3929 2.0361
3.7556 4.6984 2.0361
3.3585 4.9718 2.0361
2.9414 5.2113 2.0361
2.5072 5.4157 2.0361
2.0590 5.5838 2.0361
1.5998 5.7149 2.0361
1.1327 5.8083 2.0361
0.6609 5.8636 2.0361
0.1873 5.8810 2.0361
-0.2849 5.8604 2.0361
-0.7528 5.8024 2.0361
-1.2135 5.7076 2.0361
-1.6641 5.5768 2.0361
-2.1018 5.4111 2.0361
-2.5242 5.2117 2.0361
-2.9286 4.9802 2.0361
-3.3128 4.7181 2.0361
-3.6745 4.4271 2.0361
-4.0117 4.1093 2.0361
-4.3224 3.7665 2.0361
-4.6050 3.4010 2.0361
-4.8578 3.0151 2.0361
-5.0795 2.6110 2.0361
-5.2688 2.1912 2.0361
-5.4248 1.7583 2.0361
-5.5465 1.3147 2.0361
-5.6333 0.8632 2.0361
-5.6846 0.4064 2.0361
-5.7003 -0.0532 2.0361
-5.6801 -0.5127 2.0361
-5.6242 -0.9695 2.0361
-0.6396 1.8726 0.7564
-2.1168 4.8747 2.0361
-2.4967 4.6782 2.0361
-2.8592 4.4526 2.0361
-3.2021 4.1997 2.0361
-3.5236 3.9211 2.0361
-3.8217 3.6185 2.0361
-4.0948 3.2940 2.0361
-4.3413 2.9494 2.0361
-4.5599 2.5870 2.0361
-4.7492 2.2090 2.0361
-4.9084 1.8176 2.0361
-5.0364 1.4152 2.0361
-5.1326 1.0042 2.0361
-5.1964 0.5870 2.0361
-5.2274 0.1661 2.0361
-5.2256 -0.2560 2.0361
-5.1907 -0.6769 2.0361
-5.1230 -1.0940 2.0361
-5.0229 -1.5048 2.0361
-4.8909 -1.9069 2.0361
-4.7275 -2.2979 2.0361
-4.5338 -2.6754 2.0361
-4.3108 -3.0370 2.0361
-4.0596 -3.3805 2.0361
-3.7818 -3.7037 2.0361
-3.4787 -4.0046 2.0361
-3.1522 -4.2811 2.0361
-2.8042 -4.5315 2.0361
-2.4366 -4.7539 2.0361
-0.7517 -1.8125 0.7460
-0.6037 -1.8674 0.7442
-0.4518 -1.9103 0.7424
-0.2970 -1.9409 0.7407
-0.1403 -1.9590 0.7389
0.0174 -1.9646 0.7372
0.1751 -1.9576 0.7355
0.3317 -1.9379 0.7338
0.4862 -1.9058 0.7322
0.6376 -1.8615 0.7307
0.7851 -1.8052 0.7293
1.2058 -2.2581 0.9462
1.4695 -2.2894 1.0034
3.3512 -4.4010 2.0361
3.6997 -4.1263 2.0361
3.8294 -3.6376 1.9372
4.0011 -3.2329 1.8837
4.2527 -2.9064 1.8837
4.4768 -2.5598 1.8837
4.6717 -2.1956 1.8837
4.8360 -1.8163 1.8837
4.9685 -1.4244 1.8837
5.0682 -1.0228 1.8837
5.1343 -0.6143 1.8837
5.1665 -0.2017 1.8837
5.1643 0.2120 1.8837
5.1280 0.6241 1.8837
5.0579 1.0315 1.8837
4.9544 1.4314 1.8837
4.8183 1.8210 1.8837
4.6509 2.1977 1.8837
4.5849 2.6346 1.9395
4.5688 3.1370 2.0361
4.2949 3.4861 2.0361
3.9938 3.8111 2.0361
3.6678 4.1099 2.0361
3.3192 4.3805 2.0361
2.9504 4.6214 2.0361
2.5641 4.8311 2.0361
0.7868 1.8219 0.7407
0.6380 1.8788 0.7425
0.4851 1.9235 0.7443
0.3290 1.9557 0.7461
0.4653 5.3778 2.0361
0.0318 5.3835 2.0361
-0.3998 5.3545 2.0361
-0.3057 1.9568 0.7530
-0.4619 1.9252 0.7546
-0.6150 1.8810 0.7561
-0.7639 1.8246 0.7576
-2.4358 4.7123 2.0361
-2.8012 4.4914 2.0361
-3.1475 4.2429 2.0361
-3.4726 3.9683 2.0361
-3.7747 3.6695 2.0361
-4.0520 3.3484 2.0361
-4.3029 3.0070 2.0361
-4.5261 2.6474 2.0361
-4.7203 2.2718 2.0361
-4.8845 1.8824 2.0361
-5.0176 1.4816 2.0361
-5.1191 1.0719 2.0361
-5.1882 0.6555 2.0361
-5.2246 0.2350 2.0361
-5.2281 -0.1871 2.0361
-5.1986 -0.6083 2.0361
-5.1363 -1.0262 2.0361
-5.0415 -1.4382 2.0361
-4.9146 -1.8419 2.0361
-4.7563 -2.2349 2.0361
-4.5675 -2.6147 2.0361
-4.3492 -2.9791 2.0361
-4.1026 -3.3257 2.0361
-3.8289 -3.6524 2.0361
-3.5299 -3.9570 2.0361
-3.2071 -4.2377 2.0361
-2.8625 -4.4924 2.0361
-2.4979 -4.7196 2.0361
-0.7755 -1.8024 0.7463
-0.6282 -1.8592 0.7445
-0.4769 -1.9041 0.7427
-0.3225 -1.9367 0.7409
-0.1660 -1.9569 0.7392
-0.0084 -1.9646 0.7374
0.1494 -1.9596 0.7357
0.3062 -1.9420 0.7341
0.4611 -1.9119 0.7325
0.6131 -1.8696 0.7310
0.7613 -1.8152 0.7295
1.1655 -2.2534 0.9381
1.4242 -2.2841 0.9931
3.2922 -4.4431 2.0361
3.6443 -4.1732 2.0361
3.8159 -3.7211 1.9554
3.9574 -3.2845 1.8837
4.2134 -2.9612 1.8837
4.4421 -2.6177 1.8837
4.6419 -2.2562 1.8837
4.8113 -1.8792 1.8837
4.9491 -1.4892 1.8837
5.0542 -1.0890 1.8837
5.1258 -0.6814 1.8837
5.1635 -0.2693 1.8837
5.1670 0.1445 1.8837
5.1363 0.5570 1.8837
5.0716 0.9653 1.8837
4.9735 1.3666 1.8837
4.8428 1.7582 1.8837
4.6803 2.1372 1.8837
4.5782 2.5516 1.9218
4.6108 3.0778 2.0361
4.3416 3.4307 2.0361
4.0448 3.7598 2.0361
3.7227 4.0629 2.0361
3.3776 4.3383 2.0361
3.0119 4.5841 2.0361
2.6283 4.7990 2.0361
2.2293 4.9816 2.0361
0.6626 1.8703 0.7422
0.5103 1.9170 0.7440
0.3547 1.9513 0.7458
0.1969 1.9729 0.7476
0.1026 5.3849 2.0361
-0.3295 5.3616 2.0361
-0.2800 1.9608 0.7527
-0.4365 1.9312 0.7544
-0.5902 1.8891 0.7559
-0.7399 1.8347 0.7574
-2.3744 4.7457 2.0361
-2.7428 4.5294 2.0361
-3.0923 4.2853 2.0361
-3.4210 4.0149 2.0361
-3.7270 3.7199 2.0361
-4.0084 3.4023 2.0361
-4.2638 3.0641 2.0361
-4.4916 2.7073 2.0361
-4.6906 2.3341 2.0361
-4.8598 1.9469 2.0361
-4.9980 1.5478 2.0361
-5.1047 1.1393 2.0361
-5.1791 0.7239 2.0361
-5.2209 0.3039 2.0361
-5.2298 -0.1181 2.0361
-5.2057 -0.5396 2.0361
-5.1487 -0.9582 2.0361
-5.0592 -1.3714 2.0361
-4.9375 -1.7766 2.0361
-4.7843 -2.1715 2.0361
-4.6004 -2.5536 2.0361
-4.3868 -2.9207 2.0361
-4.1447 -3.2703 2.0361
-3.8754 -3.6004 2.0361
-3.5804 -3.9088 2.0361
-3.2614 -4.1935 2.0361
-2.9202 -4.4526 2.0361
-2.5588 -4.6844 2.0361
-2.1793 -4.8872 2.0361
-0.6526 -1.8507 0.7448
-0.5019 -1.8976 0.7430
-0.3479 -1.9323 0.7412
-0.1917 -1.9545 0.7395
-0.0342 -1.9642 0.7377
0.1236 -1.9612 0.7360
0.2807 -1.9457 0.7343
0.4360 -1.9177 0.7327
0.5885 -1.8773 0.7312
0.7374 -1.8249 0.7298
1.1260 -2.2487 0.9303
1.3797 -2.2788 0.9832
3.2327 -4.4843 2.0361
3.5882 -4.2193 2.0361
3.8022 -3.8061 1.9742
3.9132 -3.3350 1.8837
4.1734 -3.0154 1.8837
4.4067 -2.6751 1.8837
4.6113 -2.3164 1.8837
4.7858 -1.9418 1.8837
4.9288 -1.5537 1.8837
5.0393 -1.1550 1.8837
5.1164 -0.7484 1.8837
5.1597 -0.3369 1.8837
5.1688 0.0769 1.8837
5.1437 0.4898 1.8837
5.0845 0.8990 1.8837
4.9918 1.3017 1.8837
4.8663 1.6950 1.8837
4.7090 2.0762 1.8837
4.5716 2.4701 1.9048
4.6132 2.9928 2.0192
4.3875 3.3745 2.0361
4.0951 3.7077 2.0361
3.7770 4.0152 2.0361
3.4355 4.2953 2.0361
3.0730 4.5461 2.0361
2.6921 4.7660 2.0361
2.2955 4.9540 2.0361
0.6871 1.8615 0.7419
0.5355 1.9102 0.7437
0.3803 1.9466 0.7455
0.2228 1.9703 0.7473
0.1734 5.3854 2.0361
-0.2591 5.3677 2.0361
-0.2542 1.9645 0.7525
-0.4111 1.9369 0.7541
-0.5653 1.8968 0.7556
-0.7158 1.8444 0.7571
-2.3125 4.7782 2.0361
-2.6838 4.5667 2.0361
-3.0366 4.3271 2.0361
-3.3688 4.0608 2.0361
-3.6786 3.7697 2.0361
-3.9642 3.4557 2.0361
-4.2239 3.1207 2.0361
-4.4563 2.7668 2.0361
-4.6601 2.3961 2.0361
-4.8342 2.0110 2.0361
-4.9776 1.6137 2.0361
-5.0895 1.2066 2.0361
-5.1692 0.7922 2.0361
-5.2163 0.3728 2.0361
-5.2306 -0.0491 2.0361
-5.2119 -0.4709 2.0361
-5.1603 -0.8901 2.0361
-0.5880 1.7232 0.7553
-0.7244 1.6695 0.7567
-2.2997 4.3121 2.0361
-2.6342 4.1048 2.0361
-2.9508 3.8722 2.0361
-3.2476 3.6157 2.0361
-3.5229 3.3370 2.0361
-3.7752 3.0380 2.0361
-4.0029 2.7205 2.0361
-4.2048 2.3864 2.0361
-4.3798 2.0377 2.0361
-4.5268 1.6768 2.0361
-4.6451 1.3055 2.0361
-4.7339 0.9263 2.0361
-4.7928 0.5414 2.0361
-4.8214 0.1531 2.0361
-4.8196 -0.2364 2.0361
-4.7872 -0.6247 2.0361
-4.7246 -1.0095 2.0361
-4.6319 -1.3884 2.0361
-4.5097 -1.7592 2.0361
-4.3587 -2.1197 2.0361
-4.1796 -2.4676 2.0361
-3.9735 -2.8008 2.0361
-3.7414 -3.1171 2.0361
-3.4847 -3.4147 2.0361
-3.2049 -3.6915 2.0361
-2.9035 -3.9458 2.0361
-2.5823 -4.1759 2.0361
-2.2432 -4.3802 2.0361
-0.6916 -1.6692 0.7458
-0.5553 -1.7198 0.7442
-0.4155 -1.7593 0.7425
-0.2729 -1.7875 0.7409
-0.1285 -1.8043 0.7393
0.0167 -1.8094 0.7377
0.1619 -1.8029 0.7361
0.3061 -1.7848 0.7346
0.4484 -1.7552 0.7331
0.5879 -1.7144 0.7317
0.7237 -1.6625 0.7304
1.2069 -2.2586 1.0294
1.4707 -2.2899 1.0918
3.0818 -4.0451 2.0361
3.4017 -3.7921 2.0361
3.7002 -3.5134 2.0361
3.8806 -3.1344 1.9877
3.9490 -2.6979 1.9033
4.1140 -2.3516 1.8837
4.2927 -2.0169 1.8837
4.4434 -1.6684 1.8837
4.5649 -1.3085 1.8837
4.6564 -0.9396 1.8837
4.7171 -0.5644 1.8837
4.7466 -0.1855 1.8837
4.7448 0.1946 1.8837
4.7116 0.5730 1.8837
4.6474 0.9472 1.8837
4.5527 1.3146 1.8837
4.4777 1.6914 1.9049
4.5151 2.1325 1.9897
4.4247 2.5413 2.0361
4.2003 2.8826 2.0361
3.9492 3.2039 2.0361
3.6730 3.5031 2.0361
3.3738 3.7783 2.0361
3.0538 4.0277 2.0361
2.7151 4.2499 2.0361
2.3603 4.4435 2.0361
0.7247 1.6765 0.7409
0.5878 1.7289 0.7426
0.4470 1.7700 0.7442
0.3034 1.7996 0.7459
0.1579 1.8176 0.7475
0.0114 1.8238 0.7491
-0.1351 1.8181 0.7507
-0.2807 1.8007 0.7522
-0.4244 1.7715 0.7537
-0.5653 1.7309 0.7551
-0.7024 1.6790 0.7565
-2.2435 4.3435 2.0361
-2.5807 4.1405 2.0361
-2.9004 3.9119 2.0361
-3.2005 3.6592 2.0361
-3.4795 3.3840 2.0361
-3.7356 3.0882 2.0361
-3.9674 2.7735 2.0361
-4.1736 2.4420 2.0361
-4.3531 2.0956 2.0361
-4.5047 1.7365 2.0361
-4.6278 1.3668 2.0361
-4.7214 0.9888 2.0361
-4.7853 0.6046 2.0361
-4.8188 0.2167 2.0361
-4.8220 -0.1728 2.0361
-4.7946 -0.5614 2.0361
-4.7369 -0.9469 2.0361
-4.6491 -1.3270 2.0361
-4.5317 -1.6993 2.0361
-4.3853 -2.0616 2.0361
-4.2108 -2.4117 2.0361
-4.0090 -2.7474 2.0361
-3.7810 -3.0667 2.0361
-3.5283 -3.3674 2.0361
-3.2521 -3.6478 2.0361
-2.9541 -3.9059 2.0361
-2.6360 -4.1400 2.0361
-2.2998 -4.3486 2.0361
-0.7135 -1.6599 0.7461
-0.5779 -1.7123 0.7444
-0.4385 -1.7536 0.7428
-0.2964 -1.7837 0.7411
-0.1522 -1.8023 0.7395
-0.0071 -1.8093 0.7379
0.1382 -1.8047 0.7363
0.2826 -1.7885 0.7348
0.4253 -1.7608 0.7334
0.5653 -1.7218 0.7320
0.7018 -1.6717 0.7306
1.1666 -2.2538 1.0205
1.4253 -2.2845 1.0806
3.0277 -4.0839 2.0361
3.3508 -3.8353 2.0361
3.6530 -3.5606 2.0361
3.8687 -3.2093 2.0034
3.9383 -2.7670 1.9158
4.0822 -2.4048 1.8837
4.2654 -2.0726 1.8837
4.4208 -1.7262 1.8837
4.5471 -1.3680 1.8837
4.6435 -1.0004 1.8837
4.7093 -0.6260 1.8837
4.7439 -0.2475 1.8837
4.7472 0.1325 1.8837
4.7192 0.5114 1.8837
4.6600 0.8865 1.8837
4.5702 1.2552 1.8837
4.4753 1.6231 1.8943
4.5089 2.0579 1.9745
4.4586 2.4838 2.0361
4.2389 2.8281 2.0361
3.9920 3.1528 2.0361
3.7198 3.4558 2.0361
3.4242 3.7350 2.0361
3.1074 3.9888 2.0361
2.7716 4.2155 2.0361
2.4193 4.4139 2.0361
0.7467 1.6669 0.7406
0.6104 1.7211 0.7423
0.4703 1.7641 0.7439
0.3271 1.7956 0.7456
0.1818 1.8155 0.7473
0.0354 1.8236 0.7489
-0.1112 1.8199 0.7505
-0.2570 1.8043 0.7520
-0.4011 1.7771 0.7535
-0.5425 1.7383 0.7549
-0.6803 1.6883 0.7562
-2.1868 4.3741 2.0361
-2.5268 4.1754 2.0361
-2.8494 3.9509 2.0361
-3.1529 3.7020 2.0361
-3.4354 3.4304 2.0361
-3.6954 3.1379 2.0361
-3.9312 2.8262 2.0361
-4.1417 2.4972 2.0361
-4.3256 2.1531 2.0361
-4.4819 1.7960 2.0361
-4.6096 1.4279 2.0361
-4.7082 1.0510 2.0361
-4.7769 0.6677 2.0361
-4.8154 0.2802 2.0361
-4.8235 -0.1091 2.0361
-4.8012 -0.4981 2.0361
-4.7484 -0.8842 2.0361
-4.6655 -1.2653 2.0361
-4.5529 -1.6391 2.0361
-4.4112 -2.0032 2.0361
-4.2412 -2.3554 2.0361
-4.0437 -2.6936 2.0361
-3.8200 -3.0157 2.0361
-3.5712 -3.3196 2.0361
-3.2988 -3.6035 2.0361
-3.0042 -3.8653 2.0361
-2.6893 -4.1035 2.0361
-2.3559 -4.3163 2.0361
-0.7352 -1.6503 0.7463
-0.6003 -1.7045 0.7447
-0.4615 -1.7476 0.7431
-0.3197 -1.7796 0.7414
-0.1759 -1.8001 0.7398
-0.0308 -1.8090 0.7382
0.1145 -1.8063 0.7366
0.2591 -1.7920 0.7351
0.4021 -1.7661 0.7336
0.5426 -1.7290 0.7322
0.6797 -1.6807 0.7308
1.1271 -2.2491 1.0120
1.3809 -2.2793 1.0698
2.9730 -4.1219 2.0361
3.2994 -3.8777 2.0361
3.6051 -3.6072 2.0361
3.8565 -3.2853 2.0196
3.9275 -2.8367 1.9288
4.0496 -2.4580 1.8837
4.2374 -2.1279 1.8837
4.3973 -1.7837 1.8837
4.5285 -1.4272 1.8837
4.6298 -1.0610 1.8837
4.7006 -0.6876 1.8837
4.7404 -0.3096 1.8837
4.7488 0.0704 1.8837
4.7259 0.4496 1.8837
4.6718 0.8255 1.8837
4.5869 1.1954 1.8837
4.4763 1.5583 1.8855
4.5028 1.9843 1.9598
4.4919 2.4258 2.0361
4.2767 2.7732 2.0361
4.0341 3.1011 2.0361
3.7659 3.4078 2.0361
3.4740 3.6911 2.0361
3.1605 3.9491 2.0361
2.8277 4.1804 2.0361
2.4779 4.3835 2.0361
0.7685 1.6570 0.7404
0.6330 1.7130 0.7420
0.4934 1.7578 0.7437
0.3506 1.7912 0.7453
0.2056 1.8130 0.7470
0.0594 1.8231 0.7486
-0.0873 1.8213 0.7502
-0.2333 1.8077 0.7517
-0.3777 1.7823 0.7532
-0.5196 1.7454 0.7547
-0.6580 1.6972 0.7560
-2.1298 4.4040 2.0361
-2.4724 4.2097 2.0361
-2.7980 3.9893 2.0361
-3.1047 3.7443 2.0361
-3.3907 3.4763 2.0361
-3.6545 3.1870 2.0361
-3.8944 2.8783 2.0361
-4.1091 2.5521 2.0361
-4.2974 2.2103 2.0361
-4.4583 1.8551 2.0361
-4.5907 1.4887 2.0361
-4.6941 1.1131 2.0361
-4.7677 0.7307 2.0361
-4.8112 0.3437 2.0361
-4.8243 -0.0455 2.0361
-4.8069 -0.4346 2.0361
-4.7591 -0.8214 2.0361
-0.5430 1.5931 0.7544
-0.6691 1.5435 0.7557
-2.1277 3.9924 2.0361
-2.4377 3.8009 2.0361
-2.7312 3.5859 2.0361
-3.0064 3.3487 2.0361
-3.2617 3.0910 2.0361
-3.4957 2.8142 2.0361
-3.7069 2.5202 2.0361
-3.8942 2.2108 2.0361
-4.0566 1.8879 2.0361
-4.1930 1.5535 2.0361
-4.3027 1.2096 2.0361
-4.3851 0.8582 2.0361
-4.4397 0.5015 2.0361
-4.4662 0.1416 2.0361
-4.4644 -0.2193 2.0361
-4.4343 -0.5790 2.0361
-4.3760 -0.9355 2.0361
-4.2899 -1.2866 2.0361
-4.1764 -1.6300 2.0361
-4.0362 -1.9638 2.0361
-3.8699 -2.2859 2.0361
-3.6786 -2.5943 2.0361
-3.4633 -2.8870 2.0361
-3.2252 -3.1622 2.0361
-2.9657 -3.4181 2.0361
-2.6863 -3.6531 2.0361
-2.3886 -3.8655 2.0361
-0.7612 -1.4876 0.7471
-0.6392 -1.5443 0.7456
-0.5132 -1.5911 0.7441
-0.3838 -1.6277 0.7426
-0.2519 -1.6538 0.7411
-0.1183 -1.6693 0.7396
0.0160 -1.6740 0.7381
0.1504 -1.6680 0.7366
0.2838 -1.6513 0.7352
0.4154 -1.6239 0.7339
0.5445 -1.5861 0.7326
0.6701 -1.5381 0.7314
0.7915 -1.4802 0.7302
1.4719 -2.2904 1.1822
2.8479 -3.7360 2.0361
3.1429 -3.5019 2.0361
3.4182 -3.2442 2.0361
3.6717 -2.9644 2.0361
3.9017 -2.6646 2.0361
3.9860 -2.2777 1.9764
4.0420 -1.8987 1.9209
4.1041 -1.5406 1.8843
4.2148 -1.2078 1.8837
4.2991 -0.8674 1.8837
4.3551 -0.5211 1.8837
4.3824 -0.1714 1.8837
4.3808 0.1794 1.8837
4.3529 0.5290 1.8849
4.3782 0.8919 1.9219
4.4138 1.2739 1.9777
4.4202 1.6689 2.0361
4.2675 2.0146 2.0361
4.0871 2.3462 2.0361
3.8804 2.6616 2.0361
3.6489 2.9586 2.0361
3.3943 3.2354 2.0361
3.1183 3.4900 2.0361
2.8231 3.7210 2.0361
2.5106 3.9269 2.0361
0.7929 1.4915 0.7396
0.6706 1.5500 0.7411
0.5440 1.5983 0.7426
0.4139 1.6364 0.7442
0.2812 1.6638 0.7457
0.1466 1.6804 0.7472
0.0112 1.6861 0.7487
-0.1243 1.6809 0.7502
-0.2589 1.6647 0.7516
-0.3918 1.6378 0.7529
-0.5220 1.6002 0.7542
-0.6488 1.5523 0.7555
-2.0756 4.0213 2.0361
-2.3881 3.8339 2.0361
-2.6844 3.6226 2.0361
-2.9627 3.3890 2.0361
-3.2214 3.1344 2.0361
-3.4589 2.8607 2.0361
-3.6740 2.5694 2.0361
-3.8653 2.2624 2.0361
-4.0318 1.9416 2.0361
-4.1725 1.6089 2.0361
-4.2866 1.2663 2.0361
-4.3735 0.9161 2.0361
-4.4327 0.5601 2.0361
-4.4638 0.2006 2.0361
-4.4666 -0.1603 2.0361
-4.4411 -0.5204 2.0361
-4.3875 -0.8776 2.0361
-4.3059 -1.2297 2.0361
-4.1968 -1.5745 2.0361
-4.0609 -1.9100 2.0361
-3.8989 -2.2342 2.0361
-3.7116 -2.5449 2.0361
-3.5001 -2.8403 2.0361
-3.2656 -3.1185 2.0361
-3.0095 -3.3777 2.0361
-2.7332 -3.6162 2.0361
-2.4384 -3.8324 2.0361
-2.1268 -4.0249 2.0361
-0.6595 -1.5357 0.7459
-0.5340 -1.5842 0.7444
-0.4051 -1.6224 0.7428
-0.2736 -1.6503 0.7413
-0.1402 -1.6675 0.7398
-0.0059 -1.6740 0.7383
0.1285 -1.6697 0.7369
0.2621 -1.6547 0.7355
0.3941 -1.6291 0.7341
0.5236 -1.5930 0.7328
0.6498 -1.5466 0.7316
0.7720 -1.4903 0.7304
1.4265 -2.2850 1.1700
2.7979 -3.7718 2.0361
3.0960 -3.5418 2.0361
3.3746 -3.2879 2.0361
3.6319 -3.0116 2.0361
3.8658 -2.7149 2.0361
3.9763 -2.3417 1.9869
4.0332 -1.9592 1.9289
4.0927 -1.5977 1.8887
4.1984 -1.2629 1.8837
4.2873 -0.9235 1.8837
4.3479 -0.5780 1.8837
4.3799 -0.2286 1.8837
4.3831 0.1221 1.8837
4.3573 0.4718 1.8837
4.3723 0.8312 1.9141
4.4080 1.2100 1.9675
4.4425 1.6112 2.0361
4.2944 1.9590 2.0361
4.1184 2.2931 2.0361
3.9159 2.6113 2.0361
3.6883 2.9114 2.0361
3.4374 3.1916 2.0361
3.1648 3.4500 2.0361
2.8726 3.6849 2.0361
2.5627 3.8950 2.0361
2.2374 4.0789 2.0361
0.6909 1.5411 0.7408
0.5650 1.5911 0.7424
0.4354 1.6309 0.7439
0.3030 1.6600 0.7454
0.1687 1.6784 0.7470
0.0333 1.6859 0.7485
-0.1022 1.6825 0.7499
-0.2370 1.6681 0.7514
-0.3702 1.6429 0.7527
-0.5009 1.6071 0.7540
-0.6283 1.5608 0.7553
-0.7516 1.5045 0.7564
-2.3381 3.8662 2.0361
-2.6372 3.6587 2.0361
-2.9186 3.4286 2.0361
-3.1805 3.1774 2.0361
-3.4216 2.9066 2.0361
-3.6404 2.6181 2.0361
-3.8357 2.3135 2.0361
-4.0063 1.9948 2.0361
-4.1513 1.6640 2.0361
-4.2698 1.3229 2.0361
-4.3612 0.9737 2.0361
-4.4249 0.6186 2.0361
-4.4606 0.2595 2.0361
-4.4681 -0.1013 2.0361
-4.4472 -0.4617 2.0361
-4.3982 -0.8195 2.0361
-4.3211 -1.1726 2.0361
-4.2165 -1.5187 2.0361
-4.0849 -1.8559 2.0361
-3.9271 -2.1821 2.0361
-3.7438 -2.4951 2.0361
-3.5362 -2.7932 2.0361
-3.3054 -3.0743 2.0361
-3.0528 -3.3367 2.0361
-2.7797 -3.5787 2.0361
-2.4878 -3.7987 2.0361
-2.1788 -3.9951 2.0361
-0.6796 -1.5269 0.7461
-0.5548 -1.5769 0.7446
-0.4264 -1.6169 0.7431
-0.2952 -1.6465 0.7416
-0.1621 -1.6654 0.7401
-0.0279 -1.6737 0.7386
0.1065 -1.6712 0.7371
0.2403 -1.6579 0.7357
0.3726 -1.6340 0.7343
0.5026 -1.5996 0.7330
0.6295 -1.5549 0.7318
0.7523 -1.5002 0.7306
1.3821 -2.2797 1.1583
2.7475 -3.8071 2.0361
3.0485 -3.5811 2.0361
3.3305 -3.3310 2.0361
3.5914 -3.0582 2.0361
3.8293 -2.7647 2.0361
3.9665 -2.4063 1.9979
4.0243 -2.0203 1.9374
4.0809 -1.6567 1.8934
4.1813 -1.3171 1.8837
4.2747 -0.9794 1.8837
4.3400 -0.6348 1.8837
4.3767 -0.2859 1.8837
4.3845 0.0648 1.8837
4.3635 0.4148 1.8837
4.3665 0.7712 1.9068
4.4022 1.1467 1.9578
4.4377 1.5441 2.0242
4.3205 1.9030 2.0361
4.1490 2.2395 2.0361
3.9508 2.5605 2.0361
3.7272 2.8637 2.0361
3.4799 3.1473 2.0361
3.2107 3.4093 2.0361
2.9216 3.6482 2.0361
2.6145 3.8624 2.0361
2.2916 4.0507 2.0361
0.7111 1.5320 0.7406
0.5858 1.5837 0.7421
0.4568 1.6251 0.7437
0.3248 1.6560 0.7452
0.1907 1.6761 0.7467
0.0555 1.6854 0.7482
-0.0801 1.6838 0.7497
-0.2151 1.6712 0.7511
-0.3486 1.6478 0.7525
-0.4798 1.6137 0.7538
-0.6078 1.5691 0.7551
-0.7318 1.5144 0.7563
-2.2877 3.8978 2.0361
-2.5895 3.6942 2.0361
-2.8739 3.4677 2.0361
-3.1391 3.2198 2.0361
-3.3837 2.9522 2.0361
-3.6063 2.6664 2.0361
-3.8055 2.3643 2.0361
-3.9802 2.0478 2.0361
-4.1294 1.7188 2.0361
-4.2523 1.3793 2.0361
-4.3482 1.0313 2.0361
-4.4164 0.6769 2.0361
-4.4567 0.3183 2.0361
-4.4688 -0.0423 2.0361
-4.4526 -0.4029 2.0361
-4.4081 -0.7613 2.0361
-0.5034 1.4787 0.7537
-0.6205 1.4326 0.7548
-0.7335 1.3773 0.7558
-2.2643 3.5328 2.0361
-2.5373 3.3333 2.0361
-2.7934 3.1131 2.0361
-3.0311 2.8737 2.0361
-3.2488 2.6165 2.0361
-3.4455 2.3433 2.0361
-3.6199 2.0558 2.0361
-3.7710 1.7556 2.0361
-3.8981 1.4446 2.0361
-4.0002 1.1248 2.0361
-4.0769 0.7980 2.0361
-4.1277 0.4663 2.0361
-4.1523 0.1315 2.0361
-4.1506 -0.2041 2.0361
-4.1224 -0.5387 2.0361
-4.0681 -0.8702 2.0361
-3.9878 -1.1966 2.0361
-3.8821 -1.5159 2.0361
-3.7514 -1.8262 2.0361
-3.5965 -2.1255 2.0361
-3.4183 -2.4120 2.0361
-3.2178 -2.6839 2.0361
-2.9962 -2.9394 2.0361
-2.7547 -3.1769 2.0361
-2.4947 -3.3949 2.0361
-2.2178 -3.5919 2.0361
-0.7063 -1.3816 0.7469
-0.5931 -1.4343 0.7455
-0.4760 -1.4778 0.7441
-0.3558 -1.5118 0.7426
-0.2333 -1.5360 0.7412
-0.1093 -1.5504 0.7398
0.0155 -1.5548 0.7385
0.1402 -1.5492 0.7371
0.2641 -1.5337 0.7358
0.3864 -1.5083 0.7346
0.5062 -1.4731 0.7334
0.6229 -1.4285 0.7322
0.7356 -1.3747 0.7312
1.4732 -2.2909 1.2750
2.6424 -3.4646 2.0361
2.9157 -3.2472 2.0361
3.1707 -3.0080 2.0361
3.4055 -2.7484 2.0361
3.6184 -2.4702 2.0361
3.8080 -2.1752 2.0361
3.9729 -1.8655 2.0361
4.0692 -1.5271 2.0150
4.1168 -1.1795 1.9845
4.1612 -0.8394 1.9666
4.2028 -0.5029 1.9608
4.2423 -0.1660 1.9668
4.2800 0.1750 1.9850
4.3163 0.5242 2.0158
4.3009 0.8755 2.0361
4.2137 1.2154 2.0361
4.0991 1.5468 2.0361
3.9578 1.8674 2.0361
3.7908 2.1750 2.0361
3.5995 2.4677 2.0361
3.3852 2.7434 2.0361
3.1494 3.0003 2.0361
2.8939 3.2369 2.0361
2.6204 3.4515 2.0361
2.3308 3.6429 2.0361
0.7366 1.3844 0.7399
0.6231 1.4386 0.7413
0.5055 1.4835 0.7427
0.3848 1.5188 0.7441
0.2616 1.5442 0.7455
0.1367 1.5596 0.7469
0.0109 1.5649 0.7483
-0.1148 1.5601 0.7497
-0.2397 1.5451 0.7510
-0.3630 1.5201 0.7523
-0.4839 1.4853 0.7535
-0.6016 1.4408 0.7546
-0.7153 1.3870 0.7557
-2.2182 3.5633 2.0361
-2.4938 3.3673 2.0361
-2.7528 3.1504 2.0361
-2.9935 2.9140 2.0361
-3.2147 2.6597 2.0361
-3.4148 2.3890 2.0361
-3.5930 2.1037 2.0361
-3.7480 1.8054 2.0361
-3.8790 1.4961 2.0361
-3.9852 1.1776 2.0361
-4.0661 0.8518 2.0361
-4.1212 0.5207 2.0361
-4.1501 0.1864 2.0361
-4.1526 -0.1493 2.0361
-4.1288 -0.4842 2.0361
-4.0788 -0.8163 2.0361
-4.0027 -1.1437 2.0361
-3.9011 -1.4643 2.0361
-3.7744 -1.7762 2.0361
-3.6235 -2.0774 2.0361
-3.4490 -2.3662 2.0361
-3.2521 -2.6405 2.0361
-3.0338 -2.8988 2.0361
-2.7955 -3.1394 2.0361
-2.5384 -3.3607 2.0361
-2.2641 -3.5612 2.0361
-0.7244 -1.3721 0.7471
-0.6119 -1.4263 0.7457
-0.4954 -1.4713 0.7443
-0.3757 -1.5069 0.7429
-0.2535 -1.5327 0.7415
-0.1296 -1.5487 0.7401
-0.0049 -1.5548 0.7387
0.1199 -1.5508 0.7373
0.2440 -1.5369 0.7360
0.3666 -1.5131 0.7348
0.4869 -1.4795 0.7336
0.6041 -1.4365 0.7324
0.7175 -1.3841 0.7314
1.4278 -2.2855 1.2618
2.5962 -3.4979 2.0361
2.8723 -3.2843 2.0361
3.1304 -3.0485 2.0361
3.3685 -2.7922 2.0361
3.5852 -2.5169 2.0361
3.7787 -2.2245 2.0361
3.9477 -1.9170 2.0361
4.0611 -1.5849 2.0213
4.1093 -1.2357 1.9886
4.1541 -0.8946 1.9687
4.1962 -0.5578 1.9609
4.2360 -0.2212 1.9650
4.2739 0.1188 1.9812
4.3105 0.4664 2.0099
4.3124 0.8194 2.0361
4.2299 1.1604 2.0361
4.1197 1.4934 2.0361
3.9826 1.8159 2.0361
3.8198 2.1257 2.0361
3.6324 2.4210 2.0361
3.4218 2.6995 2.0361
3.1894 2.9597 2.0361
2.9369 3.1997 2.0361
2.6662 3.4180 2.0361
2.3791 3.6133 2.0361
0.7547 1.3747 0.7396
0.6419 1.4304 0.7410
0.5250 1.4768 0.7425
0.4047 1.5137 0.7439
0.2818 1.5407 0.7453
0.1572 1.5578 0.7467
0.0315 1.5648 0.7481
-0.0943 1.5616 0.7495
-0.2194 1.5482 0.7508
-0.3430 1.5249 0.7521
-0.4644 1.4916 0.7533
-0.5826 1.4487 0.7544
-0.6970 1.3964 0.7555
-2.1716 3.5933 2.0361
-2.4499 3.4008 2.0361
-2.7117 3.1872 2.0361
-2.9555 2.9539 2.0361
-3.1799 2.7024 2.0361
-3.3836 2.4343 2.0361
-3.5654 2.1512 2.0361
-3.7243 1.8550 2.0361
-3.8592 1.5473 2.0361
-3.9696 1.2302 2.0361
-4.0547 0.9055 2.0361
-4.1140 0.5751 2.0361
-4.1472 0.2411 2.0361
-4.1540 -0.0944 2.0361
-4.1345 -0.4296 2.0361
-4.0887 -0.7623 2.0361
-4.0169 -1.0906 2.0361
-3.9194 -1.4125 2.0361
-3.7968 -1.7259 2.0361
-3.6498 -2.0290 2.0361
-3.4791 -2.3199 2.0361
-3.2858 -2.5968 2.0361
-3.0709 -2.8578 2.0361
-2.8357 -3.1014 2.0361
-2.5816 -3.3259 2.0361
-2.3101 -3.5299 2.0361
-0.7424 -1.3624 0.7473
-0.6306 -1.4181 0.7459
-0.5147 -1.4646 0.7445
-0.3954 -1.5017 0.7431
-0.2736 -1.5292 0.7417
-0.1500 -1.5468 0.7403
-0.0253 -1.5545 0.7389
0.0995 -1.5521 0.7376
0.2238 -1.5398 0.7362
0.3467 -1.5176 0.7350
0.4674 -1.4857 0.7338
0.5852 -1.4441 0.7326
0.6993 -1.3933 0.7315
1.3833 -2.2802 1.2492
2.5494 -3.5306 2.0361
2.8283 -3.3207 2.0361
3.0895 -3.0885 2.0361
3.3310 -2.8354 2.0361
3.5513 -2.5631 2.0361
3.7487 -2.2733 2.0361
3.9218 -1.9682 2.0361
4.0529 -1.6430 2.0279
4.1017 -1.2921 1.9931
4.1470 -0.9500 1.9711
4.1895 -0.6127 1.9614
4.2296 -0.2764 1.9635
4.2678 0.0629 1.9777
4.3046 0.4089 2.0043
4.3233 0.7630 2.0361
4.2453 1.1052 2.0361
4.1395 1.4396 2.0361
4.0068 1.7640 2.0361
3.8481 2.0761 2.0361
3.6647 2.3738 2.0361
3.4577 2.6552 2.0361
3.2288 2.9185 2.0361
2.9795 3.1619 2.0361
2.7116 3.3838 2.0361
2.4271 3.5830 2.0361
0.7727 1.3647 0.7394
0.6606 1.4219 0.7408
0.5444 1.4699 0.7422
0.4246 1.5083 0.7436
0.3021 1.5370 0.7451
0.1776 1.5557 0.7465
0.0521 1.5643 0.7479
-0.0737 1.5628 0.7492
-0.1990 1.5511 0.7506
-0.3230 1.5294 0.7519
-0.4447 1.4977 0.7531
-0.5636 1.4564 0.7542
-0.6786 1.4056 0.7553
-2.1247 3.6227 2.0361
-2.4055 3.4337 2.0361
-2.6701 3.2235 2.0361
-2.9170 2.9934 2.0361
-3.1446 2.7447 2.0361
-3.3518 2.4792 2.0361
-3.5372 2.1984 2.0361
-3.6999 1.9042 2.0361
-3.8388 1.5983 2.0361
-3.9533 1.2826 2.0361
-4.0425 0.9590 2.0361
-4.1061 0.6294 2.0361
-4.1435 0.2959 2.0361
-4.1547 -0.0396 2.0361
-4.1395 -0.3749 2.0361
-4.0980 -0.7082 2.0361
-0.4683 1.3770 0.7530
-0.5773 1.3342 0.7540
-0.6826 1.2827 0.7550
-2.1099 3.2940 2.0361
-2.3647 3.1083 2.0361
-2.6038 2.9032 2.0361
-2.8256 2.6801 2.0361
-3.0289 2.4405 2.0361
-3.2126 2.1858 2.0361
-3.3754 1.9176 2.0361
-3.5166 1.6376 2.0361
-3.6352 1.3476 2.0361
-3.7306 1.0492 2.0361
-3.8022 0.7444 2.0361
-3.8496 0.4348 2.0361
-3.8725 0.1226 2.0361
-3.8708 -0.1906 2.0361
-3.8445 -0.5028 2.0361
-3.7937 -0.8120 2.0361
-3.7186 -1.1165 2.0361
-3.6198 -1.4143 2.0361
-3.4977 -1.7036 2.0361
-3.3530 -1.9826 2.0361
-3.1865 -2.2497 2.0361
-2.9993 -2.5030 2.0361
-2.7923 -2.7411 2.0361
-2.5669 -2.9622 2.0361
-2.3242 -3.1651 2.0361
-0.7588 -1.2299 0.7479
-0.6576 -1.2874 0.7466
-0.5521 -1.3365 0.7453
-0.4430 -1.3770 0.7440
-0.3310 -1.4087 0.7427
-0.2169 -1.4313 0.7414
-0.1013 -1.4447 0.7401
0.0150 -1.4488 0.7388
0.1312 -1.4436 0.7376
0.2467 -1.4291 0.7363
0.3606 -1.4054 0.7352
0.4723 -1.3727 0.7341
0.5810 -1.3311 0.7330
0.6860 -1.2810 0.7320
0.7867 -1.2226 0.7311
2.4604 -3.2240 2.0361
2.7144 -3.0215 2.0361
2.9514 -2.7987 2.0361
3.1696 -2.5570 2.0361
3.3675 -2.2980 2.0361
3.5436 -2.0235 2.0361
3.6968 -1.7353 2.0361
3.8260 -1.4354 2.0361
3.9301 -1.1257 2.0361
4.0085 -0.8085 2.0361
4.0606 -0.4858 2.0361
4.0861 -0.1600 2.0361
4.0848 0.1668 2.0361
4.0566 0.4923 2.0361
4.0019 0.8142 2.0361
3.9210 1.1304 2.0361
3.8146 1.4387 2.0361
3.6834 1.7370 2.0361
3.5284 2.0234 2.0361
3.3506 2.2958 2.0361
3.1515 2.5525 2.0361
2.9324 2.7919 2.0361
2.6949 3.0124 2.0361
2.4406 3.2125 2.0361
0.7878 1.2304 0.7388
0.6865 1.2893 0.7401
0.5808 1.3397 0.7414
0.4714 1.3815 0.7427
0.3589 1.4144 0.7441
0.2441 1.4381 0.7454
0.1278 1.4524 0.7467
0.0108 1.4574 0.7480
-0.1064 1.4528 0.7493
-0.2227 1.4389 0.7505
-0.3376 1.4156 0.7517
-0.4501 1.3832 0.7528
-0.5597 1.3418 0.7538
-0.6656 1.2917 0.7548
-0.7672 1.2332 0.7558
-2.3241 3.1400 2.0361
-2.5658 2.9380 2.0361
-2.7906 2.7177 2.0361
-2.9970 2.4807 2.0361
-3.1839 2.2283 2.0361
-3.3503 1.9623 2.0361
-3.4950 1.6841 2.0361
-3.6174 1.3956 2.0361
-3.7166 1.0985 2.0361
-3.7921 0.7945 2.0361
-3.8435 0.4857 2.0361
-3.8705 0.1737 2.0361
-3.8728 -0.1394 2.0361
-3.8505 -0.4519 2.0361
-3.8036 -0.7617 2.0361
-3.7325 -1.0671 2.0361
-3.6375 -1.3661 2.0361
-3.5192 -1.6570 2.0361
-3.3781 -1.9378 2.0361
-3.2152 -2.2069 2.0361
-3.0313 -2.4626 2.0361
-2.8274 -2.7033 2.0361
-2.6049 -2.9273 2.0361
-2.3650 -3.1333 2.0361
-0.7749 -1.2198 0.7481
-0.6744 -1.2786 0.7468
-0.5696 -1.3291 0.7455
-0.4610 -1.3710 0.7442
-0.3495 -1.4042 0.7429
-0.2356 -1.4283 0.7416
-0.1203 -1.4432 0.7403
-0.0040 -1.4488 0.7390
0.1123 -1.4451 0.7378
0.2279 -1.4321 0.7365
0.3421 -1.4099 0.7354
0.4542 -1.3787 0.7342
0.5634 -1.3385 0.7332
0.6691 -1.2898 0.7322
0.7706 -1.2327 0.7313
2.4173 -3.2551 2.0361
2.6740 -3.0560 2.0361
2.9139 -2.8364 2.0361
3.1353 -2.5977 2.0361
3.3366 -2.3414 2.0361
3.5164 -2.0694 2.0361
3.6734 -1.7833 2.0361
3.8065 -1.4852 2.0361
3.9148 -1.1769 2.0361
3.9975 -0.8608 2.0361
4.0539 -0.5388 2.0361
4.0838 -0.2134 2.0361
4.0868 0.1134 2.0361
4.0630 0.4392 2.0361
4.0126 0.7621 2.0361
3.9360 1.0792 2.0361
3.8337 1.3890 2.0361
3.7065 1.6890 2.0361
3.5553 1.9775 2.0361
3.3812 2.2523 2.0361
3.1855 2.5117 2.0361
2.9695 2.7540 2.0361
2.7349 2.9777 2.0361
2.4832 3.1812 2.0361
2.2162 3.3634 2.0361
0.7034 1.2802 0.7399
0.5984 1.3321 0.7412
0.4895 1.3753 0.7425
0.3775 1.4096 0.7438
0.2630 1.4348 0.7452
0.1469 1.4507 0.7465
0.0299 1.4572 0.7478
-0.0872 1.4542 0.7490
-0.2038 1.4418 0.7503
-0.3189 1.4201 0.7515
-0.4319 1.3891 0.7526
-0.5421 1.3491 0.7537
-0.6486 1.3004 0.7547
-0.7509 1.2433 0.7556
-2.2831 3.1712 2.0361
-2.5274 2.9723 2.0361
-2.7551 2.7549 2.0361
-2.9646 2.5205 2.0361
-3.1548 2.2706 2.0361
-3.3245 2.0066 2.0361
-3.4729 1.7303 2.0361
-3.5989 1.4434 2.0361
-3.7020 1.1475 2.0361
-3.7814 0.8446 2.0361
-3.8368 0.5364 2.0361
-3.8677 0.2248 2.0361
-3.8741 -0.0883 2.0361
-3.8558 -0.4010 2.0361
-3.8130 -0.7114 2.0361
-3.7458 -1.0176 2.0361
-3.6547 -1.3178 2.0361
-3.5401 -1.6101 2.0361
-3.4027 -1.8927 2.0361
-3.2433 -2.1638 2.0361
-3.0627 -2.4218 2.0361
-2.8621 -2.6650 2.0361
-2.6425 -2.8919 2.0361
-2.4053 -3.1009 2.0361
-2.1519 -3.2907 2.0361
-0.6912 -1.2695 0.7471
-0.5870 -1.3214 0.7458
-0.4790 -1.3648 0.7444
-0.3679 -1.3994 0.7431
-0.2544 -1.4249 0.7418
-0.1392 -1.4414 0.7405
-0.0231 -1.4485 0.7392
0.0933 -1.4463 0.7380
0.2091 -1.4349 0.7367
0.3236 -1.4142 0.7356
0.4360 -1.3844 0.7344
0.5458 -1.3457 0.7333
0.6521 -1.2983 0.7323
0.7543 -1.2426 0.7314
2.3739 -3.2855 2.0361
2.6332 -3.0900 2.0361
2.8759 -2.8736 2.0361
3.1004 -2.6379 2.0361
3.3051 -2.3845 2.0361
3.4885 -2.1148 2.0361
3.6494 -1.8309 2.0361
3.7865 -1.5345 2.0361
3.8989 -1.2279 2.0361
3.9858 -0.9129 2.0361
4.0465 -0.5918 2.0361
4.0807 -0.2667 2.0361
4.0882 0.0600 2.0361
4.0687 0.3861 2.0361
4.0227 0.7095 2.0361
3.9503 1.0278 2.0361
3.8521 1.3389 2.0361
3.7289 1.6407 2.0361
3.5816 1.9312 2.0361
3.4112 2.2084 2.0361
3.2189 2.4705 2.0361
3.0061 2.7157 2.0361
2.7745 2.9425 2.0361
2.5254 3.1494 2.0361
2.2608 3.3351 2.0361
0.7202 1.2709 0.7397
0.6158 1.3242 0.7410
0.5075 1.3689 0.7423
0.3960 1.4047 0.7436
0.2819 1.4313 0.7450
0.1660 1.4488 0.7463
0.0491 1.4568 0.7476
-0.0681 1.4554 0.7488
-0.1848 1.4445 0.7501
-0.3002 1.4243 0.7513
-0.4136 1.3948 0.7524
-0.5243 1.3563 0.7535
-0.6315 1.3090 0.7545
-0.7345 1.2532 0.7555
-2.2417 3.2018 2.0361
-2.4886 3.0061 2.0361
-2.7191 2.7916 2.0361
-2.9316 2.5599 2.0361
-3.1251 2.3124 2.0361
-3.2982 2.0506 2.0361
-3.4501 1.7763 2.0361
-3.5799 1.4909 2.0361
-3.6867 1.1964 2.0361
-3.7701 0.8945 2.0361
-3.8294 0.5870 2.0361
-3.8644 0.2759 2.0361
-3.8747 -0.0371 2.0361
-3.8605 -0.3500 2.0361
-3.8216 -0.6609 2.0361
-0.4368 1.2860 0.7523
-0.5387 1.2460 0.7533
-0.6370 1.1979 0.7542
-0.7310 1.1421 0.7551
-2.2098 2.9063 2.0361
-2.4335 2.7148 2.0361
-2.6411 2.5063 2.0361
-2.8315 2.2824 2.0361
-3.0034 2.0443 2.0361
-3.1559 1.7935 2.0361
-3.2880 1.5317 2.0361
-3.3991 1.2604 2.0361
-3.4884 0.9813 2.0361
-3.5554 0.6961 2.0361
-3.5998 0.4066 2.0361
-3.6212 0.1145 2.0361
-3.6196 -0.1785 2.0361
-3.5949 -0.4705 2.0361
-3.5472 -0.7597 2.0361
-3.4769 -1.0445 2.0361
-3.3842 -1.3230 2.0361
-3.2698 -1.5935 2.0361
-3.1343 -1.8544 2.0361
-2.9784 -2.1040 2.0361
-2.8031 -2.3407 2.0361
-2.6094 -2.5631 2.0361
-2.3984 -2.7696 2.0361
-2.1713 -2.9590 2.0361
-0.7085 -1.1493 0.7476
-0.6139 -1.2030 0.7464
-0.5153 -1.2489 0.7452
-0.4134 -1.2868 0.7440
-0.3088 -1.3164 0.7427
-0.2021 -1.3375 0.7415
-0.0941 -1.3500 0.7403
0.0145 -1.3538 0.7391
0.1231 -1.3490 0.7379
0.2310 -1.3354 0.7368
0.3375 -1.3133 0.7357
0.4418 -1.2827 0.7347
0.5434 -1.2439 0.7337
0.6415 -1.1970 0.7328
0.7356 -1.1424 0.7319
2.2976 -3.0090 2.0361
2.5345 -2.8198 2.0361
2.7555 -2.6116 2.0361
2.9589 -2.3860 2.0361
3.1433 -2.1442 2.0361
3.3075 -1.8880 2.0361
3.4503 -1.6191 2.0361
3.5706 -1.3392 2.0361
3.6677 -1.0503 2.0361
3.7408 -0.7544 2.0361
3.7894 -0.4534 2.0361
3.8132 -0.1494 2.0361
3.8120 0.1554 2.0361
3.7858 0.4590 2.0361
3.7349 0.7594 2.0361
3.6596 1.0544 2.0361
3.5605 1.3421 2.0361
3.4382 1.6206 2.0361
3.2938 1.8878 2.0361
3.1282 2.1422 2.0361
2.9427 2.3820 2.0361
2.7384 2.6056 2.0361
2.5169 2.8116 2.0361
2.2798 2.9987 2.0361
0.7364 1.1492 0.7391
0.6418 1.2041 0.7403
0.5430 1.2512 0.7415
0.4408 1.2903 0.7428
0.3357 1.3209 0.7440
0.2286 1.3430 0.7453
0.1199 1.3564 0.7465
0.0106 1.3611 0.7477
-0.0988 1.3568 0.7489
-0.2075 1.3438 0.7500
-0.3147 1.3221 0.7511
-0.4199 1.2918 0.7522
-0.5223 1.2531 0.7532
-0.6212 1.2063 0.7541
-0.7160 1.1517 0.7549
-2.1718 2.9360 2.0361
-2.3980 2.7473 2.0361
-2.6083 2.5415 2.0361
-2.8016 2.3200 2.0361
-2.9766 2.0841 2.0361
-3.1323 1.8353 2.0361
-3.2678 1.5752 2.0361
-3.3824 1.3053 2.0361
-3.4753 1.0274 2.0361
-3.5460 0.7431 2.0361
-3.5941 0.4541 2.0361
-3.6193 0.1623 2.0361
-3.6214 -0.1306 2.0361
-3.6005 -0.4229 2.0361
-3.5566 -0.7127 2.0361
-3.4899 -0.9983 2.0361
-3.4009 -1.2780 2.0361
-3.2900 -1.5499 2.0361
-3.1579 -1.8125 2.0361
-3.0053 -2.0640 2.0361
-2.8331 -2.3030 2.0361
-2.6423 -2.5278 2.0361
-2.4340 -2.7370 2.0361
-2.2095 -2.9293 2.0361
-0.7235 -1.1398 0.7478
-0.6297 -1.1947 0.7466
-0.5317 -1.2419 0.7454
-0.4303 -1.2811 0.7442
-0.3260 -1.3121 0.7429
-0.2197 -1.3346 0.7417
-0.1118 -1.3486 0.7405
-0.0032 -1.3538 0.7393
0.1054 -1.3504 0.7381
0.2135 -1.3382 0.7370
0.3202 -1.3175 0.7359
0.4249 -1.2883 0.7348
0.5270 -1.2508 0.7339
0.6257 -1.2052 0.7329
0.7205 -1.1518 0.7321
2.2575 -3.0380 2.0361
2.4969 -2.8520 2.0361
2.7205 -2.6469 2.0361
2.9269 -2.4240 2.0361
3.1145 -2.1847 2.0361
3.2821 -1.9308 2.0361
3.4285 -1.6638 2.0361
3.5525 -1.3856 2.0361
3.6535 -1.0980 2.0361
3.7305 -0.8031 2.0361
3.7831 -0.5028 2.0361
3.8110 -0.1992 2.0361
3.8139 0.1056 2.0361
3.7918 0.4096 2.0361
3.7449 0.7106 2.0361
3.6735 1.0066 2.0361
3.5783 1.2957 2.0361
3.4598 1.5757 2.0361
3.3189 1.8450 2.0361
3.1567 2.1016 2.0361
2.9743 2.3439 2.0361
2.7730 2.5702 2.0361
2.5542 2.7792 2.0361
2.3195 2.9695 2.0361
0.7514 1.1395 0.7389
0.6575 1.1956 0.7401
0.5594 1.2441 0.7413
0.4577 1.2844 0.7426
0.3531 1.3165 0.7438
0.2462 1.3400 0.7451
0.1378 1.3549 0.7463
0.0285 1.3609 0.7475
-0.0809 1.3581 0.7487
-0.1898 1.3465 0.7498
-0.2973 1.3262 0.7509
-0.4029 1.2973 0.7520
-0.5057 1.2600 0.7530
-0.6053 1.2145 0.7539
-0.7008 1.1612 0.7548
-2.1334 2.9651 2.0361
-2.3621 2.7793 2.0361
-2.5751 2.5762 2.0361
-2.7712 2.3572 2.0361
-2.9493 2.1235 2.0361
-3.1082 1.8768 2.0361
-3.2471 1.6184 2.0361
-3.3651 1.3500 2.0361
-3.4616 1.0733 2.0361
-3.5360 0.7899 2.0361
-3.5878 0.5016 2.0361
-3.6167 0.2101 2.0361
-3.6226 -0.0827 2.0361
-3.6055 -0.3753 2.0361
-3.5653 -0.6656 2.0361
-3.5023 -0.9520 2.0361
-3.4169 -1.2327 2.0361
-3.3096 -1.5061 2.0361
-3.1809 -1.7703 2.0361
-3.0316 -2.0237 2.0361
-2.8625 -2.2648 2.0361
-2.6747 -2.4921 2.0361
-2.4692 -2.7039 2.0361
-2.2472 -2.8991 2.0361
-0.7385 -1.1301 0.7480
-0.6453 -1.1863 0.7468
-0.5479 -1.2347 0.7456
-0.4470 -1.2753 0.7444
-0.3432 -1.3076 0.7432
-0.2372 -1.3315 0.7419
-0.1295 -1.3469 0.7407
-0.0210 -1.3536 0.7395
0.0877 -1.3515 0.7383
0.1959 -1.3408 0.7372
0.3029 -1.3215 0.7361
0.4080 -1.2936 0.7350
0.5105 -1.2574 0.7340
0.6099 -1.2132 0.7331
0.7053 -1.1611 0.7322
2.2170 -3.0665 2.0361
2.4588 -2.8837 2.0361
2.6851 -2.6817 2.0361
2.8944 -2.4616 2.0361
3.0852 -2.2249 2.0361
3.2561 -1.9733 2.0361
3.4060 -1.7083 2.0361
3.5338 -1.4318 2.0361
3.6386 -1.1456 2.0361
3.7196 -0.8518 2.0361
3.7762 -0.5522 2.0361
3.8081 -0.2490 2.0361
3.8151 0.0558 2.0361
3.7971 0.3600 2.0361
3.7542 0.6617 2.0361
3.6868 0.9587 2.0361
3.5954 1.2490 2.0361
3.4807 1.5307 2.0361
3.3434 1.8018 2.0361
3.1846 2.0606 2.0361
3.0054 2.3053 2.0361
2.8071 2.5344 2.0361
2.5911 2.7463 2.0361
2.3589 2.9397 2.0361
0.7663 1.1296 0.7387
0.6732 1.1870 0.7399
0.5757 1.2367 0.7411
0.4745 1.2784 0.7424
0.3703 1.3118 0.7436
0.2638 1.3368 0.7449
0.1555 1.3530 0.7461
0.0464 1.3605 0.7473
-0.0631 1.3592 0.7485
-0.1721 1.3490 0.7496
-0.2799 1.3301 0.7508
-0.3858 1.3026 0.7518
-0.4891 1.2667 0.7528
-0.5893 1.2225 0.7538
-0.6855 1.1704 0.7547
-2.0946 2.9937 2.0361
-2.3257 2.8109 2.0361
-2.5414 2.6106 2.0361
-2.7404 2.3940 2.0361
-2.9215 2.1627 2.0361
-3.0836 1.9179 2.0361
-3.2258 1.6613 2.0361
-3.3473 1.3945 2.0361
-3.4473 1.1190 2.0361
-3.5253 0.8366 2.0361
-3.5809 0.5490 2.0361
-3.6136 0.2579 2.0361
-3.6232 -0.0349 2.0361
-3.6098 -0.3276 2.0361
-3.5734 -0.6184 2.0361
-0.4085 1.2040 0.7518
-0.5038 1.1665 0.7527
-0.5958 1.1215 0.7535
-0.6839 1.0693 0.7543
-0.7675 1.0101 0.7551
-2.2796 2.5445 2.0361
-2.4744 2.3492 2.0361
-2.6529 2.1394 2.0361
-2.8142 1.9163 2.0361
-2.9573 1.6813 2.0361
-3.0813 1.4359 2.0361
-3.1855 1.1816 2.0361
-3.2693 0.9199 2.0361
-3.3322 0.6525 2.0361
-3.3738 0.3811 2.0361
-3.3939 0.1072 2.0361
-3.3923 -0.1675 2.0361
-3.3690 -0.4413 2.0361
-3.3243 -0.7124 2.0361
-3.2582 -0.9794 2.0361
-3.1712 -1.2404 2.0361
-3.0638 -1.4940 2.0361
-2.9366 -1.7384 2.0361
-2.7903 -1.9722 2.0361
-2.6258 -2.1940 2.0361
-2.4441 -2.4022 2.0361
-2.2461 -2.5956 2.0361
-0.7474 -1.0193 0.7485
-0.6631 -1.0765 0.7474
-0.5745 -1.1268 0.7462
-0.4821 -1.1698 0.7451
-0.3867 -1.2053 0.7439
-0.2887 -1.2330 0.7428
-0.1888 -1.2528 0.7416
-0.0876 -1.2645 0.7405
0.0141 -1.2681 0.7394
0.1158 -1.2636 0.7383
0.2169 -1.2509 0.7372
0.3166 -1.2301 0.7362
0.4143 -1.2015 0.7352
0.5094 -1.1651 0.7343
0.6014 -1.1212 0.7334
0.6895 -1.0701 0.7327
0.7732 -1.0120 0.7319
2.3726 -2.6381 2.0361
2.5791 -2.4433 2.0361
2.7692 -2.2320 2.0361
2.9416 -2.0058 2.0361
3.0950 -1.7661 2.0361
3.2284 -1.5145 2.0361
3.3409 -1.2527 2.0361
3.4316 -0.9825 2.0361
3.4999 -0.7057 2.0361
3.5454 -0.4242 2.0361
3.5676 -0.1399 2.0361
3.5665 0.1452 2.0361
3.5421 0.4291 2.0361
3.4946 0.7101 2.0361
3.4243 0.9860 2.0361
3.3317 1.2552 2.0361
3.2176 1.5157 2.0361
3.0827 1.7658 2.0361
2.9280 2.0039 2.0361
2.7546 2.2284 2.0361
2.5637 2.4378 2.0361
2.3566 2.6308 2.0361
0.7741 1.0175 0.7383
0.6900 1.0759 0.7394
0.6014 1.1273 0.7405
0.5089 1.1714 0.7417
0.4132 1.2079 0.7428
0.3149 1.2366 0.7440
0.2145 1.2573 0.7451
0.1128 1.2699 0.7463
0.0104 1.2742 0.7474
-0.0920 1.2703 0.7485
-0.1937 1.2581 0.7496
-0.2941 1.2377 0.7506
-0.3926 1.2094 0.7516
-0.4884 1.1732 0.7525
-0.5811 1.1294 0.7534
-0.6698 1.0783 0.7542
-0.7542 1.0202 0.7549
-2.2463 2.5749 2.0361
-2.4436 2.3822 2.0361
-2.6249 2.1746 2.0361
-2.7891 1.9536 2.0361
-2.9352 1.7204 2.0361
-3.0624 1.4766 2.0361
-3.1698 1.2237 2.0361
-3.2570 0.9631 2.0361
-3.3233 0.6966 2.0361
-3.3684 0.4256 2.0361
-3.3921 0.1520 2.0361
-3.3940 -0.1226 2.0361
-3.3743 -0.3967 2.0361
-3.3331 -0.6684 2.0361
-3.2705 -0.9361 2.0361
-3.1869 -1.1982 2.0361
-3.0828 -1.4531 2.0361
-2.9587 -1.6991 2.0361
-2.8155 -1.9348 2.0361
-2.6539 -2.1586 2.0361
-2.4749 -2.3692 2.0361
-2.2795 -2.5651 2.0361
-0.7607 -1.0093 0.7486
-0.6772 -1.0676 0.7475
-0.5892 -1.1190 0.7464
-0.4975 -1.1633 0.7453
-0.4025 -1.2000 0.7441
-0.3049 -1.2290 0.7430
-0.2052 -1.2501 0.7418
-0.1042 -1.2632 0.7407
-0.0025 -1.2681 0.7396
0.0993 -1.2649 0.7385
0.2004 -1.2535 0.7374
0.3004 -1.2341 0.7364
0.3985 -1.2067 0.7354
0.4941 -1.1715 0.7345
0.5866 -1.1288 0.7336
0.6754 -1.0789 0.7328
0.7599 -1.0220 0.7320
2.3373 -2.6683 2.0361
2.5464 -2.4763 2.0361
2.7393 -2.2676 2.0361
2.9147 -2.0437 2.0361
3.0713 -1.8061 2.0361
3.2080 -1.5563 2.0361
3.3240 -1.2961 2.0361
3.4183 -1.0271 2.0361
3.4903 -0.7513 2.0361
3.5395 -0.4705 2.0361
3.5656 -0.1865 2.0361
3.5683 0.0986 2.0361
3.5477 0.3829 2.0361
3.5039 0.6645 2.0361
3.4373 0.9414 2.0361
3.3484 1.2118 2.0361
3.2377 1.4738 2.0361
3.1061 1.7257 2.0361
2.9546 1.9659 2.0361
2.7841 2.1927 2.0361
2.5960 2.4047 2.0361
2.3915 2.6004 2.0361
0.7874 1.0073 0.7381
0.7040 1.0668 0.7392
0.6161 1.1194 0.7403
0.5243 1.1647 0.7415
0.4290 1.2025 0.7426
0.3311 1.2325 0.7438
0.2310 1.2545 0.7450
0.1295 1.2684 0.7461
0.0272 1.2741 0.7472
-0.0753 1.2715 0.7483
-0.1772 1.2606 0.7494
-0.2779 1.2416 0.7505
-0.3767 1.2145 0.7514
-0.4730 1.1796 0.7524
-0.5662 1.1370 0.7533
-0.6556 1.0871 0.7541
-0.7407 1.0302 0.7548
-2.2126 2.6049 2.0361
-2.4124 2.4147 2.0361
-2.5964 2.2095 2.0361
-2.7635 1.9906 2.0361
-2.9126 1.7593 2.0361
-3.0429 1.5171 2.0361
-3.1536 1.2656 2.0361
-3.2442 1.0061 2.0361
-3.3139 0.7405 2.0361
-3.3625 0.4702 2.0361
-3.3897 0.1969 2.0361
-3.3952 -0.0777 2.0361
-3.3790 -0.3520 2.0361
-3.3413 -0.6242 2.0361
-3.2821 -0.8927 2.0361
-3.2019 -1.1558 2.0361
-3.1012 -1.4120 2.0361
-2.9803 -1.6596 2.0361
-2.8402 -1.8971 2.0361
-2.6815 -2.1229 2.0361
-2.5053 -2.3357 2.0361
-2.3125 -2.5341 2.0361
-0.7739 -0.9991 0.7488
-0.6911 -1.0585 0.7477
-0.6039 -1.1111 0.7466
-0.5127 -1.1565 0.7455
-0.4182 -1.1945 0.7443
-0.3210 -1.2248 0.7432
-0.2216 -1.2472 0.7420
-0.1208 -1.2616 0.7409
-0.0192 -1.2678 0.7397
0.0826 -1.2659 0.7386
0.1840 -1.2559 0.7376
0.2842 -1.2378 0.7365
0.3826 -1.2117 0.7355
0.4787 -1.1778 0.7346
0.5717 -1.1363 0.7337
0.6611 -1.0875 0.7329
0.7464 -1.0317 0.7322
2.3017 -2.6981 2.0361
2.5133 -2.5088 2.0361
2.7089 -2.3028 2.0361
2.8872 -2.0813 2.0361
3.0470 -1.8458 2.0361
3.1871 -1.5979 2.0361
3.3065 -1.3392 2.0361
3.4044 -1.0716 2.0361
3.4801 -0.7967 2.0361
3.5330 -0.5166 2.0361
3.5629 -0.2330 2.0361
3.5695 0.0520 2.0361
3.5527 0.3366 2.0361
3.5127 0.6187 2.0361
3.4498 0.8965 2.0361
3.3644 1.1681 2.0361
3.2572 1.4316 2.0361
3.1290 1.6853 2.0361
2.9807 1.9275 2.0361
2.8132 2.1566 2.0361
2.6279 2.3711 2.0361
2.4260 2.5696 2.0361
0.8006 0.9970 0.7379
0.7180 1.0575 0.7390
0.6308 1.1113 0.7401
0.5395 1.1578 0.7413
0.4448 1.1968 0.7424
0.3472 1.2281 0.7436
0.2475 1.2515 0.7448
0.1461 1.2667 0.7459
0.0439 1.2737 0.7471
-0.0585 1.2724 0.7482
-0.1606 1.2630 0.7492
-0.2615 1.2453 0.7503
-0.3607 1.2195 0.7513
-0.4574 1.1859 0.7522
-0.5512 1.1445 0.7531
-0.6413 1.0958 0.7540
-0.7271 1.0399 0.7547
-2.1785 2.6345 2.0361
-2.3808 2.4468 2.0361
-2.5675 2.2440 2.0361
-2.7374 2.0272 2.0361
-2.8895 1.7979 2.0361
-3.0229 1.5574 2.0361
-3.1369 1.3073 2.0361
-3.2308 1.0490 2.0361
-3.3040 0.7842 2.0361
-3.3561 0.5146 2.0361
-3.3867 0.2417 2.0361
-3.3958 -0.0328 2.0361
-3.3831 -0.3073 2.0361
-3.3489 -0.5799 2.0361
-0.3827 1.1295 0.7512
-0.4722 1.0944 0.7521
-0.5585 1.0521 0.7529
-0.6412 1.0031 0.7537
-0.7196 0.9476 0.7543
-2.1395 2.3895 2.0361
-2.3226 2.2063 2.0361
-2.4904 2.0093 2.0361
-2.6421 1.7998 2.0361
-2.7766 1.5791 2.0361
-2.8931 1.3487 2.0361
-2.9911 1.1098 2.0361
-3.0698 0.8640 2.0361
-3.1290 0.6128 2.0361
-3.1681 0.3578 2.0361
-3.1869 0.1005 2.0361
-3.1854 -0.1575 2.0361
-3.1635 -0.4147 2.0361
-3.1214 -0.6694 2.0361
-3.0592 -0.9201 2.0361
-2.9774 -1.1653 2.0361
-2.8764 -1.4034 2.0361
-2.7568 -1.6329 2.0361
-2.6192 -1.8524 2.0361
-2.4646 -2.0605 2.0361
-2.2937 -2.2559 2.0361
-2.1077 -2.4373 2.0361
-0.7009 -0.9566 0.7481
-0.6218 -1.0104 0.7471
-0.5387 -1.0576 0.7461
-0.4520 -1.0979 0.7450
-0.3624 -1.1312 0.7439
-0.2704 -1.1573 0.7428
-0.1767 -1.1759 0.7418
-0.0818 -1.1869 0.7407
0.0138 -1.1902 0.7396
0.1092 -1.1860 0.7386
0.2041 -1.1740 0.7376
0.2976 -1.1546 0.7367
0.3893 -1.1277 0.7357
