ply
format ascii 1.0
element vertex 2180
property float32 x
property float32 y
property float32 z
end_header
-9.8771 -7.2403 2.0386
-9.2718 -8.0155 2.0386
-8.6063 -8.7407 2.0386
-7.8846 -9.4113 2.0386
-7.1112 -10.0229 2.0386
-6.2907 -10.5716 2.0386
-5.4282 -11.0535 2.0386
-4.5291 -11.4655 2.0386
-3.5990 -11.8047 2.0386
-2.6437 -12.0688 2.0386
-1.6693 -12.2557 2.0386
-0.6819 -12.3641 2.0386
0.3121 -12.3929 2.0386
0.3891 -3.6759 0.6072
0.6598 -3.5118 0.5863
0.9525 -3.4962 0.5939
1.2555 -3.4800 0.6057
1.5736 -3.4630 0.6222
1.9123 -3.4449 0.6439
2.2787 -3.4254 0.6717
7.1557 -9.0829 1.8862
7.8837 -8.5046 1.8902
8.5986 -7.8990 1.9018
9.2625 -7.2299 1.9126
8.5950 -5.6621 1.6744
10.4125 -5.7191 1.9317
10.8868 -4.8882 1.9397
11.2873 -4.0153 1.9466
11.6095 -3.1074 1.9523
11.8500 -2.1721 1.9568
12.0060 -1.2173 1.9600
12.0759 -0.2512 1.9618
12.0586 0.7177 1.9624
11.9544 1.6809 1.9615
11.7643 2.6300 1.9593
11.4903 3.5568 1.9558
11.1355 4.4533 1.9510
10.7034 5.3121 1.9450
10.1988 6.1264 1.9379
9.6266 6.8898 1.9296
8.9928 7.5967 1.9203
8.3035 8.2422 1.9102
7.5653 8.8223 1.8992
6.7851 9.3336 1.8875
6.0047 9.8309 1.8862
5.1918 10.2699 1.8862
4.4533 10.9021 1.9324
3.7567 11.8281 2.0386
2.7930 12.0777 2.0386
1.8135 12.2490 2.0386
0.8245 12.3410 2.0386
-0.1676 12.3534 2.0386
-1.1564 12.2865 2.0386
-2.1356 12.1409 2.0386
-3.0991 11.9177 2.0386
-4.0407 11.6187 2.0386
-4.9546 11.2460 2.0386
-5.8350 10.8021 2.0386
-6.6766 10.2900 2.0386
-7.4741 9.7131 2.0386
-8.2227 9.0752 2.0386
-8.9178 8.3804 2.0386
-9.5551 7.6332 2.0386
-10.1308 6.8382 2.0386
-10.6415 6.0006 2.0386
-11.0841 5.1256 2.0386
-11.4559 4.2186 2.0386
-11.7546 3.2852 2.0386
-11.9785 2.3314 2.0386
-12.1263 1.3629 2.0386
-12.1969 0.3857 2.0386
-12.1901 -0.5940 2.0386
-12.1057 -1.5703 2.0386
-11.9443 -2.5372 2.0386
-11.7068 -3.4883 2.0386
-11.3946 -4.4183 2.0386
-11.0095 -5.3210 2.0386
-10.5538 -6.1907 2.0386
-10.0302 -7.0223 2.0386
-9.4419 -7.8101 2.0386
-8.7923 -8.5494 2.0386
-8.0854 -9.2353 2.0386
-7.3256 -9.8633 2.0386
-6.5174 -10.4293 2.0386
-5.6657 -10.9297 2.0386
-4.7760 -11.3609 2.0386
-3.8537 -11.7201 2.0386
-2.9047 -12.0048 2.0386
-1.9348 -12.2128 2.0386
-0.9503 -12.3426 2.0386
0.0425 -12.3930 2.0386
0.5313 -6.3326 1.0442
0.5817 -3.5160 0.5849
0.8723 -3.5004 0.5915
1.1721 -3.4844 0.6021
1.4856 -3.4677 0.6172
1.8181 -3.4499 0.6374
2.1763 -3.4309 0.6635
6.9550 -9.2342 1.8862
7.6821 -8.6573 1.8869
8.4096 -8.0695 1.8987
9.0880 -7.4172 1.9097
8.8505 -6.1105 1.7499
10.2718 -5.9362 1.9293
10.7654 -5.1178 1.9376
11.1863 -4.2556 1.9448
11.5301 -3.3565 1.9509
11.7931 -2.4278 1.9557
11.9722 -1.4774 1.9593
12.0655 -0.5136 1.9615
12.0719 0.4554 1.9624
11.9912 1.4210 1.9619
11.8242 2.3747 1.9601
11.5727 3.3083 1.9569
11.2394 4.2138 1.9525
10.8279 5.0836 1.9468
10.3424 5.9106 1.9399
9.7880 6.6883 1.9319
9.1703 7.4110 1.9229
8.4954 8.0736 1.9130
7.7698 8.6718 1.9022
7.0002 9.2020 1.8907
6.2188 9.7006 1.8862
5.4154 10.1575 1.8862
4.5787 10.5477 1.8862
4.0142 11.7471 2.0386
3.0560 12.0178 2.0386
2.0801 12.2104 2.0386
1.0931 12.3239 2.0386
0.1012 12.3579 2.0386
-0.8891 12.3124 2.0386
-1.8716 12.1881 2.0386
-2.8400 11.9857 2.0386
-3.7881 11.7071 2.0386
-4.7100 11.3541 2.0386
-5.6001 10.9292 2.0386
-6.4527 10.4352 2.0386
-7.2627 9.8756 2.0386
-8.0250 9.2538 2.0386
9.7721 2.4086 1.9283
9.5285 3.1778 1.9251
9.2188 3.9210 1.9209
8.8463 4.6325 1.9157
8.4146 5.3065 1.9095
7.9277 5.9382 1.9025
4.9983 4.4116 1.2814
6.8075 7.0569 1.8860
6.2155 7.5747 1.8862
5.5835 8.0419 1.8862
4.9165 8.4563 1.8862
4.5137 9.4311 2.0180
3.7777 9.8532 2.0386
2.9727 10.1148 2.0386
2.1500 10.3107 2.0386
1.3150 10.4397 2.0386
0.4732 10.5014 2.0386
-0.3701 10.4953 2.0386
-1.2094 10.4219 2.0386
-2.0394 10.2817 2.0386
-2.8548 10.0758 2.0386
-3.6505 9.8057 2.0386
-4.4215 9.4733 2.0386
-5.1629 9.0808 2.0386
-5.8702 8.6308 2.0386
-6.5389 8.1264 2.0386
-7.1649 7.5707 2.0386
-7.7445 6.9674 2.0386
-8.2740 6.3203 2.0386
-8.7503 5.6335 2.0386
-9.1703 4.9115 2.0386
-9.5316 4.1586 2.0386
-9.8320 3.3797 2.0386
-10.0696 2.5796 2.0386
-10.2431 1.7633 2.0386
-10.3512 0.9358 2.0386
-10.3934 0.1024 2.0386
-10.3695 -0.7318 2.0386
-10.2794 -1.5616 2.0386
-10.1238 -2.3819 2.0386
-9.9036 -3.1875 2.0386
-9.6200 -3.9734 2.0386
-9.2748 -4.7346 2.0386
-8.8701 -5.4664 2.0386
-8.4082 -6.1641 2.0386
-7.8919 -6.8233 2.0386
-7.3245 -7.4397 2.0386
-6.7094 -8.0095 2.0386
-6.0504 -8.5288 2.0386
-5.3514 -8.9943 2.0386
-4.6169 -9.4029 2.0386
-3.8515 -9.7519 2.0386
-3.0599 -10.0388 2.0386
-2.2472 -10.2617 2.0386
-1.4184 -10.4189 2.0386
-0.5789 -10.5093 2.0386
0.2659 -10.5321 2.0386
0.3888 -3.6715 0.7137
0.6601 -3.5121 0.6902
0.9528 -3.4964 0.6992
1.2558 -3.4802 0.7133
1.5739 -3.4633 0.7327
1.9127 -3.4452 0.7584
2.2792 -3.4257 0.7913
6.0747 -7.7099 1.8862
6.6777 -7.2030 1.8862
7.2381 -6.6487 1.8862
7.7692 -6.0638 1.8904
8.2703 -5.4479 1.8987
8.7182 -4.7882 1.9061
9.1086 -4.0896 1.9127
9.4377 -3.3572 1.9184
9.7020 -2.5968 1.9231
9.8990 -1.8144 1.9268
10.0266 -1.0166 1.9295
10.0834 -0.2098 1.9310
10.0688 0.5992 1.9314
9.9829 1.4036 1.9307
9.8265 2.1966 1.9289
9.6011 2.9717 1.9261
9.3091 3.7226 1.9221
8.9533 4.4432 1.9172
8.5372 5.1278 1.9113
8.0648 5.7715 1.9045
5.1998 4.3921 1.3080
6.9696 6.9175 1.8884
6.3801 7.4394 1.8862
5.7584 7.9204 1.8862
5.1005 8.3493 1.8862
4.5495 8.9982 1.9456
3.9921 9.7712 2.0386
3.1928 10.0504 2.0386
2.3744 10.2642 2.0386
1.5422 10.4114 2.0386
0.7017 10.4913 2.0386
-0.1418 10.5036 2.0386
-0.9827 10.4484 2.0386
-1.8158 10.3262 2.0386
-2.6356 10.1380 2.0386
-3.4372 9.8851 2.0386
-4.2153 9.5694 2.0386
-4.9652 9.1929 2.0386
-5.6822 8.7583 2.0386
-6.3617 8.2683 2.0386
-6.9997 7.7261 2.0386
-7.5923 7.1354 2.0386
-8.1357 6.4997 2.0386
-8.6267 5.8233 2.0386
-9.0622 5.1104 2.0386
-9.4397 4.3654 2.0386
-9.7567 3.5931 2.0386
-10.0115 2.7982 2.0386
-10.2025 1.9858 2.0386
-10.3284 1.1608 2.0386
-10.3885 0.3285 2.0386
-10.3825 -0.5060 2.0386
-10.3103 -1.3375 2.0386
-10.1724 -2.1609 2.0386
-9.9696 -2.9710 2.0386
-9.7030 -3.7627 2.0386
-9.3743 -4.5311 2.0386
-8.9855 -5.2713 2.0386
-8.5388 -5.9787 2.0386
-8.0370 -6.6487 2.0386
-7.4832 -7.2771 2.0386
-6.8806 -7.8599 2.0386
-6.2330 -8.3933 2.0386
-5.5445 -8.8737 2.0386
-4.8192 -9.2980 2.0386
-4.0617 -9.6634 2.0386
-3.2767 -9.9673 2.0386
-2.4692 -10.2077 2.0386
-1.6442 -10.3829 2.0386
-0.8071 -10.4915 2.0386
0.0368 -10.5327 2.0386
0.5306 -6.3195 1.2263
0.5820 -3.5162 0.6885
0.8726 -3.5007 0.6963
1.1724 -3.4847 0.7090
1.4860 -3.4680 0.7269
1.8185 -3.4502 0.7508
2.1767 -3.4311 0.7816
5.9045 -7.8387 1.8862
6.5183 -7.3452 1.8862
7.0907 -6.8034 1.8862
7.6249 -6.2226 1.8880
8.1396 -5.6193 1.8965
8.6024 -4.9710 1.9042
9.0087 -4.2824 1.9110
9.3548 -3.5586 1.9170
9.6370 -2.8052 1.9220
9.8525 -2.0282 1.9259
9.9990 -1.2339 1.9288
10.0751 -0.4289 1.9307
10.0798 0.3802 1.9314
10.0132 1.1864 1.9310
9.8757 1.9832 1.9295
9.6689 2.7638 1.9269
9.3946 3.5219 1.9233
9.0558 4.2512 1.9186
8.6557 4.9462 1.9130
8.1981 5.6014 1.9064
7.6875 6.2122 1.8990
4.9315 4.6862 1.3080
6.5418 7.3005 1.8862
5.9306 7.7951 1.8862
5.2821 8.2384 1.8862
4.6005 8.6276 1.8862
4.2047 9.6846 2.0386
3.4115 9.9811 2.0386
2.5977 10.2127 2.0386
1.7687 10.3781 2.0386
0.9299 10.4763 2.0386
0.0867 10.5070 2.0386
-0.7554 10.4700 2.0386
-1.5911 10.3659 2.0386
-2.4151 10.1955 2.0386
-3.2221 9.9600 2.0386
-4.0071 9.6610 2.0386
-4.7651 9.3008 2.0386
-5.4914 8.8816 2.0386
-6.1815 8.4063 2.0386
-6.8312 7.8780 2.0386
8.3778 2.0648 1.9064
8.1712 2.7249 1.9037
7.9087 3.3635 1.9001
7.5926 3.9755 1.8957
7.2259 4.5565 1.8905
6.8180 5.1065 1.8862
4.9539 4.3720 1.4639
5.9069 6.1227 1.8862
5.3933 6.5720 1.8862
4.8455 6.9781 1.8862
4.5912 7.8955 2.0294
3.9581 8.2691 2.0386
3.2797 8.5528 2.0386
2.5813 8.7809 2.0386
1.8673 8.9520 2.0386
1.1425 9.0652 2.0386
0.4115 9.1198 2.0386
-0.3209 9.1157 2.0386
-1.0500 9.0530 2.0386
-1.7712 8.9323 2.0386
-2.4799 8.7544 2.0386
-3.1716 8.5207 2.0386
-3.8419 8.2327 2.0386
-4.4867 7.8925 2.0386
-5.1019 7.5021 2.0386
-5.6837 7.0642 2.0386
-6.2284 6.5817 2.0386
-6.7328 6.0577 2.0386
-7.1937 5.4955 2.0386
-7.6082 4.8986 2.0386
-7.9739 4.2709 2.0386
-8.2884 3.6164 2.0386
-8.5499 2.9392 2.0386
-8.7567 2.2434 2.0386
-8.9077 1.5334 2.0386
-9.0018 0.8138 2.0386
-9.0385 0.0890 2.0386
-9.0175 -0.6365 2.0386
-8.9389 -1.3582 2.0386
-8.8033 -2.0714 2.0386
-8.6114 -2.7719 2.0386
-8.3644 -3.4551 2.0386
-8.0637 -4.1167 2.0386
-7.7112 -4.7527 2.0386
-7.3091 -5.3588 2.0386
-6.8597 -5.9314 2.0386
-6.3659 -6.4667 2.0386
-5.8307 -6.9612 2.0386
-5.2573 -7.4118 2.0386
-4.6494 -7.8155 2.0386
-4.0107 -8.1696 2.0386
-3.3453 -8.4718 2.0386
-2.6573 -8.7201 2.0386
-1.9511 -8.9126 2.0386
-1.2312 -9.0480 2.0386
-0.5021 -9.1254 2.0386
0.2315 -9.1441 2.0386
0.3886 -3.6671 0.8212
0.6604 -3.5123 0.7952
0.9531 -3.4967 0.8057
1.2562 -3.4805 0.8220
1.5743 -3.4636 0.8445
1.9131 -3.4455 0.8742
2.2796 -3.4260 0.9122
5.3736 -6.8195 1.9233
5.7925 -6.2477 1.8862
6.2781 -5.7664 1.8862
6.7234 -5.2472 1.8862
7.1254 -4.6935 1.8862
7.4868 -4.1117 1.8876
7.8179 -3.5098 1.8932
8.0966 -2.8800 1.8980
8.3202 -2.2268 1.9020
8.4867 -1.5555 1.9051
8.5944 -0.8713 1.9074
8.6421 -0.1798 1.9087
8.6295 0.5134 1.9090
8.5565 1.2029 1.9084
8.4238 1.8828 1.9069
8.2328 2.5480 1.9045
7.9852 3.1929 1.9012
7.6833 3.8126 1.8970
7.3300 4.4024 1.8920
6.9285 4.9579 1.8862
5.1673 4.3643 1.4983
6.0397 5.9939 1.8862
5.5360 6.4544 1.8862
4.9971 6.8725 1.8862
4.6198 7.5614 1.9685
4.1379 8.1828 2.0386
3.4657 8.4813 2.0386
2.7723 8.7246 2.0386
2.0620 8.9113 2.0386
1.3397 9.0403 2.0386
0.6099 9.1108 2.0386
-0.1225 9.1226 2.0386
-0.8530 9.0758 2.0386
-1.5768 8.9707 2.0386
-2.2893 8.8082 2.0386
-2.9861 8.5895 2.0386
-3.6626 8.3160 2.0386
-4.3147 7.9897 2.0386
-4.9383 7.6127 2.0386
-5.5295 7.1874 2.0386
-6.0847 6.7167 2.0386
-6.6003 6.2036 2.0386
-7.0733 5.6513 2.0386
-7.5006 5.0635 2.0386
-7.8797 4.4438 2.0386
-8.2083 3.7962 2.0386
-8.4844 3.1246 2.0386
-8.7062 2.4335 2.0386
-8.8724 1.7269 2.0386
-8.9819 1.0095 2.0386
-9.0342 0.2856 2.0386
-9.0288 -0.4401 2.0386
-8.9659 -1.1633 2.0386
-8.8456 -1.8793 2.0386
-8.6689 -2.5836 2.0386
-8.4367 -3.2719 2.0386
-8.1504 -3.9398 2.0386
-7.8117 -4.5831 2.0386
-7.4228 -5.1978 2.0386
-6.9860 -5.7798 2.0386
-6.5039 -6.3255 2.0386
-5.9796 -6.8314 2.0386
-5.4162 -7.2942 2.0386
-4.8173 -7.7109 2.0386
-4.1866 -8.0787 2.0386
-3.5280 -8.3952 2.0386
-2.8457 -8.6583 2.0386
-2.1440 -8.8660 2.0386
-1.4273 -9.0170 2.0386
-0.7003 -9.1102 2.0386
0.0325 -9.1448 2.0386
0.5299 -6.3065 1.4096
0.5823 -3.5165 0.7932
0.8729 -3.5010 0.8023
1.1728 -3.4850 0.8170
1.4863 -3.4682 0.8377
1.8189 -3.4505 0.8654
2.1771 -3.4314 0.9010
5.3796 -7.1412 1.9809
5.6545 -6.3712 1.8862
6.1504 -5.9007 1.8862
6.6069 -5.3914 1.8862
7.0209 -4.8467 1.8862
7.3885 -4.2693 1.8859
7.7332 -3.6759 1.8917
8.0264 -3.0531 1.8968
8.2652 -2.4058 1.9010
8.4473 -1.7389 1.9044
8.5711 -1.0577 1.9068
8.6351 -0.3676 1.9084
8.6389 0.3257 1.9090
8.5822 1.0168 1.9087
8.4656 1.6999 1.9074
8.2902 2.3695 1.9052
8.0578 3.0204 1.9022
7.7703 3.6474 1.8982
7.4307 4.2458 1.8934
7.0419 4.8110 1.8878
6.6240 5.3522 1.8862
4.9052 4.6608 1.4996
5.6761 6.3337 1.8862
5.1464 6.7635 1.8862
4.6466 7.2462 1.9119
4.3158 8.0926 2.0386
3.6501 8.4058 2.0386
2.9620 8.6643 2.0386
2.2559 8.8664 2.0386
1.5363 9.0112 2.0386
0.8081 9.0975 2.0386
0.0759 9.1252 2.0386
-0.6556 9.0942 2.0386
-1.3816 9.0049 2.0386
-2.0977 8.8579 2.0386
-2.7991 8.6542 2.0386
-3.4815 8.3954 2.0386
-4.1407 8.0832 2.0386
-4.7724 7.7197 2.0386
-5.3728 7.3072 2.0386
-5.9380 6.8486 2.0386
7.3202 1.8039 1.8897
7.1413 2.3812 1.8874
6.9206 2.9430 1.8862
6.6598 3.4868 1.8862
6.3560 4.0076 1.8862
6.0113 4.5019 1.8862
4.9298 4.3503 1.6522
5.2088 5.3985 1.8862
4.7563 5.7952 1.8862
4.6190 6.6509 2.0386
4.0681 6.9950 2.0386
3.4917 7.2935 2.0386
2.8936 7.5444 2.0386
2.2777 7.7464 2.0386
1.6480 7.8981 2.0386
1.0086 7.9987 2.0386
0.3637 8.0477 2.0386
-0.2826 8.0448 2.0386
-0.9262 7.9903 2.0386
-1.5629 7.8844 2.0386
-2.1886 7.7281 2.0386
-2.7995 7.5224 2.0386
-3.3916 7.2688 2.0386
-3.9612 6.9689 2.0386
-4.5047 6.6247 2.0386
-5.0188 6.2385 2.0386
-5.5003 5.8128 2.0386
-5.9461 5.3502 2.0386
-6.3534 4.8539 2.0386
-6.7199 4.3269 2.0386
-7.0432 3.7727 2.0386
-7.3212 3.1946 2.0386
-7.5524 2.5964 2.0386
-7.7353 1.9818 2.0386
-7.8687 1.3546 2.0386
-7.9519 0.7189 2.0386
-7.9842 0.0786 2.0386
-7.9656 -0.5624 2.0386
-7.8960 -1.1998 2.0386
-7.7760 -1.8299 2.0386
-7.6062 -2.4486 2.0386
-7.3877 -3.0519 2.0386
-7.1218 -3.6362 2.0386
-6.8101 -4.1977 2.0386
-6.4545 -4.7328 2.0386
-6.0573 -5.2381 2.0386
-5.6208 -5.7104 2.0386
-5.1478 -6.1466 2.0386
-4.6411 -6.5438 2.0386
-4.1041 -6.8998 2.0386
-3.5399 -7.2118 2.0386
-2.9523 -7.4779 2.0386
-2.3448 -7.6963 2.0386
-1.7213 -7.8654 2.0386
-1.0859 -7.9842 2.0386
-0.4425 -8.0517 2.0386
0.2048 -8.0674 2.0386
0.3884 -3.6626 0.9297
0.6606 -3.5126 0.9015
0.9534 -3.4970 0.9136
1.2565 -3.4808 0.9321
1.5747 -3.4638 0.9577
1.9135 -3.4458 0.9915
2.2801 -3.4263 1.0346
5.0222 -6.3727 2.0386
5.3100 -5.7267 1.9611
5.5349 -5.0833 1.8862
5.9271 -4.6254 1.8862
6.2811 -4.1370 1.8862
6.5947 -3.6215 1.8862
6.8655 -3.0821 1.8862
7.0920 -2.5225 1.8862
7.2716 -1.9461 1.8860
7.4154 -1.3591 1.8887
7.5084 -0.7612 1.8906
7.5495 -0.1571 1.8917
7.5383 0.4484 1.8920
7.4750 1.0507 1.8915
7.3601 1.6449 1.8902
7.1947 2.2264 1.8881
6.9801 2.7907 1.8853
6.7347 3.3416 1.8862
6.4424 3.8689 1.8862
6.1086 4.3708 1.8862
5.1371 4.3384 1.6894
5.3258 5.2849 1.8862
4.8820 5.6913 1.8862
4.6728 6.4257 1.9999
4.2200 6.9062 2.0386
3.6502 7.2172 2.0386
3.0576 7.4812 2.0386
2.4461 7.6966 2.0386
1.8198 7.8620 2.0386
1.1826 7.9765 2.0386
0.5388 8.0395 2.0386
-0.1076 8.0507 2.0386
-0.7523 8.0101 2.0386
-1.3913 7.9181 2.0386
-2.0204 7.7754 2.0386
-2.6357 7.5830 2.0386
-3.2332 7.3422 2.0386
-3.8093 7.0546 2.0386
-4.3602 6.7222 2.0386
-4.8826 6.3472 2.0386
-5.3732 5.9319 2.0386
-5.8290 5.4790 2.0386
-6.2470 4.9916 2.0386
-6.6248 4.4726 2.0386
-6.9600 3.9254 2.0386
-7.2505 3.3534 2.0386
-7.4945 2.7602 2.0386
-7.6906 2.1497 2.0386
-7.8375 1.5256 2.0386
-7.9343 0.8918 2.0386
-7.9805 0.2523 2.0386
-7.9757 -0.3889 2.0386
-7.9199 -1.0277 2.0386
-7.8135 -1.6601 2.0386
-7.6571 -2.2823 2.0386
-7.4517 -2.8902 2.0386
-7.1985 -3.4800 2.0386
-6.8990 -4.0480 2.0386
-6.5551 -4.5906 2.0386
-6.1689 -5.1043 2.0386
-5.7428 -5.5858 2.0386
-5.2794 -6.0321 2.0386
-4.7816 -6.4403 2.0386
-4.2524 -6.8076 2.0386
-3.6953 -7.1317 2.0386
-3.1136 -7.4104 2.0386
-2.5111 -7.6419 2.0386
-1.8916 -7.8245 2.0386
-1.2590 -7.9571 2.0386
-0.6173 -8.0385 2.0386
0.0293 -8.0683 2.0386
0.5292 -6.2932 1.5945
0.5826 -3.5168 0.8993
0.8732 -3.5012 0.9097
1.1731 -3.4852 0.9264
1.4867 -3.4685 0.9500
1.8193 -3.4508 0.9814
2.1776 -3.4317 1.0219
4.8817 -6.4796 2.0386
5.3143 -5.9873 2.0106
5.4224 -5.2018 1.8862
5.8245 -4.7526 1.8862
6.1891 -4.2722 1.8862
6.5138 -3.7637 1.8862
6.7965 -3.2304 1.8862
7.0351 -2.6760 1.8862
7.2240 -2.1026 1.8851
7.3815 -1.5194 1.8880
7.4883 -0.9241 1.8902
7.5435 -0.3212 1.8915
7.5465 0.2845 1.8920
7.4973 0.8881 1.8918
7.3963 1.4850 1.8907
7.2444 2.0704 1.8888
7.0430 2.6398 1.8861
6.8065 3.1948 1.8862
6.5258 3.7284 1.8862
6.2031 4.2375 1.8862
5.8404 4.7186 1.8862
4.8806 4.6369 1.6921
5.0055 5.5848 1.8862
4.6951 6.1697 1.9512
4.3700 6.8141 2.0386
3.8070 7.1375 2.0386
3.2202 7.4144 2.0386
2.6135 7.6431 2.0386
1.9907 7.8222 2.0386
1.3561 7.9506 2.0386
0.7136 8.0276 2.0386
0.0675 8.0528 2.0386
-0.5780 8.0262 2.0386
-1.2189 7.9481 2.0386
-1.8511 7.8190 2.0386
-2.4705 7.6400 2.0386
-3.0733 7.4121 2.0386
-3.6555 7.1370 2.0386
-4.2136 6.8166 2.0386
-4.7441 6.4529 2.0386
-5.2436 6.0482 2.0386
6.5223 1.6071 1.8862
6.3708 2.1241 1.8862
6.1782 2.6270 1.8862
5.9456 3.1126 1.8862
5.6747 3.5777 1.8862
5.3673 4.0192 1.8862
4.9274 4.3478 1.8494
4.7628 4.9357 1.9314
4.5908 5.5927 2.0386
4.1252 5.9392 2.0386
3.6336 6.2469 2.0386
3.1190 6.5139 2.0386
2.5851 6.7386 2.0386
2.0351 6.9195 2.0386
1.4727 7.0555 2.0386
0.9016 7.1459 2.0386
0.3254 7.1903 2.0386
-0.2520 7.1882 2.0386
-0.8272 7.1400 2.0386
-1.3962 7.0460 2.0386
-1.9555 6.9068 2.0386
-2.5017 6.7234 2.0386
-3.0311 6.4972 2.0386
-3.5404 6.2295 2.0386
-4.0266 5.9222 2.0386
-4.4864 5.5772 2.0386
-4.9171 5.1969 2.0386
-5.3159 4.7836 2.0386
-5.6803 4.3400 2.0386
-6.0082 3.8690 2.0386
-6.2975 3.3734 2.0386
-6.5463 2.8566 2.0386
-6.7532 2.3217 2.0386
-6.9168 1.7721 2.0386
-7.0362 1.2113 2.0386
-7.1105 0.6428 2.0386
-7.1394 0.0702 2.0386
-7.1227 -0.5029 2.0386
-7.0604 -1.0730 2.0386
-6.9529 -1.6364 2.0386
-6.8009 -2.1895 2.0386
-6.6053 -2.7290 2.0386
-6.3673 -3.2513 2.0386
-6.0883 -3.7531 2.0386
-5.7701 -4.2313 2.0386
-5.4147 -4.6829 2.0386
-5.0242 -5.1048 2.0386
-4.6010 -5.4944 2.0386
-4.1479 -5.8492 2.0386
-3.6676 -6.1669 2.0386
-3.1632 -6.4453 2.0386
-2.6378 -6.6826 2.0386
-2.0947 -6.8773 2.0386
-1.5375 -7.0279 2.0386
-0.9697 -7.1335 2.0386
-0.3948 -7.1933 2.0386
0.1834 -7.2067 2.0386
0.3881 -3.6581 1.0395
0.6609 -3.5129 1.0094
0.9537 -3.4972 1.0230
1.2568 -3.4811 1.0438
1.5750 -3.4641 1.0726
1.9140 -3.4461 1.1104
2.2806 -3.4266 1.1589
4.4844 -5.6899 2.0386
4.9284 -5.3146 2.0386
5.2550 -4.8259 2.0058
5.2915 -4.1287 1.8862
5.6073 -3.6930 1.8862
5.8870 -3.2327 1.8862
6.1286 -2.7511 1.8862
6.3306 -2.2516 1.8862
6.4916 -1.7373 1.8862
6.6105 -1.2116 1.8862
6.6865 -0.6779 1.8862
6.7191 -0.1399 1.8862
6.7082 0.3989 1.8862
6.6537 0.9351 1.8862
6.5561 1.4651 1.8862
6.4160 1.9853 1.8862
6.2344 2.4923 1.8862
6.0125 2.9830 1.8862
5.7518 3.4539 1.8862
5.4541 3.9020 1.8862
5.1069 4.3124 1.8809
4.7827 4.7454 1.8969
4.7120 5.4925 2.0386
4.2541 5.8491 2.0386
3.7692 6.1675 2.0386
3.2605 6.4457 2.0386
2.7315 6.6820 2.0386
2.1855 6.8748 2.0386
1.6261 7.0231 2.0386
1.0570 7.1260 2.0386
0.4818 7.1828 2.0386
-0.0957 7.1934 2.0386
-0.6718 7.1576 2.0386
-1.2428 7.0759 2.0386
-1.8051 6.9489 2.0386
-2.3552 6.7774 2.0386
-2.8895 6.5627 2.0386
-3.4046 6.3060 2.0386
-3.8973 6.0092 2.0386
-4.3646 5.6743 2.0386
-4.8034 5.3033 2.0386
-5.2111 4.8987 2.0386
-5.5851 4.4630 2.0386
-5.9231 3.9991 2.0386
-6.2230 3.5100 2.0386
-6.4830 2.9986 2.0386
-6.7013 2.4682 2.0386
-6.8768 1.9223 2.0386
-7.0082 1.3642 2.0386
-7.0949 0.7974 2.0386
-7.1361 0.2256 2.0386
-7.1317 -0.3478 2.0386
-7.0818 -0.9190 2.0386
-6.9865 -1.4846 2.0386
-6.8465 -2.0409 2.0386
-6.6626 -2.5843 2.0386
-6.4359 -3.1116 2.0386
-6.1679 -3.6193 2.0386
-5.8601 -4.1043 2.0386
-5.5146 -4.5633 2.0386
-5.1333 -4.9936 2.0386
-4.7188 -5.3922 2.0386
-4.2735 -5.7567 2.0386
-3.8003 -6.0846 2.0386
-3.3021 -6.3738 2.0386
-2.7820 -6.6225 2.0386
-2.2434 -6.8288 2.0386
-1.6897 -6.9915 2.0386
-1.1244 -7.1094 2.0386
-0.5510 -7.1816 2.0386
0.0266 -7.2077 2.0386
0.5285 -6.2798 1.7812
0.5828 -3.5171 1.0069
0.8735 -3.5015 1.0186
1.1734 -3.4855 1.0374
1.4870 -3.4688 1.0640
1.8197 -3.4511 1.0992
2.1780 -3.4320 1.1446
4.3591 -5.7852 2.0386
4.8111 -5.4199 2.0386
5.2324 -5.0191 2.0386
5.2458 -4.2800 1.9028
5.5252 -3.8136 1.8862
5.8149 -3.3596 1.8862
6.0670 -2.8835 1.8862
6.2799 -2.3885 1.8862
6.4521 -1.8779 1.8862
6.5825 -1.3549 1.8862
6.6702 -0.8231 1.8862
6.7146 -0.2859 1.8862
6.7154 0.2531 1.8862
6.6727 0.7903 1.8862
6.5867 1.3223 1.8862
6.4581 1.8455 1.8862
6.2876 2.3564 1.8862
6.0765 2.8518 1.8862
5.8262 3.3284 1.8862
5.5383 3.7830 1.8862
5.2148 4.2128 1.8862
4.8558 4.6129 1.8854
4.7327 5.2799 1.9971
4.3809 5.7562 2.0386
3.9030 6.0851 2.0386
3.4005 6.3744 2.0386
2.8766 6.6222 2.0386
2.3349 6.8269 2.0386
1.7788 6.9874 2.0386
1.2119 7.1026 2.0386
0.6381 7.1720 2.0386
0.0608 7.1951 2.0386
-0.5160 7.1719 2.0386
-1.0888 7.1026 2.0386
-1.6538 6.9878 2.0386
-2.2076 6.8282 2.0386
-2.7464 6.6250 2.0386
-3.2671 6.3796 2.0386
-3.7662 6.0935 2.0386
-4.2406 5.7687 2.0386
-4.6875 5.4072 2.0386
5.8810 1.4490 1.8862
5.7446 1.9151 1.8862
5.5710 2.3687 1.8862
5.3615 2.8066 1.8862
5.1174 3.2260 1.8862
4.8482 3.6301 1.8892
4.7882 4.2246 1.9927
4.5342 4.6983 2.0386
4.1408 5.0440 2.0386
3.7212 5.3568 2.0386
3.2779 5.6347 2.0386
2.8140 5.8758 2.0386
2.3324 6.0788 2.0386
1.8364 6.2424 2.0386
1.3291 6.3655 2.0386
0.8139 6.4475 2.0386
0.2941 6.4879 2.0386
-0.2270 6.4865 2.0386
-0.7460 6.4434 2.0386
-1.2596 6.3589 2.0386
-1.7645 6.2336 2.0386
-2.2575 6.0685 2.0386
-2.7355 5.8646 2.0386
-3.1955 5.6233 2.0386
-3.6345 5.3461 2.0386
-4.0497 5.0349 2.0386
-4.4387 4.6918 2.0386
-4.7990 4.3188 2.0386
-5.1282 3.9185 2.0386
-5.4244 3.4933 2.0386
-5.6857 3.0459 2.0386
-5.9105 2.5793 2.0386
-6.0974 2.0964 2.0386
-6.2452 1.6001 2.0386
-6.3531 1.0938 2.0386
-6.4202 0.5804 2.0386
-6.4463 0.0634 2.0386
-6.4312 -0.4542 2.0386
-6.3748 -0.9689 2.0386
-6.2777 -1.4776 2.0386
-6.1403 -1.9770 2.0386
-5.9635 -2.4640 2.0386
-5.7484 -2.9355 2.0386
-5.4963 -3.3885 2.0386
-5.2089 -3.8201 2.0386
-4.8877 -4.2276 2.0386
-4.5350 -4.6082 2.0386
-4.1528 -4.9597 2.0386
-3.7436 -5.2797 2.0386
-3.3099 -5.5661 2.0386
-2.8544 -5.8171 2.0386
-2.3801 -6.0309 2.0386
-1.8899 -6.2062 2.0386
-1.3870 -6.3418 2.0386
-0.8745 -6.4366 2.0386
-0.3557 -6.4901 2.0386
0.1659 -6.5019 2.0386
0.3879 -3.6535 1.1508
0.6612 -3.5132 1.1191
0.9540 -3.4975 1.1342
1.2572 -3.4814 1.1573
1.5754 -3.4644 1.1893
1.9144 -3.4464 1.2313
2.2810 -3.4269 1.2851
4.0444 -5.1311 2.0386
4.4446 -4.7925 2.0386
4.8164 -4.4227 2.0386
5.1572 -4.0239 2.0386
5.1947 -3.4210 1.9379
5.3083 -2.9147 1.8862
5.5260 -2.4805 1.8862
5.7081 -2.0300 1.8862
5.8531 -1.5663 1.8862
5.9603 -1.0923 1.8862
6.0288 -0.6112 1.8862
6.0582 -0.1262 1.8862
6.0484 0.3597 1.8862
5.9993 0.8431 1.8862
5.9114 1.3209 1.8862
5.7853 1.7900 1.8862
5.6217 2.2472 1.8862
5.4218 2.6896 1.8862
5.1869 3.1144 1.8862
4.9186 3.5186 1.8862
4.8028 4.0552 1.9614
4.6358 4.5993 2.0386
4.2501 4.9535 2.0386
3.8373 5.2754 2.0386
3.4002 5.5629 2.0386
2.9415 5.8142 2.0386
2.4645 6.0277 2.0386
1.9721 6.2020 2.0386
1.4675 6.3362 2.0386
0.9541 6.4294 2.0386
0.4352 6.4811 2.0386
-0.0859 6.4910 2.0386
-0.6058 6.4591 2.0386
-1.1212 6.3858 2.0386
-1.6288 6.2715 2.0386
-2.1253 6.1171 2.0386
-2.6077 5.9236 2.0386
-3.0728 5.6923 2.0386
-3.5177 5.4246 2.0386
-3.9397 5.1225 2.0386
-4.3361 4.7878 2.0386
-4.7043 4.4227 2.0386
-5.0422 4.0295 2.0386
-5.3475 3.6108 2.0386
-5.6185 3.1692 2.0386
-5.8533 2.7075 2.0386
-6.0506 2.2287 2.0386
-6.2091 1.7357 2.0386
-6.3279 1.2318 2.0386
-6.4061 0.7200 2.0386
-6.4433 0.2036 2.0386
-6.4393 -0.3141 2.0386
-6.3941 -0.8299 2.0386
-6.3080 -1.3405 2.0386
-6.1814 -1.8428 2.0386
-6.0152 -2.3335 2.0386
-5.8104 -2.8094 2.0386
-5.5682 -3.2677 2.0386
-5.2902 -3.7054 2.0386
-4.9780 -4.1197 2.0386
-4.6336 -4.5079 2.0386
-4.2591 -4.8675 2.0386
-3.8570 -5.1963 2.0386
-3.4296 -5.4920 2.0386
-2.9798 -5.7527 2.0386
-2.5103 -5.9767 2.0386
-2.0241 -6.1626 2.0386
-1.5243 -6.3090 2.0386
-1.0141 -6.4150 2.0386
-0.4967 -6.4798 2.0386
0.0245 -6.5029 2.0386
0.5461 -6.4840 2.0386
0.5831 -3.5173 1.1163
0.8739 -3.5018 1.1293
1.1738 -3.4858 1.1502
1.4874 -3.4691 1.1797
1.8201 -3.4514 1.2189
2.1785 -3.4324 1.2693
3.9315 -5.2172 2.0386
4.3389 -4.8875 2.0386
4.7186 -4.5259 2.0386
5.0680 -4.1347 2.0386
5.1978 -3.5874 1.9678
5.2433 -3.0281 1.8862
5.4705 -2.5999 1.8862
5.6623 -2.1535 1.8862
5.8175 -1.6931 1.8862
5.9350 -1.2216 1.8862
6.0141 -0.7421 1.8862
6.0541 -0.2578 1.8862
6.0549 0.2281 1.8862
6.0165 0.7125 1.8862
5.9391 1.1922 1.8862
5.8232 1.6639 1.8862
5.6696 2.1246 1.8862
5.4795 2.5714 1.8862
5.2539 3.0012 1.8862
4.9945 3.4113 1.8862
4.8168 3.8908 1.9318
4.7354 4.4980 2.0386
4.3574 4.8606 2.0386
3.9517 5.1915 2.0386
3.5209 5.4885 2.0386
3.0678 5.7498 2.0386
2.5954 5.9736 2.0386
2.1068 6.1587 2.0386
1.6052 6.3039 2.0386
1.0939 6.4082 2.0386
0.5762 6.4712 2.0386
0.0553 6.4924 2.0386
-0.4652 6.4719 2.0386
-0.9821 6.4098 2.0386
-1.4922 6.3065 2.0386
-1.9920 6.1629 2.0386
-2.4785 5.9798 2.0386
-2.9486 5.7586 2.0386
-3.3993 5.5006 2.0386
-3.8278 5.2077 2.0386
-4.2314 4.8816 2.0386
5.3461 1.3170 1.8862
5.2222 1.7408 1.8862
5.0646 2.1531 1.8862
4.8975 2.5635 1.8952
4.8533 3.0592 1.9676
4.7564 3.5610 2.0386
4.4538 3.9291 2.0386
4.1227 4.2715 2.0386
3.7653 4.5860 2.0386
3.3839 4.8706 2.0386
2.9810 5.1235 2.0386
2.5593 5.3431 2.0386
2.1215 5.5279 2.0386
1.6705 5.6770 2.0386
1.2092 5.7893 2.0386
0.7407 5.8641 2.0386
0.2679 5.9012 2.0386
-0.2061 5.9002 2.0386
-0.6782 5.8612 2.0386
-1.1455 5.7847 2.0386
-1.6049 5.6710 2.0386
-2.0535 5.5211 2.0386
-2.4885 5.3358 2.0386
-2.9071 5.1165 2.0386
-3.3067 4.8645 2.0386
-3.6847 4.5815 2.0386
-4.0388 4.2694 2.0386
-4.3667 3.9301 2.0386
-4.6665 3.5659 2.0386
-4.9362 3.1791 2.0386
-5.1741 2.7720 2.0386
-5.3788 2.3474 2.0386
-5.5489 1.9079 2.0386
-5.6835 1.4563 2.0386
-5.7817 0.9954 2.0386
-5.8428 0.5282 2.0386
-5.8666 0.0576 2.0386
-5.8527 -0.4134 2.0386
-5.8014 -0.8818 2.0386
-5.7129 -1.3448 2.0386
-5.5877 -1.7993 2.0386
-5.4267 -2.2424 2.0386
-5.2308 -2.6714 2.0386
-5.0013 -3.0836 2.0386
-4.7395 -3.4762 2.0386
-4.4472 -3.8469 2.0386
-4.1260 -4.1931 2.0386
-3.7781 -4.5128 2.0386
-3.4056 -4.8037 2.0386
-3.0109 -5.0640 2.0386
-2.5964 -5.2921 2.0386
-2.1647 -5.4864 2.0386
-1.7187 -5.6455 2.0386
-1.2612 -5.7685 2.0386
-0.7950 -5.8545 2.0386
-0.3231 -5.9029 2.0386
0.1513 -5.9133 2.0386
0.3877 -3.6488 1.2638
0.6615 -3.5134 1.2307
0.9544 -3.4978 1.2474
0.7288 -2.0177 0.7377
1.5758 -3.4647 1.3081
1.9148 -3.4467 1.3544
2.2815 -3.4272 1.4136
3.6773 -4.6649 2.0386
4.0410 -4.3569 2.0386
4.3788 -4.0206 2.0386
4.6885 -3.6579 2.0386
4.9680 -3.2714 2.0386
5.1500 -2.8276 2.0130
5.1385 -2.3061 1.9294
5.1888 -1.8453 1.8862
5.3206 -1.4237 1.8862
5.4179 -0.9929 1.8862
5.4802 -0.5556 1.8862
5.5070 -0.1147 1.8862
5.4980 0.3269 1.8862
5.4535 0.7663 1.8862
5.3737 1.2006 1.8862
5.2591 1.6270 1.8862
5.1105 2.0427 1.8862
4.9290 2.4447 1.8862
4.8645 2.9205 1.9458
4.8209 3.4484 2.0334
4.5387 3.8318 2.0386
4.2151 4.1814 2.0386
3.8646 4.5037 2.0386
3.4895 4.7966 2.0386
3.0921 5.0582 2.0386
2.6752 5.2870 2.0386
2.2415 5.4813 2.0386
1.7938 5.6401 2.0386
1.3351 5.7625 2.0386
0.8682 5.8476 2.0386
0.3963 5.8949 2.0386
-0.0777 5.9042 2.0386
-0.5506 5.8755 2.0386
-1.0195 5.8091 2.0386
-1.4813 5.7055 2.0386
-1.9332 5.5652 2.0386
-2.3721 5.3894 2.0386
-2.7954 5.1792 2.0386
-3.2004 4.9359 2.0386
-3.5845 4.6611 2.0386
-3.9453 4.3568 2.0386
-4.2806 4.0246 2.0386
-4.5882 3.6669 2.0386
-4.8662 3.2860 2.0386
-5.1128 2.8842 2.0386
-5.3267 2.4640 2.0386
-5.5063 2.0283 2.0386
-5.6506 1.5797 2.0386
-5.7587 1.1210 2.0386
-5.8299 0.6553 2.0386
-5.8638 0.1853 2.0386
-5.8602 -0.2859 2.0386
-5.8190 -0.7553 2.0386
-5.7405 -1.2201 2.0386
-5.6252 -1.6771 2.0386
-5.4738 -2.1236 2.0386
-5.2873 -2.5568 2.0386
-5.0667 -2.9737 2.0386
-4.8135 -3.3720 2.0386
-4.5293 -3.7488 2.0386
-4.2158 -4.1019 2.0386
-3.8749 -4.4289 2.0386
-3.5088 -4.7278 2.0386
-3.1199 -4.9966 2.0386
-2.7105 -5.2336 2.0386
-2.2832 -5.4371 2.0386
-1.8408 -5.6059 2.0386
-1.3861 -5.7388 2.0386
-0.9220 -5.8349 2.0386
-0.4514 -5.8935 2.0386
0.0227 -5.9142 2.0386
0.3619 -4.2929 1.4841
0.5834 -3.5176 1.2276
0.8742 -3.5021 1.2420
0.6847 -2.0329 0.7377
1.4878 -3.4694 1.2976
1.8206 -3.4517 1.3407
2.1790 -3.4327 1.3962
3.5746 -4.7431 2.0386
3.9449 -4.4433 2.0386
4.2899 -4.1144 2.0386
4.6075 -3.7587 2.0386
4.8953 -3.3783 2.0386
5.1517 -2.9760 2.0386
5.1418 -2.4435 1.9502
5.1472 -1.9575 1.8862
5.2882 -1.5390 1.8862
5.3950 -1.1104 1.8862
5.4668 -0.6746 1.8862
5.5032 -0.2344 1.8862
5.5040 0.2073 1.8862
5.4691 0.6476 1.8862
5.3988 1.0836 1.8862
5.2936 1.5124 1.8862
5.1541 1.9313 1.8862
4.9814 2.3374 1.8862
4.8754 2.7847 1.9253
4.8333 3.3009 2.0077
4.6215 3.7327 2.0386
4.3056 4.0893 2.0386
3.9621 4.4192 2.0386
3.5934 4.7202 2.0386
3.2018 4.9905 2.0386
2.7900 5.2283 2.0386
2.3605 5.4321 2.0386
1.9164 5.6007 2.0386
1.4603 5.7330 2.0386
0.9953 5.8282 2.0386
0.5245 5.8858 2.0386
0.0508 5.9054 2.0386
-0.4228 5.8871 2.0386
-0.8930 5.8308 2.0386
-1.3571 5.7372 2.0386
-1.8119 5.6068 2.0386
-2.2546 5.4405 2.0386
-2.6824 5.2395 2.0386
-3.0926 5.0050 2.0386
-3.4826 4.7386 2.0386
-3.8500 4.4420 2.0386
4.9589 1.2215 1.9118
4.9307 1.6435 1.9460
4.8991 2.0826 1.9937
4.8213 2.5233 2.0386
4.6021 2.9006 2.0386
4.3533 3.2589 2.0386
4.0766 3.5959 2.0386
3.7737 3.9094 2.0386
3.4467 4.1974 2.0386
3.0977 4.4581 2.0386
2.7290 4.6897 2.0386
2.3431 4.8909 2.0386
0.7105 1.8511 0.7457
0.5599 1.9022 0.7462
0.4056 1.9410 0.7466
0.2486 1.9673 0.7470
0.2457 5.4030 2.0386
-0.1883 5.4023 2.0386
-0.2277 1.9694 0.7481
-0.3849 1.9445 0.7484
-0.5396 1.9071 0.7486
-0.6907 1.8573 0.7489
-2.2786 4.8865 2.0386
-2.6621 4.6858 2.0386
-3.0281 4.4552 2.0386
-3.3744 4.1962 2.0386
-3.6989 3.9104 2.0386
-3.9994 3.5998 2.0386
-4.2740 3.2663 2.0386
-4.5211 2.9120 2.0386
-4.7392 2.5392 2.0386
-4.9267 2.1503 2.0386
-5.0827 1.7477 2.0386
-5.2060 1.3340 2.0386
-5.2960 0.9118 2.0386
-5.3520 0.4838 2.0386
-5.3737 0.0527 2.0386
-5.3610 -0.3787 2.0386
-5.3139 -0.8078 2.0386
-5.2328 -1.2319 2.0386
-5.1180 -1.6482 2.0386
-4.9705 -2.0541 2.0386
-4.7909 -2.4470 2.0386
-4.5806 -2.8245 2.0386
-4.3407 -3.1840 2.0386
-4.0728 -3.5234 2.0386
-3.7785 -3.8404 2.0386
-3.4597 -4.1330 2.0386
-3.1185 -4.3993 2.0386
-2.7569 -4.6375 2.0386
-2.3772 -4.8462 2.0386
-0.7207 -1.8269 0.7413
-0.5718 -1.8787 0.7409
-0.4193 -1.9184 0.7404
-0.2641 -1.9459 0.7400
-0.1072 -1.9608 0.7397
0.0504 -1.9632 0.7393
0.2076 -1.9531 0.7390
0.3636 -1.9304 0.7387
0.5173 -1.8953 0.7384
0.6676 -1.8481 0.7382
1.5762 -3.4650 1.4293
1.9153 -3.4470 1.4799
2.2820 -3.4276 1.5447
3.3659 -4.2693 2.0386
3.6986 -3.9874 2.0386
4.0076 -3.6794 2.0386
4.2909 -3.3475 2.0386
4.5466 -2.9937 2.0386
4.7730 -2.6204 2.0386
4.9686 -2.2300 2.0386
5.0954 -1.8120 2.0240
5.0822 -1.3599 1.9688
5.0674 -0.9286 1.9278
5.0520 -0.5126 1.9001
5.0434 -0.1051 1.8877
5.0314 0.2991 1.8862
4.9996 0.7024 1.8896
4.9660 1.1093 1.9047
4.9387 1.5278 1.9355
4.9080 1.9615 1.9794
4.8736 2.4172 2.0378
4.6645 2.8002 2.0386
4.4236 3.1639 2.0386
4.1542 3.5068 2.0386
3.8582 3.8269 2.0386
3.5375 4.1220 2.0386
3.1943 4.3903 2.0386
2.8307 4.6299 2.0386
2.4492 4.8395 2.0386
0.7506 1.8352 0.7456
0.6011 1.8895 0.7460
0.4477 1.9317 0.7465
0.2914 1.9614 0.7469
0.3632 5.3971 2.0386
-0.0707 5.4059 2.0386
-0.1848 1.9739 0.7480
-0.3425 1.9525 0.7483
-0.4980 1.9185 0.7486
-0.6501 1.8720 0.7488
-2.1720 4.9356 2.0386
-2.5598 4.7432 2.0386
-2.9308 4.5206 2.0386
-3.2827 4.2691 2.0386
-3.6132 3.9904 2.0386
-3.9204 3.6863 2.0386
-4.2023 3.3588 2.0386
-4.4570 3.0099 2.0386
-4.6830 2.6419 2.0386
-4.8790 2.2571 2.0386
-5.0436 1.8579 2.0386
-5.1759 1.4470 2.0386
-5.2749 1.0269 2.0386
-5.3402 0.6002 2.0386
-5.3712 0.1697 2.0386
-5.3678 -0.2619 2.0386
-5.3300 -0.6920 2.0386
-5.2581 -1.1177 2.0386
-5.1524 -1.5363 2.0386
-5.0136 -1.9453 2.0386
-4.8427 -2.3420 2.0386
-4.6405 -2.7238 2.0386
-4.4085 -3.0885 2.0386
-4.1480 -3.4336 2.0386
-3.8607 -3.7568 2.0386
-3.5484 -4.0562 2.0386
-3.2130 -4.3298 2.0386
-2.8567 -4.5758 2.0386
-2.4817 -4.7926 2.0386
-0.7603 -1.8108 0.7414
-0.6125 -1.8658 0.7410
-0.4609 -1.9088 0.7406
-0.3063 -1.9397 0.7401
-0.1498 -1.9580 0.7398
0.0077 -1.9638 0.7394
0.1651 -1.9571 0.7391
0.3215 -1.9378 0.7387
0.4759 -1.9060 0.7385
0.6273 -1.8621 0.7382
0.7747 -1.8061 0.7380
1.8210 -3.4520 1.4649
2.1794 -3.4330 1.5256
3.2719 -4.3410 2.0386
3.6107 -4.0664 2.0386
3.9263 -3.7653 2.0386
4.2168 -3.4397 2.0386
4.4801 -3.0916 2.0386
4.7146 -2.7234 2.0386
4.9187 -2.3373 2.0386
5.0910 -1.9360 2.0386
5.0859 -1.4800 1.9823
5.0716 -1.0438 1.9376
5.0556 -0.6242 1.9061
5.0466 -0.2149 1.8902
5.0368 0.1897 1.8862
5.0076 0.5929 1.8872
4.9746 0.9995 1.8992
4.9464 1.4130 1.9259
4.9167 1.8421 1.9661
4.8833 2.2912 2.0204
4.7247 2.6984 2.0386
4.4917 3.0672 2.0386
4.2299 3.4161 2.0386
3.9409 3.7426 2.0386
3.6267 4.0446 2.0386
3.2894 4.3203 2.0386
2.9311 4.5679 2.0386
2.5542 4.7858 2.0386
0.7903 1.8184 0.7455
0.6420 1.8760 0.7459
0.4896 1.9215 0.7464
0.3339 1.9546 0.7468
0.4806 5.3888 2.0386
0.0469 5.4070 2.0386
-0.3867 5.3904 2.0386
-0.3000 1.9596 0.7482
-0.4561 1.9289 0.7485
-0.6093 1.8858 0.7488
-0.7584 1.8305 0.7490
-2.4563 4.7984 2.0386
-2.8320 4.5838 2.0386
-3.1893 4.3400 2.0386
-3.5259 4.0685 2.0386
4.8660 1.1985 2.0386
4.7534 1.5842 2.0386
4.6101 1.9595 2.0386
4.4371 2.3220 2.0386
4.2355 2.6693 2.0386
4.0066 2.9991 2.0386
3.7520 3.3093 2.0386
3.4734 3.5979 2.0386
3.1725 3.8631 2.0386
2.8514 4.1031 2.0386
2.5122 4.3164 2.0386
0.7884 1.6454 0.7451
0.6540 1.7035 0.7455
0.5154 1.7505 0.7460
0.3734 1.7862 0.7463
0.2289 1.8103 0.7467
0.0830 1.8228 0.7471
-0.0634 1.8234 0.7474
-0.2094 1.8123 0.7477
-0.3541 1.7894 0.7480
-0.4964 1.7550 0.7482
-0.6355 1.7092 0.7484
-0.7704 1.6524 0.7486
-2.4510 4.3149 2.0386
-2.7881 4.1027 2.0386
-3.1071 3.8642 2.0386
-3.4060 3.6012 2.0386
-3.6828 3.3152 2.0386
-3.9359 3.0081 2.0386
-4.1635 2.6818 2.0386
-4.3644 2.3385 2.0386
-4.5372 1.9804 2.0386
-4.6809 1.6096 2.0386
-4.7945 1.2286 2.0386
-4.8774 0.8398 2.0386
-4.9289 0.4455 2.0386
-4.9489 0.0485 2.0386
-4.9372 -0.3488 2.0386
-4.8938 -0.7441 2.0386
-4.8190 -1.1346 2.0386
-4.7133 -1.5178 2.0386
-4.5773 -1.8918 2.0386
-4.4119 -2.2536 2.0386
-4.2180 -2.6012 2.0386
-3.9970 -2.9323 2.0386
-3.7502 -3.2447 2.0386
-3.4791 -3.5365 2.0386
-3.1855 -3.8058 2.0386
-2.8711 -4.0509 2.0386
-2.5381 -4.2702 2.0386
-2.1884 -4.4621 2.0386
-0.6636 -1.6824 0.7415
-0.5265 -1.7301 0.7411
-0.3860 -1.7668 0.7407
-0.2431 -1.7920 0.7403
-0.0986 -1.8058 0.7400
0.0465 -1.8081 0.7396
0.1914 -1.7987 0.7393
0.3350 -1.7778 0.7390
0.4765 -1.7455 0.7388
0.6150 -1.7020 0.7386
0.7496 -1.6475 0.7384
1.9157 -3.4473 1.6082
2.2825 -3.4279 1.6786
3.0979 -3.9290 2.0386
3.4040 -3.6695 2.0386
3.6883 -3.3860 2.0386
3.9489 -3.0805 2.0386
4.1841 -2.7549 2.0386
4.3924 -2.4113 2.0386
4.5723 -2.0520 2.0386
4.7227 -1.6792 2.0386
4.8425 -1.2957 2.0386
4.9311 -0.9036 2.0386
4.9877 -0.5057 2.0386
5.0047 -0.1043 2.0356
4.9848 0.2963 2.0308
4.9627 0.6971 2.0382
4.8911 1.0926 2.0386
4.7870 1.4806 2.0386
4.6519 1.8590 2.0386
4.4868 2.2251 2.0386
4.2928 2.5768 2.0386
4.0712 2.9115 2.0386
3.8234 3.2273 2.0386
3.5511 3.5219 2.0386
3.2561 3.7936 2.0386
2.9403 4.0406 2.0386
2.6058 4.2613 2.0386
2.2547 4.4544 2.0386
0.6909 1.6888 0.7454
0.5533 1.7388 0.7458
0.4121 1.7776 0.7462
0.2683 1.8049 0.7466
0.1226 1.8206 0.7470
-0.0237 1.8244 0.7473
-0.1700 1.8165 0.7476
-0.3151 1.7968 0.7479
-0.4581 1.7654 0.7482
-0.5982 1.7227 0.7484
-0.7343 1.6688 0.7486
-2.3568 4.3677 2.0386
-2.6985 4.1628 2.0386
-3.0226 3.9313 2.0386
-3.3271 3.6748 2.0386
-3.6101 3.3948 2.0386
-3.8697 3.0933 2.0386
-4.1044 2.7720 2.0386
-4.3127 2.4331 2.0386
-4.4932 2.0788 2.0386
-4.6449 1.7112 2.0386
-4.7667 1.3327 2.0386
-4.8580 0.9458 2.0386
-4.9181 0.5528 2.0386
-4.9467 0.1563 2.0386
-4.9435 -0.2413 2.0386
-4.9087 -0.6374 2.0386
-4.8424 -1.0294 2.0386
-4.7450 -1.4150 2.0386
-4.6171 -1.7916 2.0386
-4.4596 -2.1569 2.0386
-4.2733 -2.5086 2.0386
-4.0595 -2.8443 2.0386
-3.8196 -3.1620 2.0386
-3.5549 -3.4596 2.0386
-3.2672 -3.7352 2.0386
-2.9583 -3.9870 2.0386
-2.6301 -4.2134 2.0386
-2.2847 -4.4129 2.0386
-0.7000 -1.6676 0.7416
-0.5640 -1.7183 0.7412
-0.4243 -1.7579 0.7408
-0.2820 -1.7863 0.7404
-0.1378 -1.8032 0.7401
0.0072 -1.8086 0.7397
0.1522 -1.8024 0.7394
0.2962 -1.7846 0.7391
0.4384 -1.7553 0.7389
0.5778 -1.7148 0.7386
0.7135 -1.6633 0.7384
1.8214 -3.4523 1.5918
2.1799 -3.4333 1.6578
3.0115 -3.9950 2.0386
3.3232 -3.7422 2.0386
3.6136 -3.4651 2.0386
3.8808 -3.1653 2.0386
4.1230 -2.8450 2.0386
4.3387 -2.5060 2.0386
4.5264 -2.1508 2.0386
4.6849 -1.7815 2.0386
4.8131 -1.4006 2.0386
4.9102 -1.0106 2.0386
4.9756 -0.6140 2.0386
5.0087 -0.2134 2.0386
4.9904 0.1879 2.0309
4.9689 0.5882 2.0350
4.9139 0.9861 2.0386
4.8183 1.3763 2.0386
4.6915 1.7576 2.0386
4.5345 2.1273 2.0386
4.3482 2.4831 2.0386
4.1339 2.8226 2.0386
3.8931 3.1437 2.0386
3.6272 3.4443 2.0386
3.3382 3.7224 2.0386
3.0278 3.9762 2.0386
2.6981 4.2042 2.0386
2.3513 4.4049 2.0386
0.7274 1.6733 0.7453
0.5910 1.7264 0.7457
0.4507 1.7683 0.7461
0.3074 1.7987 0.7465
0.1622 1.8175 0.7469
0.0159 1.8246 0.7472
-0.1304 1.8198 0.7475
-0.2759 1.8033 0.7478
-0.4196 1.7751 0.7481
-0.5606 1.7354 0.7483
-0.6978 1.6845 0.7485
-2.2614 4.4185 2.0386
-2.6075 4.2210 2.0386
-2.9366 3.9966 2.0386
-3.2467 3.7467 2.0386
4.4989 1.1080 2.0386
4.3948 1.4646 2.0386
4.2624 1.8116 2.0386
4.1025 2.1467 2.0386
3.9162 2.4678 2.0386
3.7047 2.7728 2.0386
3.4694 3.0597 2.0386
3.2118 3.3266 2.0386
2.9337 3.5719 2.0386
2.6369 3.7939 2.0386
2.3233 3.9913 2.0386
0.7291 1.5213 0.7450
0.6048 1.5749 0.7454
0.4766 1.6184 0.7458
0.3453 1.6514 0.7461
0.2118 1.6737 0.7465
0.0769 1.6852 0.7468
-0.0585 1.6858 0.7471
-0.1935 1.6755 0.7474
-0.3272 1.6544 0.7476
-0.4588 1.6225 0.7479
-0.5874 1.5802 0.7481
-0.7121 1.5277 0.7482
-2.2670 3.9915 2.0386
-2.5789 3.7953 2.0386
-2.8741 3.5748 2.0386
-3.1507 3.3316 2.0386
-3.4068 3.0670 2.0386
-3.6410 2.7830 2.0386
-3.8517 2.4812 2.0386
-4.0376 2.1636 2.0386
-4.1975 1.8322 2.0386
-4.3305 1.4892 2.0386
-4.4356 1.1367 2.0386
-4.5123 0.7769 2.0386
-4.5601 0.4122 2.0386
-4.5786 0.0449 2.0386
-4.5677 -0.3228 2.0386
-4.5275 -0.6885 2.0386
-4.4583 -1.0498 2.0386
-4.3604 -1.4045 2.0386
-4.2345 -1.7503 2.0386
-4.0814 -2.0850 2.0386
-3.9020 -2.4065 2.0386
-3.6974 -2.7128 2.0386
-3.4690 -3.0017 2.0386
-3.2181 -3.2716 2.0386
-2.9464 -3.5207 2.0386
-2.6556 -3.7473 2.0386
-2.3474 -3.9500 2.0386
-0.7367 -1.5023 0.7420
-0.6138 -1.5565 0.7416
-0.4869 -1.6006 0.7413
-0.3570 -1.6345 0.7409
-0.2248 -1.6579 0.7405
-0.0911 -1.6707 0.7402
0.0432 -1.6728 0.7399
0.1772 -1.6641 0.7396
0.3100 -1.6447 0.7394
0.4410 -1.6148 0.7391
0.5691 -1.5746 0.7389
0.6936 -1.5242 0.7388
1.9162 -3.4477 1.7394
2.2830 -3.4282 1.8157
2.8646 -3.6327 2.0386
3.1476 -3.3926 2.0386
3.4103 -3.1305 2.0386
3.6512 -2.8480 2.0386
3.8686 -2.5469 2.0386
4.0611 -2.2293 2.0386
4.2273 -1.8971 2.0386
4.3663 -1.5525 2.0386
4.4771 -1.1979 2.0386
4.5589 -0.8354 2.0386
4.6113 -0.4675 2.0386
4.6338 -0.0965 2.0386
4.6264 0.2750 2.0386
4.5891 0.6447 2.0386
4.5221 1.0101 2.0386
4.4258 1.3688 2.0386
4.3011 1.7186 2.0386
4.1485 2.0572 2.0386
3.9692 2.3823 2.0386
3.7644 2.6918 2.0386
3.5354 2.9838 2.0386
3.2837 3.2563 2.0386
3.0110 3.5077 2.0386
2.7191 3.7361 2.0386
2.4098 3.9404 2.0386
0.7620 1.5050 0.7449
0.6389 1.5614 0.7453
0.5117 1.6076 0.7457
0.3811 1.6435 0.7460
0.2481 1.6687 0.7464
0.1135 1.6832 0.7467
-0.0218 1.6867 0.7470
-0.1570 1.6794 0.7473
-0.2912 1.6612 0.7476
-0.4234 1.6322 0.7478
-0.5529 1.5927 0.7480
-0.6788 1.5429 0.7482
-2.1798 4.0404 2.0386
-2.4960 3.8509 2.0386
-2.7959 3.6369 2.0386
-3.0777 3.3996 2.0386
-3.3395 3.1407 2.0386
-3.5798 2.8618 2.0386
-3.7970 2.5646 2.0386
-3.9897 2.2511 2.0386
-4.1568 1.9232 2.0386
-4.2972 1.5832 2.0386
-4.4099 1.2330 2.0386
-4.4944 0.8750 2.0386
-4.5500 0.5114 2.0386
-4.5764 0.1445 2.0386
-4.5735 -0.2233 2.0386
-4.5413 -0.5897 2.0386
-4.4799 -0.9524 2.0386
-4.3897 -1.3092 2.0386
-4.2713 -1.6576 2.0386
-4.1255 -1.9956 2.0386
-3.9531 -2.3208 2.0386
-3.7553 -2.6314 2.0386
-3.5332 -2.9252 2.0386
-3.2882 -3.2005 2.0386
-3.0220 -3.4553 2.0386
-2.7362 -3.6882 2.0386
-2.4325 -3.8975 2.0386
-0.7692 -1.4860 0.7421
-0.6475 -1.5428 0.7417
-0.5216 -1.5897 0.7414
-0.3924 -1.6264 0.7410
-0.2608 -1.6526 0.7406
-0.1274 -1.6683 0.7403
0.0068 -1.6733 0.7400
0.1409 -1.6675 0.7397
0.2742 -1.6510 0.7394
0.4057 -1.6240 0.7392
0.5347 -1.5865 0.7390
0.6602 -1.5388 0.7388
0.7816 -1.4813 0.7387
2.1804 -3.4337 1.7932
2.7847 -3.6938 2.0386
3.0728 -3.4599 2.0386
3.3412 -3.2036 2.0386
3.5882 -2.9265 2.0386
3.8121 -2.6302 2.0386
4.0115 -2.3168 2.0386
4.1849 -1.9884 2.0386
4.3314 -1.6470 2.0386
4.4499 -1.2949 2.0386
4.5397 -0.9343 2.0386
4.6001 -0.5676 2.0386
4.6307 -0.1975 2.0386
4.6314 0.1745 2.0386
4.6021 0.5448 2.0386
4.5431 0.9117 2.0386
4.4548 1.2724 2.0386
4.3376 1.6249 2.0386
4.1925 1.9667 2.0386
4.0204 2.2957 2.0386
3.8224 2.6096 2.0386
3.5998 2.9066 2.0386
3.3541 3.1845 2.0386
3.0869 3.4418 2.0386
2.8000 3.6766 2.0386
2.4952 3.8875 2.0386
0.7945 1.4881 0.7448
0.6727 1.5471 0.7452
0.5465 1.5961 0.7456
0.4168 1.6348 0.7459
0.2844 1.6630 0.7463
0.1501 1.6803 0.7466
0.0149 1.6868 0.7469
-0.1205 1.6825 0.7472
-0.2550 1.6672 0.7475
-0.3878 1.6411 0.7477
-0.5181 1.6044 0.7480
-0.6451 1.5574 0.7482
-0.7678 1.5003 0.7483
-2.4118 3.9047 2.0386
-2.7164 3.6972 2.0386
-3.0032 3.4661 2.0386
4.1759 1.0283 2.0386
4.0794 1.3594 2.0386
3.9566 1.6814 2.0386
3.8082 1.9925 2.0386
3.6353 2.2906 2.0386
3.4391 2.5737 2.0386
3.2207 2.8400 2.0386
2.9817 3.0879 2.0386
2.7236 3.3157 2.0386
2.4482 3.5219 2.0386
0.7878 1.3532 0.7445
0.6768 1.4121 0.7449
0.5615 1.4618 0.7453
0.4425 1.5022 0.7456
0.3206 1.5328 0.7459
0.1967 1.5535 0.7463
0.0715 1.5642 0.7466
-0.0542 1.5647 0.7468
-0.1795 1.5552 0.7471
-0.3036 1.5356 0.7473
-0.4257 1.5060 0.7476
-0.5451 1.4668 0.7477
-0.6609 1.4180 0.7479
-0.7724 1.3601 0.7480
-2.3947 3.5246 2.0386
-2.6689 3.3199 2.0386
-2.9258 3.0940 2.0386
-3.1637 2.8484 2.0386
-3.3813 2.5846 2.0386
-3.5770 2.3044 2.0386
-3.7497 2.0095 2.0386
-3.8983 1.7017 2.0386
-4.0218 1.3831 2.0386
-4.1195 1.0557 2.0386
-4.1907 0.7216 2.0386
-4.2351 0.3828 2.0386
-4.2522 0.0417 2.0386
-4.2421 -0.2998 2.0386
-4.2048 -0.6395 2.0386
-4.1404 -0.9751 2.0386
-4.0495 -1.3045 2.0386
-3.9325 -1.6256 2.0386
-3.7902 -1.9365 2.0386
-3.6236 -2.2351 2.0386
-3.4335 -2.5194 2.0386
-3.2213 -2.7877 2.0386
-2.9883 -3.0383 2.0386
-2.7359 -3.2695 2.0386
-2.4657 -3.4799 2.0386
-2.1795 -3.6680 2.0386
-0.6840 -1.3952 0.7421
-0.5699 -1.4455 0.7418
-0.4521 -1.4866 0.7414
-0.3314 -1.5181 0.7411
-0.2086 -1.5398 0.7408
-0.0845 -1.5517 0.7405
0.0402 -1.5536 0.7402
0.1647 -1.5455 0.7399
0.2881 -1.5275 0.7397
0.4096 -1.4997 0.7395
0.5286 -1.4623 0.7393
0.6443 -1.4155 0.7391
0.7558 -1.3596 0.7390
2.3798 -3.5730 2.0386
2.6593 -3.3720 2.0386
2.9219 -3.1491 2.0386
3.1658 -2.9057 2.0386
3.3893 -2.6435 2.0386
3.5910 -2.3640 2.0386
3.7696 -2.0691 2.0386
3.9239 -1.7608 2.0386
4.0529 -1.4410 2.0386
4.1556 -1.1118 2.0386
4.2316 -0.7754 2.0386
4.2802 -0.4339 2.0386
4.3011 -0.0897 2.0386
4.2942 0.2551 2.0386
4.2596 0.5982 2.0386
4.1974 0.9374 2.0386
4.1082 1.2704 2.0386
3.9924 1.5951 2.0386
3.8509 1.9094 2.0386
3.6845 2.2112 2.0386
3.4945 2.4986 2.0386
3.2820 2.7696 2.0386
3.0484 3.0227 2.0386
2.7954 3.2560 2.0386
2.5244 3.4682 2.0386
2.2374 3.6579 2.0386
0.7074 1.3970 0.7448
0.5931 1.4493 0.7452
0.4751 1.4922 0.7455
0.3539 1.5255 0.7458
0.2304 1.5489 0.7462
0.1055 1.5623 0.7465
-0.0201 1.5656 0.7468
-0.1456 1.5588 0.7470
-0.2701 1.5419 0.7473
-0.3929 1.5150 0.7475
-0.5131 1.4783 0.7477
-0.6299 1.4321 0.7479
-0.7426 1.3767 0.7480
-2.3176 3.5762 2.0386
-2.5962 3.3775 2.0386
-2.8580 3.1573 2.0386
-3.1012 2.9168 2.0386
-3.3244 2.6578 2.0386
-3.5262 2.3819 2.0386
-3.7052 2.0907 2.0386
-3.8604 1.7862 2.0386
-3.9908 1.4704 2.0386
-4.0956 1.1452 2.0386
-4.1741 0.8127 2.0386
-4.2257 0.4750 2.0386
-4.2503 0.1342 2.0386
-4.2475 -0.2074 2.0386
-4.2176 -0.5478 2.0386
-4.1605 -0.8847 2.0386
-4.0767 -1.2160 2.0386
-3.9667 -1.5396 2.0386
-3.8312 -1.8534 2.0386
-3.6711 -2.1555 2.0386
-3.4873 -2.4439 2.0386
-3.2809 -2.7167 2.0386
-3.0534 -2.9723 2.0386
-2.8061 -3.2089 2.0386
-2.5406 -3.4250 2.0386
-2.2585 -3.6193 2.0386
-0.7142 -1.3800 0.7422
-0.6012 -1.4328 0.7419
-0.4843 -1.4764 0.7415
-0.3644 -1.5105 0.7412
-0.2421 -1.5349 0.7408
-0.1182 -1.5494 0.7405
0.0064 -1.5540 0.7402
0.1310 -1.5487 0.7400
0.2548 -1.5334 0.7397
0.3769 -1.5082 0.7395
0.4967 -1.4734 0.7393
0.6133 -1.4291 0.7391
0.7260 -1.3757 0.7390
2.3013 -3.6235 2.0386
2.5852 -3.4287 2.0386
2.8526 -3.2116 2.0386
3.1016 -2.9736 2.0386
3.3308 -2.7163 2.0386
3.5386 -2.4413 2.0386
3.7236 -2.1504 2.0386
3.8846 -1.8456 2.0386
4.0205 -1.5286 2.0386
4.1304 -1.2018 2.0386
4.2137 -0.8671 2.0386
4.2697 -0.5268 2.0386
4.2982 -0.1831 2.0386
4.2988 0.1617 2.0386
4.2717 0.5055 2.0386
4.2170 0.8460 2.0386
4.1350 1.1809 2.0386
4.0263 1.5081 2.0386
3.8917 1.8254 2.0386
3.7320 2.1308 2.0386
3.5483 2.4222 2.0386
3.3417 2.6979 2.0386
3.1137 2.9560 2.0386
2.8658 3.1948 2.0386
2.5995 3.4129 2.0386
2.3167 3.6088 2.0386
0.7376 1.3813 0.7447
0.6245 1.4360 0.7451
0.5074 1.4815 0.7454
0.3870 1.5174 0.7458
0.2641 1.5435 0.7461
0.1394 1.5596 0.7464
0.0139 1.5657 0.7467
-0.1117 1.5616 0.7470
-0.2365 1.5474 0.7472
-0.3599 1.5233 0.7474
-0.4808 1.4892 0.7476
-0.5986 1.4456 0.7478
-0.7125 1.3926 0.7480
-2.2395 3.6262 2.0386
-2.5223 3.4336 2.0386
-2.7888 3.2190 2.0386
3.8892 0.9576 2.0386
3.7993 1.2659 2.0386
3.6850 1.5658 2.0386
3.5469 1.8556 2.0386
3.3859 2.1332 2.0386
3.2032 2.3969 2.0386
2.9999 2.6450 2.0386
2.7774 2.8759 2.0386
2.5371 3.0881 2.0386
2.2805 3.2802 2.0386
0.7338 1.2602 0.7444
0.6305 1.3151 0.7448
0.5230 1.3614 0.7451
0.4122 1.3990 0.7455
0.2987 1.4275 0.7458
0.1833 1.4468 0.7461
0.0667 1.4567 0.7463
-0.0503 1.4572 0.7466
-0.1670 1.4483 0.7469
-0.2826 1.4301 0.7471
-0.3964 1.4026 0.7473
-0.5075 1.3660 0.7474
-0.6154 1.3206 0.7476
-0.7192 1.2667 0.7477
-2.2309 3.2840 2.0386
-2.4864 3.0933 2.0386
-2.7258 2.8829 2.0386
-2.9476 2.6541 2.0386
-3.1504 2.4084 2.0386
-3.3328 2.1472 2.0386
-3.4937 1.8724 2.0386
-3.6322 1.5857 2.0386
-3.7473 1.2888 2.0386
-3.8384 0.9837 2.0386
-3.9048 0.6724 2.0386
-3.9461 0.3567 2.0386
-3.9621 0.0388 2.0386
-3.9527 -0.2794 2.0386
-3.9178 -0.5959 2.0386
-3.8579 -0.9086 2.0386
-3.7731 -1.2156 2.0386
-3.6640 -1.5148 2.0386
-3.5314 -1.8045 2.0386
-3.3761 -2.0826 2.0386
-3.1989 -2.3475 2.0386
-3.0012 -2.5975 2.0386
-2.7840 -2.8309 2.0386
-2.5487 -3.0463 2.0386
-2.2970 -3.2422 2.0386
-0.7395 -1.2448 0.7426
-0.6372 -1.3000 0.7422
-0.5309 -1.3469 0.7419
-0.4211 -1.3852 0.7416
-0.3087 -1.4145 0.7412
-0.1943 -1.4348 0.7409
-0.0786 -1.4458 0.7407
0.0376 -1.4476 0.7404
0.1535 -1.4401 0.7402
0.2685 -1.4233 0.7399
0.3818 -1.3974 0.7397
0.4927 -1.3626 0.7396
0.6004 -1.3190 0.7394
0.7043 -1.2669 0.7393
2.2167 -3.3278 2.0386
2.4770 -3.1405 2.0386
2.7216 -2.9329 2.0386
2.9486 -2.7061 2.0386
3.1567 -2.4619 2.0386
3.3445 -2.2016 2.0386
3.5108 -1.9269 2.0386
3.6545 -1.6398 2.0386
3.7745 -1.3420 2.0386
3.8702 -1.0354 2.0386
3.9410 -0.7221 2.0386
3.9862 -0.4042 2.0386
4.0057 -0.0836 2.0386
3.9993 0.2375 2.0386
3.9671 0.5571 2.0386
3.9092 0.8729 2.0386
3.8261 1.1831 2.0386
3.7183 1.4855 2.0386
3.5866 1.7782 2.0386
3.4317 2.0593 2.0386
3.2548 2.3269 2.0386
3.0570 2.5794 2.0386
2.8395 2.8151 2.0386
2.6038 3.0325 2.0386
2.3516 3.2302 2.0386
0.7610 1.2440 0.7444
0.6589 1.3010 0.7447
0.5525 1.3497 0.7450
0.4425 1.3897 0.7454
0.3297 1.4207 0.7457
0.2147 1.4425 0.7460
0.0984 1.4549 0.7463
-0.0186 1.4580 0.7465
-0.1355 1.4517 0.7468
-0.2515 1.4359 0.7470
-0.3658 1.4109 0.7472
-0.4777 1.3768 0.7474
-0.5865 1.3338 0.7476
-0.6915 1.2821 0.7477
-2.1591 3.3321 2.0386
-2.4187 3.1470 2.0386
-2.6627 2.9418 2.0386
-2.8893 2.7178 2.0386
-3.0974 2.4765 2.0386
-3.2854 2.2194 2.0386
-3.4523 1.9481 2.0386
-3.5970 1.6645 2.0386
-3.7185 1.3701 2.0386
-3.8161 1.0671 2.0386
-3.8893 0.7573 2.0386
-3.9374 0.4426 2.0386
-3.9603 0.1250 2.0386
-3.9577 -0.1933 2.0386
-3.9298 -0.5105 2.0386
-3.8766 -0.8244 2.0386
-3.7985 -1.1331 2.0386
-3.6959 -1.4346 2.0386
-3.5696 -1.7270 2.0386
-3.4204 -2.0085 2.0386
-3.2490 -2.2772 2.0386
-3.0567 -2.5313 2.0386
-2.8447 -2.7694 2.0386
-2.6142 -2.9898 2.0386
-2.3667 -3.1911 2.0386
-0.7664 -1.2284 0.7427
-0.6654 -1.2859 0.7423
-0.5601 -1.3351 0.7420
-0.4512 -1.3757 0.7416
-0.3394 -1.4075 0.7413
-0.2254 -1.4302 0.7410
-0.1100 -1.4437 0.7407
0.0061 -1.4480 0.7405
0.1222 -1.4430 0.7402
0.2375 -1.4288 0.7400
0.3513 -1.4054 0.7398
0.4629 -1.3729 0.7396
0.5716 -1.3316 0.7394
0.6766 -1.2818 0.7393
0.7773 -1.2237 0.7392
2.4080 -3.1933 2.0386
2.6570 -2.9911 2.0386
2.8889 -2.7694 2.0386
3.1023 -2.5297 2.0386
3.2957 -2.2736 2.0386
3.4680 -2.0027 2.0386
3.6178 -1.7187 2.0386
3.7444 -1.4236 2.0386
3.8468 -1.1192 2.0386
3.9243 -0.8076 2.0386
3.9765 -0.4906 2.0386
4.0030 -0.1706 2.0386
4.0036 0.1506 2.0386
3.9783 0.4708 2.0386
3.9274 0.7878 2.0386
3.8511 1.0997 2.0386
3.7499 1.4044 2.0386
3.6246 1.6999 2.0386
3.4759 1.9844 2.0386
3.3049 2.2558 2.0386
3.1126 2.5126 2.0386
2.9003 2.7530 2.0386
2.6694 2.9755 2.0386
2.4215 3.1787 2.0386
0.7879 1.2271 0.7443
0.6870 1.2864 0.7446
0.5817 1.3374 0.7449
0.4727 1.3797 0.7453
0.3605 1.4132 0.7456
0.2460 1.4375 0.7459
0.1300 1.4525 0.7462
0.0131 1.4581 0.7465
-0.1039 1.4543 0.7467
-0.2202 1.4411 0.7470
-0.3350 1.4186 0.7472
-0.4477 1.3869 0.7474
-0.5574 1.3463 0.7475
-0.6635 1.2970 0.7477
-0.7653 1.2393 0.7478
-2.3499 3.1992 2.0386
-2.5982 2.9993 2.0386
3.6325 0.8943 2.0386
3.5486 1.1822 2.0386
3.4419 1.4624 2.0386
3.3129 1.7330 2.0386
3.1627 1.9923 2.0386
2.9920 2.2386 2.0386
2.8022 2.4704 2.0386
2.5944 2.6861 2.0386
2.3700 2.8844 2.0386
0.7776 1.1183 0.7441
0.6855 1.1770 0.7444
0.5890 1.2282 0.7447
0.4886 1.2715 0.7450
0.3851 1.3066 0.7453
0.2791 1.3332 0.7456
0.1713 1.3512 0.7459
0.0624 1.3605 0.7462
-0.0469 1.3610 0.7464
-0.1559 1.3527 0.7466
-0.2639 1.3356 0.7468
-0.3701 1.3099 0.7470
-0.4739 1.2758 0.7472
-0.5746 1.2334 0.7473
-0.6716 1.1831 0.7474
-0.7642 1.1251 0.7475
-2.3230 2.8903 2.0386
-2.5467 2.6937 2.0386
-2.7540 2.4800 2.0386
