ply
format ascii 1.0
element vertex 2173
property float32 x
property float32 y
property float32 z
end_header
9.2856 -1.0396 2.0852
9.3425 -0.2905 2.0860
9.3345 0.4607 2.0857
9.2618 1.2082 2.0845
9.1250 1.9461 2.0822
8.9255 2.6685 2.0790
8.6650 3.3700 2.0749
8.3459 4.0451 2.0698
7.9719 4.6894 2.0641
7.5314 5.2877 2.0537
7.0607 5.8575 2.0474
6.5454 6.3842 2.0405
5.9897 6.8642 2.0331
5.4241 7.3300 2.0350
4.8179 7.7420 2.0350
4.1805 8.1039 2.0350
3.7795 9.0436 2.1874
3.0409 9.3179 2.1874
2.2827 9.5320 2.1874
1.5098 9.6846 2.1874
0.7271 9.7746 2.1874
-0.0603 9.8014 2.1874
-0.8473 9.7649 2.1874
-1.6289 9.6653 2.1874
-2.3999 9.5032 2.1874
-3.1554 9.2798 2.1874
-3.8905 8.9964 2.1874
-4.6005 8.6549 2.1874
-5.2807 8.2574 2.1874
-5.9269 7.8066 2.1874
-6.5347 7.3054 2.1874
-7.1003 6.7569 2.1874
-7.6201 6.1648 2.1874
-8.0906 5.5329 2.1874
-8.5088 4.8652 2.1874
-8.8721 4.1661 2.1874
-9.1780 3.4401 2.1874
-9.4247 2.6919 2.1874
-9.6104 1.9264 2.1874
-9.7341 1.1481 2.1874
-9.7948 0.3626 2.1874
-9.7923 -0.4252 2.1874
-9.7265 -1.2103 2.1874
-9.5979 -1.9875 2.1874
-9.4073 -2.7521 2.1874
-9.1558 -3.4987 2.1874
-8.8453 -4.2228 2.1874
-8.4775 -4.9195 2.1874
-8.0550 -5.5845 2.1874
-7.5805 -6.2134 2.1874
-7.0570 -6.8022 2.1874
-6.4879 -7.3470 2.1874
-5.8768 -7.8443 2.1874
-5.2278 -8.2910 2.1874
-3.8045 7.7670 2.1874
-4.4160 7.4364 2.1874
-4.9990 7.0577 2.1874
-5.5497 6.6334 2.1874
-6.0645 6.1662 2.1874
-6.5402 5.6592 2.1874
-6.9736 5.1156 2.1874
-7.3619 4.5390 2.1874
-7.7027 3.9331 2.1874
-7.9937 3.3017 2.1874
-8.2331 2.6491 2.1874
-8.4192 1.9793 2.1874
-8.5510 1.2967 2.1874
-8.6275 0.6057 2.1874
-8.6483 -0.0892 2.1874
-8.6132 -0.7835 2.1874
-8.5224 -1.4727 2.1874
-8.3766 -2.1524 2.1874
-8.1767 -2.8183 2.1874
-7.9239 -3.4658 2.1874
-7.6200 -4.0911 2.1874
-7.2668 -4.6899 2.1874
-6.8666 -5.2583 2.1874
-6.4221 -5.7929 2.1874
-5.9361 -6.2899 2.1874
-5.4118 -6.7464 2.1874
-4.8524 -7.1592 2.1874
-4.2618 -7.5258 2.1874
-3.6436 -7.8438 2.1874
-3.0018 -8.1111 2.1874
-2.3407 -8.3260 2.1874
-1.6644 -8.4871 2.1874
-0.9774 -8.5933 2.1874
-0.2840 -8.6441 2.1874
0.4111 -8.6390 2.1874
1.1036 -8.5780 2.1874
1.7890 -8.4617 2.1874
2.4629 -8.2907 2.1874
3.1208 -8.0661 2.1874
3.7585 -7.7894 2.1874
3.9230 -6.6960 1.9628
4.6118 -6.5933 2.0350
5.1265 -6.2016 2.0350
5.6080 -5.7699 2.0350
6.0554 -5.3027 2.0357
6.4825 -4.8146 2.0423
6.8681 -4.2908 2.0482
7.2088 -3.7348 2.0534
7.5017 -3.1506 2.0579
7.7443 -2.5424 2.0615
7.9344 -1.9149 2.0644
8.0704 -1.2727 2.0664
8.1511 -0.6207 2.0675
8.1757 0.0359 2.0678
8.1441 0.6923 2.0672
8.0564 1.3432 2.0658
7.9136 1.9837 2.0634
7.7169 2.6089 2.0603
7.4681 3.2140 2.0563
7.1693 3.7947 2.0516
6.8231 4.3466 2.0461
6.4326 4.8659 2.0400
6.0019 5.3497 2.0335
5.5570 5.8189 2.0350
5.0717 6.2465 2.0350
4.5537 6.6336 2.0350
4.0062 6.9779 2.0350
3.6899 7.8221 2.1874
3.0497 8.0932 2.1874
2.3899 8.3120 2.1874
1.7146 8.4771 2.1874
1.0282 8.5874 2.1874
0.3352 8.6423 2.1874
-0.3600 8.6412 2.1874
-1.0529 8.5844 2.1874
-1.7390 8.4721 2.1874
-2.4138 8.3051 2.1874
-3.0730 8.0844 2.1874
-3.7124 7.8115 2.1874
-4.3278 7.4881 2.1874
-4.9152 7.1163 2.1874
-5.4709 6.6985 2.1874
-5.9912 6.2375 2.1874
-6.4728 5.7362 2.1874
-6.9126 5.1978 2.1874
-7.3077 4.6258 2.1874
-7.6556 4.0239 2.1874
-7.9541 3.3961 2.1874
-8.2011 2.7463 2.1874
-8.3952 2.0787 2.1874
-8.5351 1.3977 2.1874
-8.6197 0.7077 2.1874
-8.6487 0.0131 2.1874
-8.6218 -0.6815 2.1874
-8.5393 -1.3718 2.1874
-8.4015 -2.0532 2.1874
-8.2094 -2.7213 2.1874
-7.9644 -3.3719 2.1874
-7.6678 -4.0007 2.1874
-7.3217 -4.6036 2.1874
-6.9283 -5.1768 2.1874
-6.4902 -5.7165 2.1874
-6.0101 -6.2193 2.1874
-5.4912 -6.6819 2.1874
-4.9368 -7.1013 2.1874
-4.3505 -7.4749 2.1874
-3.7361 -7.8002 2.1874
-3.0975 -8.0750 2.1874
-2.4390 -8.2977 2.1874
-1.7647 -8.4668 2.1874
-1.0790 -8.5812 2.1874
-0.3863 -8.6401 2.1874
0.3089 -8.6432 2.1874
1.0021 -8.5905 2.1874
1.6888 -8.4822 2.1874
2.3646 -8.3192 2.1874
3.0251 -8.1024 2.1874
3.6661 -7.8333 2.1874
3.9115 -6.8612 1.9975
4.5335 -6.6474 2.0350
5.0528 -6.2618 2.0350
5.5394 -5.8358 2.0350
5.9893 -5.3712 2.0347
6.4222 -4.8888 2.0414
6.8141 -4.3700 2.0474
7.1616 -3.8185 2.0527
7.4617 -3.2381 2.0572
7.7118 -2.6332 2.0610
7.9098 -2.0082 2.0640
8.0539 -1.3679 2.0661
8.1427 -0.7170 2.0674
8.1756 -0.0608 2.0678
8.1522 0.5959 2.0674
8.0728 1.2480 2.0660
7.9381 1.8903 2.0638
7.7492 2.5180 2.0608
7.5079 3.1264 2.0569
7.2163 3.7110 2.0523
6.8769 4.2674 2.0470
6.4927 4.7917 2.0409
6.0673 5.2806 2.0344
5.6255 5.7528 2.0350
5.1453 6.1861 2.0350
4.6318 6.5793 2.0350
4.0884 6.9301 2.0350
3.7821 7.7779 2.1874
3.1452 8.0566 2.1874
2.4880 8.2832 2.1874
1.8147 8.4562 2.1874
1.1297 8.5747 2.1874
0.4374 8.6377 2.1874
-0.2578 8.6449 2.1874
-0.9513 8.5963 2.1874
-1.6386 8.4921 2.1874
-2.3154 8.3331 2.1874
-2.9772 8.1202 2.1874
-3.6197 7.8548 2.1874
-4.2389 7.5387 2.1874
-4.8307 7.1739 2.1874
-5.3912 6.7628 2.1874
-5.9170 6.3079 2.1874
-6.4045 5.8123 2.1874
-6.8506 5.2792 2.1874
-7.2525 4.7119 2.1874
-7.6075 4.1142 2.1874
-7.9134 3.4899 2.1874
-8.1681 2.8431 2.1874
-8.3700 2.1779 2.1874
-8.5179 1.4986 2.1874
-8.6108 0.8096 2.1874
-8.6480 0.1154 2.1874
-8.6293 -0.5795 2.1874
-8.5549 -1.2707 2.1874
-8.4252 -1.9537 2.1874
-8.2411 -2.6240 2.1874
-8.0037 -3.2774 2.1874
-7.7146 -3.9097 2.1874
-7.3757 -4.5167 2.1874
-6.9891 -5.0944 2.1874
-6.5573 -5.6393 2.1874
-6.0832 -6.1477 2.1874
-5.5698 -6.6165 2.1874
-5.0204 -7.0424 2.1874
-4.4386 -7.4229 2.1874
-3.8281 -7.7554 2.1874
-3.1928 -8.0378 2.1874
-2.5370 -8.2683 2.1874
-1.8647 -8.4453 2.1874
-1.1804 -8.5678 2.1874
-0.4884 -8.6349 2.1874
0.2067 -8.6463 2.1874
0.9004 -8.6017 2.1874
1.5884 -8.5016 2.1874
2.2661 -8.3466 2.1874
2.9291 -8.1376 2.1874
3.5732 -7.8761 2.1874
3.9006 -7.0342 2.0343
4.4546 -6.7006 2.0350
4.9783 -6.3212 2.0350
5.4699 -5.9009 2.0350
5.9223 -5.4390 2.0337
6.3610 -4.9621 2.0404
6.7591 -4.4484 2.0465
7.1134 -3.9015 2.0519
7.4206 -3.3252 2.0566
7.6782 -2.7236 2.0605
7.8840 -2.1013 2.0636
8.0361 -1.4629 2.0659
8.1332 -0.8133 2.0673
8.1743 -0.1575 2.0678
8.1592 0.4995 2.0675
8.0880 1.1525 2.0663
7.9613 1.7966 2.0642
7.7803 2.4268 2.0613
7.5466 3.0383 2.0576
7.2623 3.6266 2.0531
6.9297 4.1874 2.0478
6.5519 4.7167 2.0418
6.1321 5.2108 2.0352
5.6931 5.6859 2.0350
5.2181 6.1248 2.0350
4.7093 6.5240 2.0350
4.1701 6.8812 2.0350
3.8739 7.7326 2.1874
3.2403 8.0188 2.1874
2.5858 8.2531 2.1874
1.9146 8.4342 2.1874
1.2310 8.5607 2.1874
0.5395 8.6319 2.1874
-0.1555 8.6473 2.1874
-0.8495 8.6069 2.1874
-1.5381 8.5109 2.1874
-2.2166 8.3599 2.1874
-2.8809 8.1548 2.1874
-3.5266 7.8971 2.1874
-4.1494 7.5883 2.1874
-4.7455 7.2306 2.1874
-5.3109 6.8261 2.1874
-5.8420 6.3775 2.1874
-6.3353 5.8877 2.1874
-6.7877 5.3598 2.1874
-7.1962 4.7974 2.1874
-7.5583 4.2039 2.1874
-7.8715 3.5833 2.1874
-8.1339 2.9395 2.1874
-8.3437 2.2767 2.1874
-8.4996 1.5992 2.1874
-8.6006 0.9114 2.1874
-8.6460 0.2177 2.1874
-8.6356 -0.4774 2.1874
-8.5693 -1.1694 2.1874
-8.4477 -1.8539 2.1874
-8.2715 -2.5264 2.1874
-8.0419 -3.1825 2.1874
-7.7603 -3.8182 2.1874
-7.4286 -4.4291 2.1874
-7.0489 -5.0114 2.1874
-6.6236 -5.5614 2.1874
-6.1555 -6.0754 2.1874
-5.6477 -6.5501 2.1874
-5.1034 -6.9826 2.1874
-4.5261 -7.3699 2.1874
-3.9195 -7.7096 2.1874
-3.2877 -7.9995 2.1874
-2.6346 -8.2377 2.1874
-1.9645 -8.4227 2.1874
-1.2816 -8.5533 2.1874
-0.5905 -8.6285 2.1874
0.1044 -8.6481 2.1874
0.7986 -8.6118 2.1874
1.4877 -8.5198 2.1874
2.1672 -8.3728 2.1874
2.8326 -8.1717 2.1874
3.4798 -7.9178 2.1874
3.8378 -7.1180 2.0453
4.2943 -6.6283 1.9975
4.9032 -6.3796 2.0350
5.3998 -5.9652 2.0350
5.8614 -5.5122 2.0350
6.2989 -5.0346 2.0395
6.7033 -4.5262 2.0457
7.0641 -3.9839 2.0512
7.3785 -3.4116 2.0560
7.6435 -2.8135 2.0600
7.8571 -2.1939 2.0632
8.0171 -1.5576 2.0656
8.1224 -0.9093 2.0671
8.1718 -0.2541 2.0678
8.1650 0.4030 2.0676
8.1020 1.0569 2.0665
7.9834 1.7026 2.0646
7.8103 2.3351 2.0618
7.5842 2.9497 2.0582
7.3072 3.5417 2.0538
6.9816 4.1068 2.0486
6.6102 4.6410 2.0428
6.1963 5.1405 2.0363
5.7600 5.6181 2.0350
5.2902 6.0626 2.0350
4.7862 6.4679 2.0350
4.2512 6.8314 2.0350
3.9605 7.6774 2.1849
3.3349 7.9799 2.1874
2.6833 8.2220 2.1874
2.0142 8.4109 2.1874
1.3322 8.5455 2.1874
0.6416 8.6249 2.1874
-0.0532 8.6486 2.1874
-0.7477 8.6164 2.1874
-1.4373 8.5285 2.1874
-2.1176 8.3855 2.1874
-2.7843 8.1883 2.1874
-3.4329 7.9383 2.1874
-4.0594 7.6369 2.1874
-4.6596 7.2862 2.1874
-5.2298 6.8884 2.1874
-5.7661 6.4462 2.1874
-6.2652 5.9622 2.1874
-6.7238 5.4397 2.1874
-7.1390 4.8821 2.1874
-7.5080 4.2930 2.1874
-7.8286 3.6761 2.1874
-8.0985 3.0355 2.1874
-8.3162 2.3753 2.1874
-8.4801 1.6997 2.1874
-8.5892 1.0131 2.1874
-8.6428 0.3200 2.1874
-8.6406 -0.3752 2.1874
-8.5825 -1.0680 2.1874
-8.4690 -1.7539 2.1874
-8.3008 -2.4284 2.1874
-8.0790 -3.0872 2.1874
-7.8049 -3.7261 2.1874
-7.4804 -4.3409 2.1874
-7.1076 -4.9277 2.1874
-6.6889 -5.4826 2.1874
-6.2270 -6.0021 2.1874
-5.7248 -6.4829 2.1874
-5.1856 -6.9217 2.1874
-4.6129 -7.3158 2.1874
-3.3990 6.9392 2.1874
-3.9453 6.6437 2.1874
-4.4662 6.3054 2.1874
-4.9582 5.9263 2.1874
-5.4181 5.5090 2.1874
-5.8431 5.0560 2.1874
-6.2303 4.5704 2.1874
-6.5772 4.0552 2.1874
-6.8817 3.5139 2.1874
-7.1417 2.9498 2.1874
-7.3555 2.3667 2.1874
-7.5218 1.7683 2.1874
-7.6396 1.1585 2.1874
-7.7079 0.5411 2.1874
-7.7265 -0.0797 2.1874
-7.6951 -0.7000 2.1874
-7.6141 -1.3157 2.1874
-7.4838 -1.9230 2.1874
-7.3052 -2.5179 2.1874
-7.0793 -3.0964 2.1874
-6.8078 -3.6550 2.1874
-6.4922 -4.1900 2.1874
-6.1347 -4.6978 2.1874
-5.7376 -5.1754 2.1874
-5.3034 -5.6195 2.1874
-4.8349 -6.0273 2.1874
-4.3352 -6.3961 2.1874
-3.8075 -6.7237 2.1874
-3.2552 -7.0077 2.1874
-2.6818 -7.2466 2.1874
-2.0912 -7.4385 2.1874
-1.4870 -7.5825 2.1874
-0.8732 -7.6774 2.1874
-0.2538 -7.7227 2.1874
0.3673 -7.7182 2.1874
0.9860 -7.6637 2.1874
1.5983 -7.5598 2.1874
2.2003 -7.4070 2.1874
2.7881 -7.2063 2.1874
3.3579 -6.9591 2.1874
3.8223 -6.5242 2.1406
4.1203 -5.8906 2.0350
4.5801 -5.5406 2.0350
5.0103 -5.1549 2.0350
5.4081 -4.7358 2.0350
5.7710 -4.2862 2.0350
6.1001 -3.8110 2.0362
6.4008 -3.3162 2.0408
6.6593 -2.7968 2.0447
6.8733 -2.2565 2.0480
7.0409 -1.6992 2.0505
7.1609 -1.1292 2.0522
7.2320 -0.5507 2.0533
7.2537 0.0319 2.0535
7.2259 0.6142 2.0530
7.1487 1.1918 2.0517
7.0229 1.7604 2.0496
6.8495 2.3156 2.0469
6.6301 2.8534 2.0434
6.3664 3.3697 2.0392
6.0628 3.8623 2.0350
5.7331 4.3368 2.0350
5.3662 4.7832 2.0350
4.9647 5.1987 2.0350
4.5312 5.5807 2.0350
4.0683 5.9266 2.0350
3.8472 6.7010 2.1874
3.2966 6.9884 2.1874
2.7247 7.2306 2.1874
2.1351 7.4261 2.1874
1.5318 7.5735 2.1874
0.9186 7.6721 2.1874
0.2994 7.7211 2.1874
-0.3217 7.7202 2.1874
-0.9407 7.6694 2.1874
-1.5536 7.5691 2.1874
-2.1565 7.4199 2.1874
-2.7455 7.2227 2.1874
-3.3167 6.9789 2.1874
-3.8665 6.6899 2.1874
-4.3913 6.3578 2.1874
-4.8877 5.9846 2.1874
-5.3526 5.5727 2.1874
-5.7829 5.1248 2.1874
-6.1758 4.6438 2.1874
-6.5288 4.1327 2.1874
-6.8396 3.5950 2.1874
-7.1063 3.0341 2.1874
-7.3270 2.4536 2.1874
-7.5004 1.8571 2.1874
-7.6253 1.2488 2.1874
-7.7010 0.6323 2.1874
-7.7269 0.0117 2.1874
-7.7029 -0.6089 2.1874
-7.6291 -1.2256 2.1874
-7.5060 -1.8344 2.1874
-7.3344 -2.4313 2.1874
-7.1155 -3.0125 2.1874
-6.8505 -3.5742 2.1874
-6.5413 -4.1129 2.1874
-6.1899 -4.6250 2.1874
-5.7984 -5.1072 2.1874
-5.3695 -5.5564 2.1874
-4.9059 -5.9697 2.1874
-4.4106 -6.3444 2.1874
-3.8868 -6.6782 2.1874
-3.3379 -6.9688 2.1874
-2.7674 -7.2144 2.1874
-2.1790 -7.4133 2.1874
-1.5766 -7.5643 2.1874
-0.9639 -7.6665 2.1874
-0.3451 -7.7192 2.1874
0.2760 -7.7220 2.1874
0.8953 -7.6748 2.1874
1.5088 -7.5781 2.1874
2.1126 -7.4325 2.1874
2.7027 -7.2388 2.1874
3.2754 -6.9984 2.1874
3.8134 -6.6890 2.1797
4.0503 -5.9389 2.0350
4.5142 -5.5944 2.0350
4.9489 -5.2138 2.0350
5.3517 -4.7995 2.0350
5.7199 -4.3541 2.0350
6.0524 -3.8815 2.0355
6.3592 -3.3906 2.0402
6.6240 -2.8746 2.0442
6.8447 -2.3371 2.0475
7.0193 -1.7821 2.0501
7.1463 -1.2137 2.0520
7.2246 -0.6362 2.0532
7.2536 -0.0539 2.0535
7.2331 0.5287 2.0531
7.1631 1.1073 2.0519
7.0444 1.6775 2.0500
6.8779 2.2349 2.0473
6.6652 2.7755 2.0439
6.4079 3.2952 2.0398
6.1081 3.7903 2.0350
5.7840 4.2686 2.0350
5.4224 4.7194 2.0350
5.0259 5.1396 2.0350
4.5969 5.5267 2.0350
4.1381 5.8780 2.0350
3.9262 6.6551 2.1874
3.3790 6.9489 2.1874
2.8100 7.1978 2.1874
2.2228 7.4003 2.1874
1.6213 7.5549 2.1874
1.0093 7.6607 2.1874
0.3907 7.7170 2.1874
-0.2303 7.7235 2.1874
-0.8499 7.6800 2.1874
-1.4640 7.5870 2.1874
-2.0686 7.4449 2.1874
-2.6598 7.2547 2.1874
-3.2339 7.0176 2.1874
-3.7871 6.7352 2.1874
-4.3158 6.4093 2.1874
-4.8166 6.0420 2.1874
-5.2863 5.6356 2.1874
-5.7219 5.1928 2.1874
-6.1204 4.7165 2.1874
-6.4795 4.2097 2.1874
-6.7966 3.6757 2.1874
-7.0699 3.1179 2.1874
-7.2975 2.5400 2.1874
-7.4779 1.9457 2.1874
-7.6100 1.3389 2.1874
-7.6930 0.7233 2.1874
-7.7262 0.1031 2.1874
-7.7095 -0.5177 2.1874
-7.6430 -1.1353 2.1874
-7.5272 -1.7455 2.1874
-7.3627 -2.3444 2.1874
-7.1506 -2.9281 2.1874
-6.8923 -3.4930 2.1874
-6.5895 -4.0352 2.1874
-6.2441 -4.5515 2.1874
-5.8584 -5.0382 2.1874
-5.4348 -5.4925 2.1874
-4.9762 -5.9112 2.1874
-4.4853 -6.2918 2.1874
-3.9655 -6.6317 2.1874
-3.4201 -6.9288 2.1874
-2.8525 -7.1811 2.1874
-2.2666 -7.3870 2.1874
-1.6659 -7.5452 2.1874
-1.0546 -7.6546 2.1874
-0.4364 -7.7146 2.1874
0.1846 -7.7247 2.1874
0.8044 -7.6849 2.1874
1.4191 -7.5955 2.1874
2.0245 -7.4570 2.1874
2.6169 -7.2703 2.1874
3.1923 -7.0366 2.1874
3.7472 -6.7575 2.1874
3.9798 -5.9864 2.0350
4.4477 -5.6474 2.0350
4.8869 -5.2720 2.0350
5.2945 -4.8624 2.0350
5.6680 -4.4215 2.0350
6.0039 -3.9514 2.0347
6.3166 -3.4645 2.0395
6.5878 -2.9520 2.0436
6.8151 -2.4174 2.0471
6.9965 -1.8647 2.0498
7.1306 -1.2980 2.0518
7.2162 -0.7216 2.0530
7.2525 -0.1397 2.0535
7.2392 0.4432 2.0532
7.1765 1.0226 2.0521
7.0649 1.5943 2.0503
6.9054 2.1539 2.0477
6.6993 2.6972 2.0445
6.4485 3.2202 2.0405
6.1550 3.7193 2.0358
5.8340 4.1999 2.0350
5.4779 4.6549 2.0350
5.0863 5.0798 2.0350
4.6619 5.4719 2.0350
4.2074 5.8287 2.0350
3.9533 6.5235 2.1594
3.4610 6.9084 2.1874
2.8949 7.1641 2.1874
2.3102 7.3735 2.1874
1.7105 7.5352 2.1874
1.0998 7.6482 2.1874
0.4820 7.7119 2.1874
-0.1390 7.7256 2.1874
-0.7590 7.6895 2.1874
-1.3741 7.6037 2.1874
-1.9804 7.4688 2.1874
-2.5738 7.2856 2.1874
-3.1507 7.0554 2.1874
-3.7071 6.7795 2.1874
-4.2397 6.4599 2.1874
-4.7448 6.0985 2.1874
-5.2193 5.6977 2.1874
-5.6600 5.2601 2.1874
-6.0642 4.7886 2.1874
-6.4292 4.2860 2.1874
-6.7527 3.7558 2.1874
-7.0325 3.2013 2.1874
-7.2669 2.6262 2.1874
-7.4544 2.0341 2.1874
-7.5936 1.4288 2.1874
-7.6839 0.8143 2.1874
-7.7244 0.1945 2.1874
-7.7151 -0.4265 2.1874
-7.6559 -1.0448 2.1874
-7.5473 -1.6563 2.1874
-7.3899 -2.2571 2.1874
-7.1847 -2.8433 2.1874
-6.9332 -3.4112 2.1874
-6.6368 -3.9570 2.1874
-6.2975 -4.4773 2.1874
-5.9176 -4.9686 2.1874
-5.4994 -5.4278 2.1874
-5.0457 -5.8520 2.1874
-4.5594 -6.2383 2.1874
-4.0437 -6.5843 2.1874
-3.5018 -6.8878 2.1874
-2.9373 -7.1469 2.1874
-2.3538 -7.3597 2.1874
-1.7551 -7.5249 2.1874
-1.1450 -7.6416 2.1874
-0.5276 -7.7089 2.1874
0.0933 -7.7263 2.1874
0.7135 -7.6939 2.1874
1.3291 -7.6117 2.1874
1.9362 -7.4804 2.1874
2.5307 -7.3007 2.1874
3.1089 -7.0739 2.1874
3.6670 -6.8013 2.1874
3.9087 -6.0330 2.0350
4.3806 -5.6996 2.0350
4.8242 -5.3294 2.0350
5.2367 -4.9247 2.0350
5.6153 -4.4882 2.0350
5.9545 -4.0206 2.0340
6.2732 -3.5378 2.0388
6.5506 -3.0289 2.0431
6.7845 -2.4973 2.0466
6.9728 -1.9470 2.0494
7.1139 -1.3821 2.0516
7.2067 -0.8068 2.0529
7.2502 -0.2255 2.0535
7.2443 0.3575 2.0533
7.1888 0.9378 2.0523
7.0843 1.5109 2.0506
6.9318 2.0725 2.0482
6.7325 2.6184 2.0450
6.4881 3.1447 2.0411
6.2007 3.6475 2.0366
5.8833 4.1306 2.0350
5.5326 4.5898 2.0350
5.1461 5.0193 2.0350
4.7263 5.4164 2.0350
4.2760 5.7785 2.0350
3.9588 6.3614 2.1211
3.5424 6.8670 2.1874
2.9795 7.1294 2.1874
2.3973 7.3456 2.1874
1.7995 7.5144 2.1874
1.1902 7.6347 2.1874
0.5732 7.7056 2.1874
-0.0476 7.7268 2.1874
-0.6680 7.6980 2.1874
-1.2841 7.6195 2.1874
-1.8919 7.4917 2.1874
-2.4875 7.3156 2.1874
-3.0670 7.0921 2.1874
-3.6267 6.8229 2.1874
-4.1630 6.5096 2.1874
-4.6723 6.1542 2.1874
-5.1515 5.7591 2.1874
-5.5974 5.3267 2.1874
-6.0072 4.8600 2.1874
-6.3781 4.3618 2.1874
-6.7078 3.8354 2.1874
-6.9942 3.2843 2.1874
-7.2354 2.7120 2.1874
-7.4298 2.1221 2.1874
-7.5762 1.5185 2.1874
-7.6737 0.9051 2.1874
-7.7216 0.2859 2.1874
-7.7196 -0.3352 2.1874
-7.6678 -0.9542 2.1874
-7.5664 -1.5669 2.1874
-7.4161 -2.1695 2.1874
-7.2179 -2.7581 2.1874
-6.9730 -3.3289 2.1874
-6.6831 -3.8782 2.1874
-6.3501 -4.4025 2.1874
-5.9760 -4.8982 2.1874
-5.5632 -5.3624 2.1874
-5.1146 -5.7919 2.1874
-4.6329 -6.1839 2.1874
-4.1213 -6.5361 2.1874
-3.0669 6.2611 2.1874
-3.5598 5.9945 2.1874
-4.0298 5.6893 2.1874
-4.4737 5.3472 2.1874
-4.8887 4.9706 2.1874
-5.2721 4.5619 2.1874
-5.6215 4.1238 2.1874
-5.9345 3.6590 2.1874
-6.2092 3.1705 2.1874
-6.4438 2.6616 2.1874
-6.6368 2.1355 2.1874
-6.7868 1.5955 2.1874
-6.8930 1.0453 2.1874
-6.9547 0.4883 2.1874
-6.9715 -0.0719 2.1874
-6.9432 -0.6316 2.1874
-6.8700 -1.1872 2.1874
-6.7525 -1.7351 2.1874
-6.5913 -2.2718 2.1874
-6.3876 -2.7939 2.1874
-6.1425 -3.2978 2.1874
-5.8578 -3.7805 2.1874
-5.5353 -4.2388 2.1874
-5.1769 -4.6697 2.1874
-4.7852 -5.0704 2.1874
-4.3625 -5.4383 2.1874
-3.9116 -5.7711 2.1874
-3.4355 -6.0667 2.1874
-2.9371 -6.3230 2.1874
-2.4198 -6.5384 2.1874
-1.8868 -6.7117 2.1874
-1.3417 -6.8415 2.1874
-0.7879 -6.9272 2.1874
-0.2290 -6.9681 2.1874
0.3314 -6.9640 2.1874
0.8897 -6.9149 2.1874
1.4422 -6.8211 2.1874
1.9853 -6.6832 2.1874
2.5157 -6.5022 2.1874
3.0298 -6.2791 2.1874
3.5243 -6.0154 2.1874
3.8401 -5.4900 2.1021
4.1325 -4.9992 2.0350
4.5207 -4.6512 2.0350
4.8796 -4.2730 2.0350
5.2071 -3.8673 2.0350
5.5008 -3.4366 2.0350
5.7591 -2.9837 2.0350
5.9773 -2.5104 2.0341
6.1684 -2.0251 2.0370
6.3181 -1.5248 2.0392
6.4251 -1.0132 2.0408
6.4886 -0.4941 2.0417
6.5080 0.0286 2.0419
6.4832 0.5511 2.0414
6.4144 1.0694 2.0403
6.3021 1.5797 2.0385
6.1474 2.0782 2.0360
5.9578 2.5640 2.0350
5.7326 3.0343 2.0350
5.4704 3.4849 2.0350
5.1728 3.9130 2.0350
4.8419 4.3158 2.0350
4.4796 4.6907 2.0350
4.0884 5.0354 2.0350
3.9406 5.7405 2.1846
3.4713 6.0462 2.1874
2.9744 6.3055 2.1874
2.4584 6.5240 2.1874
1.9265 6.7004 2.1874
1.3821 6.8335 2.1874
0.8288 6.9224 2.1874
0.2702 6.9666 2.1874
-0.2902 6.9658 2.1874
-0.8487 6.9200 2.1874
-1.4018 6.8295 2.1874
-1.9458 6.6948 2.1874
-2.4772 6.5169 2.1874
-2.9926 6.2969 2.1874
-3.4887 6.0362 2.1874
-3.9622 5.7365 2.1874
-4.4101 5.3998 2.1874
-4.8296 5.0281 2.1874
-5.2178 4.6240 2.1874
-5.5723 4.1900 2.1874
-5.8908 3.7289 2.1874
-6.1713 3.2437 2.1874
-6.4119 2.7376 2.1874
-6.6110 2.2138 2.1874
-6.7675 1.6757 2.1874
-6.8802 1.1267 2.1874
-6.9485 0.5705 2.1874
-6.9718 0.0106 2.1874
-6.9502 -0.5494 2.1874
-6.8836 -1.1058 2.1874
-6.7725 -1.6551 2.1874
-6.6177 -2.1937 2.1874
-6.4202 -2.7181 2.1874
-6.1811 -3.2250 2.1874
-5.9021 -3.7110 2.1874
-5.5850 -4.1730 2.1874
-5.2318 -4.6081 2.1874
-4.8448 -5.0134 2.1874
-4.4265 -5.3864 2.1874
-3.9796 -5.7245 2.1874
-3.5070 -6.0256 2.1874
-3.0117 -6.2878 2.1874
-2.4970 -6.5094 2.1874
-1.9661 -6.6889 2.1874
-1.4225 -6.8252 2.1874
-0.8698 -6.9174 2.1874
-0.3114 -6.9649 2.1874
0.2490 -6.9674 2.1874
0.8078 -6.9249 2.1874
1.3614 -6.8376 2.1874
1.9061 -6.7062 2.1874
2.4386 -6.5315 2.1874
2.9553 -6.3145 2.1874
3.4529 -6.0567 2.1874
3.8328 -5.6200 2.1343
4.0731 -5.0477 2.0350
4.4653 -4.7043 2.0350
4.8287 -4.3305 2.0350
5.1609 -3.9286 2.0350
5.4598 -3.5015 2.0350
5.7234 -3.0516 2.0350
5.9458 -2.5803 2.0336
6.1428 -2.0975 2.0366
6.2987 -1.5992 2.0389
6.4121 -1.0890 2.0406
6.4820 -0.5708 2.0416
6.5079 -0.0484 2.0419
6.4896 0.4744 2.0416
6.4272 0.9936 2.0405
6.3213 1.5053 2.0388
6.1728 2.0058 2.0364
5.9877 2.4934 2.0350
5.7681 2.9663 2.0350
5.5112 3.4199 2.0350
5.2188 3.8515 2.0350
4.8926 4.2582 2.0350
4.5348 4.6374 2.0350
4.1477 4.9866 2.0350
3.9455 5.6045 2.1504
3.5425 6.0048 2.1874
3.0488 6.2699 2.1874
2.5354 6.4945 2.1874
2.0056 6.6771 2.1874
1.4629 6.8167 2.1874
0.9106 6.9121 2.1874
0.3526 6.9629 2.1874
-0.2078 6.9688 2.1874
-0.7668 6.9296 2.1874
-1.3209 6.8456 2.1874
-1.8665 6.7174 2.1874
-2.3999 6.5458 2.1874
-2.9179 6.3319 2.1874
-3.4170 6.0770 2.1874
-3.8941 5.7830 2.1874
-4.3459 5.4516 2.1874
-4.7698 5.0849 2.1874
-5.1627 4.6854 2.1874
-5.5224 4.2556 2.1874
-5.8463 3.7983 2.1874
-6.1325 3.3165 2.1874
-6.3791 2.8133 2.1874
-6.5844 2.2918 2.1874
-6.7472 1.7556 2.1874
-6.8664 1.2080 2.1874
-6.9412 0.6527 2.1874
-6.9712 0.0931 2.1874
-6.9562 -0.4671 2.1874
-6.8962 -1.0243 2.1874
-6.7916 -1.5749 2.1874
-6.6432 -2.1153 2.1874
-6.4519 -2.6420 2.1874
-6.2188 -3.1516 2.1874
-5.9456 -3.6410 2.1874
-5.6340 -4.1067 2.1874
-5.2860 -4.5459 2.1874
-4.9038 -4.9558 2.1874
-4.4899 -5.3336 2.1874
-4.0470 -5.6770 2.1874
-3.5780 -5.9837 2.1874
-3.0859 -6.2517 2.1874
-2.5738 -6.4794 2.1874
-2.0451 -6.6651 2.1874
-1.5032 -6.8079 2.1874
-0.9515 -6.9066 2.1874
-0.3937 -6.9607 2.1874
0.1666 -6.9699 2.1874
0.7258 -6.9340 2.1874
1.2804 -6.8532 2.1874
1.8267 -6.7283 2.1874
2.3612 -6.5598 2.1874
2.8804 -6.3490 2.1874
3.3810 -6.0971 2.1874
3.8252 -5.7539 2.1678
4.0186 -5.1026 2.0378
4.4094 -4.7568 2.0350
4.7772 -4.3873 2.0350
5.1141 -3.9894 2.0350
5.4180 -3.5658 2.0350
5.6869 -3.1191 2.0350
5.9190 -2.6523 2.0350
6.1164 -2.1696 2.0362
6.2784 -1.6733 2.0386
6.3981 -1.1647 2.0404
6.4745 -0.6474 2.0415
6.5069 -0.1254 2.0419
6.4951 0.3976 2.0417
6.4392 0.9175 2.0407
6.3396 1.4306 2.0391
6.1972 1.9330 2.0368
6.0168 2.4224 2.0350
5.8028 2.8978 2.0350
5.5513 3.3545 2.0350
5.2640 3.7895 2.0350
4.9426 4.2001 2.0350
4.5893 4.5834 2.0350
4.2064 4.9372 2.0350
3.9502 5.4725 2.1176
3.6133 5.9624 2.1874
3.1228 6.2334 2.1874
2.6121 6.4640 2.1874
2.0845 6.6529 2.1874
1.5434 6.7989 2.1874
0.9923 6.9009 2.1874
0.4349 6.9583 2.1874
-0.1254 6.9707 2.1874
-0.6848 6.9381 2.1874
-1.2398 6.8607 2.1874
-1.7869 6.7390 2.1874
-2.3223 6.5737 2.1874
-2.8428 6.3659 2.1874
-3.3449 6.1170 2.1874
-3.8254 5.8286 2.1874
-4.2812 5.5026 2.1874
-4.7093 5.1410 2.1874
-5.1070 4.7461 2.1874
-5.4716 4.3206 2.1874
-5.8010 3.8672 2.1874
-6.0928 3.3888 2.1874
-6.3453 2.8885 2.1874
-6.5568 2.3696 2.1874
-6.7259 1.8353 2.1874
-6.8516 1.2892 2.1874
-6.9330 0.7347 2.1874
-6.9696 0.1755 2.1874
-6.9612 -0.3848 2.1874
-6.9078 -0.9427 2.1874
-6.8098 -1.4945 2.1874
-6.6678 -2.0366 2.1874
-6.4827 -2.5655 2.1874
-6.2557 -3.0779 2.1874
-5.9883 -3.5704 2.1874
-5.6822 -4.0398 2.1874
-5.3393 -4.4831 2.1874
-4.9620 -4.8974 2.1874
-4.5527 -5.2801 2.1874
-4.1139 -5.6287 2.1874
-3.6485 -5.9410 2.1874
-3.1596 -6.2148 2.1874
-2.6502 -6.4485 2.1874
-2.1238 -6.6405 2.1874
-1.5836 -6.7896 2.1874
-1.0331 -6.8949 2.1874
-0.4760 -6.9556 2.1874
0.0841 -6.9713 2.1874
0.6438 -6.9421 2.1874
1.1993 -6.8679 2.1874
1.7470 -6.7494 2.1874
2.2834 -6.5873 2.1874
2.8051 -6.3826 2.1874
3.3087 -6.1367 2.1874
3.7908 -5.8512 2.1874
3.9525 -5.1427 2.0350
4.3528 -4.8086 2.0350
4.7249 -4.4435 2.0350
5.0666 -4.0496 2.0350
5.3754 -3.6296 2.0350
5.6496 -3.1862 2.0350
5.8872 -2.7221 2.0350
6.0891 -2.2413 2.0358
6.2572 -1.7472 2.0383
6.3832 -1.2402 2.0402
6.4660 -0.7239 2.0414
6.5049 -0.2023 2.0419
6.4996 0.3208 2.0417
6.4501 0.8414 2.0409
6.3570 1.3557 2.0394
6.2208 1.8599 2.0372
6.0429 2.3502 2.0343
5.8367 2.8290 2.0350
5.5906 3.2886 2.0350
5.3084 3.7270 2.0350
4.9919 4.1413 2.0350
4.6432 4.5288 2.0350
4.2645 4.8871 2.0350
3.9548 5.3444 2.0860
3.6836 5.9193 2.1874
3.1963 6.1960 2.1874
2.6883 6.4327 2.1874
2.1630 6.6278 2.1874
1.6237 6.7801 2.1874
1.0739 6.8887 2.1874
0.5172 6.9526 2.1874
-0.0429 6.9717 2.1874
-0.6027 6.9458 2.1874
-1.1586 6.8749 2.1874
-1.7070 6.7597 2.1874
-2.2444 6.6007 2.1874
-2.7673 6.3991 2.1874
-3.2723 6.1562 2.1874
-3.7562 5.8735 2.1874
-4.2158 5.5528 2.1874
-4.6481 5.1963 2.1874
-5.0505 4.8062 2.1874
-5.4202 4.3851 2.1874
-5.7548 3.9356 2.1874
-6.0523 3.4606 2.1874
-6.3107 2.9634 2.1874
-6.5283 2.4470 2.1874
-6.7038 1.9147 2.1874
-6.8359 1.3701 2.1874
-6.9239 0.8167 2.1874
-6.9671 0.2579 2.1874
-6.9653 -0.3025 2.1874
-6.9185 -0.8609 2.1874
-6.8270 -1.4138 2.1874
-6.6914 -1.9575 2.1874
-6.5126 -2.4886 2.1874
-6.2916 -3.0037 2.1874
-6.0301 -3.4993 2.1874
-5.7296 -3.9723 2.1874
-5.3920 -4.4196 2.1874
-5.0196 -4.8384 2.1874
-4.6148 -5.2259 2.1874
-4.1802 -5.5797 2.1874
-3.7185 -5.8974 2.1874
-2.7894 5.6947 2.1874
-3.2378 5.4523 2.1874
-3.6652 5.1746 2.1874
-4.0690 4.8635 2.1874
-4.4465 4.5210 2.1874
-4.7952 4.1493 2.1874
-5.1130 3.7507 2.1874
-5.3977 3.3280 2.1874
-5.6475 2.8837 2.1874
-5.8609 2.4208 2.1874
-6.0364 1.9423 2.1874
-6.1729 1.4512 2.1874
-6.2695 0.9507 2.1874
-6.3256 0.4441 2.1874
-6.3408 -0.0654 2.1874
-6.3151 -0.5744 2.1874
-6.2486 -1.0798 2.1874
-6.1416 -1.5781 2.1874
-5.9951 -2.0663 2.1874
-5.8097 -2.5411 2.1874
-5.5869 -2.9995 2.1874
-5.3279 -3.4385 2.1874
-5.0345 -3.8554 2.1874
-4.7086 -4.2473 2.1874
-4.3523 -4.6117 2.1874
-3.9678 -4.9464 2.1874
-3.5577 -5.2491 2.1874
-3.1247 -5.5178 2.1874
-2.6714 -5.7510 2.1874
-0.7443 -2.0112 0.7398
-1.7161 -6.1045 2.1874
-1.2203 -6.2226 2.1874
-0.7166 -6.3005 2.1874
-0.2083 -6.3377 2.1874
0.3014 -6.3340 2.1874
0.8092 -6.2893 2.1874
1.3117 -6.2040 2.1874
1.8057 -6.0786 2.1874
0.7739 -2.0001 0.7398
2.7557 -5.7111 2.1874
3.2055 -5.4713 2.1874
3.6346 -5.1962 2.1874
3.8517 -4.6596 2.0854
4.1117 -4.2304 2.0350
4.4382 -3.8865 2.0350
4.7360 -3.5175 2.0350
5.0032 -3.1258 2.0350
5.2381 -2.7138 2.0350
5.4391 -2.2843 2.0350
5.6050 -1.8401 2.0350
5.7347 -1.3840 2.0350
5.8274 -0.9189 2.0350
5.8823 -0.4480 2.0350
5.8993 0.0260 2.0350
5.8782 0.4997 2.0350
5.8190 0.9702 2.0350
5.7223 1.4344 2.0350
5.5886 1.8893 2.0350
5.4189 2.3321 2.0350
5.2140 2.7598 2.0350
4.9755 3.1696 2.0350
4.7049 3.5590 2.0350
4.4039 3.9254 2.0350
4.0744 4.2664 2.0350
3.9370 4.8489 2.1546
3.5887 5.2280 2.1874
3.1573 5.4993 2.1874
2.7054 5.7351 2.1874
2.2360 5.9339 2.1874
1.7522 6.0943 2.1874
1.2571 6.2153 2.1874
0.7538 6.2962 2.1874
0.2457 6.3364 2.1874
-0.2640 6.3357 2.1874
-0.7720 6.2940 2.1874
-1.2750 6.2117 2.1874
-1.7698 6.0892 2.1874
-2.2531 5.9274 2.1874
-2.7219 5.7273 2.1874
-3.1731 5.4902 2.1874
-3.6038 5.2176 2.1874
-4.0112 4.9113 2.1874
-4.3927 4.5733 2.1874
-4.7458 4.2057 2.1874
-5.0682 3.8109 2.1874
-5.3579 3.3916 2.1874
-5.6130 2.9503 2.1874
-5.8318 2.4900 2.1874
-6.0130 2.0136 2.1874
-6.1553 1.5241 2.1874
-6.2578 1.0248 2.1874
-6.3199 0.5189 2.1874
-6.3412 0.0096 2.1874
-6.3214 -0.4997 2.1874
-6.2609 -1.0058 2.1874
-6.1599 -1.5054 2.1874
-6.0191 -1.9953 2.1874
-5.8394 -2.4722 2.1874
-5.6220 -2.9332 2.1874
-5.3682 -3.3753 2.1874
-5.0798 -3.7955 2.1874
-4.7585 -4.1913 2.1874
-4.4065 -4.5599 2.1874
-4.0261 -4.8991 2.1874
-3.6196 -5.2066 2.1874
-3.1897 -5.4805 2.1874
-2.7392 -5.7190 2.1874
-0.7681 -2.0023 0.7398
-1.7882 -6.0838 2.1874
-1.2938 -6.2078 2.1874
-0.7911 -6.2916 2.1874
-0.2832 -6.3348 2.1874
0.2265 -6.3371 2.1874
0.7347 -6.2985 2.1874
1.2382 -6.2191 2.1874
1.7337 -6.0995 2.1874
0.7501 -2.0091 0.7398
2.6880 -5.7433 2.1874
3.1405 -5.5088 2.1874
3.5728 -5.2388 2.1874
3.8456 -4.7659 2.1125
4.0614 -4.2787 2.0350
4.3919 -3.9387 2.0350
4.6941 -3.5733 2.0350
4.9659 -3.1847 2.0350
5.2056 -2.7756 2.0350
5.4117 -2.3485 2.0350
5.5829 -1.9063 2.0350
5.7180 -1.4517 2.0350
5.8161 -0.9878 2.0350
5.8766 -0.5175 2.0350
5.8992 -0.0438 2.0350
5.8837 0.4301 2.0350
5.8301 0.9013 2.0350
5.7389 1.3666 2.0350
5.6106 1.8231 2.0350
5.4461 2.2678 2.0350
5.2463 2.6979 2.0350
5.0127 3.1106 2.0350
4.7467 3.5031 2.0350
4.4500 3.8730 2.0350
4.1245 4.2179 2.0350
3.9411 4.7383 2.1260
3.6503 5.1851 2.1874
3.2221 5.4616 2.1874
2.7730 5.7027 2.1874
2.3060 5.9070 2.1874
1.8242 6.0731 2.1874
1.3305 6.2000 2.1874
0.8283 6.2868 2.1874
0.3207 6.3330 2.1874
-0.1890 6.3383 2.1874
-0.6975 6.3027 2.1874
-1.2014 6.2263 2.1874
-1.6976 6.1097 2.1874
-2.1828 5.9536 2.1874
-2.6539 5.7591 2.1874
-3.1079 5.5273 2.1874
-3.5418 5.2599 2.1874
-3.9528 4.9584 2.1874
-4.3383 4.6249 2.1874
-4.6957 4.2615 2.1874
-5.0228 3.8706 2.1874
-5.3175 3.4547 2.1874
-5.5777 3.0165 2.1874
-5.8020 2.5588 2.1874
-5.9888 2.0846 2.1874
-6.1368 1.5968 2.1874
-6.2452 1.0987 2.1874
-6.3133 0.5936 2.1874
-6.3406 0.0846 2.1874
-6.3269 -0.4249 2.1874
-6.2723 -0.9317 2.1874
-6.1773 -1.4324 2.1874
-6.0423 -1.9239 2.1874
-5.8682 -2.4030 2.1874
-5.6563 -2.8665 2.1874
-5.4078 -3.3116 2.1874
-5.1243 -3.7352 2.1874
-4.8078 -4.1347 2.1874
-4.4602 -4.5075 2.1874
-4.0837 -4.8511 2.1874
-3.6809 -5.1634 2.1874
-3.2543 -5.4424 2.1874
-2.8067 -5.6862 2.1874
-2.3410 -5.8932 2.1874
-1.8601 -6.0622 2.1874
-1.3672 -6.1920 2.1874
-0.8654 -6.2818 2.1874
-0.3581 -6.3310 2.1874
0.1515 -6.3393 2.1874
0.6602 -6.3067 2.1874
1.1646 -6.2333 2.1874
1.6614 -6.1196 2.1874
0.7263 -2.0178 0.7398
2.6198 -5.7747 2.1874
3.0752 -5.5456 2.1874
3.5106 -5.2807 2.1874
3.8393 -4.8749 2.1405
4.0105 -4.3265 2.0350
4.3450 -3.9904 2.0350
4.6515 -3.6285 2.0350
4.9279 -3.2432 2.0350
5.1724 -2.8370 2.0350
5.3836 -2.4124 2.0350
5.5599 -1.9722 2.0350
5.7004 -1.5193 2.0350
5.8040 -1.0565 2.0350
5.8701 -0.5870 2.0350
5.8983 -0.1136 2.0350
5.8883 0.3605 2.0350
5.8404 0.8322 2.0350
5.7547 1.2986 2.0350
5.6318 1.7566 2.0350
5.4725 2.2032 2.0350
5.2779 2.6357 2.0350
5.0491 3.0510 2.0350
4.7878 3.4467 2.0350
4.4955 3.8201 2.0350
4.1741 4.1688 2.0350
3.9451 4.6306 2.0985
3.7114 5.1416 2.1874
3.2865 5.4231 2.1874
2.8403 5.6695 2.1874
2.3758 5.8793 2.1874
1.8959 6.0511 2.1874
1.4038 6.1838 2.1874
0.9026 6.2766 2.1874
0.3955 6.3288 2.1874
-0.1140 6.3401 2.1874
-0.6229 6.3105 2.1874
-1.1277 6.2401 2.1874
-1.6252 6.1293 2.1874
-2.1123 5.9790 2.1874
-2.5856 5.7901 2.1874
-3.0423 5.5637 2.1874
-3.4793 5.3014 2.1874
-3.8939 5.0048 2.1874
-4.2833 4.6759 2.1874
-4.6450 4.3168 2.1874
-4.9767 3.9298 2.1874
-5.2762 3.5174 2.1874
-5.5417 3.0822 2.1874
-5.7713 2.6272 2.1874
-5.9637 2.1539 2.1874
-6.1175 1.6693 2.1874
-6.2318 1.1726 2.1874
-6.3059 0.6682 2.1874
-6.3392 0.1596 2.1874
-6.3315 -0.3500 2.1874
-6.2829 -0.8574 2.1874
-6.1938 -1.3592 2.1874
-6.0646 -1.8523 2.1874
-5.8962 -2.3334 2.1874
-5.6898 -2.7994 2.1874
-5.4465 -3.2474 2.1874
-5.1681 -3.6743 2.1874
-4.8563 -4.0775 2.1874
-4.5132 -4.4544 2.1874
-4.1408 -4.8025 2.1874
-3.7417 -5.1195 2.1874
-3.3185 -5.4035 2.1874
-2.8738 -5.6526 2.1874
-2.4105 -5.8651 2.1874
-1.9317 -6.0398 2.1874
-1.4403 -6.1754 2.1874
-0.9397 -6.2711 2.1874
-0.4330 -6.3264 2.1874
0.0765 -6.3407 2.1874
0.5855 -6.3141 2.1874
1.0908 -6.2466 2.1874
1.5889 -6.1388 2.1874
0.7024 -2.0262 0.7398
2.5513 -5.8053 2.1874
3.0094 -5.5816 2.1874
3.4479 -5.3218 2.1874
3.8328 -4.9869 2.1696
3.9590 -4.3736 2.0350
4.2975 -4.0415 2.0350
4.6082 -3.6833 2.0350
4.8892 -3.3013 2.0350
5.1385 -2.8979 2.0350
5.3547 -2.4759 2.0350
5.5362 -2.0378 2.0350
5.6820 -1.5866 2.0350
5.7911 -1.1251 2.0350
5.8627 -0.6563 2.0350
5.8965 -0.1834 2.0350
5.8922 0.2908 2.0350
5.8498 0.7631 2.0350
5.7696 1.2305 2.0350
5.6522 1.6899 2.0350
5.4982 2.1384 2.0350
5.3087 2.5731 2.0350
5.0849 2.9911 2.0350
4.8282 3.3898 2.0350
4.5404 3.7667 2.0350
4.2232 4.1191 2.0350
3.9489 4.5255 2.0719
3.7720 5.0973 2.1874
3.3504 5.3838 2.1874
2.9071 5.6355 2.1874
2.4451 5.8508 2.1874
1.9673 6.0283 2.1874
1.4768 6.1668 2.1874
0.9768 6.2655 2.1874
0.4704 6.3237 2.1874
-0.0390 6.3410 2.1874
-0.5482 6.3174 2.1874
-1.0538 6.2530 2.1874
-1.5526 6.1482 2.1874
-2.0414 6.0036 2.1874
-2.5170 5.8203 2.1874
-2.9763 5.5993 2.1874
-3.4164 5.3422 2.1874
-3.8344 5.0505 2.1874
-4.2277 4.7262 2.1874
-4.5936 4.3714 2.1874
-4.9298 3.9884 2.1874
-5.2342 3.5796 2.1874
-5.5048 3.1476 2.1874
-5.7398 2.6953 2.1874
-5.9378 2.2256 2.1874
-6.0973 1.7415 2.1874
-6.2175 1.2462 2.1874
-6.2975 0.7428 2.1874
-6.3368 0.2346 2.1874
-6.3352 -0.2751 2.1874
-6.2926 -0.7830 2.1874
-6.2094 -1.2859 2.1874
-6.0861 -1.7805 2.1874
-5.9234 -2.2635 2.1874
-5.7225 -2.7319 2.1874
-5.4846 -3.1827 2.1874
-5.2112 -3.6129 2.1874
-4.9042 -4.0198 2.1874
-4.5655 -4.4007 2.1874
-4.1973 -4.7532 2.1874
-3.8020 -5.0749 2.1874
-3.3822 -5.3639 2.1874
-2.5539 5.2138 2.1874
-2.9644 4.9918 2.1874
-3.3557 4.7376 2.1874
-3.7254 4.4528 2.1874
-4.0710 4.1392 2.1874
-4.3903 3.7989 2.1874
-4.6812 3.4340 2.1874
-4.9419 3.0469 2.1874
-5.1706 2.6402 2.1874
-5.3660 2.2164 2.1874
-5.5266 1.7782 2.1874
-5.6516 1.3286 2.1874
-5.7400 0.8704 2.1874
-5.7914 0.4066 2.1874
-5.8054 -0.0599 2.1874
-5.7818 -0.5259 2.1874
-5.7209 -0.9886 2.1874
-5.6230 -1.4449 2.1874
-5.4888 -1.8918 2.1874
-5.3191 -2.3265 2.1874
-5.1151 -2.7462 2.1874
-4.8780 -3.1482 2.1874
-4.6094 -3.5298 2.1874
-4.3110 -3.8886 2.1874
-3.9848 -4.2223 2.1874
-3.6328 -4.5287 2.1874
-3.2573 -4.8058 2.1874
-2.8608 -5.0519 2.1874
-2.4458 -5.2653 2.1874
-0.6818 -1.8421 0.7401
-0.5315 -1.8907 0.7400
-0.3779 -1.9271 0.7399
-0.2219 -1.9511 0.7399
-0.0645 -1.9626 0.7399
0.0933 -1.9615 0.7399
0.2506 -1.9477 0.7399
0.4062 -1.9214 0.7399
0.5593 -1.8828 0.7400
0.7088 -1.8320 0.7401
2.5230 -5.2288 2.1874
2.9348 -5.0093 2.1874
3.3276 -4.7574 2.1874
3.6990 -4.4748 2.1874
3.8587 -3.9701 2.0860
4.0634 -3.5583 2.0350
4.3361 -3.2205 2.0350
4.5807 -2.8618 2.0350
4.7958 -2.4846 2.0350
4.9798 -2.0914 2.0350
5.1317 -1.6847 2.0350
5.2504 -1.2671 2.0350
5.3353 -0.8413 2.0350
5.3856 -0.4101 2.0350
5.4011 0.0237 2.0350
5.3818 0.4575 2.0350
5.3276 0.8882 2.0350
5.2391 1.3132 2.0350
5.1167 1.7298 2.0350
4.9612 2.1352 2.0350
4.7737 2.5267 2.0350
4.5554 2.9020 2.0350
4.3076 3.2584 2.0350
4.0320 3.5939 2.0350
3.9312 4.1165 2.1447
3.6595 4.5071 2.1874
3.2857 4.7865 2.1874
2.8906 5.0349 2.1874
2.4769 5.2508 2.1874
0.6990 1.8550 0.7469
0.5478 1.9054 0.7470
0.3931 1.9434 0.7471
0.2357 1.9688 0.7471
0.2250 5.8013 2.1874
-0.2417 5.8006 2.1874
-0.2414 1.9681 0.7471
-0.3987 1.9423 0.7471
-0.5533 1.9038 0.7470
-0.7043 1.8530 0.7469
-2.4920 5.2436 2.1874
-2.9051 5.0265 2.1874
-3.2994 4.7770 2.1874
-3.6724 4.4966 2.1874
-4.0217 4.1871 2.1874
-4.3450 3.8505 2.1874
-4.6402 3.4891 2.1874
-4.9055 3.1052 2.1874
-5.1390 2.7012 2.1874
-5.3394 2.2797 2.1874
-5.5052 1.8435 2.1874
-5.6355 1.3954 2.1874
-5.7294 0.9382 2.1874
-5.7862 0.4751 2.1874
-5.8057 0.0088 2.1874
-5.7876 -0.4575 2.1874
-5.7322 -0.9209 2.1874
-5.6397 -1.3782 2.1874
-5.5108 -1.8268 2.1874
-5.3463 -2.2635 2.1874
-5.1472 -2.6855 2.1874
-4.9149 -3.0903 2.1874
-4.6508 -3.4750 2.1874
-4.3567 -3.8373 2.1874
-4.0344 -4.1748 2.1874
-3.6861 -4.4854 2.1874
-3.3139 -4.7669 2.1874
-2.9204 -5.0177 2.1874
-2.5079 -5.2360 2.1874
-0.7035 -1.8340 0.7401
-0.5539 -1.8843 0.7400
-0.4007 -1.9226 0.7399
-0.2450 -1.9484 0.7399
-0.0877 -1.9617 0.7399
0.0701 -1.9624 0.7399
0.2275 -1.9505 0.7399
0.3835 -1.9261 0.7399
0.5370 -1.8892 0.7400
0.6871 -1.8402 0.7401
2.4610 -5.2583 2.1874
2.8753 -5.0436 2.1874
3.2711 -4.7964 2.1874
3.6458 -4.5182 2.1874
3.8536 -4.0598 2.1090
4.0210 -3.6061 2.0350
4.2977 -3.2715 2.0350
4.5465 -2.9158 2.0350
4.7660 -2.5412 2.0350
4.9547 -2.1502 2.0350
5.1114 -1.7453 2.0350
5.2351 -1.3292 2.0350
5.3249 -0.9044 2.0350
5.3804 -0.4738 2.0350
5.4010 -0.0401 2.0350
5.3868 0.3938 2.0350
5.3378 0.8252 2.0350
5.2543 1.2512 2.0350
5.1368 1.6691 2.0350
4.9862 2.0763 2.0350
4.8033 2.4701 2.0350
4.5894 2.8479 2.0350
4.3458 3.2073 2.0350
4.0742 3.5460 2.0350
3.9348 4.0238 2.1205
3.7125 4.4635 2.1874
3.3421 4.7473 2.1874
2.9500 5.0003 2.1874
2.5388 5.2211 2.1874
0.7209 1.8466 0.7469
0.5703 1.8988 0.7470
0.4160 1.9386 0.7471
0.2590 1.9659 0.7471
0.2936 5.7982 2.1874
-0.1730 5.8031 2.1874
-0.2181 1.9709 0.7471
-0.3757 1.9469 0.7471
-0.5308 1.9102 0.7470
-0.6824 1.8612 0.7469
-2.4298 5.2727 2.1874
-2.8455 5.0606 2.1874
-3.2427 4.8157 2.1874
-3.6190 4.5397 2.1874
-3.9719 4.2343 2.1874
-4.2992 3.9017 2.1874
-4.5986 3.5438 2.1874
-4.8684 3.1630 2.1874
-5.1067 2.7617 2.1874
-5.3120 2.3427 2.1874
-5.4830 1.9085 2.1874
-5.6186 1.4619 2.1874
-5.7179 1.0060 2.1874
-5.7802 0.5435 2.1874
-5.8052 0.0775 2.1874
-5.7926 -0.3890 2.1874
-5.7427 -0.8530 2.1874
-5.6556 -1.3115 2.1874
-5.5320 -1.7614 2.1874
-5.3727 -2.2001 2.1874
-5.1786 -2.6245 2.1874
-4.9511 -3.0319 2.1874
-4.6916 -3.4198 2.1874
-4.4018 -3.7855 2.1874
-4.0835 -4.1268 2.1874
-3.7389 -4.4415 2.1874
-3.3701 -4.7274 2.1874
-2.9795 -4.9828 2.1874
-2.5697 -5.2060 2.1874
-0.7252 -1.8256 0.7401
-0.5761 -1.8777 0.7400
-0.4234 -1.9177 0.7399
-0.2680 -1.9454 0.7399
-0.1109 -1.9606 0.7399
0.0469 -1.9631 0.7399
0.2044 -1.9531 0.7399
0.3607 -1.9304 0.7399
0.5146 -1.8954 0.7400
0.6652 -1.8482 0.7401
2.3986 -5.2870 2.1874
2.8155 -5.0773 2.1874
3.2142 -4.8347 2.1874
3.5921 -4.5610 2.1874
3.8482 -4.1514 2.1328
3.9781 -3.6534 2.0350
4.2587 -3.3221 2.0350
4.5117 -2.9693 2.0350
4.7356 -2.5974 2.0350
4.9290 -2.2087 2.0350
5.0904 -1.8057 2.0350
5.2190 -1.3910 2.0350
5.3139 -0.9673 2.0350
5.3744 -0.5374 2.0350
5.4002 -0.1040 2.0350
5.3911 0.3300 2.0350
5.3472 0.7619 2.0350
5.2687 1.1890 2.0350
5.1562 1.6083 2.0350
5.0104 2.0172 2.0350
4.8322 2.4131 2.0350
4.6227 2.7934 2.0350
4.3835 3.1556 2.0350
4.1159 3.4975 2.0350
3.9382 3.9331 2.0971
3.7651 4.4193 2.1874
3.3980 4.7074 2.1874
3.0089 4.9651 2.1874
2.6004 5.1907 2.1874
0.7427 1.8379 0.7469
0.5927 1.8918 0.7470
0.4389 1.9335 0.7470
0.2822 1.9627 0.7471
0.3621 5.7944 2.1874
-0.1044 5.8047 2.1874
-0.1948 1.9733 0.7471
-0.3526 1.9512 0.7471
-0.5081 1.9164 0.7470
-0.6603 1.8692 0.7469
-2.3673 5.3011 2.1874
-2.7854 5.0939 2.1874
-3.1855 4.8537 2.1874
-3.5650 4.5822 2.1874
-3.9215 4.2810 2.1874
-4.2527 3.9522 2.1874
-4.5564 3.5979 2.1874
-4.8306 3.2203 2.1874
-5.0737 2.8220 2.1874
-5.2839 2.4054 2.1874
-5.4601 1.9732 2.1874
-5.6009 1.5283 2.1874
-5.7056 1.0735 2.1874
-5.7733 0.6118 2.1874
-5.8038 0.1461 2.1874
-5.7968 -0.3205 2.1874
-5.7524 -0.7850 2.1874
-5.6707 -1.2445 2.1874
-5.5525 -1.6959 2.1874
-5.3983 -2.1364 2.1874
-5.2093 -2.5630 2.1874
-4.9866 -2.9731 2.1874
-4.7317 -3.3640 2.1874
-4.4462 -3.7332 2.1874
-4.1320 -4.0782 2.1874
-3.7911 -4.3969 2.1874
-3.4258 -4.6872 2.1874
-3.0382 -4.9472 2.1874
-2.6311 -5.1752 2.1874
-0.7467 -1.8169 0.7401
-0.5983 -1.8708 0.7400
-0.4461 -1.9126 0.7400
-0.2910 -1.9421 0.7399
-0.1341 -1.9591 0.7399
0.0237 -1.9635 0.7399
0.1813 -1.9553 0.7399
0.3378 -1.9345 0.7399
0.4921 -1.9013 0.7400
0.6433 -1.8559 0.7401
2.3359 -5.3150 2.1874
2.7552 -5.1102 2.1874
3.1568 -4.8724 2.1874
3.5379 -4.6032 2.1874
3.8427 -4.2451 2.1574
3.9346 -3.7002 2.0350
4.2191 -3.3723 2.0350
4.4763 -3.0225 2.0350
4.7046 -2.6532 2.0350
4.9025 -2.2668 2.0350
5.0687 -1.8657 2.0350
5.2022 -1.4526 2.0350
5.3020 -1.0301 2.0350
5.3677 -0.6009 2.0350
5.3986 -0.1679 2.0350
5.3946 0.2662 2.0350
5.3558 0.6987 2.0350
5.2824 1.1266 2.0350
5.1748 1.5472 2.0350
5.0339 1.9578 2.0350
4.8604 2.3558 2.0350
4.6555 2.7385 2.0350
4.4205 3.1036 2.0350
4.1569 3.4486 2.0350
3.9414 3.8444 2.0745
3.8171 4.3744 2.1874
3.4534 4.6669 2.1874
3.0674 4.9292 2.1874
2.6616 5.1596 2.1874
0.7643 1.8289 0.7469
0.6151 1.8847 0.7470
0.4618 1.9282 0.7470
0.3054 1.9592 0.7471
0.4307 5.7897 2.1874
-0.0357 5.8056 2.1874
-0.1714 1.9755 0.7471
-0.3295 1.9552 0.7471
-0.4854 1.9223 0.7470
-0.6382 1.8769 0.7469
-2.3044 5.3288 2.1874
-2.7250 5.1265 2.1874
-3.1279 4.8910 2.1874
-3.5106 4.6240 2.1874
-3.8706 4.3271 2.1874
-4.2057 4.0023 2.1874
-4.5135 3.6516 2.1874
-4.7922 3.2773 2.1874
-5.0400 2.8818 2.1874
-5.2551 2.4677 2.1874
-5.4363 2.0376 2.1874
-5.5824 1.5944 2.1874
-5.6925 1.1409 2.1874
-5.7657 0.6801 2.1874
-5.8017 0.2148 2.1874
-5.8002 -0.2519 2.1874
-5.7612 -0.7169 2.1874
-5.6850 -1.1773 2.1874
-5.5721 -1.6301 2.1874
-5.4232 -2.0724 2.1874
-5.2392 -2.5012 2.1874
-5.0214 -2.9139 2.1874
-4.7712 -3.3078 2.1874
-4.4901 -3.6803 2.1874
-4.1800 -4.0291 2.1874
-3.8429 -4.3518 2.1874
-3.4810 -4.6463 2.1874
-3.0965 -4.9109 2.1874
-2.3511 4.7998 2.1874
-2.7290 4.5954 2.1874
-3.0892 4.3614 2.1874
-3.4295 4.0992 2.1874
-3.7477 3.8105 2.1874
-4.0416 3.4972 2.1874
-4.3095 3.1613 2.1874
-4.5494 2.8050 2.1874
-4.7600 2.4305 2.1874
-4.9399 2.0404 2.1874
-5.0878 1.6370 2.1874
-5.2028 1.2231 2.1874
-5.2842 0.8013 2.1874
-5.3315 0.3743 2.1874
-5.3444 -0.0551 2.1874
-5.3227 -0.4842 2.1874
-5.2666 -0.9101 2.1874
-5.1765 -1.3301 2.1874
-5.0529 -1.7416 2.1874
-4.8967 -2.1418 2.1874
-4.7089 -2.5282 2.1874
-4.4906 -2.8982 2.1874
-4.2434 -3.2495 2.1874
-3.9687 -3.5798 2.1874
-3.6683 -3.8870 2.1874
-3.3443 -4.1690 2.1874
-2.9987 -4.4242 2.1874
-2.6336 -4.6507 2.1874
-0.7622 -1.6408 0.7405
-0.6278 -1.6965 0.7403
-0.4895 -1.7412 0.7403
-0.3481 -1.7748 0.7402
-0.2044 -1.7969 0.7402
-0.0594 -1.8075 0.7401
0.0860 -1.8064 0.7402
0.2308 -1.7937 0.7402
0.3741 -1.7695 0.7402
0.5151 -1.7339 0.7403
0.6527 -1.6871 0.7404
2.3226 -4.8136 2.1874
2.7017 -4.6115 2.1874
3.0634 -4.3796 2.1874
3.4052 -4.1194 2.1874
3.7251 -3.8326 2.1874
3.8620 -3.3819 2.1010
3.9917 -2.9647 2.0350
4.2170 -2.6345 2.0350
4.4149 -2.2873 2.0350
4.5844 -1.9253 2.0350
4.7242 -1.5509 2.0350
4.8335 -1.1665 2.0350
4.9116 -0.7745 2.0350
4.9579 -0.3776 2.0350
4.9722 0.0219 2.0350
4.9544 0.4211 2.0350
4.9046 0.8177 2.0350
4.8231 1.2090 2.0350
4.7104 1.5924 2.0350
4.5673 1.9656 2.0350
4.3947 2.3261 2.0350
4.1936 2.6715 2.0350
3.9655 2.9997 2.0350
3.9237 3.4974 2.1512
3.6913 3.8652 2.1874
3.3689 4.1492 2.1874
3.0248 4.4064 2.1874
2.6611 4.6351 2.1874
0.7782 1.6497 0.7465
0.6433 1.7071 0.7466
0.5041 1.7534 0.7467
0.3617 1.7884 0.7468
0.2169 1.8118 0.7468
0.0707 1.8234 0.7468
-0.0760 1.8232 0.7468
-0.2221 1.8111 0.7468
-0.3669 1.7873 0.7468
-0.5092 1.7520 0.7467
-0.6482 1.7052 0.7466
-2.2941 4.8272 2.1874
-2.6744 4.6274 2.1874
-3.0374 4.3977 2.1874
-3.3808 4.1395 2.1874
-3.7024 3.8546 2.1874
-4.0000 3.5448 2.1874
-4.2718 3.2121 2.1874
-4.5159 2.8586 2.1874
-4.7309 2.4867 2.1874
-4.9154 2.0987 2.1874
-5.0680 1.6971 2.1874
-5.1880 1.2846 2.1874
-5.2744 0.8638 2.1874
-5.3267 0.4373 2.1874
-5.3446 0.0081 2.1874
-5.3280 -0.4212 2.1874
-5.2770 -0.8477 2.1874
-5.1919 -1.2688 2.1874
-5.0732 -1.6817 2.1874
-4.9217 -2.0837 2.1874
-4.7385 -2.4723 2.1874
-4.5246 -2.8449 2.1874
-4.2815 -3.1991 2.1874
-4.0107 -3.5326 2.1874
-3.7140 -3.8433 2.1874
-3.3934 -4.1292 2.1874
-3.0508 -4.3884 2.1874
-2.6885 -4.6193 2.1874
-0.7815 -1.6317 0.7405
-0.6479 -1.6890 0.7404
-0.5101 -1.7353 0.7403
-0.3690 -1.7706 0.7402
-0.2256 -1.7944 0.7402
-0.0808 -1.8066 0.7402
0.0646 -1.8073 0.7402
0.2095 -1.7963 0.7402
0.3532 -1.7738 0.7402
0.4945 -1.7398 0.7403
0.6327 -1.6947 0.7404
0.7669 -1.6386 0.7405
2.6470 -4.6431 2.1874
3.0114 -4.4155 2.1874
3.3563 -4.1594 2.1874
3.6795 -3.8764 2.1874
3.8576 -3.4595 2.1207
3.9564 -3.0118 2.0350
4.1855 -2.6842 2.0350
4.3876 -2.3394 2.0350
4.5613 -1.9794 2.0350
4.7055 -1.6067 2.0350
4.8194 -1.2236 2.0350
4.9021 -0.8326 2.0350
4.9531 -0.4362 2.0350
4.9721 -0.0369 2.0350
4.9591 0.3625 2.0350
4.9139 0.7596 2.0350
4.8370 1.1518 2.0350
4.7289 1.5366 2.0350
4.5902 1.9114 2.0350
4.4219 2.2739 2.0350
4.2249 2.6217 2.0350
4.0007 2.9526 2.0350
3.9267 3.4175 2.1305
3.7367 3.8213 2.1874
3.4177 4.1091 2.1874
3.0767 4.3703 2.1874
2.7157 4.6033 2.1874
2.3372 4.8065 2.1874
0.6634 1.6993 0.7466
0.5248 1.7473 0.7467
0.3828 1.7840 0.7468
0.2383 1.8091 0.7468
0.0923 1.8224 0.7468
-0.0544 1.8240 0.7468
-0.2007 1.8137 0.7468
-0.3457 1.7916 0.7468
-0.4884 1.7579 0.7467
-0.6280 1.7128 0.7466
-0.7634 1.6566 0.7465
-2.6195 4.6587 2.1874
-2.9852 4.4333 2.1874
-3.3316 4.1792 2.1874
-3.6565 3.8981 2.1874
-3.9578 3.5919 2.1874
-4.2335 3.2624 2.1874
-4.4818 2.9118 2.1874
-4.7012 2.5424 2.1874
-4.8902 2.1566 2.1874
-5.0476 1.7569 2.1874
-5.1724 1.3459 2.1874
-5.2638 0.9261 2.1874
-5.3212 0.5003 2.1874
-5.3442 0.0713 2.1874
-5.3326 -0.3581 2.1874
-5.2866 -0.7853 2.1874
-5.2065 -1.2073 2.1874
-5.0927 -1.6216 2.1874
-4.9460 -2.0254 2.1874
-4.7674 -2.4160 2.1874
-4.5579 -2.7912 2.1874
-4.3190 -3.1482 2.1874
-4.0522 -3.4849 2.1874
-3.7592 -3.7992 2.1874
-3.4420 -4.0888 2.1874
-3.1025 -4.3520 2.1874
-2.7429 -4.5871 2.1874
-2.3656 -4.7926 2.1874
-0.6678 -1.6812 0.7404
-0.5306 -1.7292 0.7403
-0.3899 -1.7661 0.7402
-0.2468 -1.7916 0.7402
-0.1021 -1.8056 0.7402
0.0432 -1.8079 0.7401
0.1883 -1.7987 0.7402
0.3322 -1.7778 0.7402
0.4739 -1.7455 0.7403
0.6126 -1.7020 0.7403
0.7475 -1.6475 0.7404
2.5919 -4.6741 2.1874
2.9589 -4.4508 2.1874
3.3068 -4.1988 2.1874
3.6334 -3.9197 2.1874
3.8530 -3.5385 2.1411
3.9205 -3.0583 2.0350
4.1535 -2.7336 2.0350
4.3596 -2.3911 2.0350
4.5376 -2.0333 2.0350
4.6862 -1.6623 2.0350
4.8046 -1.2805 2.0350
4.8919 -0.8905 2.0350
4.9476 -0.4947 2.0350
4.9714 -0.0958 2.0350
4.9630 0.3038 2.0350
4.9226 0.7014 2.0350
4.8503 1.0945 2.0350
4.7467 1.4806 2.0350
4.6125 1.8570 2.0350
4.4484 2.2215 2.0350
4.2557 2.5716 2.0350
4.0354 2.9051 2.0350
3.9296 3.3392 2.1105
3.7817 3.7768 2.1874
3.4661 4.0684 2.1874
3.1282 4.3336 2.1874
2.7700 4.5708 2.1874
2.3939 4.7785 2.1874
0.6834 1.6913 0.7466
0.5455 1.7410 0.7467
0.4039 1.7793 0.7468
0.2597 1.8061 0.7468
0.1138 1.8212 0.7468
-0.0328 1.8245 0.7468
-0.1792 1.8159 0.7468
-0.3245 1.7956 0.7468
-0.4676 1.7636 0.7467
-0.6077 1.7201 0.7466
-0.7438 1.6655 0.7465
-2.5642 4.6894 2.1874
-2.9326 4.4683 2.1874
-3.2820 4.2183 2.1874
-3.6101 3.9411 2.1874
-3.9150 3.6384 2.1874
-4.1946 3.3122 2.1874
-4.4471 2.9646 2.1874
-4.6708 2.5979 2.1874
-4.8644 2.2143 2.1874
-5.0265 1.8165 2.1874
-5.1561 1.4069 2.1874
-5.2525 0.9883 2.1874
-5.3149 0.5632 2.1874
-5.3430 0.1345 2.1874
-5.3365 -0.2950 2.1874
-5.2956 -0.7227 2.1874
-5.2204 -1.1456 2.1874
-5.1115 -1.5612 2.1874
-4.9696 -1.9667 2.1874
-4.7956 -2.3595 2.1874
-4.5906 -2.7370 2.1874
-4.3560 -3.0969 2.1874
-4.0932 -3.4367 2.1874
-3.8039 -3.7544 2.1874
-3.4901 -4.0478 2.1874
-3.1537 -4.3150 2.1874
-2.7970 -4.5544 2.1874
-2.4222 -4.7643 2.1874
-0.6877 -1.6732 0.7404
-0.5510 -1.7228 0.7403
-0.4108 -1.7614 0.7402
-0.2680 -1.7886 0.7402
-0.1235 -1.8042 0.7402
0.0218 -1.8083 0.7401
0.1670 -1.8008 0.7402
0.3111 -1.7816 0.7402
0.4532 -1.7510 0.7403
0.5924 -1.7091 0.7403
0.7279 -1.6562 0.7404
2.5364 -4.7044 2.1874
2.9061 -4.4855 2.1874
3.2569 -4.2376 2.1874
3.5868 -3.9624 2.1874
3.8483 -3.6191 2.1621
3.8876 -3.1073 2.0369
4.1208 -2.7825 2.0350
4.3310 -2.4425 2.0350
4.5132 -2.0868 2.0350
4.6662 -1.7176 2.0350
4.7891 -1.3373 2.0350
4.8810 -0.9483 2.0350
4.9414 -0.5532 2.0350
4.9699 -0.1545 2.0350
4.9662 0.2451 2.0350
4.9305 0.6432 2.0350
4.8629 1.0371 2.0350
4.7639 1.4243 2.0350
4.6341 1.8023 2.0350
4.4744 2.1687 2.0350
4.2858 2.5210 2.0350
4.0695 2.8571 2.0350
3.9324 3.2623 2.0911
3.8261 3.7318 2.1874
3.5140 4.0271 2.1874
3.1792 4.2963 2.1874
2.8239 4.5377 2.1874
2.4503 4.7499 2.1874
0.7034 1.6831 0.7466
0.5660 1.7344 0.7467
0.4249 1.7744 0.7467
0.2811 1.8029 0.7468
0.1354 1.8197 0.7468
-0.0112 1.8248 0.7468
-0.1577 1.8179 0.7468
-0.3032 1.7993 0.7468
-0.4467 1.7690 0.7467
-0.5873 1.7272 0.7467
-0.7240 1.6742 0.7466
-2.5086 4.7194 2.1874
-2.8795 4.5026 2.1874
-3.2318 4.2568 2.1874
-3.5633 3.9835 2.1874
-3.8717 3.6845 2.1874
-4.1551 3.3616 2.1874
-4.4117 3.0170 2.1874
-4.6397 2.6530 2.1874
-4.8378 2.2718 2.1874
-5.0046 1.8758 2.1874
-5.1391 1.4678 2.1874
-5.2404 1.0503 2.1874
-5.3079 0.6260 2.1874
-5.3410 0.1977 2.1874
-5.3396 -0.2319 2.1874
-5.3037 -0.6600 2.1874
-5.2336 -1.0838 2.1874
-5.1296 -1.5007 2.1874
-4.9926 -1.9078 2.1874
-4.8232 -2.3026 2.1874
-4.6227 -2.6825 2.1874
-4.3923 -3.0451 2.1874
-4.1335 -3.3881 2.1874
-3.8481 -3.7090 2.1874
-3.5377 -4.0062 2.1874
-3.2045 -4.2774 2.1874
-2.8507 -4.5210 2.1874
-0.7418 1.5144 0.7463
-2.5239 4.2501 2.1874
-2.8571 4.0336 2.1874
-3.1718 3.7911 2.1874
-3.4660 3.5241 2.1874
-3.7379 3.2344 2.1874
-3.9856 2.9237 2.1874
-4.2075 2.5942 2.1874
-4.4023 2.2479 2.1874
-4.5686 1.8870 2.1874
-4.7054 1.5140 2.1874
-4.8118 1.1312 2.1874
-4.8871 0.7411 2.1874
-4.9308 0.3462 2.1874
-4.9427 -0.0510 2.1874
-4.9227 -0.4478 2.1874
-4.8708 -0.8417 2.1874
-4.7875 -1.2302 2.1874
-4.6732 -1.6107 2.1874
-4.5287 -1.9808 2.1874
-4.3550 -2.3382 2.1874
-4.1531 -2.6804 2.1874
-3.9244 -3.0053 2.1874
-3.6704 -3.3108 2.1874
-3.3926 -3.5949 2.1874
-3.0930 -3.8557 2.1874
-2.7733 -4.0917 2.1874
-2.4357 -4.3012 2.1874
-0.7051 -1.5179 0.7407
-0.5808 -1.5695 0.7406
-0.4529 -1.6109 0.7405
-0.3220 -1.6419 0.7405
-0.1891 -1.6624 0.7404
-0.0549 -1.6722 0.7404
0.0795 -1.6712 0.7404
0.2135 -1.6595 0.7404
0.3461 -1.6371 0.7405
0.4765 -1.6041 0.7405
0.6039 -1.5608 0.7406
0.7274 -1.5075 0.7407
2.4987 -4.2649 2.1874
2.8332 -4.0504 2.1874
3.1493 -3.8098 2.1874
3.4451 -3.5446 2.1874
3.7187 -3.2564 2.1874
3.8621 -2.8685 2.1290
3.9000 -2.4366 2.0350
4.0831 -2.1154 2.0350
4.2399 -1.7807 2.0350
4.3692 -1.4344 2.0350
4.4703 -1.0788 2.0350
4.5425 -0.7163 2.0350
4.5853 -0.3492 2.0350
4.5986 0.0202 2.0350
4.5821 0.3895 2.0350
4.5360 0.7562 2.0350
4.4606 1.1181 2.0350
4.3564 1.4727 2.0350
4.2240 1.8179 2.0350
4.0644 2.1513 2.0350
3.9299 2.5035 2.0620
3.9143 2.9609 2.1720
3.6899 3.2890 2.1874
3.4138 3.5747 2.1874
3.1157 3.8374 2.1874
2.7974 4.0752 2.1874
2.4611 4.2867 2.1874
0.7195 1.5252 0.7463
0.5947 1.5783 0.7464
0.4661 1.6211 0.7465
0.3344 1.6535 0.7465
0.2006 1.6751 0.7466
0.0654 1.6858 0.7466
-0.0702 1.6856 0.7466
-0.2054 1.6745 0.7466
-0.3392 1.6525 0.7465
-0.4708 1.6198 0.7465
-0.5993 1.5765 0.7464
-0.7239 1.5231 0.7463
