ply
format ascii 1.0
element vertex 2183
property float32 x
property float32 y
property float32 z
end_header
-3.7101 -0.8416 2.0378
-3.6359 -1.1415 2.0378
-3.5385 -1.4353 2.0378
-3.4185 -1.7211 2.0378
-3.2763 -1.9972 2.0378
-3.1126 -2.2620 2.0378
-2.9284 -2.5138 2.0378
-2.7245 -2.7510 2.0378
-2.5020 -2.9720 2.0378
-2.2622 -3.1755 2.0378
-0.7399 -1.2392 0.7516
-0.6382 -1.2956 0.7492
-0.5322 -1.3437 0.7468
-0.4228 -1.3832 0.7444
-0.3106 -1.4138 0.7419
-0.1962 -1.4353 0.7395
-0.0806 -1.4475 0.7371
0.0357 -1.4505 0.7347
0.1519 -1.4442 0.7324
0.2671 -1.4286 0.7302
0.3808 -1.4038 0.7280
0.4921 -1.3700 0.7260
0.6004 -1.3274 0.7240
0.7049 -1.2763 0.7222
1.4729 -2.2265 1.3183
2.5512 -3.2588 2.0378
2.8100 -3.0532 2.0378
3.0513 -2.8265 2.0378
3.2733 -2.5801 2.0378
3.4744 -2.3156 2.0378
3.6530 -2.0350 2.0378
3.8076 -1.7402 2.0378
3.8576 -1.4043 1.9966
3.8801 -1.0720 1.9568
3.8998 -0.7500 1.9301
3.9168 -0.4344 1.9156
3.9316 -0.1214 1.9130
3.9442 0.1921 1.9220
3.9548 0.5101 1.9431
3.9634 0.8360 1.9767
3.9701 1.1740 2.0239
3.8828 1.4934 2.0378
3.7429 1.7935 2.0378
3.5789 2.0805 2.0378
3.3920 2.3524 2.0378
3.1839 2.6073 2.0378
2.9561 2.8436 2.0378
2.7103 3.0599 2.0378
2.4483 3.2548 2.0378
0.7832 1.2358 0.7348
0.6814 1.2937 0.7372
0.5753 1.3432 0.7396
0.4655 1.3839 0.7421
0.3527 1.4157 0.7445
0.2378 1.4383 0.7470
0.1214 1.4516 0.7494
0.0043 1.4554 0.7518
-0.1127 1.4498 0.7541
-0.2289 1.4348 0.7564
-0.3435 1.4105 0.7585
-0.4558 1.3770 0.7606
-0.5650 1.3346 0.7626
-0.6704 1.2835 0.7644
0.1990 -1.3431 0.7320
0.3061 -1.3241 0.7300
0.4112 -1.2965 0.7280
0.5138 -1.2606 0.7262
0.6133 -1.2166 0.7244
0.7089 -1.1648 0.7228
2.2603 -3.1235 2.0378
2.5084 -2.9413 2.0378
2.7411 -2.7389 2.0378
2.9565 -2.5175 2.0378
3.1531 -2.2787 2.0378
3.3294 -2.0241 2.0378
3.4841 -1.7553 2.0378
3.6160 -1.4742 2.0378
3.7241 -1.1833 2.0378
3.8076 -0.8841 2.0378
3.8658 -0.5789 2.0378
3.8983 -0.2700 2.0378
3.9050 0.0405 2.0378
3.8858 0.3502 2.0378
3.8409 0.6570 2.0378
3.7707 0.9587 2.0378
3.6758 1.2532 2.0378
3.5570 1.5383 2.0378
3.4152 1.8122 2.0378
3.2515 2.0729 2.0378
3.0673 2.3187 2.0378
2.8640 2.5481 2.0378
2.6430 2.7594 2.0378
2.4061 2.9515 2.0378
0.7765 1.1254 0.7343
0.6836 1.1831 0.7365
0.5863 1.2331 0.7388
0.4853 1.2751 0.7411
0.3813 1.3089 0.7433
0.2748 1.3341 0.7456
0.1667 1.3507 0.7479
0.0575 1.3585 0.7501
-0.0519 1.3575 0.7523
-0.1609 1.3477 0.7545
-0.2687 1.3292 0.7566
-0.3747 1.3020 0.7585
-0.4781 1.2663 0.7604
-0.5784 1.2225 0.7622
-0.6747 1.1707 0.7639
-2.0411 2.9591 2.0378
-2.2681 2.7770 2.0378
-2.4798 2.5780 2.0378
-2.6750 2.3636 2.0378
-2.8526 2.1350 2.0378
-3.0118 1.8936 2.0378
-3.1516 1.6408 2.0378
-3.2713 1.3782 2.0378
-3.3702 1.1073 2.0378
-3.4478 0.8297 2.0378
-3.5036 0.5469 2.0378
-3.5375 0.2606 2.0378
-3.5490 -0.0275 2.0378
-3.5382 -0.3159 2.0378
-3.5051 -0.6027 2.0378
-3.4497 -0.8864 2.0378
-3.3724 -1.1654 2.0378
-3.2735 -1.4378 2.0378
-3.1534 -1.7022 2.0378
-3.0129 -1.9569 2.0378
-2.8525 -2.2004 2.0378
-2.6732 -2.4311 2.0378
-2.4759 -2.6475 2.0378
-2.2616 -2.8482 2.0378
-0.7501 -1.1195 0.7524
-0.6579 -1.1772 0.7503
-0.5614 -1.2273 0.7480
-0.4612 -1.2694 0.7458
-0.3580 -1.3035 0.7435
-0.2524 -1.3291 0.7412
-0.1450 -1.3463 0.7390
-0.0367 -1.3547 0.7367
0.0720 -1.3545 0.7345
0.1803 -1.3456 0.7324
0.2876 -1.3280 0.7303
0.3931 -1.3019 0.7284
0.4962 -1.2674 0.7265
0.5963 -1.2248 0.7247
0.6926 -1.1744 0.7230
0.7846 -1.1163 0.7215
2.4665 -2.9744 2.0378
2.7019 -2.7754 2.0378
2.9205 -2.5572 2.0378
3.1204 -2.3213 2.0378
3.3004 -2.0692 2.0378
3.4589 -1.8028 2.0378
3.5948 -1.5239 2.0378
3.7071 -1.2344 2.0378
3.7949 -0.9364 2.0378
3.8575 -0.6322 2.0378
3.8945 -0.3237 2.0378
3.9057 -0.0134 2.0378
3.8910 0.2967 2.0378
3.8505 0.6041 2.0378
3.7846 0.9069 2.0378
3.6940 1.2027 2.0378
3.5792 1.4896 2.0378
3.4413 1.7656 2.0378
3.2814 2.0287 2.0378
3.1007 2.2772 2.0378
2.9005 2.5096 2.0378
2.6825 2.7241 2.0378
2.4482 2.9197 2.0378
0.7922 1.1147 0.7340
0.7001 1.1736 0.7361
0.6035 1.2250 0.7384
0.5031 1.2684 0.7407
0.3995 1.3036 0.7429
0.2934 1.3303 0.7452
0.1855 1.3484 0.7475
0.0765 1.3578 0.7498
-0.0329 1.3583 0.7520
-0.1421 1.3500 0.7541
-0.2501 1.3330 0.7562
-0.3565 1.3073 0.7582
-0.4604 1.2731 0.7601
-0.5613 1.2307 0.7619
-0.6583 1.1803 0.7636
-0.7510 1.1222 0.7651
-2.2298 2.8098 2.0378
-2.4442 2.6136 2.0378
-2.6424 2.4018 2.0378
-2.8231 2.1756 2.0378
-2.9856 1.9363 2.0378
-3.1288 1.6854 2.0378
-3.2520 1.4244 2.0378
-3.3545 1.1548 2.0378
-3.4359 0.8782 2.0378
-3.4955 0.5962 2.0378
-3.5332 0.3104 2.0378
-3.5486 0.0225 2.0378
-3.5417 -0.2659 2.0378
-3.5124 -0.5532 2.0378
-3.4609 -0.8376 2.0378
-3.3873 -1.1174 2.0378
-3.2921 -1.3911 2.0378
-3.1757 -1.6570 2.0378
-3.0387 -1.9135 2.0378
-2.8817 -2.1591 2.0378
-2.7056 -2.3921 2.0378
-2.5113 -2.6111 2.0378
-2.2999 -2.8146 2.0378
-0.7656 -1.1088 0.7528
-0.6742 -1.1677 0.7506
-0.5784 -1.2191 0.7484
-0.4788 -1.2627 0.7462
-0.3761 -1.2982 0.7439
-0.2708 -1.3253 0.7416
-0.1637 -1.3439 0.7394
-0.0555 -1.3539 0.7371
0.0532 -1.3552 0.7349
0.1616 -1.3477 0.7328
0.2691 -1.3317 0.7307
0.3750 -1.3070 0.7287
0.4786 -1.2740 0.7268
0.5792 -1.2328 0.7250
0.6762 -1.1837 0.7233
0.7690 -1.1269 0.7218
2.4241 -3.0068 2.0378
2.6623 -2.8113 2.0378
2.8839 -2.5963 2.0378
3.0872 -2.3634 2.0378
3.2707 -2.1140 2.0378
3.4330 -1.8499 2.0378
3.5730 -1.5730 2.0378
3.6894 -1.2852 2.0378
3.7815 -0.9886 2.0378
3.8485 -0.6853 2.0378
3.8900 -0.3774 2.0378
3.9056 -0.0672 2.0378
3.8954 0.2430 2.0378
3.8593 0.5511 2.0378
3.7979 0.8548 2.0378
3.7114 1.1521 2.0378
3.6008 1.4406 2.0378
3.4668 1.7187 2.0378
3.3106 1.9841 2.0378
3.1334 2.2353 2.0378
2.9365 2.4705 2.0378
2.7215 2.6883 2.0378
2.4899 2.8872 2.0378
0.8076 1.1037 0.7336
0.7164 1.1640 0.7358
0.6205 1.2167 0.7380
0.5207 1.2615 0.7403
0.4176 1.2981 0.7425
0.3119 1.3263 0.7448
0.2043 1.3459 0.7471
0.0954 1.3568 0.7494
-0.0140 1.3589 0.7516
-0.1232 1.3521 0.7538
-0.2315 1.3366 0.7559
-0.3382 1.3124 0.7579
-0.4426 1.2796 0.7598
-0.5440 1.2386 0.7616
-0.6418 1.1896 0.7633
-0.7353 1.1328 0.7649
-2.1911 2.8421 2.0378
-2.4082 2.6488 2.0378
-2.6092 2.4396 2.0378
-2.7931 2.2157 2.0378
-2.9588 1.9786 2.0378
-3.1054 1.7296 2.0378
-3.2321 1.4703 2.0378
-3.3383 1.2021 2.0378
-3.4233 0.9266 2.0378
-3.4868 0.6454 2.0378
-3.5283 0.3602 2.0378
-3.5475 0.0725 2.0378
-3.5445 -0.2160 2.0378
-3.5191 -0.5035 2.0378
-3.4714 -0.7885 2.0378
-3.4016 -1.0693 2.0378
-3.3102 -1.3442 2.0378
-3.1974 -1.6116 2.0378
-3.0639 -1.8698 2.0378
-2.9103 -2.1174 2.0378
-2.7374 -2.3526 2.0378
-2.5462 -2.5742 2.0378
-2.3377 -2.7805 2.0378
-2.1130 -2.9703 2.0378
-0.6904 -1.1580 0.7510
-0.5953 -1.2108 0.7488
-0.4963 -1.2557 0.7466
-0.3941 -1.2926 0.7443
-0.2892 -1.3212 0.7420
-0.1824 -1.3413 0.7397
-0.0743 -1.3528 0.7375
0.0344 -1.3556 0.7353
0.1429 -1.3497 0.7331
0.2506 -1.3351 0.7311
0.3568 -1.3119 0.7290
0.4608 -1.2803 0.7271
0.5620 -1.2405 0.7253
0.6597 -1.1927 0.7236
0.7532 -1.1373 0.7220
2.3812 -3.0386 2.0378
2.6221 -2.8466 2.0378
2.8467 -2.6349 2.0378
3.0533 -2.4050 2.0378
3.2404 -2.1583 2.0378
3.4065 -1.8967 2.0378
3.5504 -1.6219 2.0378
3.6709 -1.3358 2.0378
3.7673 -1.0406 2.0378
3.8387 -0.7382 2.0378
3.8846 -0.4310 2.0378
3.9048 -0.1210 2.0378
3.8990 0.1894 2.0378
3.8674 0.4980 2.0378
3.8103 0.8026 2.0378
3.7282 1.1010 2.0378
3.6217 1.3913 2.0378
3.4917 1.6713 2.0378
3.3393 1.9391 2.0378
3.1656 2.1929 2.0378
2.9720 2.4310 2.0378
2.7600 2.6518 2.0378
2.5312 2.8541 2.0378
2.2872 3.0365 2.0378
0.7325 1.1540 0.7354
0.6374 1.2081 0.7376
0.5383 1.2543 0.7399
0.4357 1.2924 0.7421
0.3304 1.3220 0.7444
0.2231 1.3432 0.7467
0.1143 1.3555 0.7490
0.0050 1.3591 0.7512
-0.1043 1.3539 0.7534
-0.2128 1.3399 0.7555
-0.3199 1.3172 0.7575
-0.4247 1.2859 0.7595
-0.5267 1.2463 0.7613
-0.6251 1.1986 0.7630
0.1874 -1.2582 0.7328
0.2876 -1.2404 0.7308
0.3861 -1.2145 0.7290
0.4822 -1.1809 0.7273
0.5753 -1.1397 0.7256
0.6649 -1.0912 0.7241
0.7502 -1.0356 0.7227
2.3472 -2.7496 2.0378
2.5643 -2.5601 2.0378
2.7654 -2.3530 2.0378
2.9488 -2.1296 2.0378
3.1133 -1.8915 2.0378
3.2577 -1.6404 2.0378
3.3807 -1.3778 2.0378
3.4816 -1.1059 2.0378
3.5595 -0.8264 2.0378
3.6138 -0.5413 2.0378
3.6443 -0.2526 2.0378
3.6507 0.0372 2.0378
3.6329 0.3267 2.0378
3.5912 0.6133 2.0378
3.5258 0.8953 2.0378
3.4375 1.1705 2.0378
3.3268 1.4371 2.0378
3.1947 1.6932 2.0378
3.0421 1.9372 2.0378
2.8704 2.1673 2.0378
2.6807 2.3821 2.0378
2.4744 2.5801 2.0378
2.2533 2.7603 2.0378
0.7280 1.0535 0.7349
0.6410 1.1075 0.7370
0.5499 1.1543 0.7391
0.4553 1.1936 0.7412
0.3579 1.2252 0.7433
0.2582 1.2489 0.7455
0.1570 1.2644 0.7476
0.0548 1.2717 0.7497
-0.0476 1.2708 0.7518
-0.1497 1.2616 0.7538
-0.2506 1.2442 0.7557
-0.3498 1.2188 0.7576
-0.4467 1.1854 0.7593
-0.5405 1.1444 0.7610
-0.6308 1.0959 0.7625
-0.7168 1.0404 0.7640
-2.1252 2.6046 2.0378
-2.3240 2.4182 2.0378
-2.5074 2.2173 2.0378
-2.6743 2.0029 2.0378
-2.8239 1.7765 2.0378
-2.9552 1.5394 2.0378
-3.0677 1.2930 2.0378
-3.1606 1.0388 2.0378
-3.2335 0.7782 2.0378
-3.2860 0.5128 2.0378
-3.3177 0.2441 2.0378
-3.3284 -0.0263 2.0378
-3.3181 -0.2969 2.0378
-3.2868 -0.5661 2.0378
-3.2347 -0.8323 2.0378
-3.1618 -1.0940 2.0378
-3.0687 -1.3495 2.0378
-2.9558 -1.5974 2.0378
-2.8236 -1.8361 2.0378
-2.6728 -2.0642 2.0378
-2.5043 -2.2802 2.0378
-2.3189 -2.4828 2.0378
-2.1176 -2.6706 2.0378
-0.7016 -1.0487 0.7519
-0.6153 -1.1027 0.7498
-0.5249 -1.1496 0.7477
-0.4310 -1.1892 0.7456
-0.3343 -1.2211 0.7435
-0.2354 -1.2451 0.7414
-0.1349 -1.2611 0.7392
-0.0334 -1.2691 0.7371
0.0684 -1.2689 0.7351
0.1699 -1.2605 0.7331
0.2703 -1.2440 0.7312
0.3692 -1.2196 0.7293
0.4657 -1.1873 0.7275
0.5594 -1.1474 0.7259
0.6496 -1.1001 0.7243
0.7358 -1.0457 0.7229
2.3081 -2.7806 2.0378
2.5278 -2.5943 2.0378
2.7317 -2.3901 2.0378
2.9183 -2.1694 2.0378
3.0862 -1.9338 2.0378
3.2341 -1.6848 2.0378
3.3609 -1.4241 2.0378
3.4657 -1.1536 2.0378
3.5476 -0.8753 2.0378
3.6061 -0.5910 2.0378
3.6408 -0.3028 2.0378
3.6513 -0.0131 2.0378
3.6377 0.2766 2.0378
3.6001 0.5639 2.0378
3.5388 0.8468 2.0378
3.4544 1.1234 2.0378
3.3476 1.3916 2.0378
3.2191 1.6497 2.0378
3.0700 1.8959 2.0378
2.9014 2.1285 2.0378
2.7148 2.3460 2.0378
2.5113 2.5471 2.0378
2.2926 2.7304 2.0378
0.7426 1.0435 0.7346
0.6564 1.0987 0.7366
0.5660 1.1467 0.7387
0.4720 1.1874 0.7408
0.3750 1.2203 0.7430
0.2756 1.2453 0.7451
0.1746 1.2623 0.7472
0.0726 1.2710 0.7494
-0.0299 1.2715 0.7514
-0.1320 1.2638 0.7534
-0.2332 1.2478 0.7554
-0.3328 1.2238 0.7573
-0.4301 1.1918 0.7590
-0.5245 1.1520 0.7607
-0.6154 1.1048 0.7623
-0.7022 1.0505 0.7637
-2.0892 2.6353 2.0378
-2.2906 2.4516 2.0378
-2.4768 2.2531 2.0378
-2.6466 2.0410 2.0378
-2.7992 1.8166 2.0378
-2.9338 1.5812 2.0378
-3.0496 1.3363 2.0378
-3.1459 1.0834 2.0378
-3.2223 0.8238 2.0378
-3.2784 0.5591 2.0378
-3.3137 0.2909 2.0378
-3.3281 0.0206 2.0378
-3.3214 -0.2501 2.0378
-3.2938 -0.5196 2.0378
-3.2452 -0.7865 2.0378
-3.1759 -1.0490 2.0378
-3.0863 -1.3057 2.0378
-2.9768 -1.5550 2.0378
-2.8478 -1.7955 2.0378
-2.7002 -2.0255 2.0378
-2.5347 -2.2437 2.0378
-2.3522 -2.4487 2.0378
-2.1536 -2.6392 2.0378
-0.7161 -1.0387 0.7522
-0.6305 -1.0939 0.7502
-0.5408 -1.1420 0.7481
-0.4475 -1.1829 0.7460
-0.3513 -1.2161 0.7439
-0.2527 -1.2415 0.7417
-0.1524 -1.2589 0.7396
-0.0510 -1.2683 0.7375
0.0508 -1.2695 0.7355
0.1523 -1.2625 0.7334
0.2530 -1.2475 0.7315
0.3522 -1.2244 0.7296
0.4492 -1.1934 0.7278
0.5434 -1.1548 0.7262
0.6343 -1.1088 0.7246
0.7212 -1.0556 0.7231
2.2685 -2.8110 2.0378
2.4908 -2.6279 2.0378
2.6976 -2.4267 2.0378
2.8873 -2.2088 2.0378
3.0585 -1.9756 2.0378
3.2100 -1.7288 2.0378
3.3405 -1.4700 2.0378
3.4492 -1.2011 2.0378
3.5351 -0.9240 2.0378
3.5977 -0.6406 2.0378
3.6365 -0.3530 2.0378
3.6512 -0.0634 2.0378
3.6418 0.2265 2.0378
3.6083 0.5144 2.0378
3.5511 0.7982 2.0378
3.4707 1.0760 2.0378
3.3676 1.3458 2.0378
3.2428 1.6058 2.0378
3.0972 1.8541 2.0378
2.9320 2.0892 2.0378
2.7484 2.3095 2.0378
2.5477 2.5135 2.0378
2.3315 2.6999 2.0378
0.7571 1.0332 0.7342
0.6717 1.0896 0.7362
0.5819 1.1389 0.7383
0.4885 1.1809 0.7405
0.3920 1.2152 0.7426
0.2930 1.2416 0.7447
0.1922 1.2599 0.7469
0.0903 1.2701 0.7490
-0.0121 1.2720 0.7511
-0.1144 1.2657 0.7531
-0.2158 1.2512 0.7551
-0.3157 1.2285 0.7569
-0.4134 1.1979 0.7587
-0.5084 1.1595 0.7604
-0.5999 1.1135 0.7620
-0.6875 1.0604 0.7635
-2.0528 2.6656 2.0378
-2.2568 2.4846 2.0378
-2.4456 2.2885 2.0378
-2.6184 2.0787 2.0378
-2.7741 1.8563 2.0378
-2.9118 1.6228 2.0378
-3.0309 1.3794 2.0378
-3.1307 1.1277 2.0378
-3.2105 0.8692 2.0378
-3.2701 0.6053 2.0378
-3.3090 0.3376 2.0378
-3.3271 0.0675 2.0378
-3.3241 -0.2032 2.0378
-3.3001 -0.4730 2.0378
-3.2551 -0.7405 2.0378
-3.1894 -1.0039 2.0378
-3.1033 -1.2617 2.0378
-2.9971 -1.5124 2.0378
-2.8715 -1.7545 2.0378
-2.7271 -1.9864 2.0378
-2.5647 -2.2068 2.0378
-2.3850 -2.4142 2.0378
-2.1891 -2.6073 2.0378
-0.7305 -1.0284 0.7526
-0.6457 -1.0848 0.7505
-0.5566 -1.1342 0.7485
-0.4639 -1.1763 0.7464
-0.3682 -1.2109 0.7442
-0.2699 -1.2377 0.7421
-0.1699 -1.2565 0.7400
-0.0686 -1.2672 0.7379
0.0331 -1.2698 0.7358
0.1348 -1.2643 0.7338
0.2357 -1.2506 0.7318
0.3351 -1.2290 0.7299
0.4326 -1.1994 0.7281
0.5273 -1.1621 0.7264
0.6188 -1.1173 0.7249
0.7064 -1.0653 0.7234
0.7896 -1.0065 0.7220
2.4533 -2.6609 2.0378
2.6629 -2.4628 2.0378
2.8557 -2.2477 2.0378
3.0302 -2.0171 2.0378
3.1852 -1.7725 2.0378
3.3194 -1.5157 2.0378
3.4319 -1.2484 2.0378
3.5218 -0.9725 2.0378
3.5885 -0.6901 2.0378
3.6315 -0.4031 2.0378
3.6504 -0.1136 2.0378
3.6451 0.1762 2.0378
3.6158 0.4647 2.0378
3.5627 0.7494 2.0378
3.4863 1.0283 2.0378
3.3871 1.2997 2.0378
3.2660 1.5615 2.0378
3.1239 1.8120 2.0378
2.9620 2.0495 2.0378
2.7814 2.2724 2.0378
2.5836 2.4793 2.0378
2.3700 2.6689 2.0378
0.7715 1.0227 0.7339
0.6868 1.0803 0.7359
0.5977 1.1309 0.7380
0.5049 1.1741 0.7401
0.4089 1.2098 0.7422
0.3103 1.2376 0.7444
0.2098 1.2573 0.7465
0.1080 1.2689 0.7486
0.0056 1.2723 0.7507
-0.0967 1.2674 0.7527
-0.1983 1.2543 0.7547
-0.2985 1.2330 0.7566
-0.3967 1.2037 0.7584
-0.4922 1.1667 0.7601
-0.5843 1.1220 0.7618
0.1768 -1.1811 0.7334
0.2708 -1.1643 0.7316
0.3633 -1.1401 0.7299
0.4535 -1.1085 0.7282
0.5409 -1.0698 0.7267
0.6249 -1.0242 0.7253
0.7050 -0.9721 0.7239
0.7807 -0.9137 0.7227
2.4045 -2.3984 2.0378
2.5925 -2.2042 2.0378
2.7641 -1.9948 2.0378
2.9179 -1.7717 2.0378
3.0529 -1.5364 2.0378
3.1680 -1.2906 2.0378
3.2623 -1.0359 2.0378
3.3352 -0.7742 2.0378
3.3861 -0.5073 2.0378
3.4147 -0.2371 2.0378
3.4207 0.0344 2.0378
3.4042 0.3053 2.0378
3.3654 0.5738 2.0378
3.3044 0.8379 2.0378
3.2220 1.0958 2.0378
3.1186 1.3456 2.0378
2.9952 1.5856 2.0378
2.8526 1.8144 2.0378
2.6920 2.0302 2.0378
2.5146 2.2318 2.0378
2.3217 2.4177 2.0378
0.7612 0.9312 0.7335
0.6839 0.9882 0.7354
0.6023 1.0389 0.7374
0.5169 1.0828 0.7393
0.4281 1.1197 0.7413
0.3367 1.1493 0.7433
0.2432 1.1715 0.7453
0.1482 1.1860 0.7473
0.0523 1.1929 0.7493
-0.0438 1.1920 0.7513
-0.1395 1.1834 0.7531
-0.2342 1.1671 0.7550
-0.3273 1.1433 0.7567
-0.4182 1.1120 0.7583
-0.5062 1.0735 0.7599
-0.5909 1.0280 0.7614
-0.6716 0.9759 0.7627
-0.7478 0.9175 0.7639
-2.1820 2.2726 2.0378
-2.3546 2.0839 2.0378
-2.5118 1.8826 2.0378
-2.6525 1.6698 2.0378
-2.7762 1.4470 2.0378
-2.8820 1.2154 2.0378
-2.9695 0.9763 2.0378
-3.0381 0.7313 2.0378
-3.0874 0.4818 2.0378
-3.1172 0.2291 2.0378
-3.1272 -0.0252 2.0378
-3.1174 -0.2796 2.0378
-3.0878 -0.5327 2.0378
-3.0386 -0.7830 2.0378
-2.9699 -1.0289 2.0378
-2.8821 -1.2690 2.0378
-2.7757 -1.5019 2.0378
-2.6511 -1.7261 2.0378
-2.5091 -1.9402 2.0378
-2.3505 -2.1429 2.0378
-2.1760 -2.3330 2.0378
-0.7343 -0.9274 0.7532
-0.6575 -0.9844 0.7513
-0.5765 -1.0351 0.7494
-0.4917 -1.0791 0.7475
-0.4036 -1.1162 0.7455
-0.3129 -1.1462 0.7435
-0.2200 -1.1687 0.7415
-0.1257 -1.1838 0.7395
-0.0304 -1.1912 0.7375
0.0651 -1.1910 0.7356
0.1604 -1.1832 0.7337
0.2546 -1.1677 0.7319
0.3474 -1.1448 0.7302
0.4380 -1.1145 0.7285
0.5260 -1.0770 0.7270
0.6106 -1.0326 0.7255
0.6914 -0.9816 0.7242
0.7679 -0.9242 0.7229
2.3703 -2.4304 2.0378
2.5611 -2.2390 2.0378
2.7356 -2.0321 2.0378
2.8926 -1.8113 2.0378
3.0309 -1.5780 2.0378
3.1495 -1.3339 2.0378
3.2475 -1.0806 2.0378
3.3241 -0.8200 2.0378
3.3789 -0.5538 2.0378
3.4113 -0.2841 2.0378
3.4213 -0.0127 2.0378
3.4087 0.2585 2.0378
3.3737 0.5275 2.0378
3.3166 0.7925 2.0378
3.2378 1.0516 2.0378
3.1380 1.3029 2.0378
3.0180 1.5448 2.0378
2.8786 1.7756 2.0378
2.7211 1.9938 2.0378
2.5465 2.1979 2.0378
2.3562 2.3867 2.0378
0.7741 0.9207 0.7332
0.6977 0.9788 0.7351
0.6167 1.0306 0.7370
0.5319 1.0757 0.7390
0.4437 1.1138 0.7410
0.3527 1.1447 0.7430
0.2595 1.1682 0.7450
0.1648 1.1841 0.7470
0.0690 1.1923 0.7490
-0.0271 1.1927 0.7509
-0.1229 1.1855 0.7528
-0.2179 1.1705 0.7546
-0.3113 1.1479 0.7564
-0.4026 1.1179 0.7581
-0.4912 1.0807 0.7596
-0.5765 1.0364 0.7611
-0.6579 0.9854 0.7625
-0.7349 0.9280 0.7637
-2.1506 2.3040 2.0378
-2.3258 2.1176 2.0378
-2.4857 1.9183 2.0378
-2.6293 1.7075 2.0378
-2.7560 1.4863 2.0378
-2.8650 1.2561 2.0378
-2.9557 1.0182 2.0378
-3.0276 0.7742 2.0378
-3.0802 0.5253 2.0378
-3.1134 0.2730 2.0378
-3.1269 0.0189 2.0378
-3.1205 -0.2356 2.0378
-3.0944 -0.4890 2.0378
-3.0485 -0.7399 2.0378
-2.9832 -0.9866 2.0378
-2.8987 -1.2278 2.0378
-2.7954 -1.4621 2.0378
-2.6740 -1.6879 2.0378
-2.5350 -1.9039 2.0378
-2.3791 -2.1087 2.0378
-2.2073 -2.3010 2.0378
-0.7471 -0.9169 0.7535
-0.6712 -0.9750 0.7517
-0.5908 -1.0268 0.7498
-0.5066 -1.0720 0.7478
-0.4191 -1.1103 0.7458
-0.3288 -1.1415 0.7438
-0.2362 -1.1654 0.7418
-0.1421 -1.1817 0.7398
-0.0470 -1.1905 0.7379
0.0486 -1.1916 0.7359
0.1439 -1.1851 0.7340
0.2384 -1.1710 0.7322
0.3315 -1.1493 0.7305
0.4225 -1.1203 0.7288
0.5109 -1.0840 0.7272
0.5962 -1.0408 0.7257
0.6777 -0.9909 0.7244
0.7550 -0.9346 0.7231
2.3357 -2.4619 2.0378
2.5291 -2.2733 2.0378
2.7066 -2.0690 2.0378
2.8667 -1.8505 2.0378
3.0083 -1.6193 2.0378
3.1304 -1.3769 2.0378
3.2320 -1.1251 2.0378
3.3124 -0.8656 2.0378
3.3710 -0.6003 2.0378
3.4073 -0.3310 2.0378
3.4212 -0.0598 2.0378
3.4125 0.2116 2.0378
3.3814 0.4812 2.0378
3.3280 0.7469 2.0378
3.2530 1.0072 2.0378
3.1568 1.2600 2.0378
3.0402 1.5036 2.0378
2.9041 1.7365 2.0378
2.7497 1.9569 2.0378
2.5780 2.1636 2.0378
2.3903 2.3551 2.0378
0.7869 0.9100 0.7329
0.7113 0.9692 0.7348
0.6311 1.0221 0.7367
0.5469 1.0684 0.7386
0.4592 1.1077 0.7406
0.3687 1.1399 0.7426
0.2758 1.1646 0.7447
0.1813 1.1819 0.7467
0.0856 1.1914 0.7486
-0.0105 1.1932 0.7506
-0.1064 1.1873 0.7525
-0.2015 1.1736 0.7543
-0.2952 1.1524 0.7561
-0.3870 1.1237 0.7578
-0.4760 1.0876 0.7594
-0.5619 1.0446 0.7609
-0.6441 0.9947 0.7622
-0.7219 0.9384 0.7635
-2.1188 2.3349 2.0378
-2.2965 2.1508 2.0378
-2.4591 1.9537 2.0378
-2.6056 1.7448 2.0378
-2.7353 1.5253 2.0378
-2.8474 1.2966 2.0378
-2.9413 1.0599 2.0378
-3.0165 0.8169 2.0378
-3.0725 0.5687 2.0378
-3.1091 0.3169 2.0378
-3.1260 0.0630 2.0378
-3.1231 -0.1915 2.0378
-3.1003 -0.4452 2.0378
-3.0579 -0.6966 2.0378
-2.9959 -0.9442 2.0378
-2.9147 -1.1865 2.0378
-2.8146 -1.4220 2.0378
-2.6963 -1.6494 2.0378
-2.5603 -1.8672 2.0378
-2.4073 -2.0740 2.0378
-2.2382 -2.2686 2.0378
-0.7598 -0.9062 0.7538
-0.6847 -0.9653 0.7520
-0.6051 -1.0183 0.7501
-0.5215 -1.0646 0.7481
-0.4345 -1.1042 0.7462
-0.3446 -1.1366 0.7442
-0.2524 -1.1618 0.7422
-0.1585 -1.1794 0.7402
-0.0635 -1.1895 0.7382
0.0320 -1.1920 0.7363
0.1274 -1.1868 0.7344
0.2221 -1.1740 0.7325
0.3155 -1.1536 0.7308
0.4069 -1.1258 0.7291
0.4958 -1.0908 0.7275
0.5817 -1.0488 0.7260
0.6639 -1.0000 0.7246
0.7419 -0.9448 0.7233
2.3006 -2.4930 2.0378
2.4967 -2.3071 2.0378
2.6770 -2.1055 2.0378
2.8402 -1.8893 2.0378
2.9851 -1.6602 2.0378
3.1107 -1.4196 2.0378
3.2159 -1.1693 2.0378
3.3000 -0.9111 2.0378
3.3624 -0.6466 2.0378
3.4026 -0.3779 2.0378
3.4204 -0.1068 2.0378
3.4156 0.1647 2.0378
3.3883 0.4346 2.0378
3.3388 0.7012 2.0378
3.2675 0.9625 2.0378
3.1749 1.2167 2.0378
3.0618 1.4621 2.0378
2.9291 1.6970 2.0378
2.7777 1.9197 2.0378
2.6089 2.1288 2.0378
2.4239 2.3231 2.0378
0.7995 0.8991 0.7326
0.7247 0.9594 0.7344
0.6453 1.0134 0.7363
0.5617 1.0608 0.7383
0.4746 1.1014 0.7403
0.3845 1.1348 0.7423
0.2921 1.1609 0.7443
0.1977 1.1794 0.7463
0.1023 1.1903 0.7483
0.0062 1.1935 0.7503
-0.0898 1.1889 0.7522
-0.1851 1.1766 0.7540
-0.2791 1.1566 0.7558
-0.3712 1.1292 0.7575
-0.4608 1.0944 0.7591
-0.5473 1.0525 0.7606
0.1671 -1.1105 0.7340
0.2555 -1.0948 0.7323
0.3424 -1.0720 0.7307
0.4272 -1.0423 0.7291
0.5094 -1.0059 0.7277
0.5884 -0.9631 0.7263
0.6637 -0.9140 0.7251
0.7349 -0.8591 0.7240
2.2589 -2.2512 2.0378
2.4352 -2.0687 2.0378
2.5960 -1.8721 2.0378
2.7401 -1.6627 2.0378
2.8666 -1.4419 2.0378
2.9744 -1.2112 2.0378
3.0629 -0.9723 2.0378
3.1312 -0.7267 2.0378
3.1789 -0.4763 2.0378
3.2058 -0.2229 2.0378
3.2116 0.0318 2.0378
3.1962 0.2860 2.0378
3.1599 0.5379 2.0378
3.1029 0.7857 2.0378
3.0258 1.0277 2.0378
2.9291 1.2622 2.0378
2.8135 1.4877 2.0378
2.6800 1.7025 2.0378
2.5296 1.9053 2.0378
2.3634 2.0948 2.0378
0.7844 0.8158 0.7324
0.7164 0.8750 0.7341
0.6437 0.9286 0.7359
0.5670 0.9762 0.7377
0.4867 1.0175 0.7396
0.4033 1.0521 0.7414
0.3174 1.0800 0.7433
0.2295 1.1008 0.7452
0.1402 1.1145 0.7471
0.0501 1.1209 0.7490
-0.0402 1.1201 0.7508
-0.1302 1.1120 0.7525
-0.2192 1.0967 0.7543
-0.3067 1.0743 0.7559
-0.3921 1.0449 0.7574
-0.4748 1.0087 0.7589
-0.5544 0.9660 0.7603
-0.6303 0.9170 0.7615
-0.7019 0.8621 0.7627
-2.0519 2.1392 2.0378
-2.2146 1.9616 2.0378
-2.3627 1.7722 2.0378
-2.4954 1.5720 2.0378
-2.6120 1.3622 2.0378
-2.7118 1.1441 2.0378
-2.7942 0.9190 2.0378
-2.8588 0.6883 2.0378
-2.9053 0.4533 2.0378
-2.9333 0.2153 2.0378
-2.9427 -0.0242 2.0378
-2.9333 -0.2638 2.0378
-2.9054 -0.5021 2.0378
-2.8588 -0.7377 2.0378
-2.7939 -0.9692 2.0378
-2.7111 -1.1952 2.0378
-2.6106 -1.4143 2.0378
-2.4931 -1.6252 2.0378
-2.3592 -1.8266 2.0378
-2.2096 -2.0172 2.0378
-0.7570 -0.8128 0.7543
-0.6894 -0.8720 0.7526
-0.6173 -0.9256 0.7509
-0.5411 -0.9733 0.7491
-0.4614 -1.0147 0.7472
-0.3786 -1.0496 0.7453
-0.2932 -1.0777 0.7435
-0.2060 -1.0990 0.7416
-0.1173 -1.1131 0.7397
-0.0277 -1.1201 0.7379
0.0621 -1.1199 0.7361
0.1517 -1.1125 0.7343
0.2403 -1.0980 0.7326
0.3275 -1.0764 0.7310
0.4127 -1.0479 0.7294
0.4954 -1.0127 0.7279
0.5749 -0.9710 0.7266
0.6509 -0.9230 0.7253
0.7228 -0.8690 0.7242
0.7902 -0.8095 0.7231
2.4057 -2.1014 2.0378
2.5693 -1.9072 2.0378
2.7164 -1.6999 2.0378
2.8460 -1.4809 2.0378
2.9571 -1.2518 2.0378
3.0490 -1.0142 2.0378
3.1208 -0.7696 2.0378
3.1722 -0.5200 2.0378
3.2026 -0.2670 2.0378
3.2121 -0.0124 2.0378
3.2004 0.2420 2.0378
3.1677 0.4945 2.0378
3.1143 0.7431 2.0378
3.0406 0.9862 2.0378
2.9472 1.2222 2.0378
2.8349 1.4493 2.0378
2.7044 1.6661 2.0378
2.5568 1.8711 2.0378
2.3933 2.0630 2.0378
0.7957 0.8049 0.7321
0.7285 0.8652 0.7338
0.6566 0.9198 0.7356
0.5805 0.9684 0.7374
0.5008 1.0108 0.7392
0.4179 1.0466 0.7411
0.3324 1.0757 0.7430
0.2448 1.0977 0.7449
0.1557 1.1126 0.7468
0.0657 1.1204 0.7486
-0.0246 1.1208 0.7505
-0.1146 1.1140 0.7522
-0.2039 1.0999 0.7540
-0.2917 1.0787 0.7556
-0.3775 1.0505 0.7572
-0.4607 1.0155 0.7587
-0.5409 0.9739 0.7600
-0.6174 0.9260 0.7613
-0.6898 0.8721 0.7625
-0.7577 0.8125 0.7635
-2.1874 1.9933 2.0378
-2.3381 1.8058 2.0378
-2.4735 1.6074 2.0378
-2.5930 1.3992 2.0378
-2.6957 1.1824 2.0378
-2.7812 0.9585 2.0378
-2.8489 0.7287 2.0378
-2.8985 0.4943 2.0378
-2.9298 0.2567 2.0378
-2.9424 0.0174 2.0378
-2.9363 -0.2223 2.0378
-2.9115 -0.4609 2.0378
-2.8682 -0.6971 2.0378
-2.8065 -0.9294 2.0378
-2.7267 -1.1565 2.0378
-2.6293 -1.3769 2.0378
-2.5147 -1.5893 2.0378
-2.3836 -1.7924 2.0378
-2.2366 -1.9849 2.0378
-2.0746 -2.1657 2.0378
-0.7015 -0.8621 0.7529
-0.6301 -0.9167 0.7512
-0.5546 -0.9655 0.7494
-0.4754 -1.0080 0.7475
-0.3931 -1.0440 0.7457
-0.3082 -1.0734 0.7438
-0.2212 -1.0958 0.7419
-0.1327 -1.1112 0.7400
-0.0433 -1.1194 0.7382
0.0466 -1.1205 0.7364
0.1362 -1.1143 0.7346
0.2250 -1.1010 0.7329
0.3125 -1.0807 0.7312
0.3981 -1.0534 0.7297
0.4812 -1.0193 0.7282
0.5614 -0.9787 0.7268
0.6380 -0.9317 0.7255
0.7107 -0.8788 0.7243
0.7789 -0.8202 0.7233
2.3758 -2.1336 2.0378
2.5420 -1.9418 2.0378
2.6921 -1.7367 2.0378
2.8248 -1.5196 2.0378
2.9392 -1.2922 2.0378
3.0345 -1.0559 2.0378
3.1098 -0.8125 2.0378
3.1647 -0.5636 2.0378
3.1989 -0.3110 2.0378
3.2119 -0.0565 2.0378
3.2039 0.1980 2.0378
3.1748 0.4509 2.0378
3.1250 0.7003 2.0378
3.0548 0.9446 2.0378
2.9648 1.1819 2.0378
2.8556 1.4106 2.0378
2.7283 1.6293 2.0378
2.5836 1.8365 2.0378
2.4227 2.0307 2.0378
0.8069 0.7940 0.7319
0.7405 0.8551 0.7335
0.6694 0.9107 0.7353
0.5940 0.9604 0.7371
0.5149 1.0039 0.7389
0.4325 1.0409 0.7408
0.3474 1.0711 0.7427
0.2601 1.0944 0.7446
0.1713 1.1106 0.7465
0.0814 1.1195 0.7483
-0.0089 1.1212 0.7501
-0.0991 1.1157 0.7519
-0.1885 1.1028 0.7537
-0.2766 1.0829 0.7553
-0.3628 1.0559 0.7569
-0.4465 1.0220 0.7584
-0.5272 0.9815 0.7598
-0.6044 0.9347 0.7611
-0.6776 0.8818 0.7623
-0.7463 0.8232 0.7633
-2.1598 2.0246 2.0378
-2.3131 1.8391 2.0378
-2.4512 1.6425 2.0378
-2.5734 1.4359 2.0378
-2.6791 1.2206 2.0378
-2.7676 0.9978 2.0378
-2.8385 0.7688 2.0378
-2.8913 0.5352 2.0378
-2.9257 0.2980 2.0378
-2.9415 0.0589 2.0378
-2.9387 -0.1808 2.0378
-2.9172 -0.4197 2.0378
-2.8770 -0.6564 2.0378
-2.8185 -0.8895 2.0378
-2.7418 -1.1175 2.0378
-2.6474 -1.3392 2.0378
-2.5357 -1.5531 2.0378
-2.4074 -1.7579 2.0378
-2.2632 -1.9524 2.0378
-2.1037 -2.1352 2.0378
-0.7134 -0.8521 0.7532
-0.6428 -0.9077 0.7515
-0.5679 -0.9575 0.7497
-0.4894 -1.0011 0.7479
-0.4076 -1.0383 0.7460
-0.3231 -1.0688 0.7441
-0.2364 -1.0924 0.7422
-0.1481 -1.1090 0.7404
-0.0588 -1.1185 0.7385
0.0310 -1.1208 0.7367
0.1207 -1.1159 0.7349
0.2097 -1.1039 0.7332
0.2975 -1.0847 0.7315
0.3834 -1.0586 0.7299
0.4670 -1.0257 0.7284
0.5477 -0.9862 0.7270
0.6250 -0.9403 0.7257
0.6984 -0.8884 0.7245
0.7674 -0.8308 0.7235
2.3454 -2.1654 2.0378
2.5144 -1.9760 2.0378
2.6673 -1.7731 2.0378
2.8031 -1.5580 2.0378
2.9207 -1.3323 2.0378
3.0194 -1.0974 2.0378
3.0982 -0.8551 2.0378
3.1567 -0.6070 2.0378
3.1945 -0.3550 2.0378
3.2112 -0.1007 2.0378
3.2068 0.1540 2.0378
3.1814 0.4073 2.0378
3.1351 0.6575 2.0378
3.0684 0.9027 2.0378
2.9818 1.1413 2.0378
2.8759 1.3717 2.0378
2.7516 1.5922 2.0378
2.6099 1.8015 2.0378
2.4517 1.9980 2.0378
2.2783 2.1806 2.0378
0.7524 0.8449 0.7332
0.6820 0.9015 0.7350
0.6074 0.9522 0.7368
0.5288 0.9968 0.7386
0.4470 1.0350 0.7405
0.3623 1.0664 0.7424
0.2754 1.0909 0.7442
0.1868 1.1083 0.7461
0.0970 1.1185 0.7480
0.0067 1.1215 0.7498
-0.0835 1.1171 0.7516
-0.1731 1.1056 0.7534
-0.2614 1.0868 0.7550
-0.3480 1.0610 0.7566
-0.4322 1.0284 0.7582
-0.5135 0.9890 0.7596
0.1582 -1.0457 0.7345
0.2415 -1.0309 0.7330
0.3233 -1.0094 0.7314
0.4031 -0.9815 0.7300
0.4805 -0.9472 0.7286
0.5548 -0.9069 0.7273
0.6257 -0.8607 0.7262
0.6927 -0.8090 0.7251
0.7554 -0.7521 0.7242
2.2911 -1.9447 2.0378
2.4421 -1.7598 2.0378
2.5774 -1.5629 2.0378
2.6961 -1.3554 2.0378
2.7974 -1.1385 2.0378
2.8804 -0.9140 2.0378
2.9445 -0.6833 2.0378
2.9894 -0.4481 2.0378
3.0147 -0.2099 2.0378
3.0202 0.0294 2.0378
3.0058 0.2683 2.0378
2.9719 0.5050 2.0378
2.9185 0.7379 2.0378
2.8462 0.9654 2.0378
2.7555 1.1859 2.0378
2.6472 1.3979 2.0378
2.5219 1.6000 2.0378
2.3808 1.7909 2.0378
0.7986 0.7069 0.7315
0.7392 0.7677 0.7331
0.6751 0.8234 0.7347
0.6068 0.8739 0.7363
0.5345 0.9187 0.7380
0.4589 0.9575 0.7398
0.3804 0.9901 0.7416
0.2996 1.0163 0.7433
0.2169 1.0359 0.7451
0.1328 1.0488 0.7469
0.0480 1.0549 0.7486
-0.0370 1.0541 0.7503
-0.1217 1.0465 0.7520
-0.2054 1.0321 0.7536
-0.2878 1.0110 0.7551
-0.3682 0.9833 0.7566
-0.4461 0.9493 0.7580
-0.5209 0.9091 0.7593
-0.5923 0.8630 0.7605
-0.6598 0.8113 0.7615
-0.7229 0.7544 0.7625
-2.0855 1.8490 2.0378
-2.2253 1.6705 2.0378
-2.3506 1.4818 2.0378
-2.4606 1.2840 2.0378
-2.5548 1.0784 2.0378
-2.6326 0.8662 2.0378
-2.6936 0.6486 2.0378
-2.7374 0.4270 2.0378
-2.7638 0.2026 2.0378
-2.7725 -0.0232 2.0378
-2.7637 -0.2492 2.0378
-2.7372 -0.4739 2.0378
-2.6931 -0.6960 2.0378
-2.6318 -0.9142 2.0378
-2.5535 -1.1272 2.0378
-2.4586 -1.3336 2.0378
-2.3476 -1.5323 2.0378
-2.2211 -1.7220 2.0378
-2.0799 -1.9014 2.0378
-0.7118 -0.7653 0.7537
-0.6482 -0.8211 0.7521
-0.5803 -0.8716 0.7504
-0.5086 -0.9165 0.7487
-0.4335 -0.9555 0.7470
-0.3555 -0.9884 0.7452
-0.2752 -1.0149 0.7435
-0.1930 -1.0348 0.7417
-0.1095 -1.0482 0.7399
-0.0252 -1.0548 0.7382
0.0594 -1.0546 0.7365
0.1437 -1.0476 0.7348
0.2271 -1.0340 0.7332
0.3092 -1.0136 0.7317
0.3894 -0.9868 0.7302
0.4673 -0.9536 0.7288
0.5422 -0.9143 0.7275
0.6137 -0.8691 0.7264
0.6814 -0.8183 0.7253
0.7448 -0.7623 0.7243
2.2635 -1.9755 2.0378
2.4170 -1.7928 2.0378
2.5551 -1.5979 2.0378
2.6768 -1.3920 2.0378
2.7811 -1.1767 2.0378
2.8673 -0.9534 2.0378
2.9348 -0.7236 2.0378
2.9830 -0.4891 2.0378
3.0117 -0.2513 2.0378
3.0206 -0.0121 2.0378
3.0097 0.2270 2.0378
2.9792 0.4642 2.0378
2.9291 0.6979 2.0378
2.8601 0.9264 2.0378
2.7725 1.1482 2.0378
2.6672 1.3619 2.0378
2.5448 1.5658 2.0378
2.4063 1.7587 2.0378
2.2528 1.9393 2.0378
0.7499 0.7575 0.7328
0.6866 0.8141 0.7344
0.6189 0.8655 0.7360
0.5473 0.9113 0.7377
0.4723 0.9512 0.7395
0.3942 0.9849 0.7413
0.3137 1.0122 0.7430
0.2313 1.0330 0.7448
0.1475 1.0471 0.7466
0.0628 1.0543 0.7483
-0.0223 1.0547 0.7500
-0.1070 1.0483 0.7517
-0.1910 1.0351 0.7533
-0.2736 1.0151 0.7549
-0.3544 0.9886 0.7564
-0.4328 0.9556 0.7578
-0.5082 0.9165 0.7591
-0.5802 0.8714 0.7603
-0.6484 0.8206 0.7613
-0.7123 0.7646 0.7623
-2.0599 1.8788 2.0378
-2.2021 1.7022 2.0378
-2.3299 1.5152 2.0378
-2.4427 1.3189 2.0378
-2.5396 1.1146 2.0378
-2.6203 0.9034 2.0378
-2.6842 0.6867 2.0378
-2.7310 0.4657 2.0378
-2.7604 0.2416 2.0378
-2.7723 0.0159 2.0378
-2.7665 -0.2101 2.0378
-2.7430 -0.4351 2.0378
-2.7020 -0.6577 2.0378
-2.6436 -0.8767 2.0378
-2.5682 -1.0907 2.0378
-2.4762 -1.2984 2.0378
-2.3679 -1.4985 2.0378
-2.2441 -1.6898 2.0378
-2.1054 -1.8711 2.0378
-0.7224 -0.7552 0.7539
-0.6595 -0.8118 0.7524
-0.5923 -0.8633 0.7507
-0.5212 -0.9091 0.7490
-0.4467 -0.9492 0.7473
-0.3692 -0.9831 0.7455
-0.2893 -1.0107 0.7438
-0.2074 -1.0318 0.7420
-0.1241 -1.0463 0.7402
-0.0398 -1.0541 0.7385
0.0447 -1.0551 0.7368
0.1291 -1.0493 0.7351
0.2127 -1.0368 0.7335
0.2951 -1.0176 0.7319
0.3757 -0.9919 0.7305
0.4540 -0.9598 0.7291
0.5294 -0.9216 0.7278
0.6016 -0.8774 0.7266
0.6700 -0.8275 0.7255
0.7342 -0.7724 0.7245
0.7937 -0.7122 0.7236
2.3915 -1.8254 2.0378
2.5323 -1.6325 2.0378
2.6569 -1.4284 2.0378
2.7643 -1.2147 2.0378
2.8537 -0.9926 2.0378
2.9245 -0.7639 2.0378
2.9761 -0.5300 2.0378
3.0081 -0.2927 2.0378
3.0205 -0.0536 2.0378
3.0130 0.1856 2.0378
2.9859 0.4233 2.0378
2.9392 0.6577 2.0378
2.8734 0.8872 2.0378
2.7890 1.1103 2.0378
2.6867 1.3255 2.0378
2.5672 1.5312 2.0378
2.4314 1.7261 2.0378
2.2804 1.9089 2.0378
0.7604 0.7471 0.7325
0.6979 0.8047 0.7341
0.6309 0.8570 0.7358
0.5600 0.9038 0.7375
0.4855 0.9447 0.7392
0.4079 0.9795 0.7409
0.3278 1.0080 0.7427
0.2457 1.0299 0.7445
0.1621 1.0451 0.7463
0.0775 1.0535 0.7480
-0.0075 1.0551 0.7497
-0.0924 1.0499 0.7514
-0.1765 1.0378 0.7531
-0.2594 1.0190 0.7546
-0.3406 0.9936 0.7561
-0.4194 0.9618 0.7575
-0.4954 0.9237 0.7588
-0.5680 0.8796 0.7601
-0.6369 0.8298 0.7612
-0.7015 0.7747 0.7622
-0.7615 0.7145 0.7630
-2.1785 1.7336 2.0378
-2.3089 1.5483 2.0378
-2.4242 1.3535 2.0378
-2.5240 1.1505 2.0378
-2.6075 0.9404 2.0378
-2.6744 0.7246 2.0378
-2.7242 0.5042 2.0378
-2.7566 0.2806 2.0378
-2.7715 0.0551 2.0378
-2.7687 -0.1709 2.0378
-2.7483 -0.3962 2.0378
-2.7104 -0.6194 2.0378
-2.6550 -0.8391 2.0378
-2.5825 -1.0540 2.0378
-2.4933 -1.2629 2.0378
-2.3878 -1.4644 2.0378
-2.2667 -1.6573 2.0378
-2.1305 -1.8404 2.0378
-0.7328 -0.7448 0.7542
-0.6707 -0.8024 0.7526
-0.6043 -0.8547 0.7510
-0.5338 -0.9016 0.7493
-0.4599 -0.9427 0.7476
-0.3829 -0.9777 0.7458
-0.3033 -1.0064 0.7441
-0.2217 -1.0287 0.7423
-0.1386 -1.0443 0.7405
-0.0545 -1.0532 0.7388
0.0301 -1.0554 0.7371
0.1145 -1.0508 0.7354
0.1983 -1.0395 0.7338
0.2809 -1.0214 0.7322
0.3619 -0.9968 0.7307
0.4406 -0.9658 0.7293
0.5166 -0.9286 0.7280
0.5893 -0.8854 0.7268
0.6584 -0.8366 0.7256
0.7234 -0.7823 0.7246
0.7838 -0.7230 0.7238
2.3655 -1.8576 2.0378
2.5091 -1.6667 2.0378
2.6365 -1.4645 2.0378
2.7470 -1.2523 2.0378
2.8395 -1.0316 2.0378
2.9135 -0.8039 2.0378
2.9685 -0.5708 2.0378
3.0040 -0.3340 2.0378
3.0198 -0.0951 2.0378
3.0157 0.1442 2.0378
2.9920 0.3823 2.0378
2.9487 0.6174 2.0378
2.8861 0.8479 2.0378
2.8049 1.0722 2.0378
2.7057 1.2888 2.0378
2.5891 1.4963 2.0378
2.4561 1.6932 2.0378
2.3077 1.8782 2.0378
0.7707 0.7367 0.7323
0.7090 0.7951 0.7338
0.6428 0.8483 0.7355
0.5725 0.8961 0.7372
0.4986 0.9381 0.7389
0.4216 0.9739 0.7406
0.3419 1.0035 0.7424
0.2601 1.0266 0.7442
0.1767 1.0429 0.7460
0.0922 1.0526 0.7477
0.0072 1.0554 0.7495
-0.0777 1.0513 0.7511
-0.1620 1.0404 0.7528
-0.2452 1.0228 0.7544
-0.3266 0.9985 0.7559
-0.4059 0.9677 0.7573
-0.4824 0.9307 0.7586
0.1500 -0.9859 0.7351
0.2285 -0.9719 0.7335
0.3056 -0.9517 0.7321
0.3808 -0.9253 0.7307
0.4538 -0.8930 0.7294
0.5239 -0.8550 0.7283
0.5907 -0.8115 0.7271
0.6538 -0.7627 0.7262
0.7129 -0.7091 0.7253
0.7674 -0.6508 0.7245
2.3005 -1.6565 2.0378
2.4277 -1.4711 2.0378
2.5393 -1.2757 2.0378
2.6345 -1.0717 2.0378
2.7125 -0.8604 2.0378
2.7728 -0.6433 2.0378
2.8151 -0.4220 2.0378
2.8389 -0.1980 2.0378
2.8441 0.0272 2.0378
2.8307 0.2520 2.0378
2.7989 0.4747 2.0378
2.7488 0.6939 2.0378
2.6810 0.9081 2.0378
2.5958 1.1157 2.0378
2.4940 1.3153 2.0378
2.3764 1.5057 2.0378
0.8047 0.6045 0.7308
0.7535 0.6660 0.7322
0.6975 0.7233 0.7337
0.6371 0.7758 0.7352
0.5727 0.8234 0.7367
0.5046 0.8656 0.7384
0.4333 0.9021 0.7400
0.3594 0.9329 0.7417
0.2832 0.9576 0.7433
0.2052 0.9760 0.7450
0.1260 0.9882 0.7467
0.0461 0.9939 0.7483
-0.0340 0.9932 0.7499
-0.1138 0.9860 0.7515
-0.1927 0.9724 0.7530
-0.2703 0.9525 0.7545
-0.3461 0.9265 0.7558
-0.4195 0.8944 0.7571
-0.4901 0.8565 0.7584
-0.5573 0.8131 0.7595
-0.6209 0.7644 0.7605
-0.6804 0.7107 0.7614
-0.7353 0.6525 0.7621
-2.0981 1.5763 2.0378
-2.2165 1.3982 2.0378
-2.3204 1.2116 2.0378
-2.4094 1.0176 2.0378
-2.4829 0.8173 2.0378
-2.5405 0.6119 2.0378
-2.5819 0.4027 2.0378
-2.6067 0.1908 2.0378
-2.6150 -0.0224 2.0378
-2.6065 -0.2357 2.0378
-2.5814 -0.4477 2.0378
-2.5397 -0.6574 2.0378
-2.4817 -0.8633 2.0378
-2.4076 -1.0642 2.0378
-2.3178 -1.2590 2.0378
-2.2129 -1.4464 2.0378
-2.0934 -1.6252 2.0378
-0.7257 -0.6643 0.7545
-0.6701 -0.7216 0.7531
-0.6101 -0.7742 0.7516
-0.5461 -0.8218 0.7500
-0.4785 -0.8641 0.7484
-0.4078 -0.9008 0.7468
-0.3343 -0.9318 0.7451
-0.2586 -0.9568 0.7435
-0.1811 -0.9756 0.7418
-0.1024 -0.9882 0.7401
-0.0229 -0.9944 0.7385
0.0568 -0.9942 0.7369
0.1363 -0.9877 0.7353
0.2150 -0.9748 0.7338
0.2923 -0.9556 0.7324
0.3680 -0.9303 0.7310
0.4413 -0.8991 0.7297
0.5119 -0.8620 0.7285
0.5794 -0.8194 0.7273
0.6432 -0.7715 0.7263
0.7029 -0.7187 0.7254
0.7583 -0.6612 0.7246
2.2769 -1.6875 2.0378
2.4068 -1.5040 2.0378
2.5211 -1.3103 2.0378
2.6192 -1.1076 2.0378
2.7002 -0.8975 2.0378
2.7637 -0.6813 2.0378
2.8091 -0.4606 2.0378
2.8361 -0.2369 2.0378
2.8445 -0.0118 2.0378
2.8344 0.2131 2.0378
2.8057 0.4363 2.0378
2.7588 0.6562 2.0378
2.6940 0.8714 2.0378
2.6118 1.0802 2.0378
2.5128 1.2813 2.0378
2.3979 1.4734 2.0378
2.2677 1.6552 2.0378
0.7627 0.6557 0.7320
0.7075 0.7137 0.7334
0.6479 0.7671 0.7349
0.5841 0.8155 0.7365
0.5166 0.8586 0.7381
0.4459 0.8962 0.7397
0.3724 0.9280 0.7414
0.2965 0.9537 0.7430
0.2188 0.9733 0.7447
0.1398 0.9865 0.7464
0.0600 0.9934 0.7480
-0.0201 0.9938 0.7497
-0.1000 0.9877 0.7512
-0.1791 0.9752 0.7528
-0.2570 0.9564 0.7542
-0.3331 0.9314 0.7556
-0.4069 0.9004 0.7569
-0.4780 0.8635 0.7582
-0.5459 0.8210 0.7593
-0.6102 0.7732 0.7603
-0.6704 0.7204 0.7612
-0.7261 0.6629 0.7620
-2.0762 1.6062 2.0378
-2.1970 1.4297 2.0378
-2.3035 1.2445 2.0378
-2.3951 1.0517 2.0378
-2.4713 0.8524 2.0378
-2.5317 0.6478 2.0378
-2.5759 0.4392 2.0378
-2.6036 0.2277 2.0378
-2.6148 0.0146 2.0378
-2.6092 -0.1987 2.0378
-2.5869 -0.4111 2.0378
-2.5481 -0.6213 2.0378
-2.4929 -0.8279 2.0378
-2.4216 -1.0298 2.0378
-2.3345 -1.2257 2.0378
-2.2322 -1.4145 2.0378
-2.1151 -1.5948 2.0378
-0.7348 -0.6540 0.7548
-0.6800 -0.7120 0.7533
-0.6208 -0.7654 0.7518
-0.5575 -0.8139 0.7503
-0.4905 -0.8571 0.7487
-0.4202 -0.8949 0.7471
-0.3472 -0.9269 0.7454
-0.2718 -0.9529 0.7437
-0.1946 -0.9728 0.7421
-0.1161 -0.9865 0.7404
-0.0367 -0.9938 0.7388
0.0430 -0.9947 0.7372
0.1225 -0.9893 0.7356
0.2014 -0.9775 0.7341
0.2790 -0.9594 0.7326
0.3550 -0.9352 0.7312
0.4288 -0.9049 0.7299
0.4999 -0.8688 0.7287
0.5679 -0.8272 0.7275
0.6324 -0.7802 0.7265
0.6929 -0.7282 0.7256
0.7490 -0.6715 0.7247
0.8005 -0.6105 0.7241
2.3853 -1.5366 2.0378
2.5024 -1.3445 2.0378
2.6034 -1.1433 2.0378
2.6874 -0.9344 2.0378
2.7540 -0.7192 2.0378
2.8025 -0.4991 2.0378
2.8327 -0.2758 2.0378
2.8444 -0.0509 2.0378
2.8375 0.1742 2.0378
2.8120 0.3978 2.0378
2.7682 0.6184 2.0378
2.7065 0.8345 2.0378
2.6272 1.0445 2.0378
2.5311 1.2471 2.0378
2.4189 1.4408 2.0378
2.2913 1.6245 2.0378
0.7718 0.6452 0.7317
0.7174 0.7039 0.7331
0.6585 0.7582 0.7346
0.5954 0.8075 0.7362
0.5286 0.8516 0.7378
0.4584 0.8901 0.7394
0.3853 0.9229 0.7411
0.3098 0.9497 0.7428
0.2324 0.9703 0.7444
0.1536 0.9847 0.7461
0.0739 0.9926 0.7478
-0.0062 0.9941 0.7494
-0.0862 0.9892 0.7510
-0.1655 0.9778 0.7525
-0.2436 0.9601 0.7540
-0.3201 0.9362 0.7554
-0.3943 0.9062 0.7567
-0.4659 0.8703 0.7579
-0.5344 0.8287 0.7591
-0.5993 0.7818 0.7601
-0.6603 0.7299 0.7611
-0.7168 0.6732 0.7619
-2.0539 1.6358 2.0378
-2.1770 1.4610 2.0378
-2.2861 1.2772 2.0378
-2.3803 1.0856 2.0378
-2.4592 0.8874 2.0378
-2.5224 0.6836 2.0378
-2.5694 0.4756 2.0378
-2.6000 0.2645 2.0378
-2.6140 0.0516 2.0378
-2.6113 -0.1618 2.0378
-2.5920 -0.3744 2.0378
-2.5560 -0.5851 2.0378
-2.5036 -0.7924 2.0378
-2.4351 -0.9952 2.0378
-2.3507 -1.1923 2.0378
-2.2510 -1.3823 2.0378
-2.1364 -1.5642 2.0378
-0.7438 -0.6435 0.7550
-0.6899 -0.7022 0.7536
-0.6314 -0.7565 0.7521
-0.5687 -0.8058 0.7506
-0.5023 -0.8500 0.7490
-0.4326 -0.8887 0.7473
-0.3600 -0.9217 0.7457
-0.2850 -0.9488 0.7440
-0.2081 -0.9698 0.7424
-0.1298 -0.9846 0.7407
-0.0505 -0.9930 0.7391
0.0292 -0.9950 0.7374
0.1088 -0.9907 0.7359
0.1878 -0.9800 0.7343
0.2657 -0.9630 0.7328
0.3420 -0.9398 0.7314
0.4162 -0.9106 0.7301
0.4878 -0.8755 0.7289
0.5564 -0.8348 0.7277
0.6215 -0.7887 0.7267
0.6827 -0.7376 0.7257
0.7396 -0.6817 0.7249
0.7919 -0.6214 0.7242
2.3635 -1.5688 2.0378
2.4833 -1.3785 2.0378
2.5871 -1.1788 2.0378
2.6741 -0.9711 2.0378
2.7437 -0.7568 2.0378
2.7954 -0.5375 2.0378
2.8288 -0.3147 2.0378
2.8437 -0.0899 2.0378
2.8400 0.1353 2.0378
2.8177 0.3592 2.0378
2.7771 0.5805 2.0378
2.7184 0.7974 2.0378
2.6422 1.0086 2.0378
2.5490 1.2126 2.0378
2.4395 1.4079 2.0378
2.3145 1.5934 2.0378
0.7807 0.6345 0.7315
0.7272 0.6941 0.7329
0.6690 0.7491 0.7344
0.6066 0.7993 0.7359
0.5404 0.8443 0.7375
0.4708 0.8838 0.7391
0.3981 0.9176 0.7408
0.3230 0.9455 0.7425
0.2459 0.9672 0.7441
0.1673 0.9827 0.7458
0.0877 0.9917 0.7475
0.0077 0.9943 0.7491
-0.0724 0.9905 0.7507
-0.1518 0.9803 0.7522
-0.2302 0.9636 0.7537
-0.3070 0.9408 0.7551
-0.3816 0.9118 0.7565
-0.4537 0.8769 0.7577
0.1424 -0.9304 0.7355
0.2164 -0.9172 0.7341
0.2892 -0.8981 0.7327
0.3602 -0.8733 0.7314
0.4290 -0.8428 0.7302
0.4951 -0.8069 0.7291
0.5582 -0.7658 0.7281
0.6177 -0.7198 0.7271
0.6734 -0.6692 0.7263
0.7249 -0.6142 0.7256
0.7718 -0.5553 0.7249
2.2893 -1.3863 2.0378
2.3943 -1.2022 2.0378
2.4839 -1.0099 2.0378
2.5573 -0.8109 2.0378
2.6142 -0.6064 2.0378
2.6539 -0.3979 2.0378
2.6764 -0.1869 2.0378
2.6813 0.0252 2.0378
2.6688 0.2369 2.0378
2.6389 0.4467 2.0378
2.5919 0.6533 2.0378
2.5281 0.8550 2.0378
2.4481 1.0507 2.0378
2.3524 1.2389 2.0378
0.8034 0.5083 0.7303
0.7599 0.5701 0.7315
0.7116 0.6281 0.7328
0.6588 0.6821 0.7342
0.6018 0.7317 0.7356
0.5410 0.7765 0.7371
0.4768 0.8163 0.7386
0.4096 0.8508 0.7402
0.3398 0.8798 0.7418
0.2680 0.9031 0.7433
0.1944 0.9205 0.7449
0.1197 0.9320 0.7465
0.0444 0.9374 0.7480
-0.0312 0.9367 0.7496
-0.1065 0.9299 0.7510
-0.1809 0.9171 0.7525
-0.2541 0.8983 0.7538
-0.3256 0.8738 0.7551
-0.3948 0.8435 0.7564
-0.4614 0.8078 0.7575
-0.5249 0.7668 0.7586
-0.5849 0.7209 0.7595
-0.6410 0.6703 0.7603
-0.6928 0.6154 0.7611
-0.7400 0.5564 0.7617
-2.0917 1.3206 2.0378
-2.1900 1.1443 2.0378
-2.2742 0.9610 2.0378
-2.3437 0.7718 2.0378
-2.3981 0.5777 2.0378
-2.4372 0.3800 2.0378
-2.4607 0.1799 2.0378
-2.4684 -0.0216 2.0378
-2.4603 -0.2231 2.0378
-2.4365 -0.4234 2.0378
-2.3970 -0.6215 2.0378
-2.3421 -0.8160 2.0378
-2.2719 -1.0057 2.0378
-2.1870 -1.1896 2.0378
-2.0877 -1.3665 2.0378
-0.7318 -0.5689 0.7552
-0.6838 -0.6270 0.7539
-0.6314 -0.6810 0.7525
-0.5748 -0.7306 0.7511
-0.5144 -0.7755 0.7496
-0.4506 -0.8154 0.7481
-0.3839 -0.8501 0.7466
-0.3146 -0.8794 0.7450
-0.2431 -0.9029 0.7434
-0.1700 -0.9207 0.7419
-0.0957 -0.9326 0.7403
-0.0208 -0.9384 0.7388
0.0545 -0.9383 0.7372
0.1294 -0.9321 0.7358
0.2037 -0.9199 0.7343
0.2767 -0.9018 0.7330
0.3480 -0.8780 0.7317
0.4172 -0.8485 0.7304
0.4839 -0.8135 0.7293
0.5475 -0.7733 0.7282
0.6077 -0.7281 0.7273
0.6641 -0.6783 0.7264
0.7163 -0.6240 0.7257
0.7640 -0.5658 0.7250
2.2696 -1.4173 2.0378
2.3772 -1.2347 2.0378
2.4695 -1.0438 2.0378
2.5458 -0.8458 2.0378
2.6055 -0.6422 2.0378
2.6483 -0.4343 2.0378
2.6737 -0.2236 2.0378
2.6817 -0.0116 2.0378
2.6722 0.2003 2.0378
2.6454 0.4106 2.0378
2.6013 0.6178 2.0378
2.5404 0.8205 2.0378
2.4631 1.0173 2.0378
2.3700 1.2069 2.0378
2.2619 1.3880 2.0378
0.7678 0.5596 0.7313
0.7203 0.6183 0.7326
0.6683 0.6731 0.7340
0.6120 0.7234 0.7354
0.5518 0.7691 0.7369
0.4882 0.8098 0.7384
0.4215 0.8452 0.7399
0.3521 0.8752 0.7415
0.2806 0.8995 0.7431
0.2073 0.9179 0.7446
0.1327 0.9304 0.7462
0.0575 0.9369 0.7478
-0.0181 0.9372 0.7493
-0.0935 0.9315 0.7508
-0.1681 0.9198 0.7522
-0.2416 0.9020 0.7536
-0.3134 0.8784 0.7549
-0.3830 0.8492 0.7562
-0.4501 0.8144 0.7573
-0.5141 0.7743 0.7584
-0.5747 0.7292 0.7593
-0.6315 0.6794 0.7602
-0.6841 0.6252 0.7610
-0.7322 0.5669 0.7616
-2.0733 1.3503 2.0378
-2.1740 1.1754 2.0378
-2.2606 0.9932 2.0378
-2.3327 0.8049 2.0378
-2.3898 0.6116 2.0378
-2.4315 0.4145 2.0378
-2.4577 0.2147 2.0378
-2.4682 0.0134 2.0378
-2.4629 -0.1882 2.0378
-2.4418 -0.3888 2.0378
-2.4050 -0.5874 2.0378
-2.3527 -0.7825 2.0378
-2.2851 -0.9732 2.0378
-2.2028 -1.1582 2.0378
-2.1059 -1.3364 2.0378
-0.7396 -0.5585 0.7554
-0.6925 -0.6172 0.7541
-0.6408 -0.6719 0.7528
-0.5849 -0.7223 0.7514
-0.5251 -0.7681 0.7499
-0.4619 -0.8089 0.7484
-0.3956 -0.8445 0.7469
-0.3267 -0.8747 0.7453
-0.2556 -0.8993 0.7437
-0.1828 -0.9180 0.7421
-0.1087 -0.9309 0.7406
-0.0338 -0.9378 0.7390
0.0414 -0.9387 0.7375
0.1165 -0.9336 0.7360
0.1909 -0.9225 0.7346
0.2641 -0.9054 0.7332
0.3358 -0.8825 0.7319
0.4054 -0.8540 0.7306
0.4725 -0.8199 0.7295
0.5367 -0.7806 0.7284
0.5975 -0.7363 0.7274
0.6546 -0.6872 0.7266
0.7076 -0.6337 0.7258
0.7561 -0.5762 0.7251
0.7998 -0.5149 0.7246
2.3596 -1.2670 2.0378
2.4546 -1.0774 2.0378
2.5337 -0.8806 2.0378
2.5964 -0.6778 2.0378
2.6421 -0.4706 2.0378
2.6706 -0.2603 2.0378
2.6816 -0.0484 2.0378
2.6751 0.1636 2.0378
2.6513 0.3743 2.0378
2.6101 0.5821 2.0378
2.5521 0.7857 2.0378
2.4776 0.9836 2.0378
2.3873 1.1746 2.0378
2.2817 1.3573 2.0378
0.7755 0.5491 0.7311
0.7289 0.6084 0.7324
0.6776 0.6639 0.7337
0.6220 0.7150 0.7351
0.5625 0.7615 0.7366
0.4994 0.8031 0.7381
0.4332 0.8395 0.7396
0.3643 0.8704 0.7412
0.2931 0.8957 0.7428
0.2201 0.9151 0.7444
0.1457 0.9287 0.7459
0.0705 0.9362 0.7475
-0.0050 0.9376 0.7490
-0.0804 0.9329 0.7505
-0.1552 0.9222 0.7520
-0.2289 0.9055 0.7534
-0.3011 0.8829 0.7547
-0.3711 0.8546 0.7559
-0.4387 0.8208 0.7571
-0.5033 0.7816 0.7582
-0.5645 0.7374 0.7592
-0.6220 0.6883 0.7601
-0.6753 0.6349 0.7608
-0.7242 0.5773 0.7615
-2.0545 1.3798 2.0378
-2.1575 1.2063 2.0378
-2.2466 1.0253 2.0378
-2.3213 0.8380 2.0378
-2.3810 0.6455 2.0378
-2.4254 0.4489 2.0378
-2.4543 0.2495 2.0378
-2.4675 0.0483 2.0378
-2.4649 -0.1533 2.0378
-2.4466 -0.3542 2.0378
-2.4125 -0.5531 2.0378
-2.3628 -0.7490 2.0378
-2.2979 -0.9405 2.0378
-2.2181 -1.1266 2.0378
-2.1237 -1.3060 2.0378
-0.7473 -0.5479 0.7556
-0.7010 -0.6073 0.7543
-0.6501 -0.6627 0.7530
-0.5949 -0.7139 0.7516
-0.5358 -0.7605 0.7501
-0.4731 -0.8022 0.7487
-0.4073 -0.8387 0.7471
-0.3389 -0.8699 0.7456
-0.2681 -0.8954 0.7440
-0.1955 -0.9152 0.7424
-0.1216 -0.9291 0.7408
-0.0468 -0.9371 0.7393
0.0284 -0.9390 0.7378
0.1035 -0.9349 0.7363
0.1780 -0.9248 0.7348
0.2515 -0.9088 0.7334
0.3235 -0.8869 0.7321
0.3935 -0.8593 0.7309
0.4611 -0.8262 0.7297
0.5258 -0.7878 0.7286
0.5872 -0.7443 0.7276
0.6450 -0.6960 0.7267
0.6987 -0.6433 0.7259
0.7480 -0.5864 0.7252
0.7926 -0.5257 0.7247
2.3416 -1.2990 2.0378
2.4393 -1.1108 2.0378
2.5212 -0.9152 2.0378
2.5867 -0.7133 2.0378
2.6354 -0.5068 2.0378
2.6669 -0.2969 2.0378
2.6809 -0.0852 2.0378
2.6775 0.1270 2.0378
2.6566 0.3379 2.0378
2.6185 0.5464 2.0378
2.5634 0.7508 2.0378
2.4917 0.9498 2.0378
2.4040 1.1421 2.0378
2.3011 1.3262 2.0378
0.7831 0.5384 0.7309
0.7373 0.5984 0.7322
0.6868 0.6546 0.7335
0.6320 0.7065 0.7349
0.5731 0.7538 0.7363
0.5106 0.7963 0.7378
0.4449 0.8336 0.7394
0.3764 0.8654 0.7409
0.3056 0.8917 0.7425
0.2328 0.9122 0.7441
0.1587 0.9268 0.7457
0.0836 0.9353 0.7472
0.0081 0.9378 0.7488
-0.0674 0.9342 0.7503
-0.1423 0.9245 0.7517
-0.2163 0.9088 0.7531
-0.2887 0.8873 0.7545
-0.3591 0.8599 0.7557
-0.4272 0.8270 0.7569
0.1353 -0.8787 0.7360
0.2052 -0.8662 0.7346
0.2739 -0.8482 0.7333
0.3409 -0.8247 0.7321
0.4059 -0.7959 0.7310
0.4683 -0.7621 0.7299
0.5279 -0.7233 0.7289
0.5841 -0.6798 0.7280
0.6367 -0.6320 0.7272
0.6853 -0.5801 0.7265
0.7296 -0.5245 0.7260
0.7693 -0.4655 0.7255
2.2597 -1.1338 2.0378
2.3441 -0.9526 2.0378
2.4133 -0.7649 2.0378
2.4668 -0.5721 2.0378
2.5043 -0.3756 2.0378
2.5255 -0.1767 2.0378
2.5302 0.0233 2.0378
2.5185 0.2229 2.0378
2.4904 0.4207 2.0378
2.4462 0.6155 2.0378
2.3862 0.8058 2.0378
2.3108 0.9903 2.0378
0.7955 0.4184 0.7300
0.7593 0.4797 0.7310
0.7182 0.5380 0.7322
0.6726 0.5928 0.7334
0.6228 0.6438 0.7347
0.5690 0.6906 0.7361
0.5116 0.7329 0.7375
0.4510 0.7705 0.7389
0.3875 0.8030 0.7404
0.3217 0.8304 0.7418
0.2538 0.8524 0.7433
0.1844 0.8688 0.7448
0.1139 0.8796 0.7463
0.0427 0.8847 0.7478
-0.0286 0.8841 0.7492
-0.0997 0.8777 0.7506
-0.1700 0.8656 0.7520
-0.2391 0.8479 0.7532
-0.3065 0.8247 0.7545
-0.3719 0.7961 0.7556
-0.4348 0.7624 0.7567
-0.4947 0.7238 0.7577
-0.5513 0.6804 0.7586
-0.6043 0.6326 0.7594
-0.6532 0.5808 0.7601
-0.6978 0.5252 0.7607
-0.7378 0.4661 0.7611
-2.0682 1.0814 2.0378
-2.1478 0.9082 2.0378
-2.2136 0.7293 2.0378
-2.2651 0.5458 2.0378
-2.3020 0.3589 2.0378
-2.3242 0.1696 2.0378
-2.3315 -0.0208 2.0378
-2.3238 -0.2113 2.0378
-2.3012 -0.4007 2.0378
-2.2638 -0.5879 2.0378
-2.2117 -0.7717 2.0378
-2.1453 -0.9511 2.0378
-2.0649 -1.1248 2.0378
-0.7308 -0.4791 0.7557
-0.6901 -0.5373 0.7545
-0.6448 -0.5921 0.7533
-0.5953 -0.6431 0.7520
-0.5419 -0.6900 0.7507
-0.4849 -0.7324 0.7493
-0.4247 -0.7701 0.7479
-0.3616 -0.8029 0.7464
-0.2962 -0.8305 0.7449
-0.2287 -0.8528 0.7434
-0.1597 -0.8695 0.7420
-0.0896 -0.8807 0.7405
-0.0188 -0.8863 0.7390
0.0523 -0.8861 0.7376
0.1231 -0.8803 0.7362
0.1931 -0.8688 0.7348
0.2621 -0.8517 0.7335
0.3295 -0.8292 0.7323
0.3948 -0.8013 0.7312
0.4577 -0.7683 0.7301
0.5178 -0.7303 0.7291
0.5746 -0.6877 0.7282
0.6279 -0.6406 0.7274
0.6772 -0.5894 0.7267
0.7222 -0.5344 0.7261
0.7627 -0.4759 0.7256
0.7984 -0.4144 0.7252
2.3305 -0.9845 2.0378
2.4024 -0.7978 2.0378
2.4587 -0.6059 2.0378
2.4990 -0.4099 2.0378
2.5230 -0.2113 2.0378
2.5306 -0.0114 2.0378
2.5217 0.1884 2.0378
2.4964 0.3866 2.0378
2.4550 0.5820 2.0378
2.3977 0.7732 2.0378
2.3250 0.9588 2.0378
0.8012 0.4074 0.7298
0.7659 0.4693 0.7308
0.7257 0.5282 0.7320
0.6809 0.5836 0.7332
0.6317 0.6352 0.7345
0.5786 0.6828 0.7358
0.5218 0.7259 0.7372
0.4617 0.7643 0.7386
0.3987 0.7978 0.7401
0.3332 0.8260 0.7416
0.2657 0.8490 0.7431
0.1965 0.8664 0.7446
0.1262 0.8782 0.7461
0.0551 0.8842 0.7475
-0.0163 0.8846 0.7490
-0.0874 0.8792 0.7504
-0.1579 0.8681 0.7517
-0.2272 0.8514 0.7530
-0.2950 0.8291 0.7543
-0.3607 0.8015 0.7554
-0.4241 0.7686 0.7565
-0.4845 0.7308 0.7575
-0.5417 0.6882 0.7584
-0.5954 0.6412 0.7593
-0.6450 0.5900 0.7600
-0.6904 0.5350 0.7606
-0.7312 0.4766 0.7611
-2.0531 1.1108 2.0378
-2.1350 0.9386 2.0378
-2.2032 0.7606 2.0378
-2.2572 0.5779 2.0378
-2.2967 0.3915 2.0378
-2.3214 0.2026 2.0378
-2.3313 0.0122 2.0378
-2.3262 -0.1783 2.0378
-2.3062 -0.3680 2.0378
-2.2713 -0.5557 2.0378
-2.2218 -0.7402 2.0378
-2.1578 -0.9204 2.0378
-2.0798 -1.0951 2.0378
-0.7374 -0.4686 0.7559
-0.6975 -0.5275 0.7547
-0.6530 -0.5829 0.7535
-0.6042 -0.6346 0.7522
-0.5514 -0.6822 0.7509
-0.4950 -0.7254 0.7495
-0.4353 -0.7639 0.7481
-0.3728 -0.7976 0.7467
-0.3077 -0.8261 0.7452
-0.2405 -0.8493 0.7437
-0.1718 -0.8670 0.7422
-0.1018 -0.8792 0.7407
-0.0311 -0.8857 0.7393
0.0400 -0.8866 0.7378
0.1108 -0.8817 0.7364
0.1811 -0.8712 0.7351
0.2502 -0.8551 0.7338
0.3179 -0.8335 0.7325
0.3836 -0.8065 0.7314
0.4470 -0.7744 0.7303
0.5076 -0.7372 0.7292
0.5650 -0.6954 0.7283
0.6189 -0.6490 0.7275
0.6689 -0.5985 0.7268
0.7147 -0.5442 0.7262
