ply
format ascii 1.0
element vertex 2108
property float32 x
property float32 y
property float32 z
end_header
-1.1943 -4.9241 0.5551
-0.7844 -4.9301 0.5554
-0.3809 -4.8985 0.5557
0.0124 -4.8314 0.5561
0.3925 -4.7310 0.5566
0.7565 -4.6001 0.5571
3.7388 -15.0671 1.8919
4.8371 -14.4276 1.8919
5.8793 -13.7614 1.8985
6.8799 -13.0847 1.9139
7.8070 -12.3318 1.9281
8.6559 -11.5113 1.9411
6.3135 -7.1245 1.3085
10.1041 -9.7051 1.9631
10.6990 -8.7373 1.9721
11.2062 -7.7383 1.9798
11.6260 -6.7159 1.9860
11.9588 -5.6783 1.9910
12.2062 -4.6325 1.9945
6.3821 -1.8499 1.0302
6.1230 -1.2508 0.9824
6.4862 -0.7876 1.0402
12.3840 -0.4977 1.9963
12.2390 0.4966 1.9938
12.0245 1.4658 1.9902
11.7437 2.4056 1.9857
11.3998 3.3130 1.9801
10.9964 4.1845 1.9736
3.7543 1.7878 0.7006
10.0236 5.8092 1.9581
6.7276 4.6627 1.3861
8.8515 7.2595 1.9396
8.1987 7.9138 1.9293
7.5054 8.5187 1.9184
6.7749 9.0721 1.9069
6.0100 9.5726 1.8949
5.2400 10.0692 1.8919
4.4418 10.5333 1.8919
3.6813 11.1722 1.9307
2.9592 12.2205 2.0443
1.9853 12.5521 2.0443
0.9785 12.8212 2.0443
-0.0582 13.0247 2.0443
-1.1226 13.1592 2.0443
-2.2109 13.2213 2.0443
-3.3198 13.2075 2.0443
-4.4451 13.1143 2.0443
-5.5817 12.9382 2.0443
-6.7247 12.6757 2.0443
-7.8677 12.3237 2.0443
-9.0044 11.8789 2.0443
-10.1270 11.3390 2.0443
-11.2269 10.7018 2.0443
-12.2955 9.9658 2.0443
-13.3224 9.1308 2.0443
-14.2975 8.1967 2.0443
-15.2091 7.1656 2.0443
-16.0452 6.0408 2.0443
-16.7942 4.8265 2.0443
-17.4435 3.5298 2.0443
-17.9812 2.1585 2.0443
-18.3958 0.7236 2.0443
-18.6767 -0.7634 2.0443
-18.8146 -2.2878 2.0443
-18.8020 -3.8335 2.0443
-18.6333 -5.3837 2.0443
-18.3058 -6.9192 2.0443
-17.8190 -8.4217 2.0443
-17.1755 -9.8712 2.0443
-16.3813 -11.2487 2.0443
-15.4447 -12.5368 2.0443
-14.3773 -13.7184 2.0443
-13.1925 -14.7795 2.0443
-11.9064 -15.7076 2.0443
-10.5367 -16.4932 2.0443
-9.1010 -17.1301 2.0443
-7.6189 -17.6141 2.0443
-6.1085 -17.9448 2.0443
-1.2457 -4.9207 0.5550
-0.8354 -4.9315 0.5553
-0.4309 -4.9045 0.5557
-0.0361 -4.8416 0.5561
0.3458 -4.7453 0.5565
0.7119 -4.6180 0.5570
3.5963 -15.1413 1.8919
4.7039 -14.5119 1.8919
5.7494 -13.8402 1.8965
6.7587 -13.1737 1.9120
7.6952 -12.4298 1.9264
8.5542 -11.6172 1.9395
6.2282 -7.1720 1.3025
10.0236 -9.8234 1.9619
10.6294 -8.8602 1.9711
11.1476 -7.8646 1.9789
11.5783 -6.8447 1.9853
11.9220 -5.8085 1.9904
12.1799 -4.7635 1.9942
6.4365 -1.9362 1.0402
6.1106 -1.3126 0.9808
6.7409 -0.8876 1.0808
12.3970 -0.6233 1.9965
12.2610 0.3736 1.9942
12.0550 1.3461 1.9907
11.7823 2.2898 1.9863
11.4461 3.2015 1.9808
11.0499 4.0778 1.9745
3.7689 1.7483 0.6997
10.0905 5.7126 1.9592
6.7933 4.6074 1.3897
6.5935 5.2970 1.4330
8.2826 7.8347 1.9306
7.5942 8.4458 1.9198
6.8681 9.0058 1.9083
6.1074 9.5130 1.8964
5.3372 10.0078 1.8919
4.5436 10.4779 1.8919
3.7136 10.8986 1.8919
3.0784 12.1748 2.0443
2.1089 12.5140 2.0443
1.1061 12.7911 2.0443
0.0730 13.0030 2.0443
-0.9881 13.1462 2.0443
-2.0738 13.2176 2.0443
-3.1802 13.2135 2.0443
-4.3037 13.1304 2.0443
-5.4391 12.9649 2.0443
-6.5817 12.7134 2.0443
-7.7253 12.3726 2.0443
-8.8629 11.9397 2.0443
-9.9877 11.4118 2.0443
-11.0909 10.7869 2.0443
-12.1640 10.0633 2.0443
-13.1967 9.2406 2.0443
-14.1788 8.3188 2.0443
-15.0990 7.2997 2.0443
-15.9452 6.1863 2.0443
-16.7058 4.9830 2.0443
-17.3681 3.6962 2.0443
-17.9205 2.3337 2.0443
-18.3511 0.9058 2.0443
-18.6492 -0.5751 2.0443
-18.8055 -2.0957 2.0443
-18.8120 -3.6396 2.0443
-18.6631 -5.1903 2.0443
-18.3554 -6.7289 2.0443
-17.8885 -8.2363 2.0443
-17.2644 -9.6935 2.0443
-16.4886 -11.0810 2.0443
-15.5692 -12.3813 2.0443
-14.5173 -13.5772 2.0443
-13.3465 -14.6539 2.0443
-12.0722 -15.5992 2.0443
-10.7119 -16.4030 2.0443
-9.2834 -17.0587 2.0443
-7.8058 -17.5621 2.0443
-6.2982 -17.9118 2.0443
-1.2972 -4.9166 0.5550
-0.8864 -4.9322 0.5553
-0.4810 -4.9098 0.5556
-0.0848 -4.8514 0.5560
0.2989 -4.7591 0.5565
0.6672 -4.6355 0.5570
3.4527 -15.2142 1.8919
4.5695 -14.5949 1.8919
5.6184 -13.9176 1.8945
6.6363 -13.2615 1.9102
7.5825 -12.5266 1.9247
8.4512 -11.7222 1.9380
6.1572 -7.2359 1.2996
9.9417 -9.9411 1.9607
10.5585 -8.9826 1.9700
11.0877 -7.9904 1.9780
11.5292 -6.9733 1.9846
11.8837 -5.9386 1.9899
12.1523 -4.8944 1.9938
6.4282 -2.0046 1.0402
6.0984 -1.3743 0.9794
6.6181 -0.9395 1.0609
12.4089 -0.7495 1.9968
12.2819 0.2502 1.9945
12.0845 1.2260 1.9912
11.8199 2.1735 1.9869
11.4915 3.0894 1.9816
11.1026 3.9702 1.9753
3.7847 1.7093 0.6990
10.1566 5.6153 1.9602
6.9044 4.5815 1.4026
6.5251 5.1344 1.4067
8.3658 7.7549 1.9319
7.6824 8.3722 1.9211
6.9608 8.9387 1.9098
6.2043 9.4525 1.8979
5.4338 9.9456 1.8919
4.6447 10.4219 1.8919
3.8193 10.8488 1.8919
3.1972 12.1282 2.0443
2.2320 12.4749 2.0443
1.2332 12.7600 2.0443
0.2035 12.9802 2.0443
-0.8540 13.1322 2.0443
-1.9368 13.2127 2.0443
-3.0408 13.2182 2.0443
-4.1625 13.1452 2.0443
-5.2969 12.9901 2.0443
-6.4387 12.7496 2.0443
-7.5824 12.4202 2.0443
-8.7212 11.9990 2.0443
-9.8480 11.4831 2.0443
-10.9544 10.8704 2.0443
-12.0318 10.1592 2.0443
-13.0703 9.3487 2.0443
-14.0592 8.4395 2.0443
-14.9877 7.4324 2.0443
-15.8438 6.3307 2.0443
-16.6158 5.1382 2.0443
-17.2912 3.8611 2.0443
-17.8579 2.5079 2.0443
-18.3043 1.0875 2.0443
-18.6195 -0.3874 2.0443
-18.7940 -1.9039 2.0443
-18.8196 -3.4461 2.0443
-18.6904 -4.9966 2.0443
-18.4026 -6.5379 2.0443
-17.9555 -8.0501 2.0443
-17.3509 -9.5148 2.0443
-16.5935 -10.9122 2.0443
-15.6917 -12.2241 2.0443
-14.6556 -13.4339 2.0443
-13.4989 -14.5262 2.0443
-12.2366 -15.4886 2.0443
-10.8861 -16.3105 2.0443
-9.4651 -16.9850 2.0443
-7.9926 -17.5076 2.0443
-6.4878 -17.8764 2.0443
-1.3488 -4.9119 0.5550
-0.9376 -4.9324 0.5552
-0.5312 -4.9147 0.5556
-0.1336 -4.8606 0.5559
0.2517 -4.7724 0.5564
0.6221 -4.6526 0.5569
3.3081 -15.2857 1.8919
4.4339 -14.6768 1.8919
5.4866 -13.9936 1.8925
6.5129 -13.3480 1.9083
7.4683 -12.6225 1.9229
8.3469 -11.8263 1.9364
6.0863 -7.2999 1.2968
9.8587 -10.0580 1.9594
10.4861 -9.1044 1.9689
11.0263 -8.1160 1.9771
11.4788 -7.1016 1.9838
11.8441 -6.0687 1.9893
12.1234 -5.0251 1.9934
6.4194 -2.0730 1.0402
6.1086 -1.4415 0.9816
6.5384 -0.9955 1.0481
12.4197 -0.8760 1.9969
12.3017 0.1264 1.9949
12.1129 1.1055 1.9917
11.8565 2.0568 1.9875
11.5360 2.9767 1.9823
11.1544 3.8621 1.9762
3.8355 1.6858 0.7048
10.2220 5.5173 1.9613
7.0175 4.5552 1.4159
6.5344 5.0357 1.3976
8.4484 7.6742 1.9332
7.7700 8.2977 1.9225
7.0530 8.8707 1.9112
6.3006 9.3913 1.8994
5.5298 9.8827 1.8919
4.7454 10.3650 1.8919
3.9245 10.7982 1.8919
3.3154 12.0807 2.0443
2.3544 12.4349 2.0443
1.3598 12.7278 2.0443
0.3339 12.9563 2.0443
-0.7204 13.1170 2.0443
-1.8002 13.2067 2.0443
-2.9017 13.2218 2.0443
-4.0214 13.1588 2.0443
-5.1545 13.0141 2.0443
-6.2956 12.7845 2.0443
-7.4396 12.4664 2.0443
-8.5793 12.0568 2.0443
-9.7081 11.5528 2.0443
-10.8177 10.9522 2.0443
-11.8990 10.2535 2.0443
-12.9429 9.4555 2.0443
-13.9386 8.5586 2.0443
-14.8753 7.5635 2.0443
-15.7413 6.4733 2.0443
-16.5243 5.2920 2.0443
-17.2125 4.0252 2.0443
-17.7934 2.6810 2.0443
-18.2555 1.2684 2.0443
-18.5877 -0.2008 2.0443
-18.7802 -1.7126 2.0443
-18.8247 -3.2525 2.0443
-18.7151 -4.8029 2.0443
-18.4473 -6.3464 2.0443
-18.0200 -7.8636 2.0443
-17.4349 -9.3349 2.0443
-16.6963 -10.7418 2.0443
-15.8120 -12.0653 2.0443
-14.7920 -13.2888 2.0443
-13.6497 -14.3965 2.0443
-12.3996 -15.3757 2.0443
-11.0589 -16.2158 2.0443
-9.6460 -16.9089 2.0443
-8.1789 -17.4506 2.0443
-6.6771 -17.8387 2.0443
-1.4003 -4.9065 0.5550
-0.9887 -4.9319 0.5552
-0.5816 -4.9189 0.5555
-0.1828 -4.8693 0.5559
0.2043 -4.7852 0.5563
0.5767 -4.6692 0.5568
3.2560 -15.8095 1.9478
4.2971 -14.7574 1.8919
5.3536 -14.0683 1.8904
6.3883 -13.4333 1.9063
7.3529 -12.7172 1.9211
8.2416 -11.9293 1.9348
6.0236 -7.3742 1.2960
9.7741 -10.1744 1.9581
10.4124 -9.2257 1.9678
10.9636 -8.2412 1.9761
11.4270 -7.2296 1.9831
11.8032 -6.1985 1.9887
12.0931 -5.1559 1.9929
12.2984 -4.1089 1.9959
6.1160 -1.5085 0.9835
6.4817 -1.0539 1.0390
12.4293 -1.0028 1.9971
12.3204 0.0025 1.9952
12.1403 0.9845 1.9922
11.8921 1.9395 1.9881
11.5794 2.8635 1.9830
11.2053 3.7534 1.9770
3.8871 1.6619 0.7108
10.2865 5.4186 1.9623
7.2692 4.6149 1.4569
6.5503 4.9432 1.3902
8.5304 7.5927 1.9345
7.8569 8.2226 1.9239
7.1447 8.8019 1.9127
6.3965 9.3291 1.9009
5.6252 9.8192 1.8919
4.8455 10.3073 1.8919
4.0289 10.7468 1.8919
3.4331 12.0322 2.0443
2.4764 12.3939 2.0443
1.4860 12.6947 2.0443
0.4638 12.9314 2.0443
-0.5871 13.1007 2.0443
-1.6639 13.1995 2.0443
-2.7632 13.2241 2.0443
-3.8806 13.1710 2.0443
-5.0123 13.0368 2.0443
-6.1527 12.8180 2.0443
-7.2966 12.5111 2.0443
-8.4375 12.1130 2.0443
-9.5678 11.6210 2.0443
-10.6803 11.0327 2.0443
-11.7657 10.3463 2.0443
-12.8148 9.5607 2.0443
-13.8173 8.6759 2.0443
-14.7618 7.6932 2.0443
-15.6373 6.6147 2.0443
-16.4313 5.4446 2.0443
-17.1321 4.1880 2.0443
-17.7271 2.8527 2.0443
-18.2046 1.4483 2.0443
-18.5536 -0.0144 2.0443
-18.7640 -1.5217 2.0443
-18.8275 -3.0590 2.0443
-18.7375 -4.6090 2.0443
-18.4895 -6.1544 2.0443
-18.0821 -7.6760 2.0443
-17.5166 -9.1541 2.0443
-16.7968 -10.5701 2.0443
-15.9303 -11.9049 2.0443
-14.9265 -13.1418 2.0443
-13.7985 -14.2650 2.0443
-12.5612 -15.2607 2.0443
-11.2309 -16.1187 2.0443
-9.8260 -16.8305 2.0443
-8.3646 -17.3913 2.0443
-6.8659 -17.7986 2.0443
-5.3486 -18.0529 2.0443
-1.0400 -4.9309 0.5552
-0.6322 -4.9226 0.5555
-0.2321 -4.8774 0.5558
0.1567 -4.7975 0.5563
0.5310 -4.6854 0.5568
3.2303 -16.5219 2.0265
4.1592 -14.8368 1.8919
5.2294 -14.1681 1.8919
6.2628 -13.5172 1.9044
7.2364 -12.8109 1.9194
8.1348 -12.0314 1.9331
5.9910 -7.4866 1.3019
6.7135 -7.1305 1.3560
10.3374 -9.3465 1.9667
10.8995 -8.3659 1.9752
11.3739 -7.3571 1.9823
11.7609 -6.3282 1.9880
12.0615 -5.2867 1.9925
12.2773 -4.2399 1.9956
6.1235 -1.5760 0.9855
6.1591 -1.0652 0.9874
12.4378 -1.1299 1.9973
12.3379 -0.1220 1.9955
12.1666 0.8631 1.9926
11.9268 1.8218 1.9886
11.6219 2.7500 1.9837
11.2554 3.6441 1.9778
10.8303 4.5016 1.9710
10.3503 5.3193 1.9633
9.8183 6.0949 1.9549
6.5661 4.8519 1.3830
8.6117 7.5105 1.9358
7.9433 8.1466 1.9252
7.2357 8.7323 1.9141
6.4919 9.2661 1.9024
5.7200 9.7548 1.8919
4.9451 10.2489 1.8919
4.1330 10.6946 1.8919
3.5502 11.9828 2.0443
2.5979 12.3520 2.0443
1.6116 12.6605 2.0443
0.5932 12.9054 2.0443
-0.4544 13.0834 2.0443
-1.5280 13.1911 2.0443
-2.6246 13.2252 2.0443
-3.7400 13.1820 2.0443
-4.8702 13.0582 2.0443
-6.0100 12.8500 2.0443
-7.1536 12.5544 2.0443
-8.2952 12.1679 2.0443
-9.4273 11.6878 2.0443
-10.5425 11.1116 2.0443
-11.6319 10.4373 2.0443
-12.6860 9.6644 2.0443
-13.6949 8.7919 2.0443
-14.6472 7.8214 2.0443
-15.5320 6.7546 2.0443
-16.3369 5.5958 2.0443
-17.0500 4.3496 2.0443
-17.6589 3.0237 2.0443
-18.1517 1.6274 2.0443
-18.5173 0.1712 2.0443
-18.7456 -1.3313 2.0443
-18.8278 -2.8657 2.0443
-18.7572 -4.4154 2.0443
-18.5293 -5.9622 2.0443
-18.1418 -7.4877 2.0443
-17.5959 -8.9723 2.0443
-16.8950 -10.3971 2.0443
-16.0462 -11.7433 2.0443
-15.0591 -12.9931 2.0443
-13.9458 -14.1315 2.0443
-12.7214 -15.1435 2.0443
-11.4017 -16.0193 2.0443
-10.0048 -16.7498 2.0443
-8.5498 -17.3296 2.0443
-7.0547 -17.7561 2.0443
-5.5388 -18.0294 2.0443
-1.0914 -4.9293 0.5551
-0.6827 -4.9257 0.5554
-0.2815 -4.8850 0.5558
0.1088 -4.8093 0.5562
0.4851 -4.7011 0.5567
3.0989 -16.7396 2.0443
4.0201 -14.9149 1.8919
5.0998 -14.2558 1.8919
6.1361 -13.5999 1.9025
7.1186 -12.9034 1.9176
8.0268 -12.1325 1.9315
5.9592 -7.6022 1.3083
6.5412 -7.0890 1.3323
10.2611 -9.4665 1.9655
10.8340 -8.4902 1.9742
11.3194 -7.4845 1.9815
11.7172 -6.4577 1.9874
12.0286 -5.4173 1.9920
12.2549 -4.3706 1.9952
6.1309 -1.6440 0.9876
6.1472 -1.1271 0.9856
6.5708 -0.6638 1.0546
12.3544 -0.2469 1.9958
12.1918 0.7415 1.9930
11.9604 1.7035 1.9892
11.6635 2.6357 1.9844
11.3045 3.5343 1.9786
10.8865 4.3965 1.9719
3.7728 1.8910 0.7117
9.8875 6.0003 1.9560
6.6127 4.7838 1.3824
8.6923 7.4275 1.9371
8.0290 8.0698 1.9266
7.3263 8.6618 1.9155
6.5868 9.2023 1.9039
5.8137 9.6893 1.8918
5.0440 10.1897 1.8919
4.2365 10.6416 1.8919
3.6667 11.9326 2.0443
2.7189 12.3091 2.0443
1.7365 12.6254 2.0443
0.7222 12.8784 2.0443
-0.3219 13.0649 2.0443
-1.3924 13.1816 2.0443
-2.4864 13.2251 2.0443
-3.5999 13.1917 2.0443
-4.7282 13.0782 2.0443
-5.8671 12.8808 2.0443
-7.0106 12.5962 2.0443
-8.1529 12.2213 2.0443
-9.2867 11.7529 2.0443
-10.4043 11.1889 2.0443
-11.4974 10.5271 2.0443
-12.5564 9.7665 2.0443
-13.5716 8.9064 2.0443
-14.5316 7.9480 2.0443
-15.4255 6.8932 2.0443
-16.2412 5.7453 2.0443
-16.9663 4.5099 2.0443
-17.5889 3.1936 2.0443
-18.0968 1.8055 2.0443
-18.4789 0.3561 2.0443
-18.7249 -1.1416 2.0443
-18.8258 -2.6727 2.0443
-18.7746 -4.2214 2.0443
-18.5665 -5.7695 2.0443
-18.1990 -7.2988 2.0443
-17.6726 -8.7898 2.0443
-16.9909 -10.2229 2.0443
-16.1601 -11.5799 2.0443
-15.1897 -12.8426 2.0443
-14.0914 -13.9955 2.0443
-12.8798 -15.0244 2.0443
-11.5713 -15.9176 2.0443
-10.1831 -16.6666 2.0443
-8.7343 -17.2654 2.0443
-7.2431 -17.7112 2.0443
-5.7289 -18.0035 2.0443
-1.1428 -4.9270 0.5551
-0.7335 -4.9282 0.5554
-0.3312 -4.8920 0.5557
0.0607 -4.8206 0.5562
0.4389 -4.7163 0.5566
2.9379 -16.8107 2.0443
3.8801 -14.9916 1.8919
4.9689 -14.3423 1.8919
6.0082 -13.6813 1.9005
6.9997 -12.9947 1.9157
7.9175 -12.2327 1.9298
5.9789 -7.7870 1.3264
6.4266 -7.1069 1.3202
10.1833 -9.5861 1.9643
10.7671 -8.6141 1.9732
11.2635 -7.6115 1.9806
11.6723 -6.5868 1.9867
11.9944 -5.5479 1.9915
12.2312 -4.5016 1.9949
6.2761 -1.7509 1.0120
6.1351 -1.1890 0.9840
6.4840 -0.7211 1.0402
12.3697 -0.3721 1.9961
12.2159 0.6193 1.9934
11.9930 1.5847 1.9897
11.7040 2.5209 1.9850
11.3526 3.4238 1.9793
10.9419 4.2908 1.9727
3.7445 1.8298 0.7025
9.9560 5.9050 1.9570
6.6700 4.7233 1.3842
8.7723 7.3438 1.9383
8.1142 7.9922 1.9279
7.4161 8.5907 1.9170
6.6811 9.1376 1.9054
5.9121 9.6314 1.8933
5.1424 10.1298 1.8919
4.3394 10.5878 1.8919
3.6768 11.5493 1.9872
2.8394 12.2652 2.0443
1.8612 12.5892 2.0443
0.8507 12.8503 2.0443
-0.1899 13.0453 2.0443
-1.2574 13.1710 2.0443
-2.3485 13.2237 2.0443
-3.4595 13.2002 2.0443
-4.5862 13.0969 2.0443
-5.7244 12.9101 2.0443
-6.8676 12.6367 2.0443
-8.0101 12.2733 2.0443
-9.1457 11.8167 2.0443
-10.2657 11.2648 2.0443
-11.3622 10.6154 2.0443
-12.4260 9.8672 2.0443
-13.4474 9.0194 2.0443
-14.4150 8.0733 2.0443
-15.3176 7.0304 2.0443
-16.1439 5.8937 2.0443
-16.8810 4.6690 2.0443
-17.5169 3.3625 2.0443
-18.0400 1.9824 2.0443
-18.4384 0.5402 2.0443
-18.7019 -0.9519 2.0443
-18.8214 -2.4796 2.0443
-18.7895 -4.0275 2.0443
-18.6012 -5.5765 2.0443
-18.2537 -7.1090 2.0443
-17.7470 -8.6062 2.0443
-17.0845 -10.0475 2.0443
-16.2720 -11.4148 2.0443
-15.3181 -12.6907 2.0443
-14.2353 -13.8579 2.0443
-13.0372 -14.9028 2.0443
-11.7399 -15.8134 2.0443
-10.3604 -16.5811 2.0443
-8.9181 -17.1989 2.0443
-7.4315 -17.6638 2.0443
-5.9186 -17.9753 2.0443
-1.1943 -4.9241 0.5551
-0.7845 -4.9301 0.5554
-0.3811 -4.8985 0.5557
0.0124 -4.8314 0.5561
0.3925 -4.7310 0.5566
0.7564 -4.6001 0.5571
3.7383 -15.0674 1.8919
4.8369 -14.4277 1.8919
5.8791 -13.7616 1.8985
6.8795 -13.0851 1.9139
7.8070 -12.3318 1.9281
8.6557 -11.5114 1.9411
6.3133 -7.1246 1.3084
10.1038 -9.7055 1.9631
10.6989 -8.7375 1.9721
11.2061 -7.7385 1.9798
11.6258 -6.7163 1.9860
11.9588 -5.6783 1.9910
12.2062 -4.6328 1.9945
6.3833 -1.8505 1.0304
6.1230 -1.2508 0.9824
6.4862 -0.7878 1.0402
12.3840 -0.4979 1.9963
12.2391 0.4962 1.9938
12.0245 1.4656 1.9902
11.7437 2.4054 1.9857
11.4000 3.3127 1.9801
10.9964 4.1845 1.9736
3.7544 1.7878 0.7006
10.0238 5.8089 1.9581
6.7278 4.6625 1.3861
8.8516 7.2593 1.9396
8.1989 7.9137 1.9293
7.5057 8.5184 1.9184
6.7749 9.0721 1.9069
6.0101 9.5725 1.8949
5.2403 10.0690 1.8919
4.4418 10.5333 1.8919
3.6813 11.1717 1.9306
2.9594 12.2204 2.0443
1.9857 12.5520 2.0443
0.9788 12.8212 2.0443
-0.0580 13.0246 2.0443
-1.1221 13.1591 2.0443
-2.2109 13.2213 2.0443
-3.3196 13.2075 2.0443
-4.4446 13.1143 2.0443
-5.5817 12.9382 2.0443
-6.7245 12.6758 2.0443
-7.8675 12.3237 2.0443
-9.0039 11.8791 2.0443
-10.1268 11.3391 2.0443
-11.2267 10.7020 2.0443
-12.2951 9.9662 2.0443
-13.3224 9.1308 2.0443
-14.2973 8.1969 2.0443
-15.2087 7.1660 2.0443
-16.0449 6.0413 2.0443
-16.7941 4.8268 2.0443
-17.4433 3.5301 2.0443
-17.9810 2.1591 2.0443
-18.3958 0.7236 2.0443
-18.6767 -0.7630 2.0443
-18.8146 -2.2872 2.0443
-18.8020 -3.8335 2.0443
-18.6334 -5.3834 2.0443
-18.3059 -6.9189 2.0443
-17.8192 -8.4210 2.0443
-17.1757 -9.8709 2.0443
-16.3815 -11.2484 2.0443
-15.4451 -12.5363 2.0443
-14.3773 -13.7184 2.0443
-13.1928 -14.7792 2.0443
-11.9070 -15.7072 2.0443
-10.5367 -16.4932 2.0443
-9.1013 -17.1299 2.0443
-7.6192 -17.6140 2.0443
-6.1091 -17.9446 2.0443
-1.2458 -4.9207 0.5550
-0.8354 -4.9315 0.5553
-0.4310 -4.9045 0.5556
-0.0361 -4.8416 0.5561
0.3458 -4.7453 0.5565
0.7118 -4.6181 0.5570
3.5958 -15.1416 1.8919
4.7037 -14.5120 1.8919
5.7492 -13.8403 1.8965
6.7583 -13.1740 1.9120
7.6952 -12.4298 1.9264
8.5540 -11.6174 1.9395
6.2280 -7.1722 1.3025
10.0236 -9.8234 1.9619
10.6293 -8.8604 1.9711
11.1475 -7.8648 1.9789
11.5781 -6.8451 1.9853
11.9219 -5.8087 1.9904
12.1799 -4.7637 1.9942
6.4364 -1.9364 1.0402
6.1106 -1.3126 0.9808
6.7406 -0.8877 1.0808
12.3970 -0.6237 1.9965
12.2610 0.3736 1.9942
12.0550 1.3459 1.9907
11.7824 2.2896 1.9863
11.4463 3.2011 1.9808
11.0500 4.0776 1.9745
3.7689 1.7482 0.6997
10.0907 5.7123 1.9592
6.7933 4.6074 1.3897
6.5934 5.2967 1.4329
8.2828 7.8345 1.9306
7.5945 8.4456 1.9198
6.8682 9.0057 1.9083
6.1076 9.5129 1.8964
5.3375 10.0076 1.8919
4.5436 10.4779 1.8919
3.7138 10.8985 1.8919
3.0788 12.1747 2.0443
2.1089 12.5140 2.0443
1.1063 12.7911 2.0443
0.0732 13.0029 2.0443
-0.9877 13.1462 2.0443
-2.0736 13.2176 2.0443
-3.1800 13.2135 2.0443
-4.3032 13.1304 2.0443
-5.4391 12.9649 2.0443
-6.5815 12.7134 2.0443
-7.7248 12.3728 2.0443
-8.8624 11.9399 2.0443
-9.9874 11.4119 2.0443
-11.0907 10.7870 2.0443
-12.1635 10.0636 2.0443
-13.1967 9.2406 2.0443
-14.1786 8.3191 2.0443
-15.0986 7.3002 2.0443
-15.9452 6.1863 2.0443
-16.7056 4.9833 2.0443
-17.3680 3.6965 2.0443
-17.9203 2.3343 2.0443
-18.3511 0.9061 2.0443
-18.6492 -0.5748 2.0443
-18.8054 -2.0950 2.0443
-18.8120 -3.6396 2.0443
-18.6632 -5.1899 2.0443
-18.3556 -6.7283 2.0443
-17.8885 -8.2363 2.0443
-17.2645 -9.6932 2.0443
-16.4888 -11.0807 2.0443
-15.5696 -12.3808 2.0443
-14.5175 -13.5770 2.0443
-13.3468 -14.6536 2.0443
-12.0727 -15.5988 2.0443
-10.7119 -16.4030 2.0443
-9.2837 -17.0586 2.0443
-7.8065 -17.5619 2.0443
-6.2989 -17.9116 2.0443
-1.2973 -4.9166 0.5550
-0.8865 -4.9322 0.5553
-0.4811 -4.9099 0.5556
-0.0848 -4.8514 0.5560
0.2988 -4.7591 0.5565
0.6670 -4.6356 0.5570
3.4527 -15.2142 1.8919
4.5693 -14.5951 1.8919
5.6182 -13.9178 1.8945
6.6359 -13.2618 1.9101
7.5823 -12.5268 1.9247
8.4510 -11.7224 1.9380
6.1570 -7.2361 1.2996
9.9417 -9.9411 1.9607
10.5583 -8.9828 1.9700
11.0875 -7.9908 1.9780
11.5292 -6.9733 1.9846
11.8836 -5.9389 1.9899
12.1522 -4.8946 1.9938
6.4282 -2.0048 1.0402
6.0984 -1.3744 0.9794
6.6179 -0.9396 1.0609
12.4090 -0.7499 1.9968
12.2819 0.2502 1.9945
12.0845 1.2258 1.9912
11.8200 2.1733 1.9869
11.4917 3.0890 1.9816
11.1027 3.9701 1.9753
3.7848 1.7093 0.6990
10.1568 5.6149 1.9602
6.9044 4.5815 1.4026
6.5249 5.1341 1.4067
8.3660 7.7546 1.9319
7.6824 8.3722 1.9211
6.9610 8.9386 1.9098
6.2045 9.4524 1.8979
5.4341 9.9454 1.8919
4.6449 10.4218 1.8919
3.8195 10.8487 1.8919
3.1976 12.1280 2.0443
1.8850 10.5743 2.0443
1.0361 10.7975 2.0443
0.1639 10.9631 2.0443
-0.7285 11.0685 2.0443
-1.6381 11.1113 2.0443
-2.5611 11.0889 2.0443
-3.4935 10.9988 2.0443
-4.4311 10.8388 2.0443
-5.3689 10.6067 2.0443
-6.3017 10.3006 2.0443
-7.2237 9.9187 2.0443
-8.1287 9.4600 2.0443
-9.0098 8.9237 2.0443
-9.8599 8.3095 2.0443
-10.6712 7.6181 2.0443
-11.4358 6.8507 2.0443
-12.1452 6.0098 2.0443
-12.7910 5.0984 2.0443
-13.3646 4.1212 2.0443
-13.8574 3.0836 2.0443
-14.2614 1.9927 2.0443
-14.5689 0.8562 2.0443
-14.7730 -0.3162 2.0443
-14.8679 -1.5141 2.0443
-14.8488 -2.7261 2.0443
-14.7126 -3.9395 2.0443
-14.4576 -5.1415 2.0443
-14.0839 -6.3187 2.0443
-13.5937 -7.4576 2.0443
-12.9908 -8.5448 2.0443
-12.2811 -9.5679 2.0443
-11.4723 -10.5149 2.0443
-10.5734 -11.3754 2.0443
-9.5952 -12.1404 2.0443
-8.5493 -12.8021 2.0443
-7.4482 -13.3551 2.0443
-6.3048 -13.7954 2.0443
-5.1323 -14.1209 2.0443
-1.1138 -4.0474 0.5773
-0.7759 -4.0687 0.5765
-0.4447 -4.0895 0.5799
-0.1159 -4.1102 0.5878
0.2148 -4.1310 0.6000
0.5518 -4.1522 0.6169
2.8790 -13.3561 2.0443
3.5876 -11.9125 1.8919
4.4569 -11.3971 1.8919
5.2679 -10.8213 1.8919
6.0441 -10.2369 1.9002
6.7726 -9.6146 1.9114
6.2703 -7.5349 1.6196
8.0406 -8.2185 1.9307
8.5745 -7.4585 1.9388
9.0393 -6.6660 1.9459
9.4340 -5.8479 1.9518
9.7582 -5.0105 1.9566
10.0124 -4.1598 1.9604
10.1970 -3.3018 1.9630
6.1584 -1.4581 1.1731
6.3258 -0.9676 1.1996
10.3475 -0.7365 1.9647
10.2690 0.0997 1.9633
10.1298 0.9192 1.9610
9.9323 1.7183 1.9577
9.6788 2.4936 1.9536
9.3722 3.2417 1.9486
3.8361 1.6850 0.8268
8.6097 4.6452 1.9364
8.1594 5.2954 1.9293
6.7422 5.1957 1.6898
7.1342 6.4812 1.9131
6.5648 7.0127 1.9041
5.9613 7.5009 1.8946
5.3470 7.9747 1.8919
4.7069 8.4193 1.8919
4.0344 8.8219 1.8919
3.5997 9.9200 2.0443
2.8089 10.2574 2.0443
1.9894 10.5425 2.0443
1.1436 10.7727 2.0443
0.2741 10.9457 2.0443
-0.6160 11.0587 2.0443
-1.5236 11.1095 2.0443
-2.4451 11.0953 2.0443
-3.3766 11.0138 2.0443
-4.3138 10.8627 2.0443
-5.2518 10.6397 2.0443
-6.1856 10.3429 2.0443
-7.1093 9.9706 2.0443
-8.0167 9.5216 2.0443
-8.9012 8.9950 2.0443
-9.7556 8.3905 2.0443
-10.5722 7.7087 2.0443
-11.3431 6.9508 2.0443
-12.0599 6.1188 2.0443
-12.7141 5.2161 2.0443
-13.2971 4.2468 2.0443
-13.8005 3.2163 2.0443
-14.2160 2.1316 2.0443
-14.5360 1.0005 2.0443
-14.7534 -0.1680 2.0443
-14.8622 -1.3633 2.0443
-14.8576 -2.5743 2.0443
-14.7361 -3.7882 2.0443
-14.4959 -4.9924 2.0443
-14.1370 -6.1734 2.0443
-13.6612 -7.3177 2.0443
-13.0721 -8.4122 2.0443
-12.3754 -9.4439 2.0443
-11.5785 -10.4010 2.0443
-10.6904 -11.2729 2.0443
-9.7214 -12.0502 2.0443
-8.6833 -12.7252 2.0443
-7.5884 -13.2920 2.0443
-6.4496 -13.7466 2.0443
-5.2800 -14.0865 2.0443
-1.1567 -4.0447 0.5778
-0.8177 -4.0660 0.5763
-0.4859 -4.0869 0.5793
-0.1570 -4.1076 0.5865
0.1732 -4.1284 0.5982
0.5092 -4.1495 0.6145
2.7505 -13.4111 2.0443
3.4751 -11.9724 1.8919
4.3513 -11.4650 1.8919
5.1698 -10.8963 1.8919
5.9488 -10.3106 1.8988
6.6849 -9.6954 1.9100
6.2465 -7.6615 1.6299
7.9691 -8.3109 1.9296
8.5115 -7.5554 1.9379
8.9850 -6.7666 1.9450
9.3884 -5.9514 1.9511
9.7215 -5.1160 1.9561
9.9844 -4.2666 1.9600
10.1777 -3.4092 1.9628
6.1760 -1.5282 1.1776
6.2597 -1.0222 1.1873
10.3529 -0.8420 1.9648
10.2822 -0.0040 1.9635
10.1505 0.8178 1.9613
9.9601 1.6197 1.9581
9.7135 2.3981 1.9541
9.4133 3.1498 1.9493
3.8879 1.6611 0.8339
8.6629 4.5614 1.9373
8.2180 5.2161 1.9302
6.8616 5.1780 1.7064
7.2028 6.4117 1.9142
6.6379 6.9486 1.9053
6.0385 7.4423 1.8958
5.4246 7.9163 1.8919
4.7887 8.3660 1.8919
4.1202 8.7740 1.8919
3.6432 9.7322 2.0149
2.9093 10.2181 2.0443
2.0933 10.5098 2.0443
1.2506 10.7470 2.0443
0.3840 10.9273 2.0443
-0.5037 11.0480 2.0443
-1.4093 11.1066 2.0443
-2.3293 11.1007 2.0443
-3.2598 11.0278 2.0443
-4.1965 10.8855 2.0443
-5.1347 10.6716 2.0443
-6.0693 10.3841 2.0443
-6.9946 10.0214 2.0443
-7.9044 9.5820 2.0443
-8.7921 9.0651 2.0443
-9.6507 8.4703 2.0443
-10.4725 7.7981 2.0443
-11.2495 7.0496 2.0443
-11.9735 6.2267 2.0443
-12.6360 5.3326 2.0443
-13.2284 4.3714 2.0443
-13.7422 3.3482 2.0443
-14.1692 2.2700 2.0443
-14.5015 1.1441 2.0443
-14.7320 -0.0203 2.0443
-14.8547 -1.2128 2.0443
-14.8645 -2.4224 2.0443
-14.7577 -3.6367 2.0443
-14.5325 -4.8428 2.0443
-14.1883 -6.0275 2.0443
-13.7270 -7.1771 2.0443
-13.1518 -8.2785 2.0443
-12.4682 -9.3187 2.0443
-11.6833 -10.2859 2.0443
-10.8060 -11.1689 2.0443
-9.8466 -11.9585 2.0443
-8.8165 -12.6467 2.0443
-7.7279 -13.2273 2.0443
-6.5939 -13.6960 2.0443
-5.4275 -14.0503 2.0443
-1.1998 -4.0420 0.5783
-0.8595 -4.0634 0.5763
-0.5271 -4.0843 0.5787
-0.1981 -4.1050 0.5854
0.1317 -4.1258 0.5965
0.4667 -4.1469 0.6122
0.8115 -4.1686 0.6329
3.3617 -12.0311 1.8919
4.2448 -11.5319 1.8919
5.0708 -10.9705 1.8919
5.8527 -10.3834 1.8973
6.5962 -9.7754 1.9087
7.2786 -9.1129 1.9191
7.8965 -8.4027 1.9285
8.4475 -7.6518 1.9369
8.9296 -6.8668 1.9442
9.3419 -6.0545 1.9504
9.6838 -5.2213 1.9555
9.9554 -4.3734 1.9595
10.1573 -3.5167 1.9625
6.1938 -1.5990 1.1823
6.2310 -1.0822 1.1823
10.3574 -0.9477 1.9649
10.2944 -0.1080 1.9638
10.1702 0.7161 1.9616
9.9870 1.5207 1.9586
9.7473 2.3022 1.9547
9.4537 3.0574 1.9499
9.1088 3.7833 1.9444
8.7153 4.4771 1.9381
8.2760 5.1363 1.9311
7.7936 5.7585 1.9235
7.2708 6.3417 1.9152
6.7105 6.8838 1.9064
6.1152 7.3830 1.8970
5.5017 7.8572 1.8919
4.8700 8.3120 1.8919
4.2055 8.7253 1.8919
3.6478 9.4526 1.9663
3.0094 10.1779 2.0443
2.1968 10.4763 2.0443
1.3573 10.7205 2.0443
0.4936 10.9079 2.0443
-0.3917 11.0362 2.0443
-1.2952 11.1028 2.0443
-2.2136 11.1051 2.0443
-3.1430 11.0407 2.0443
-4.0792 10.9071 2.0443
-5.0175 10.7023 2.0443
-5.9528 10.4241 2.0443
-6.8796 10.0709 2.0443
-7.7917 9.6411 2.0443
-8.6826 9.1339 2.0443
-9.5452 8.5489 2.0443
-10.3720 7.8863 2.0443
-11.1551 7.1473 2.0443
-11.8862 6.3336 2.0443
-12.5568 5.4482 2.0443
-13.1585 4.4951 2.0443
-13.6826 3.4793 2.0443
-14.1208 2.4075 2.0443
-14.4653 1.2871 2.0443
-14.7090 0.1270 2.0443
-14.8455 -1.0626 2.0443
-14.8696 -2.2706 2.0443
-14.7776 -3.4850 2.0443
-14.5671 -4.6930 2.0443
-14.2378 -5.8811 2.0443
-13.7910 -7.0358 2.0443
-13.2297 -8.1439 2.0443
-12.5593 -9.1925 2.0443
-11.7867 -10.1694 2.0443
-10.9204 -11.0635 2.0443
-9.9706 -11.8652 2.0443
-8.9487 -12.5664 2.0443
-7.8667 -13.1607 2.0443
-6.7377 -13.6436 2.0443
-5.5746 -14.0123 2.0443
-1.2431 -4.0393 0.5788
-0.9016 -4.0608 0.5763
-0.5684 -4.0817 0.5781
-0.2392 -4.1024 0.5843
0.0903 -4.1232 0.5949
0.4244 -4.1442 0.6100
0.7677 -4.1658 0.6300
3.3136 -12.3349 1.9304
4.1375 -11.5978 1.8919
4.9708 -11.0438 1.8919
5.7556 -10.4553 1.8958
6.5065 -9.8545 1.9073
7.1967 -9.1984 1.9179
6.8500 -7.4376 1.6877
8.3823 -7.7477 1.9359
8.8732 -6.9666 1.9434
9.2942 -6.1573 1.9497
9.6449 -5.3264 1.9549
9.9253 -4.4800 1.9591
10.1359 -3.6240 1.9622
6.2118 -1.6707 1.1871
6.2106 -1.1433 1.1789
10.3608 -1.0535 1.9650
10.3057 -0.2122 1.9640
10.1890 0.6141 1.9619
10.0130 1.4213 1.9590
9.7803 2.2059 1.9552
9.4932 2.9645 1.9506
9.1546 3.6942 1.9451
3.7716 1.8895 0.8341
8.3334 5.0558 1.9321
7.2464 5.2417 1.7751
7.3383 6.2710 1.9163
6.7825 6.8184 1.9075
6.1915 7.3230 1.8982
5.5782 7.7976 1.8919
4.9508 8.2574 1.8919
4.2903 8.6760 1.8919
3.6522 9.1865 1.9202
3.1089 10.1369 2.0443
2.2999 10.4419 2.0443
1.4637 10.6930 2.0443
0.6028 10.8877 2.0443
-0.2799 11.0235 2.0443
-1.1814 11.0979 2.0443
-2.0981 11.1084 2.0443
-3.0264 11.0524 2.0443
-3.9619 10.9277 2.0443
-4.9003 10.7319 2.0443
-5.8363 10.4630 2.0443
-6.7644 10.1192 2.0443
-7.6787 9.6991 2.0443
-8.5727 9.2016 2.0443
-9.4392 8.6263 2.0443
-10.2709 7.9734 2.0443
-11.0599 7.2438 2.0443
-11.7979 6.4393 2.0443
-12.4766 5.5626 2.0443
-13.0874 4.6178 2.0443
-13.6216 3.6096 2.0443
-14.0710 2.5443 2.0443
-14.4277 1.4295 2.0443
-14.6843 0.2740 2.0443
-14.8345 -0.9125 2.0443
-14.8728 -2.1191 2.0443
-14.7955 -3.3333 2.0443
-14.6000 -4.5428 2.0443
-14.2855 -5.7341 2.0443
-13.8531 -6.8937 2.0443
-13.3060 -8.0084 2.0443
-12.6489 -9.0651 2.0443
-11.8886 -10.0516 2.0443
-11.0335 -10.9566 2.0443
-10.0936 -11.7704 2.0443
-9.0800 -12.4845 2.0443
-8.0048 -13.0925 2.0443
-6.8809 -13.5895 2.0443
-5.7214 -13.9725 2.0443
-1.2867 -4.0366 0.5795
-0.9437 -4.0581 0.5763
-0.6098 -4.0791 0.5777
-0.2803 -4.0998 0.5833
0.0489 -4.1206 0.5933
0.3822 -4.1415 0.6079
0.7241 -4.1631 0.6272
3.2956 -12.7778 1.9904
4.0293 -11.6628 1.8919
4.8699 -11.1163 1.8919
5.6577 -10.5262 1.8943
6.4159 -9.9328 1.9059
7.1139 -9.2832 1.9166
6.7722 -7.5031 1.6836
8.3161 -7.8430 1.9349
8.8156 -7.0659 1.9425
9.2454 -6.2598 1.9490
9.6049 -5.4312 1.9543
9.8940 -4.5864 1.9586
10.1133 -3.7314 1.9618
6.2652 -1.7530 1.1988
6.1903 -1.2042 1.1757
6.8277 -0.7639 1.2947
10.3160 -0.3166 1.9641
10.2069 0.5118 1.9623
10.0382 1.3215 1.9594
9.8124 2.1091 1.9557
9.5320 2.8712 1.9512
9.1997 3.6047 1.9459
3.7433 1.8282 0.8234
8.3900 4.9748 1.9330
7.2829 5.1568 1.7710
7.4052 6.1997 1.9174
6.8539 6.7522 1.9087
6.2672 7.2623 1.8994
5.6543 7.7373 1.8919
5.0311 8.2021 1.8919
4.3746 8.6260 1.8919
3.6866 9.0069 1.8919
3.2080 10.0951 2.0443
2.4026 10.4067 2.0443
1.5696 10.6646 2.0443
0.7116 10.8665 2.0443
-0.1685 11.0098 2.0443
-1.0678 11.0921 2.0443
-1.9828 11.1106 2.0443
-2.9098 11.0631 2.0443
-3.8448 10.9471 2.0443
-4.7830 10.7603 2.0443
-5.7196 10.5007 2.0443
-6.6490 10.1663 2.0443
-7.5654 9.7558 2.0443
-8.4622 9.2680 2.0443
-9.3326 8.7025 2.0443
-10.1691 8.0592 2.0443
-10.9639 7.3391 2.0443
-11.7087 6.5439 2.0443
-12.3953 5.6761 2.0443
-13.0150 4.7394 2.0443
-13.5593 3.7389 2.0443
-14.0197 2.6804 2.0443
-14.3884 1.5713 2.0443
-14.6579 0.4203 2.0443
-14.8217 -0.7630 2.0443
-14.8743 -1.9676 2.0443
-14.8116 -3.1816 2.0443
-14.6309 -4.3924 2.0443
-14.3313 -5.5866 2.0443
-13.9136 -6.7509 2.0443
-13.3805 -7.8720 2.0443
-12.7368 -8.9366 2.0443
-11.9890 -9.9325 2.0443
-11.1452 -10.8483 2.0443
-10.2153 -11.6739 2.0443
-9.2103 -12.4009 2.0443
-8.1422 -13.0225 2.0443
-7.0237 -13.5335 2.0443
-5.8678 -13.9310 2.0443
-1.3304 -4.0338 0.5802
-0.9860 -4.0555 0.5765
-0.6512 -4.0765 0.5773
-0.3214 -4.0973 0.5824
0.0076 -4.1180 0.5918
0.3402 -4.1389 0.6058
0.6807 -4.1603 0.6245
3.2596 -13.1837 2.0443
3.9202 -11.7268 1.8919
4.7680 -11.1879 1.8919
5.5589 -10.5961 1.8928
6.3243 -10.0102 1.9045
7.0300 -9.3673 1.9153
6.5351 -7.3883 1.6397
8.2488 -7.9378 1.9339
8.7569 -7.1648 1.9416
9.1955 -6.3619 1.9482
9.5638 -5.5358 1.9537
9.8617 -4.6927 1.9582
10.0897 -3.8386 1.9615
6.3663 -1.8507 1.2199
6.1701 -1.2650 1.1726
6.5715 -0.8025 1.2460
10.3254 -0.4212 1.9643
10.2238 0.4091 1.9625
10.0625 1.2214 1.9598
9.8436 2.0120 1.9562
9.5699 2.7775 1.9518
9.2440 3.5147 1.9466
3.7542 1.7868 0.8215
8.4460 4.8933 1.9338
6.9986 4.8499 1.6896
7.4714 6.1277 1.9184
6.9248 6.6854 1.9098
6.3423 7.2010 1.9006
5.7268 7.6725 1.8909
5.1109 8.1462 1.8919
4.4584 8.5753 1.8919
3.7743 8.9617 1.8919
3.3067 10.0525 2.0443
2.5048 10.3706 2.0443
1.6752 10.6354 2.0443
0.8201 10.8444 2.0443
-0.0574 10.9952 2.0443
-0.9544 11.0852 2.0443
-1.8677 11.1119 2.0443
-2.7934 11.0728 2.0443
-3.7276 10.9655 2.0443
-4.6657 10.7876 2.0443
-5.6028 10.5372 2.0443
-6.5335 10.2122 2.0443
-7.4518 9.8113 2.0443
-8.3514 9.3333 2.0443
-9.2255 8.7774 2.0443
-10.0666 8.1439 2.0443
-10.8670 7.4333 2.0443
-11.6187 6.6473 2.0443
-12.3130 5.7884 2.0443
-12.9415 4.8602 2.0443
-13.4957 3.8672 2.0443
-13.9670 2.8156 2.0443
-14.3476 1.7124 2.0443
-14.6299 0.5661 2.0443
-14.8072 -0.6135 2.0443
-14.8740 -1.8163 2.0443
-14.8259 -3.0297 2.0443
-14.6600 -4.2415 2.0443
-14.3752 -5.4387 2.0443
-13.9722 -6.6074 2.0443
-13.4533 -7.7346 2.0443
-12.8231 -8.8071 2.0443
-12.0879 -9.8122 2.0443
-11.2556 -10.7386 2.0443
-10.3359 -11.5760 2.0443
-9.3397 -12.3157 2.0443
-8.2787 -12.9507 2.0443
-7.1658 -13.4758 2.0443
-6.0139 -13.8875 2.0443
-4.8362 -14.1844 2.0443
-1.0284 -4.0528 0.5767
-0.6926 -4.0739 0.5769
-0.3625 -4.0947 0.5815
-0.0336 -4.1154 0.5904
0.2983 -4.1363 0.6038
0.6376 -4.1576 0.6219
3.1336 -13.2424 2.0443
3.8102 -11.7897 1.8919
4.6652 -11.2585 1.8919
5.4592 -10.6650 1.8912
6.2318 -10.0866 1.9031
6.9452 -9.4505 1.9140
6.4093 -7.3945 1.6234
8.1805 -8.0319 1.9329
8.6972 -7.2631 1.9407
9.1445 -6.4637 1.9474
9.5216 -5.6401 1.9531
9.8283 -4.7988 1.9577
10.0650 -3.9458 1.9611
10.2325 -3.0868 1.9635
6.1500 -1.3257 1.1696
6.4619 -0.8554 1.2251
10.3337 -0.5261 1.9645
10.2399 0.3063 1.9628
10.0858 1.1210 1.9602
9.8740 1.9145 1.9567
9.6071 2.6833 1.9524
9.2875 3.4242 1.9473
3.7688 1.7472 0.8204
8.5013 4.8111 1.9347
6.9888 4.7393 1.6754
7.5371 6.0551 1.9194
6.9952 6.6180 1.9109
6.4171 7.1389 1.9018
5.8054 7.6160 1.8922
5.1901 8.0897 1.8919
4.5418 8.5240 1.8919
3.8614 8.9158 1.8919
3.4048 10.0091 2.0443
2.6066 10.3337 2.0443
1.7803 10.6053 2.0443
0.9283 10.8214 2.0443
0.0534 10.9796 2.0443
-0.8414 11.0774 2.0443
-1.7528 11.1121 2.0443
-2.6772 11.0813 2.0443
-3.6105 10.9827 2.0443
-4.5483 10.8138 2.0443
-5.4859 10.5725 2.0443
-6.4176 10.2570 2.0443
-7.3379 9.8656 2.0443
-8.2402 9.3972 2.0443
-9.1179 8.8512 2.0443
-9.9636 8.2273 2.0443
-10.7695 7.5263 2.0443
-11.5276 6.7496 2.0443
-12.2296 5.8996 2.0443
-12.8668 4.9798 2.0443
-13.4307 3.9947 2.0443
-13.9129 2.9500 2.0443
-14.3053 1.8529 2.0443
-14.6002 0.7115 2.0443
-14.7910 -0.4646 2.0443
-14.8718 -1.6650 2.0443
-14.8383 -2.8779 2.0443
-14.6872 -4.0907 2.0443
-14.4173 -5.2903 2.0443
-14.0289 -6.4634 2.0443
-13.5244 -7.5965 2.0443
-12.9078 -8.6765 2.0443
-12.1853 -9.6906 2.0443
-11.3647 -10.6274 2.0443
-10.4553 -11.4765 2.0443
-9.4680 -12.2288 2.0443
-8.4144 -12.8773 2.0443
-7.3073 -13.4163 2.0443
-6.1596 -13.8423 2.0443
-4.9844 -14.1535 2.0443
-1.0710 -4.0501 0.5770
-0.7342 -4.0713 0.5767
-0.4036 -4.0921 0.5807
-0.0748 -4.1128 0.5890
0.2565 -4.1336 0.6019
0.5946 -4.1549 0.6194
3.0067 -13.2999 2.0443
3.6993 -11.8517 1.8919
4.5615 -11.3283 1.8919
5.3650 -10.7454 1.8919
6.1384 -10.1623 1.9017
6.8594 -9.5330 1.9127
6.3336 -7.4573 1.6198
8.1111 -8.1255 1.9318
8.6364 -7.3610 1.9398
9.0924 -6.5651 1.9467
9.4783 -5.7442 1.9525
9.7938 -4.9047 1.9572
10.0392 -4.0529 1.9608
10.2153 -3.1943 1.9633
6.1411 -1.3887 1.1688
6.3932 -0.9120 1.2122
10.3411 -0.6312 1.9646
10.2549 0.2031 1.9631
10.1083 1.0203 1.9606
9.9036 1.8166 1.9572
9.6434 2.5886 1.9530
9.3302 3.3332 1.9480
3.7853 1.7086 0.8199
8.5558 4.7284 1.9356
7.0536 4.6798 1.6792
6.7001 5.2721 1.6926
7.0649 6.5499 1.9120
6.4912 7.0761 1.9030
5.8836 7.5588 1.8934
5.2688 8.0325 1.8919
4.6246 8.4720 1.8919
3.9482 8.8692 1.8919
3.5025 9.9650 2.0443
2.7080 10.2960 2.0443
1.8851 10.5743 2.0443
1.0361 10.7975 2.0443
0.1640 10.9631 2.0443
-0.7285 11.0686 2.0443
-1.6381 11.1113 2.0443
-2.5610 11.0889 2.0443
-3.4935 10.9988 2.0443
-4.4310 10.8388 2.0443
-5.3688 10.6067 2.0443
-6.3017 10.3005 2.0443
-7.2237 9.9188 2.0443
-8.1287 9.4600 2.0443
-9.0098 8.9237 2.0443
-9.8599 8.3095 2.0443
-10.6712 7.6181 2.0443
-11.4358 6.8508 2.0443
-12.1452 6.0098 2.0443
-12.7910 5.0985 2.0443
-13.3646 4.1213 2.0443
-13.8574 3.0836 2.0443
-14.2614 1.9927 2.0443
-14.5689 0.8562 2.0443
-14.7730 -0.3162 2.0443
-14.8679 -1.5141 2.0443
-14.8488 -2.7260 2.0443
-14.7126 -3.9395 2.0443
-14.4575 -5.1415 2.0443
-14.0839 -6.3186 2.0443
-13.5936 -7.4575 2.0443
-12.9908 -8.5448 2.0443
-12.2811 -9.5679 2.0443
-11.4723 -10.5149 2.0443
-10.5735 -11.3754 2.0443
-9.5952 -12.1404 2.0443
-8.5493 -12.8021 2.0443
-7.4482 -13.3550 2.0443
-6.3048 -13.7953 2.0443
-5.1323 -14.1209 2.0443
-1.1138 -4.0474 0.5773
-0.7759 -4.0687 0.5765
-0.4447 -4.0895 0.5799
-0.1159 -4.1102 0.5878
0.2148 -4.1310 0.6000
0.5518 -4.1522 0.6169
2.8790 -13.3561 2.0443
3.5876 -11.9125 1.8919
4.4568 -11.3971 1.8919
5.2679 -10.8213 1.8919
6.0441 -10.2369 1.9002
6.7726 -9.6146 1.9114
6.2703 -7.5349 1.6196
8.0406 -8.2186 1.9307
8.5745 -7.4585 1.9388
9.0393 -6.6661 1.9459
9.4339 -5.8479 1.9518
9.7582 -5.0105 1.9566
10.0124 -4.1598 1.9604
10.1970 -3.3018 1.9630
6.1584 -1.4581 1.1731
6.3258 -0.9676 1.1996
10.3475 -0.7365 1.9647
10.2690 0.0997 1.9633
10.1298 0.9192 1.9610
9.9323 1.7183 1.9577
9.6788 2.4936 1.9536
9.3722 3.2417 1.9486
3.8361 1.6850 0.8268
8.6097 4.6452 1.9364
8.1594 5.2953 1.9293
6.7422 5.1957 1.6898
7.1342 6.4811 1.9131
6.5648 7.0127 1.9041
5.9613 7.5009 1.8946
5.3470 7.9747 1.8919
4.7069 8.4193 1.8919
4.0344 8.8219 1.8919
3.5997 9.9200 2.0443
2.8089 10.2574 2.0443
1.9894 10.5425 2.0443
1.1436 10.7727 2.0443
0.2742 10.9457 2.0443
-0.6159 11.0587 2.0443
-1.5236 11.1095 2.0443
-2.4451 11.0953 2.0443
-3.3766 11.0138 2.0443
-4.3137 10.8627 2.0443
-5.2518 10.6397 2.0443
-6.1855 10.3429 2.0443
-7.1092 9.9707 2.0443
-8.0167 9.5216 2.0443
-8.9012 8.9950 2.0443
-9.7556 8.3905 2.0443
-10.5722 7.7087 2.0443
-11.3431 6.9508 2.0443
-12.0599 6.1188 2.0443
-12.7140 5.2161 2.0443
-13.2971 4.2468 2.0443
-13.8005 3.2165 2.0443
-14.2160 2.1318 2.0443
-14.5360 1.0005 2.0443
-14.7534 -0.1680 2.0443
-14.8622 -1.3633 2.0443
-14.8576 -2.5742 2.0443
-14.7361 -3.7881 2.0443
-14.4959 -4.9924 2.0443
-14.1370 -6.1734 2.0443
-13.6612 -7.3177 2.0443
-13.0721 -8.4121 2.0443
-12.3755 -9.4439 2.0443
-11.5785 -10.4010 2.0443
-10.6904 -11.2729 2.0443
-9.7215 -12.0502 2.0443
-8.6833 -12.7252 2.0443
-7.5884 -13.2920 2.0443
-6.4496 -13.7466 2.0443
-5.2800 -14.0865 2.0443
-1.1567 -4.0447 0.5778
-0.8177 -4.0660 0.5763
-0.4859 -4.0869 0.5793
-0.1571 -4.1076 0.5865
0.1732 -4.1284 0.5982
0.5092 -4.1495 0.6145
2.7504 -13.4111 2.0443
3.4751 -11.9724 1.8919
4.3513 -11.4650 1.8919
5.1698 -10.8963 1.8919
5.9488 -10.3106 1.8988
6.6849 -9.6954 1.9100
6.2464 -7.6616 1.6299
7.9691 -8.3110 1.9296
8.5115 -7.5554 1.9379
8.9850 -6.7666 1.9450
9.3884 -5.9514 1.9511
9.7215 -5.1160 1.9561
9.9844 -4.2667 1.9600
10.1777 -3.4093 1.9628
6.1760 -1.5282 1.1776
6.2597 -1.0222 1.1873
10.3529 -0.8420 1.9648
10.2822 -0.0040 1.9635
10.1505 0.8178 1.9613
9.9601 1.6197 1.9581
9.7135 2.3981 1.9541
9.4133 3.1498 1.9493
3.8879 1.6611 0.8339
8.6629 4.5614 1.9373
8.2180 5.2161 1.9302
6.8617 5.1780 1.7065
7.2028 6.4117 1.9142
6.6379 6.9486 1.9053
6.0385 7.4423 1.8958
5.4246 7.9163 1.8919
4.7888 8.3660 1.8919
4.1202 8.7740 1.8919
3.6432 9.7322 2.0149
2.9094 10.2181 2.0443
2.0933 10.5098 2.0443
1.2507 10.7470 2.0443
0.3840 10.9273 2.0443
-0.5037 11.0480 2.0443
-1.4093 11.1066 2.0443
-2.3293 11.1007 2.0443
-3.2597 11.0278 2.0443
-4.1964 10.8855 2.0443
-5.1347 10.6716 2.0443
-6.0692 10.3841 2.0443
-6.9945 10.0214 2.0443
-7.9044 9.5820 2.0443
-8.7921 9.0651 2.0443
-9.6507 8.4703 2.0443
-10.4724 7.7981 2.0443
-11.2495 7.0496 2.0443
-11.9735 6.2268 2.0443
-12.6360 5.3327 2.0443
-13.2284 4.3715 2.0443
-13.7422 3.3483 2.0443
-14.1691 2.2700 2.0443
-14.5015 1.1441 2.0443
-14.7320 -0.0202 2.0443
-14.8547 -1.2128 2.0443
-14.8645 -2.4224 2.0443
-14.7578 -3.6366 2.0443
-14.5325 -4.8428 2.0443
-14.1883 -6.0275 2.0443
-13.7270 -7.1771 2.0443
-13.1518 -8.2785 2.0443
-12.4682 -9.3187 2.0443
-11.6833 -10.2858 2.0443
-10.8060 -11.1689 2.0443
-9.8466 -11.9585 2.0443
-8.8165 -12.6466 2.0443
-7.7279 -13.2273 2.0443
-6.5939 -13.6960 2.0443
-5.4275 -14.0503 2.0443
-1.1998 -4.0420 0.5783
-0.8596 -4.0634 0.5763
-0.5272 -4.0843 0.5787
-0.1981 -4.1050 0.5854
0.1317 -4.1258 0.5965
0.4667 -4.1469 0.6122
0.8115 -4.1686 0.6329
3.3617 -12.0311 1.8919
4.2448 -11.5319 1.8919
5.0708 -10.9705 1.8919
5.8526 -10.3835 1.8973
6.5962 -9.7754 1.9087
7.2786 -9.1129 1.9191
7.8965 -8.4027 1.9285
8.4475 -7.6518 1.9369
8.9296 -6.8668 1.9442
9.3419 -6.0545 1.9504
9.6837 -5.2213 1.9555
9.9554 -4.3734 1.9595
10.1573 -3.5167 1.9625
6.1938 -1.5990 1.1823
6.2310 -1.0822 1.1823
10.3574 -0.9477 1.9649
10.2944 -0.1080 1.9638
10.1702 0.7161 1.9616
9.9870 1.5206 1.9586
9.7473 2.3022 1.9547
9.4537 3.0574 1.9499
9.1088 3.7832 1.9444
8.7154 4.4770 1.9381
8.2760 5.1363 1.9311
7.7936 5.7585 1.9235
7.2709 6.3417 1.9152
6.7105 6.8838 1.9064
6.1153 7.3830 1.8970
5.5017 7.8572 1.8919
4.8701 8.3120 1.8919
4.2055 8.7253 1.8919
3.6478 9.4525 1.9663
3.0094 10.1778 2.0443
2.1969 10.4762 2.0443
1.3574 10.7204 2.0443
0.4936 10.9079 2.0443
-0.3916 11.0362 2.0443
-1.2952 11.1028 2.0443
-2.2135 11.1051 2.0443
-3.1430 11.0407 2.0443
-4.0792 10.9071 2.0443
-5.0175 10.7023 2.0443
-5.9528 10.4242 2.0443
-6.8795 10.0709 2.0443
-7.7916 9.6412 2.0443
-8.6826 9.1339 2.0443
-9.5452 8.5489 2.0443
-10.3720 7.8864 2.0443
-11.1550 7.1473 2.0443
-11.8861 6.3337 2.0443
-12.5568 5.4482 2.0443
-13.1585 4.4951 2.0443
-13.6825 3.4793 2.0443
-14.1208 2.4076 2.0443
-14.4653 1.2872 2.0443
-14.7090 0.1272 2.0443
-14.8455 -1.0626 2.0443
-14.8696 -2.2706 2.0443
-14.7776 -3.4850 2.0443
-14.5672 -4.6928 2.0443
-14.2379 -5.8809 2.0443
-13.7910 -7.0358 2.0443
-13.2298 -8.1439 2.0443
-12.5594 -9.1924 2.0443
-11.7867 -10.1693 2.0443
-10.9204 -11.0635 2.0443
-9.9706 -11.8652 2.0443
-8.9487 -12.5664 2.0443
-7.8668 -13.1607 2.0443
-6.7377 -13.6436 2.0443
-5.5747 -14.0123 2.0443
-1.2431 -4.0393 0.5788
-0.9016 -4.0608 0.5763
-0.5684 -4.0817 0.5781
-0.2392 -4.1024 0.5843
0.0903 -4.1232 0.5949
0.4244 -4.1442 0.6100
0.7677 -4.1658 0.6300
3.3136 -12.3350 1.9304
4.1375 -11.5979 1.8919
4.9708 -11.0439 1.8919
5.7557 -10.4553 1.8958
6.5065 -9.8545 1.9073
7.1967 -9.1985 1.9179
6.8500 -7.4376 1.6877
8.3823 -7.7477 1.9359
8.8731 -6.9666 1.9434
9.2942 -6.1573 1.9497
9.6449 -5.3264 1.9549
9.9253 -4.4800 1.9591
10.1359 -3.6241 1.9622
6.2118 -1.6707 1.1871
6.2106 -1.1433 1.1789
10.3608 -1.0535 1.9650
10.3057 -0.2122 1.9640
10.1890 0.6140 1.9619
10.0131 1.4212 1.9590
9.7803 2.2058 1.9552
9.4932 2.9645 1.9506
9.1546 3.6942 1.9451
3.7716 1.8895 0.8341
8.3334 5.0558 1.9321
7.2464 5.2417 1.7751
7.3383 6.2710 1.9163
6.7825 6.8184 1.9075
6.1915 7.3230 1.8982
5.5783 7.7975 1.8919
4.9509 8.2574 1.8919
4.2904 8.6760 1.8919
3.6522 9.1865 1.9202
3.1089 10.1369 2.0443
2.2999 10.4419 2.0443
1.4637 10.6930 2.0443
0.6028 10.8877 2.0443
-0.2800 11.0235 2.0443
-1.1814 11.0979 2.0443
-2.0981 11.1084 2.0443
-3.0263 11.0524 2.0443
-3.9619 10.9277 2.0443
-4.9002 10.7319 2.0443
-5.8363 10.4630 2.0443
-6.7644 10.1192 2.0443
-7.6787 9.6991 2.0443
-8.5726 9.2016 2.0443
-9.4391 8.6263 2.0443
-10.2709 7.9734 2.0443
-11.0599 7.2438 2.0443
-11.7979 6.4393 2.0443
-12.4766 5.5627 2.0443
-13.0873 4.6178 2.0443
-13.6216 3.6095 2.0443
-14.0710 2.5443 2.0443
-14.4277 1.4295 2.0443
-14.6843 0.2739 2.0443
-14.8344 -0.9126 2.0443
-14.8729 -2.1190 2.0443
-14.7955 -3.3334 2.0443
-14.6000 -4.5428 2.0443
-14.2855 -5.7340 2.0443
-13.8532 -6.8936 2.0443
-13.3060 -8.0084 2.0443
-12.6489 -9.0651 2.0443
-11.8886 -10.0516 2.0443
-11.0335 -10.9566 2.0443
-10.0936 -11.7703 2.0443
-9.0800 -12.4845 2.0443
-8.0049 -13.0924 2.0443
-6.8809 -13.5895 2.0443
-5.7214 -13.9725 2.0443
-1.2867 -4.0366 0.5795
-0.9437 -4.0581 0.5763
-0.6098 -4.0791 0.5777
-0.2803 -4.0998 0.5833
0.0489 -4.1206 0.5933
0.3822 -4.1415 0.6079
0.7241 -4.1631 0.6272
3.2956 -12.7780 1.9905
4.0292 -11.6628 1.8919
4.8699 -11.1163 1.8919
5.6577 -10.5262 1.8943
6.4159 -9.9328 1.9059
7.1139 -9.2833 1.9166
6.7722 -7.5031 1.6836
8.3161 -7.8430 1.9349
8.8156 -7.0659 1.9425
9.2454 -6.2598 1.9490
9.6049 -5.4313 1.9543
9.8940 -4.5865 1.9586
10.1133 -3.7314 1.9618
6.2652 -1.7530 1.1988
6.1903 -1.2042 1.1757
6.8277 -0.7640 1.2947
10.3160 -0.3166 1.9641
10.2069 0.5117 1.9623
10.0382 1.3216 1.9594
9.8124 2.1091 1.9557
9.5320 2.8712 1.9512
9.1997 3.6047 1.9459
3.7433 1.8282 0.8234
8.3900 4.9748 1.9330
7.2829 5.1568 1.7710
7.4052 6.1997 1.9174
6.8540 6.7522 1.9087
6.2672 7.2623 1.8994
5.6543 7.7373 1.8919
5.0311 8.2021 1.8919
4.3746 8.6260 1.8919
3.6866 9.0068 1.8919
3.2081 10.0951 2.0443
2.4026 10.4067 2.0443
1.5696 10.6646 2.0443
0.7116 10.8665 2.0443
-0.1685 11.0098 2.0443
-1.0678 11.0921 2.0443
-1.9828 11.1107 2.0443
-2.9098 11.0631 2.0443
-3.8448 10.9471 2.0443
-4.7830 10.7603 2.0443
-5.7195 10.5007 2.0443
-6.6490 10.1663 2.0443
-7.5654 9.7558 2.0443
-8.4623 9.2680 2.0443
-9.3326 8.7025 2.0443
-10.1691 8.0593 2.0443
-10.9638 7.3392 2.0443
-11.7087 6.5439 2.0443
-12.3953 5.6761 2.0443
-13.0150 4.7394 2.0443
-13.5593 3.7389 2.0443
-14.0197 2.6804 2.0443
-14.3884 1.5714 2.0443
-14.6579 0.4203 2.0443
-14.8217 -0.7630 2.0443
-14.8743 -1.9676 2.0443
-14.8116 -3.1816 2.0443
-14.6309 -4.3923 2.0443
-14.3313 -5.5865 2.0443
-13.9136 -6.7509 2.0443
-13.3805 -7.8720 2.0443
-12.7368 -8.9366 2.0443
-11.9890 -9.9325 2.0443
-11.1453 -10.8482 2.0443
-10.2154 -11.6739 2.0443
-9.2103 -12.4009 2.0443
-8.1422 -13.0225 2.0443
-7.0237 -13.5335 2.0443
-5.8679 -13.9309 2.0443
-1.3304 -4.0338 0.5802
-0.9860 -4.0555 0.5765
-0.6512 -4.0765 0.5773
-0.3214 -4.0973 0.5824
0.0076 -4.1180 0.5918
0.3402 -4.1389 0.6058
0.6807 -4.1603 0.6245
3.2596 -13.1836 2.0443
3.9202 -11.7268 1.8919
4.7680 -11.1879 1.8919
5.5589 -10.5961 1.8928
6.3243 -10.0102 1.9045
7.0301 -9.3673 1.9153
6.5351 -7.3883 1.6397
8.2488 -7.9378 1.9339
8.7569 -7.1648 1.9416
9.1955 -6.3620 1.9482
9.5638 -5.5359 1.9537
9.8617 -4.6927 1.9582
10.0897 -3.8386 1.9615
6.3663 -1.8507 1.2199
6.1701 -1.2651 1.1726
6.5714 -0.8025 1.2459
10.3254 -0.4212 1.9643
10.2238 0.4091 1.9625
10.0625 1.2214 1.9598
9.8437 2.0120 1.9562
9.5700 2.7774 1.9518
9.2440 3.5146 1.9466
3.7542 1.7868 0.8215
8.4460 4.8933 1.9338
6.9986 4.8499 1.6896
7.4715 6.1277 1.9184
6.9249 6.6854 1.9098
6.3423 7.2010 1.9006
5.7268 7.6725 1.8909
5.1109 8.1462 1.8919
4.4585 8.5753 1.8919
3.7743 8.9617 1.8919
3.3067 10.0525 2.0443
2.5048 10.3706 2.0443
1.6752 10.6354 2.0443
0.8202 10.8444 2.0443
-0.0573 10.9952 2.0443
-0.9544 11.0852 2.0443
-1.8677 11.1119 2.0443
-2.7934 11.0728 2.0443
-3.7276 10.9655 2.0443
-4.6656 10.7876 2.0443
-5.6027 10.5372 2.0443
-6.5335 10.2122 2.0443
-7.4518 9.8113 2.0443
-8.3514 9.3333 2.0443
-9.2255 8.7774 2.0443
-10.0666 8.1439 2.0443
-10.8670 7.4334 2.0443
-11.6187 6.6473 2.0443
-12.3130 5.7884 2.0443
-12.9415 4.8602 2.0443
-13.4956 3.8673 2.0443
-13.9670 2.8157 2.0443
-14.3476 1.7124 2.0443
-14.6299 0.5661 2.0443
-14.8072 -0.6135 2.0443
-14.8740 -1.8162 2.0443
-14.8259 -3.0297 2.0443
-14.6600 -4.2415 2.0443
-14.3752 -5.4387 2.0443
-13.9722 -6.6074 2.0443
-13.4533 -7.7346 2.0443
-12.8232 -8.8070 2.0443
-12.0879 -9.8121 2.0443
-11.2556 -10.7386 2.0443
-10.3359 -11.5760 2.0443
-9.3397 -12.3157 2.0443
-8.2787 -12.9507 2.0443
-7.1658 -13.4758 2.0443
-6.0140 -13.8875 2.0443
-4.8362 -14.1844 2.0443
-1.0284 -4.0528 0.5767
-0.6927 -4.0739 0.5769
-0.3625 -4.0947 0.5815
-0.0336 -4.1154 0.5904
0.2983 -4.1363 0.6038
0.6376 -4.1576 0.6219
3.1336 -13.2424 2.0443
3.8101 -11.7898 1.8919
4.6652 -11.2586 1.8919
5.4592 -10.6650 1.8912
6.2318 -10.0866 1.9031
6.9452 -9.4505 1.9140
6.4092 -7.3945 1.6234
8.1804 -8.0320 1.9329
8.6972 -7.2632 1.9407
9.1445 -6.4637 1.9474
9.5216 -5.6401 1.9531
9.8283 -4.7988 1.9577
10.0650 -3.9458 1.9611
10.2325 -3.0868 1.9635
6.1500 -1.3257 1.1696
6.4619 -0.8554 1.2251
10.3337 -0.5261 1.9645
10.2398 0.3062 1.9628
10.0858 1.1210 1.9602
9.8741 1.9144 1.9567
9.6071 2.6833 1.9524
9.2875 3.4242 1.9473
3.7688 1.7472 0.8204
8.5013 4.8111 1.9347
6.9889 4.7392 1.6754
7.5371 6.0551 1.9194
6.9952 6.6180 1.9109
6.4171 7.1389 1.9018
5.8055 7.6160 1.8922
5.1901 8.0897 1.8919
4.5418 8.5240 1.8919
3.8614 8.9158 1.8919
3.4048 10.0091 2.0443
2.6066 10.3337 2.0443
1.7803 10.6053 2.0443
0.9284 10.8214 2.0443
0.0534 10.9796 2.0443
-0.8414 11.0774 2.0443
-1.7528 11.1121 2.0443
-2.6771 11.0813 2.0443
-3.6105 10.9827 2.0443
-4.5483 10.8138 2.0443
-5.4859 10.5725 2.0443
-6.4176 10.2570 2.0443
-7.3379 9.8657 2.0443
-8.2402 9.3973 2.0443
-9.1178 8.8512 2.0443
-9.9636 8.2273 2.0443
-10.7695 7.5263 2.0443
-11.5276 6.7496 2.0443
-12.2296 5.8997 2.0443
-12.8668 4.9799 2.0443
-13.4307 3.9948 2.0443
-13.9129 2.9500 2.0443
-14.3053 1.8529 2.0443
-14.6002 0.7115 2.0443
-14.7910 -0.4646 2.0443
-14.8718 -1.6650 2.0443
-14.8383 -2.8779 2.0443
-14.6872 -4.0907 2.0443
-14.4173 -5.2903 2.0443
-14.0290 -6.4634 2.0443
-13.5244 -7.5964 2.0443
-12.9078 -8.6763 2.0443
-12.1853 -9.6906 2.0443
-11.3647 -10.6274 2.0443
-10.4553 -11.4764 2.0443
-9.4680 -12.2288 2.0443
-8.4145 -12.8772 2.0443
-7.3073 -13.4163 2.0443
-6.1596 -13.8423 2.0443
-4.9844 -14.1535 2.0443
-1.0710 -4.0501 0.5770
-0.7342 -4.0713 0.5767
-0.4036 -4.0921 0.5807
-0.0748 -4.1128 0.5890
0.2565 -4.1336 0.6019
0.5946 -4.1549 0.6194
3.0067 -13.2999 2.0443
3.6993 -11.8517 1.8919
4.5615 -11.3283 1.8919
5.3650 -10.7454 1.8919
6.1384 -10.1623 1.9017
6.8594 -9.5330 1.9127
6.3335 -7.4573 1.6199
8.1111 -8.1255 1.9318
8.6364 -7.3610 1.9398
9.0924 -6.5651 1.9467
9.4783 -5.7442 1.9525
9.7938 -4.9048 1.9572
10.0392 -4.0529 1.9608
10.2153 -3.1943 1.9633
6.1411 -1.3887 1.1688
6.3932 -0.9120 1.2122
10.3411 -0.6312 1.9646
10.2549 0.2030 1.9631
10.1083 1.0203 1.9606
9.9036 1.8166 1.9572
9.6434 2.5886 1.9530
9.3302 3.3331 1.9480
3.7853 1.7085 0.8199
8.5559 4.7284 1.9356
7.0536 4.6798 1.6792
6.7001 5.2721 1.6926
7.0650 6.5499 1.9120
6.4912 7.0761 1.9030
5.8837 7.5588 1.8934
5.2688 8.0325 1.8919
4.6246 8.4720 1.8919
3.9482 8.8692 1.8919
3.5025 9.9649 2.0443
2.7080 10.2959 2.0443
1.8851 10.5743 2.0443
1.0361 10.7975 2.0443
0.1640 10.9631 2.0443
-0.7285 11.0685 2.0443
-1.6380 11.1113 2.0443
-2.5610 11.0889 2.0443
-3.4935 10.9988 2.0443
-4.4310 10.8388 2.0443
-5.3688 10.6067 2.0443
-6.3016 10.3004 2.0443
-7.2236 9.9188 2.0443
-8.1287 9.4600 2.0443
-9.0098 8.9237 2.0443
-9.8599 8.3095 2.0443
-10.6712 7.6181 2.0443
-11.4357 6.8508 2.0443
-12.1452 6.0098 2.0443
-12.7910 5.0985 2.0443
-13.3646 4.1213 2.0443
-13.8574 3.0836 2.0443
-14.2614 1.9927 2.0443
-14.5689 0.8563 2.0443
-14.7730 -0.3162 2.0443
-14.8679 -1.5141 2.0443
-14.8488 -2.7260 2.0443
-14.7126 -3.9394 2.0443
-14.4576 -5.1414 2.0443
-14.0839 -6.3186 2.0443
-13.5936 -7.4575 2.0443
-12.9908 -8.5448 2.0443
-12.2812 -9.5678 2.0443
-11.4724 -10.5148 2.0443
-10.5735 -11.3754 2.0443
-9.5952 -12.1404 2.0443
-8.5493 -12.8021 2.0443
-7.4482 -13.3550 2.0443
-6.3048 -13.7953 2.0443
