ply
format ascii 1.0
element vertex 2179
property float32 x
property float32 y
property float32 z
end_header
9.2396 -3.3789 1.9213
9.5046 -2.6327 1.9272
9.7050 -1.8648 1.9322
9.8389 -1.0812 1.9363
9.9050 -0.2880 1.9393
9.9024 0.5086 1.9413
6.6203 0.8770 1.3079
6.5689 1.4145 1.3163
9.4851 2.8560 1.9408
9.2133 3.6038 1.9385
8.8786 4.3245 1.9352
8.4840 5.0125 1.9309
8.0330 5.6626 1.9257
7.5294 6.2703 1.9195
6.9776 6.8312 1.9125
6.3823 7.3416 1.9046
5.7484 7.7981 1.8961
5.0811 8.1981 1.8869
4.4040 8.5749 1.8849
3.7034 8.9058 1.8849
2.9782 9.1800 1.8849
2.4135 10.1554 2.0373
1.5915 10.3237 2.0373
0.7581 10.4260 2.0373
-0.0815 10.4614 2.0373
-0.9218 10.4296 2.0373
-1.7576 10.3307 2.0373
-2.5835 10.1651 2.0373
-3.3941 9.9336 2.0373
-4.1843 9.6377 2.0373
-4.9488 9.2791 2.0373
-5.6827 8.8598 2.0373
-6.3811 8.3826 2.0373
-7.0395 7.8502 2.0373
-7.6534 7.2661 2.0373
-8.2187 6.6340 2.0373
-8.7316 5.9578 2.0373
-9.1886 5.2418 2.0373
-9.5865 4.4908 2.0373
-9.9228 3.7096 2.0373
-10.1949 2.9032 2.0373
-10.4010 2.0770 2.0373
-10.5396 1.2363 2.0373
-10.6097 0.3868 2.0373
-10.6107 -0.4660 2.0373
-10.5426 -1.3163 2.0373
-10.4058 -2.1585 2.0373
-10.2010 -2.9871 2.0373
-9.9296 -3.7964 2.0373
-9.5934 -4.5811 2.0373
-9.1947 -5.3359 2.0373
-8.7361 -6.0559 2.0373
-8.2206 -6.7361 2.0373
-7.6518 -7.3723 2.0373
-7.0334 -7.9600 2.0373
-6.3696 -8.4955 2.0373
-5.6649 -8.9752 2.0373
-4.9240 -9.3961 2.0373
-4.1518 -9.7555 2.0373
-3.3535 -10.0510 2.0373
-2.5344 -10.2808 2.0373
-1.7000 -10.4436 2.0373
-0.8558 -10.5384 2.0373
-0.0041 -5.8663 1.1313
0.4639 -5.8114 1.1252
0.9290 -5.7569 1.1264
1.3974 -5.7019 1.1350
1.8753 -5.6459 1.1512
4.1065 -9.6846 2.0373
4.8662 -9.3154 2.0373
5.5549 -8.8257 2.0233
5.8130 -7.7731 1.8849
6.4127 -7.2751 1.8849
6.9701 -6.7311 1.8849
7.4920 -6.1531 1.8875
7.9943 -5.5543 1.8967
8.4458 -4.9129 1.9052
8.8427 -4.2331 1.9130
9.1813 -3.5199 1.9200
9.4584 -2.7785 1.9261
9.6715 -2.0143 1.9313
9.8183 -1.2333 1.9356
9.8976 -0.4415 1.9388
9.9082 0.3549 1.9410
6.6939 0.7813 1.3198
6.5501 1.3045 1.3083
9.5300 2.7091 1.9411
9.2707 3.4615 1.9391
8.9479 4.1879 1.9360
8.5647 4.8825 1.9318
8.1242 5.5404 1.9268
7.6304 6.1566 1.9208
7.0876 6.7268 1.9139
6.2829 7.0048 1.8425
5.8735 7.7143 1.8978
5.2122 8.1254 1.8887
4.5360 8.5047 1.8849
3.8406 8.8463 1.8849
3.1198 9.1316 1.8849
2.4882 9.7921 1.9722
1.7511 10.2964 2.0373
0.9195 10.4114 2.0373
0.0807 10.4598 2.0373
-0.7599 10.4410 2.0373
-1.5970 10.3550 2.0373
-2.4252 10.2022 2.0373
-3.2392 9.9833 2.0373
-4.0337 9.6997 2.0373
-4.8035 9.3530 2.0373
-5.5437 8.9453 2.0373
-6.2494 8.4790 2.0373
-6.9158 7.9570 2.0373
-7.5386 7.3827 2.0373
-8.1136 6.7595 2.0373
-8.6369 6.0914 2.0373
-9.1049 5.3828 2.0373
-9.5145 4.6382 2.0373
-9.8628 3.8624 2.0373
-10.1475 3.0605 2.0373
-10.3664 2.2377 2.0373
-10.5182 1.3994 2.0373
-10.6015 0.5511 2.0373
-10.6159 -0.3014 2.0373
-10.5612 -1.1527 2.0373
-10.4375 -1.9969 2.0373
-10.2457 -2.8285 2.0373
-9.9871 -3.6420 2.0373
-9.6632 -4.4319 2.0373
-9.2764 -5.1928 2.0373
-8.8291 -5.9199 2.0373
-8.3243 -6.6082 2.0373
-7.7655 -7.2532 2.0373
-7.1564 -7.8506 2.0373
-6.5010 -8.3964 2.0373
-5.8038 -8.8872 2.0373
-5.0695 -9.3197 2.0373
-4.3030 -9.6911 2.0373
-3.5093 -9.9990 2.0373
-2.6938 -10.2417 2.0373
-1.8619 -10.4175 2.0373
-1.0192 -10.5254 2.0373
-0.0952 -5.8770 1.1333
0.3740 -5.8220 1.1258
0.8392 -5.7674 1.1256
1.3065 -5.7126 1.1327
1.7821 -5.6568 1.1474
3.9566 -9.7488 2.0373
4.7221 -9.3913 2.0373
5.4558 -8.9739 2.0373
5.6928 -7.8637 1.8849
6.3002 -7.3748 1.8849
6.8660 -6.8394 1.8849
7.3896 -6.2633 1.8856
7.9012 -5.6733 1.8950
8.3629 -5.0397 1.9036
8.7706 -4.3670 1.9116
9.1207 -3.6599 1.9187
9.4099 -2.9235 1.9250
9.6355 -2.1633 1.9304
9.7952 -1.3850 1.9348
9.8876 -0.5948 1.9382
9.9116 0.2012 1.9406
6.8421 0.6912 1.3466
6.5318 1.1958 1.3007
9.5726 2.5615 1.9414
9.3257 3.3182 1.9395
9.0150 4.0500 1.9366
8.6432 4.7512 1.9327
8.2135 5.4166 1.9278
7.7297 6.0412 1.9220
7.1959 6.6206 1.9153
6.6168 7.1509 1.9077
5.8946 7.4980 1.8670
5.3422 8.0506 1.8905
4.6669 8.4326 1.8849
3.9769 8.7847 1.8849
3.2606 9.0811 1.8849
2.5570 9.4460 1.9105
1.9103 10.2666 2.0373
1.0807 10.3944 2.0373
0.2429 10.4557 2.0373
-0.5978 10.4499 2.0373
-1.4360 10.3768 2.0373
-2.2663 10.2368 2.0373
-3.0835 10.0307 2.0373
-3.8822 9.7594 2.0373
-4.6572 9.4248 2.0373
-5.4035 9.0286 2.0373
-6.1162 8.5734 2.0373
-6.7905 8.0619 2.0373
-7.4221 7.4974 2.0373
-8.0066 6.8833 2.0373
-8.5401 6.2236 2.0373
-9.0191 5.5225 2.0373
-9.4402 4.7844 2.0373
-9.8005 4.0143 2.0373
-10.0976 3.2171 2.0373
-10.3294 2.3978 2.0373
-10.4942 1.5620 2.0373
-10.5908 0.7153 2.0373
-10.6185 -0.1369 2.0373
-10.5771 -0.9888 2.0373
-10.4667 -1.8349 2.0373
-10.2880 -2.6694 2.0373
-10.0421 -3.4867 2.0373
-9.7307 -4.2816 2.0373
-9.3558 -5.0485 2.0373
-8.9199 -5.7825 2.0373
-8.4260 -6.4787 2.0373
-7.8773 -7.1324 2.0373
-7.2776 -7.7392 2.0373
-6.6308 -8.2953 2.0373
-5.9414 -8.7970 2.0373
-5.2138 -9.2409 2.0373
-4.4531 -9.6243 2.0373
-3.6643 -9.9447 2.0373
-2.8526 -10.2000 2.0373
-2.0234 -10.3888 2.0373
-1.1823 -10.5099 2.0373
-0.3348 -10.5627 2.0373
0.2840 -5.8326 1.1266
0.7495 -5.7779 1.1251
1.2159 -5.7232 1.1308
1.6894 -5.6677 1.1440
3.8056 -9.8106 2.0373
4.5767 -9.4650 2.0373
5.3169 -9.0590 2.0373
5.5712 -7.9523 1.8849
6.1861 -7.4729 1.8849
6.7602 -6.9462 1.8849
7.2855 -6.3719 1.8838
7.8063 -5.7906 1.8932
8.2779 -5.1651 1.9020
8.6963 -4.4996 1.9101
9.0578 -3.7988 1.9174
9.3590 -3.0676 1.9239
9.5970 -2.3115 1.9294
9.7696 -1.5363 1.9341
9.8751 -0.7479 1.9377
9.9123 0.0475 1.9403
9.8807 0.8436 1.9418
6.5212 1.0896 1.2950
9.6127 2.4131 1.9417
9.3784 3.1740 1.9400
9.0798 3.9111 1.9373
8.7195 4.6186 1.9336
8.3007 5.2912 1.9288
7.8270 5.9241 1.9232
7.3026 6.5125 1.9166
6.7319 7.0526 1.9093
6.1197 7.5406 1.9011
5.4711 7.9736 1.8923
4.7966 8.3584 1.8849
4.1122 8.7211 1.8849
3.4006 9.0284 1.8849
2.6664 9.2781 1.8849
2.0690 10.2343 2.0373
1.2415 10.3749 2.0373
0.4049 10.4491 2.0373
-0.4357 10.4562 2.0373
-1.2747 10.3961 2.0373
0.7327 -5.7802 1.2962
1.1990 -5.7255 1.3023
1.6722 -5.6701 1.3171
3.2796 -8.5280 2.0373
3.9505 -8.2308 2.0373
4.5948 -7.8810 2.0373
5.2085 -7.4808 2.0373
5.3636 -6.5177 1.8880
5.8554 -6.0516 1.8849
6.3177 -5.5579 1.8849
6.7387 -5.0291 1.8849
7.1202 -4.4715 1.8860
7.4788 -3.8972 1.8930
7.7885 -3.2930 1.8993
8.0467 -2.6632 1.9048
8.2508 -2.0125 1.9096
8.3992 -1.3456 1.9135
8.4903 -0.6676 1.9167
8.5232 0.0163 1.9189
8.4976 0.7010 1.9202
6.6881 1.0978 1.5268
8.2719 2.0514 1.9202
8.0735 2.7067 1.9188
7.8203 3.3421 1.9165
7.5142 3.9528 1.9134
7.1579 4.5342 1.9094
6.7544 5.0822 1.9046
6.3071 5.5928 1.8991
5.8197 6.0626 1.8928
5.2961 6.4883 1.8858
4.7573 6.8917 1.8849
4.1903 7.2544 1.8849
3.5959 7.5709 1.8849
2.9778 7.8392 1.8849
2.5293 8.7089 2.0373
1.8230 8.8892 2.0373
1.1041 9.0126 2.0373
0.3771 9.0783 2.0373
-0.3532 9.0856 2.0373
-1.0822 9.0345 2.0373
-1.8054 8.9252 2.0373
-2.5180 8.7582 2.0373
-3.2154 8.5344 2.0373
-3.8931 8.2553 2.0373
-4.5468 7.9224 2.0373
-5.1720 7.5378 2.0373
-5.7648 7.1039 2.0373
-6.3212 6.6233 2.0373
-6.8374 6.0992 2.0373
-7.3101 5.5348 2.0373
-7.7361 4.9337 2.0373
-8.1124 4.2998 2.0373
-8.4365 3.6372 2.0373
-8.7062 2.9502 2.0373
-8.9197 2.2433 2.0373
-9.0754 1.5211 2.0373
-9.1722 0.7884 2.0373
-9.2094 0.0499 2.0373
-9.1867 -0.6894 2.0373
-9.1042 -1.4246 2.0373
-8.9624 -2.1509 2.0373
-8.7622 -2.8635 2.0373
-8.5049 -3.5575 2.0373
-8.1922 -4.2285 2.0373
-7.8262 -4.8719 2.0373
-7.4092 -5.4835 2.0373
-6.9442 -6.0592 2.0373
-6.4341 -6.5953 2.0373
-5.8825 -7.0882 2.0373
-5.2929 -7.5347 2.0373
-4.6694 -7.9319 2.0373
-4.0161 -8.2771 2.0373
-3.3373 -8.5683 2.0373
-2.6375 -8.8035 2.0373
-1.9214 -8.9814 2.0373
-1.1937 -9.1008 2.0373
-0.4592 -9.1610 2.0373
0.1769 -5.8454 1.2998
0.6430 -5.7907 1.2959
1.1087 -5.7361 1.3005
1.5801 -5.6809 1.3135
3.1475 -8.5792 2.0373
3.8230 -8.2923 2.0373
4.4727 -7.9524 2.0373
5.0927 -7.5618 2.0373
5.2540 -6.5902 1.8849
5.7618 -6.1425 1.8849
6.2317 -5.6559 1.8849
6.6608 -5.1337 1.8849
7.0456 -4.5785 1.8846
7.4133 -4.0104 1.8917
7.7327 -3.4117 1.8981
8.0010 -2.7865 1.9038
8.2157 -2.1394 1.9087
8.3750 -1.4753 1.9128
8.4772 -0.7990 1.9161
8.5214 -0.1158 1.9185
8.5071 0.5691 1.9200
6.7436 0.9998 1.5356
8.3037 1.9231 1.9204
8.1161 2.5817 1.9191
7.8733 3.2213 1.9170
7.5772 3.8371 1.9141
7.2304 4.4245 1.9102
6.8358 4.9793 1.9056
6.3967 5.4974 1.9002
5.9167 5.9753 1.8940
5.3998 6.4098 1.8872
4.8633 6.8166 1.8849
4.3019 7.1879 1.8849
3.7125 7.5136 1.8849
3.0987 7.7913 1.8849
2.6626 8.6639 2.0364
1.9603 8.8589 2.0373
1.2435 8.9933 2.0373
0.5178 9.0702 2.0373
-0.2122 9.0888 2.0373
-0.9419 9.0489 2.0373
-1.6665 8.9508 2.0373
-2.3815 8.7949 2.0373
-3.0822 8.5820 2.0373
-3.7641 8.3134 2.0373
-4.4228 7.9907 2.0373
-5.0538 7.6159 2.0373
-5.6532 7.1913 2.0373
-6.2169 6.7195 2.0373
-6.7411 6.2035 2.0373
-7.2225 5.6466 2.0373
-7.6577 5.0523 2.0373
-8.0438 4.4245 2.0373
-8.3782 3.7671 2.0373
-8.6585 3.0844 2.0373
-8.8830 2.3810 2.0373
-9.0499 1.6614 2.0373
-9.1581 0.9303 2.0373
-9.2069 0.1926 2.0373
-9.1957 -0.5469 2.0373
-9.1247 -1.2833 2.0373
-8.9943 -2.0117 2.0373
-8.8053 -2.7273 2.0373
-8.5589 -3.4253 2.0373
-8.2567 -4.1011 2.0373
-7.9008 -4.7501 2.0373
-7.4935 -5.3682 2.0373
-7.0375 -5.9511 2.0373
-6.5359 -6.4952 2.0373
-5.9920 -6.9966 2.0373
-5.4095 -7.4523 2.0373
-4.7922 -7.8592 2.0373
-4.1442 -8.2146 2.0373
-3.4700 -8.5164 2.0373
-2.7739 -8.7626 2.0373
-2.0606 -8.9516 2.0373
-1.3348 -9.0823 2.0373
-0.6012 -9.1540 2.0373
0.0864 -5.8561 1.3016
0.5533 -5.8013 1.2960
1.0187 -5.7467 1.2989
1.4884 -5.6916 1.3103
1.9689 -5.6353 1.3306
3.6945 -8.3519 2.0373
4.3496 -8.0220 2.0373
4.9756 -7.6410 2.0373
5.2376 -6.7827 1.9162
5.6667 -6.2320 1.8849
6.1441 -5.7527 1.8849
6.5813 -5.2371 1.8849
6.9757 -4.6885 1.8849
7.3461 -4.1225 1.8904
7.6750 -3.5294 1.8969
7.9534 -2.9089 1.9028
8.1786 -2.2657 1.9078
8.3486 -1.6045 1.9121
8.4620 -0.9302 1.9156
8.5174 -0.2479 1.9181
8.5145 0.4371 1.9198
6.8217 0.9035 1.5500
8.3334 1.7943 1.9205
8.1567 2.4560 1.9195
7.9243 3.0996 1.9175
7.6384 3.7204 1.9147
7.3011 4.3136 1.9110
6.9155 4.8750 1.9066
6.4847 5.4005 1.9013
6.0123 5.8863 1.8953
5.5022 6.3294 1.8886
4.9680 6.7399 1.8849
4.4125 7.1198 1.8849
3.8282 7.4544 1.8849
3.2189 7.7415 1.8849
2.7194 8.3836 1.9804
2.0972 8.8264 2.0373
1.3826 8.9718 2.0373
0.6583 9.0598 2.0373
-0.0713 9.0897 2.0373
-0.8014 9.0612 2.0373
-1.5274 8.9743 2.0373
-2.2446 8.8294 2.0373
-2.9484 8.6274 2.0373
-3.6343 8.3694 2.0373
-4.2977 8.0571 2.0373
-4.9344 7.6922 2.0373
-5.5402 7.2770 2.0373
-6.1111 6.8141 2.0373
-6.6432 6.3064 2.0373
-7.1331 5.7571 2.0373
-7.5774 5.1697 2.0373
-7.9732 4.5480 2.0373
-8.3178 3.8960 2.0373
-8.6087 3.2179 2.0373
-8.8441 2.5181 2.0373
-9.0222 1.8013 2.0373
-9.1418 1.0721 2.0373
-9.2021 0.3352 2.0373
-9.2025 -0.4043 2.0373
-9.1431 -1.1417 2.0373
-9.0241 -1.8721 2.0373
-8.8463 -2.5905 2.0373
-8.6108 -3.2922 2.0373
-8.3193 -3.9726 2.0373
-7.9736 -4.6272 2.0373
-7.5760 -5.2516 2.0373
-7.1291 -5.8416 2.0373
-6.6361 -6.3934 2.0373
-6.1000 -6.9034 2.0373
-5.5247 -7.3681 2.0373
-4.9138 -7.7846 2.0373
-4.2714 -8.1502 2.0373
-3.6019 -8.4625 2.0373
-2.9097 -8.7195 2.0373
-2.1993 -8.9196 2.0373
-1.4756 -9.0617 2.0373
-0.7431 -9.1448 2.0373
-0.0044 -5.8667 1.3036
0.4636 -5.8118 1.2964
0.9287 -5.7572 1.2977
1.3972 -5.7023 1.3075
1.8751 -5.6463 1.3260
3.5652 -8.4094 2.0373
4.2253 -8.0897 2.0373
4.8573 -7.7184 2.0373
5.2721 -7.0507 1.9683
5.5702 -6.3200 1.8849
6.0550 -5.8481 1.8849
6.5003 -5.3392 1.8849
6.9031 -4.7967 1.8849
7.2770 -4.2335 1.8890
7.6154 -3.6461 1.8957
7.9037 -3.0305 1.9017
8.1394 -2.3914 1.9069
8.3202 -1.7332 1.9114
8.4446 -1.0611 1.9150
8.5113 -0.3799 1.9177
8.5196 0.3050 1.9196
7.2068 0.8410 1.6342
6.7332 1.3408 1.5467
8.1951 2.3296 1.9197
7.9734 2.9771 1.9180
7.6976 3.6027 1.9153
7.3700 4.2015 1.9118
6.9935 4.7694 1.9075
6.5711 5.3020 1.9024
6.1065 5.7959 1.8965
5.6033 6.2474 1.8899
5.0716 6.6616 1.8849
4.5220 7.0500 1.8849
3.9430 7.3935 1.8849
3.3382 7.6899 1.8849
2.7731 8.1181 1.9278
2.2336 8.7917 2.0373
1.5214 8.9482 2.0373
0.7986 9.0474 2.0373
0.0697 9.0885 2.0373
-0.6607 9.0712 2.0373
-1.3878 8.9956 2.0373
-2.1071 8.8618 2.0373
-2.8139 8.6708 2.0373
-3.5036 8.4235 2.0373
-4.1717 8.1215 2.0373
-4.8139 7.7665 2.0373
-5.4259 7.3609 2.0373
-6.0039 6.9069 2.0373
-6.5438 6.4076 2.0373
-7.0421 5.8661 2.0373
-7.4954 5.2858 2.0373
-7.9008 4.6704 2.0373
-8.2554 4.0240 2.0373
-8.5569 3.3506 2.0373
-8.8031 2.6546 2.0373
-8.9924 1.9407 2.0373
-9.1234 1.2135 2.0373
-9.1951 0.4777 2.0373
-9.2071 -0.2617 2.0373
-9.1592 -0.9999 2.0373
-9.0516 -1.7319 2.0373
-8.8851 -2.4530 2.0373
-8.6607 -3.1584 2.0373
-8.3798 -3.8433 2.0373
-8.0444 -4.5031 2.0373
-7.6566 -5.1337 2.0373
-7.2190 -5.7306 2.0373
-6.7346 -6.2901 2.0373
-6.2066 -6.8084 2.0373
-5.6385 -7.2821 2.0373
-5.0342 -7.7081 2.0373
-4.3976 -8.0837 2.0373
-3.7330 -8.4065 2.0373
-3.0448 -8.6743 2.0373
-2.3376 -8.8855 2.0373
-1.6160 -9.0389 2.0373
-0.8849 -9.1334 2.0373
-0.0955 -5.8774 1.3060
0.3737 -5.8223 1.2972
0.8389 -5.7678 1.2968
1.3062 -5.7130 1.3049
1.7818 -5.6572 1.3217
3.4349 -8.4649 2.0373
4.1001 -8.1555 2.0373
4.7377 -7.7939 2.0373
5.3084 -7.3337 2.0238
5.4723 -6.4066 1.8849
5.9645 -5.9421 1.8849
6.4176 -5.4401 1.8849
6.8288 -4.9038 1.8849
7.2062 -4.3432 1.8877
7.5539 -3.7617 1.8945
7.8521 -3.1513 1.9006
8.0981 -2.5163 1.9060
8.2897 -1.8615 1.9106
8.4250 -1.1916 1.9143
8.5029 -0.5118 1.9172
8.5225 0.1728 1.9193
8.4836 0.8569 1.9204
6.7019 1.2268 1.5349
8.2315 2.2025 1.9200
8.0205 2.8537 1.9184
7.7549 3.4839 1.9159
7.4371 4.0883 1.9126
7.0698 4.6624 1.9084
6.6560 5.2022 1.9034
6.1992 5.7038 1.8977
5.7032 6.1638 1.8912
5.1719 6.5791 1.8842
4.6304 6.9785 1.8849
4.0568 7.3308 1.8849
3.4567 7.6365 1.8849
2.8338 7.8935 1.8849
2.3694 8.7551 2.0373
1.6598 8.9225 2.0373
0.9386 9.0327 2.0373
0.2105 9.0851 2.0373
-0.5199 9.0791 2.0373
-1.2480 9.0147 2.0373
-1.9692 8.8921 2.0373
-2.6787 8.7120 2.0373
-3.3720 8.4755 2.0373
-4.0447 8.1839 2.0373
-4.6922 7.8390 2.0373
-5.3104 7.4430 2.0373
-5.8952 6.9981 2.0373
-6.4427 6.5073 2.0373
-6.9493 5.9737 2.0373
-7.4116 5.4006 2.0373
-7.8265 4.7917 2.0373
-8.1911 4.1509 2.0373
-8.5030 3.4823 2.0373
-8.7600 2.7904 2.0373
-8.9604 2.0796 2.0373
-9.1027 1.3546 2.0373
-9.1859 0.6201 2.0373
-9.2095 -0.1190 2.0373
-9.1731 -0.8578 2.0373
-9.0770 -1.5914 2.0373
-8.9218 -2.3150 2.0373
-8.7084 -3.0237 2.0373
-8.4383 -3.7129 2.0373
-8.1132 -4.3780 2.0373
-7.7353 -5.0145 2.0373
-7.3072 -5.6183 2.0373
-6.8316 -6.1853 2.0373
-6.3117 -6.7118 2.0373
-5.7511 -7.1943 2.0373
-5.1534 -7.6298 2.0373
-4.5227 -8.0153 2.0373
-3.8632 -8.3484 2.0373
-3.1792 -8.6270 2.0373
-2.4753 -8.8492 2.0373
-1.7561 -9.0138 2.0373
-1.0264 -9.1198 2.0373
-0.2911 -9.1665 2.0373
0.2837 -5.8329 1.2982
0.7492 -5.7783 1.2962
1.2156 -5.7236 1.3027
1.6891 -5.6681 1.3178
3.3038 -8.5184 2.0373
3.9738 -8.2193 2.0373
4.6171 -7.8676 2.0373
5.2296 -7.4658 2.0373
5.3731 -6.4916 1.8849
5.8725 -6.0347 1.8849
6.3334 -5.5397 1.8849
6.7529 -5.0098 1.8849
7.1337 -4.4517 1.8863
7.4906 -3.8763 1.8932
7.7986 -3.2711 1.8995
8.0548 -2.6405 1.9050
8.2570 -1.9891 1.9097
8.4034 -1.3217 1.9137
8.4924 -0.6434 1.9167
8.5233 0.0406 1.9190
8.4957 0.7252 1.9203
6.6781 1.1157 1.5252
8.2658 2.0749 1.9202
8.0655 2.7296 1.9187
7.8103 3.3642 1.9164
7.5024 3.9739 1.9133
7.1444 4.5542 1.9093
6.7393 5.1009 1.9044
6.2905 5.6102 1.8988
5.8018 6.0784 1.8925
5.2770 6.5026 1.8856
4.7377 6.9053 1.8849
4.1696 7.2664 1.8849
3.5744 7.5813 1.8849
2.9556 7.8478 1.8849
2.5045 8.7163 2.0373
1.7977 8.8946 2.0373
1.0784 9.0160 2.0373
0.3513 9.0795 2.0373
-0.3790 9.0848 2.0373
-1.1080 9.0317 2.0373
0.7324 -5.7806 1.4695
1.1988 -5.7259 1.4764
1.6719 -5.6704 1.4930
2.8932 -7.5245 2.0373
3.4853 -7.2629 2.0373
4.0542 -6.9548 2.0373
4.5962 -6.6023 2.0373
5.1078 -6.2077 2.0373
5.1717 -5.3455 1.8862
5.5766 -4.9064 1.8849
5.9487 -4.4400 1.8849
6.2821 -3.9457 1.8849
6.5748 -3.4265 1.8849
6.8274 -2.8870 1.8856
7.0516 -2.3342 1.8904
7.2287 -1.7635 1.8946
7.3572 -1.1790 1.8980
7.4359 -0.5849 1.9007
7.4640 0.0141 1.9027
7.4412 0.6137 1.9038
7.3677 1.2093 1.9042
7.2440 1.7964 1.9038
7.0710 2.3705 1.9026
6.8502 2.9275 1.9006
6.5834 3.4632 1.8979
6.2728 3.9736 1.8944
5.9210 4.4552 1.8903
5.5307 4.9045 1.8854
5.1187 5.3325 1.8849
4.6751 5.7278 1.8849
4.2014 6.0867 1.8849
3.7004 6.4068 1.8849
3.1797 6.6993 1.8878
2.8419 7.4822 2.0373
2.2330 7.6901 2.0373
1.6092 7.8488 2.0373
0.9743 7.9572 2.0373
0.3325 8.0145 2.0373
-0.3122 8.0204 2.0373
-0.9557 7.9746 2.0373
-1.5939 7.8774 2.0373
-2.2227 7.7294 2.0373
-2.8380 7.5312 2.0373
-3.4358 7.2843 2.0373
-4.0122 6.9899 2.0373
-4.5635 6.6500 2.0373
-5.0860 6.2666 2.0373
-5.5763 5.8422 2.0373
-6.0312 5.3794 2.0373
-6.4476 4.8812 2.0373
-6.8227 4.3507 2.0373
-7.1541 3.7914 2.0373
-7.4394 3.2069 2.0373
-7.6767 2.6010 2.0373
-7.8644 1.9776 2.0373
-8.0012 1.3408 2.0373
-8.0862 0.6948 2.0373
-8.1186 0.0438 2.0373
-8.0983 -0.6079 2.0373
-8.0254 -1.2560 2.0373
-7.9002 -1.8961 2.0373
-7.7236 -2.5241 2.0373
-7.4967 -3.1359 2.0373
-7.2211 -3.7272 2.0373
-6.8985 -4.2944 2.0373
-6.5311 -4.8335 2.0373
-6.1213 -5.3411 2.0373
-5.6719 -5.8137 2.0373
-5.1858 -6.2484 2.0373
-4.6663 -6.6422 2.0373
-4.1169 -6.9927 2.0373
-3.5411 -7.2974 2.0373
-2.9428 -7.5546 2.0373
-2.3260 -7.7625 2.0373
-1.6947 -7.9198 2.0373
-1.0531 -8.0257 2.0373
-0.4054 -8.0794 2.0373
0.1766 -5.8458 1.4738
0.6427 -5.7911 1.4693
1.1085 -5.7365 1.4743
1.5798 -5.6812 1.4890
2.7766 -7.5695 2.0373
3.3728 -7.3170 2.0373
3.9464 -7.0177 2.0373
4.4939 -6.6736 2.0373
5.0117 -6.2870 2.0373
5.0853 -5.4220 1.8849
5.5005 -4.9929 1.8849
5.8798 -4.5323 1.8849
6.2209 -4.0431 1.8849
6.5216 -3.5285 1.8849
6.7789 -2.9912 1.8845
7.0119 -2.4424 1.8895
7.1983 -1.8748 1.8938
7.3363 -1.2926 1.8974
7.4246 -0.7001 1.9002
7.4626 -0.1016 1.9023
7.4496 0.4982 1.9037
7.3858 1.0949 1.9042
7.2717 1.6840 1.9039
7.1081 2.2610 1.9029
6.8964 2.8216 1.9011
6.6384 3.3617 1.8985
6.3360 3.8773 1.8952
5.9919 4.3647 1.8911
5.6089 4.8205 1.8864
5.2005 5.2522 1.8849
4.7631 5.6543 1.8849
4.2950 6.0204 1.8849
3.7990 6.3481 1.8849
3.2783 6.6354 1.8849
2.8977 7.2866 1.9962
2.3517 7.6538 2.0373
1.7305 7.8220 2.0373
1.0975 7.9402 2.0373
0.4567 8.0075 2.0373
-0.1878 8.0233 2.0373
-0.8319 7.9875 2.0373
-1.4714 7.9002 2.0373
-2.1023 7.7619 2.0373
-2.7205 7.5733 2.0373
-3.3220 7.3356 2.0373
-3.9028 7.0503 2.0373
-4.4592 6.7190 2.0373
-4.9876 6.3438 2.0373
-5.4844 5.9271 2.0373
-5.9464 5.4715 2.0373
-6.3704 4.9799 2.0373
-6.7537 4.4554 2.0373
-7.0937 3.9014 2.0373
-7.3880 3.3215 2.0373
-7.6347 2.7194 2.0373
-7.8321 2.0990 2.0373
-7.9788 1.4645 2.0373
-8.0739 0.8199 2.0373
-8.1165 0.1696 2.0373
-8.1063 -0.4823 2.0373
-8.0435 -1.1314 2.0373
-7.9284 -1.7734 2.0373
-7.7616 -2.4041 2.0373
-7.5443 -3.0193 2.0373
-7.2780 -3.6149 2.0373
-6.9643 -4.1870 2.0373
-6.6054 -4.7318 2.0373
-6.2036 -5.2458 2.0373
-5.7616 -5.7254 2.0373
-5.2823 -6.1677 2.0373
-4.7690 -6.5696 2.0373
-4.2250 -6.9286 2.0373
-3.6540 -7.2423 2.0373
-3.0598 -7.5088 2.0373
-2.4462 -7.7263 2.0373
-1.8174 -7.8935 2.0373
-1.1775 -8.0093 2.0373
-0.5307 -8.0731 2.0373
0.0861 -5.8564 1.4758
0.5530 -5.8016 1.4694
1.0184 -5.7470 1.4726
1.4881 -5.6920 1.4854
1.9687 -5.6356 1.5082
3.2594 -7.3694 2.0373
3.8377 -7.0790 2.0373
4.3905 -6.7434 2.0373
4.9142 -6.3648 2.0373
5.0371 -5.5403 1.8984
5.4231 -5.0782 1.8849
5.8096 -4.6235 1.8849
6.1582 -4.1395 1.8849
6.4668 -3.6295 1.8849
6.7287 -3.0946 1.8835
6.9706 -2.5498 1.8886
7.1661 -1.9855 1.8930
7.3135 -1.4058 1.8968
7.4115 -0.8150 1.8998
7.4592 -0.2173 1.9020
7.4561 0.3826 1.9035
7.0871 0.9385 1.8231
7.2976 1.5711 1.9040
7.1435 2.1508 1.9032
6.9409 2.7149 1.9015
6.6917 3.2593 1.8990
6.3977 3.7799 1.8959
6.0615 4.2730 1.8919
5.6857 4.7352 1.8874
5.2811 5.1707 1.8849
4.8500 5.5795 1.8849
4.3876 5.9527 1.8849
3.8967 6.2880 1.8849
3.3805 6.5832 1.8849
2.9413 7.0747 1.9506
2.4699 7.6156 2.0373
1.8514 7.7934 2.0373
1.2203 7.9213 2.0373
0.5807 7.9985 2.0373
-0.0634 8.0242 2.0373
-0.7079 7.9984 2.0373
-1.3486 7.9210 2.0373
-1.9815 7.7925 2.0373
-2.6024 7.6136 2.0373
-3.2074 7.3853 2.0373
-3.7926 7.1090 2.0373
-4.3540 6.7864 2.0373
-4.8880 6.4195 2.0373
-5.3912 6.0106 2.0373
-5.8601 5.5623 2.0373
-6.2917 5.0774 2.0373
-6.6830 4.5590 2.0373
-7.0316 4.0104 2.0373
-7.3349 3.4352 2.0373
-7.5909 2.8371 2.0373
-7.7980 2.2199 2.0373
-7.9545 1.5878 2.0373
-8.0596 0.9449 2.0373
-8.1123 0.2953 2.0373
-8.1124 -0.3566 2.0373
-8.0597 -1.0066 2.0373
-7.9546 -1.6503 2.0373
-7.7978 -2.2835 2.0373
-7.5901 -2.9020 2.0373
-7.3331 -3.5017 2.0373
-7.0284 -4.0787 2.0373
-6.6780 -4.6290 2.0373
-6.2843 -5.1492 2.0373
-5.8498 -5.6357 2.0373
-5.3775 -6.0854 2.0373
-4.8705 -6.4953 2.0373
-4.3322 -6.8628 2.0373
-3.7661 -7.1854 2.0373
-3.1761 -7.4611 2.0373
-2.5659 -7.6882 2.0373
-1.9397 -7.8652 2.0373
-1.3016 -7.9910 2.0373
-0.6558 -8.0649 2.0373
-0.0047 -5.8671 1.4781
0.4633 -5.8122 1.4699
0.9284 -5.7576 1.4712
1.3969 -5.7027 1.4821
1.8748 -5.6466 1.5030
3.1452 -7.4201 2.0373
3.7280 -7.1386 2.0373
4.2860 -6.8116 2.0373
4.8156 -6.4410 2.0373
5.0612 -5.7433 1.9406
5.3444 -5.1624 1.8849
5.7379 -4.7135 1.8849
6.0940 -4.2350 1.8849
6.4105 -3.7298 1.8849
6.6855 -3.2012 1.8849
6.9275 -2.6566 1.8877
7.1321 -2.0957 1.8922
7.2889 -1.5187 1.8961
7.3965 -0.9296 1.8992
7.4539 -0.3329 1.9016
7.4606 0.2669 1.9032
7.0708 0.8250 1.8153
6.7156 1.3372 1.7465
7.1770 2.0400 1.9034
6.9837 2.6075 1.9019
6.7433 3.1560 1.8996
6.4578 3.6815 1.8965
6.1295 4.1802 1.8928
5.7611 4.6486 1.8883
5.3604 5.0880 1.8849
4.9357 5.5033 1.8849
4.4791 5.8836 1.8849
3.9935 6.2264 1.8849
3.4819 6.5295 1.8849
2.9829 6.8721 1.9074
2.5875 7.5757 2.0373
1.9718 7.7630 2.0373
1.3429 7.9006 2.0373
0.7046 7.9876 2.0373
0.0610 8.0233 2.0373
-0.5837 8.0074 2.0373
-1.2255 7.9399 2.0373
-1.8602 7.8212 2.0373
-2.4838 7.6519 2.0373
-3.0921 7.4331 2.0373
-3.6814 7.1659 2.0373
-4.2477 6.8521 2.0373
-4.7873 6.4936 2.0373
-5.2967 6.0926 2.0373
-5.7725 5.6517 2.0373
-6.2115 5.1736 2.0373
-6.6108 4.6614 2.0373
-6.9678 4.1184 2.0373
-7.2800 3.5481 2.0373
-7.5453 2.9541 2.0373
-7.7619 2.3403 2.0373
-7.9283 1.7107 2.0373
-8.0434 1.0695 2.0373
-8.1063 0.4209 2.0373
-8.1165 -0.2309 2.0373
-8.0740 -0.8816 2.0373
-7.9790 -1.5268 2.0373
-7.8320 -2.1624 2.0373
-7.6341 -2.7840 2.0373
-7.3865 -3.3877 2.0373
-7.0908 -3.9693 2.0373
-6.7491 -4.5251 2.0373
-6.3635 -5.0514 2.0373
-5.9367 -5.5446 2.0373
-5.4714 -6.0017 2.0373
-4.9709 -6.4195 2.0373
-4.4383 -6.7953 2.0373
-3.8773 -7.1267 2.0373
-3.2916 -7.4117 2.0373
-2.6850 -7.6482 2.0373
-2.0616 -7.8350 2.0373
-1.4254 -7.9707 2.0373
-0.7808 -8.0547 2.0373
-0.0958 -5.8778 1.4808
0.3734 -5.8227 1.4707
0.8386 -5.7681 1.4702
1.3060 -5.7133 1.4793
1.7816 -5.6576 1.4982
3.0302 -7.4689 2.0373
3.6174 -7.1966 2.0373
4.1805 -6.8781 2.0373
4.7158 -6.5158 2.0373
5.0882 -5.9575 1.9858
5.2644 -5.2453 1.8849
5.6648 -4.8025 1.8849
6.0283 -4.3295 1.8849
6.3526 -3.8292 1.8849
6.6357 -3.3049 1.8849
6.8826 -2.7626 1.8867
7.0962 -2.2053 1.8914
7.2624 -1.6311 1.8954
7.3796 -1.0440 1.8987
7.4468 -0.4484 1.9012
7.4633 0.1511 1.9030
7.4289 0.7502 1.9040
6.7395 1.2336 1.7475
7.2087 1.9288 1.9036
7.0247 2.4994 1.9022
6.7933 3.0519 1.9001
6.5163 3.5821 1.8972
6.1960 4.0863 1.8935
5.8351 4.5608 1.8892
5.4366 5.0023 1.8842
5.0202 5.4258 1.8849
4.5695 5.8131 1.8849
4.0893 6.1633 1.8849
3.5825 6.4742 1.8849
3.0523 6.7438 1.8849
2.7044 7.5338 2.0373
2.0917 7.7307 2.0373
1.4651 7.8780 2.0373
0.8283 7.9748 2.0373
0.1854 8.0204 2.0373
-0.4594 8.0145 2.0373
-1.1021 7.9570 2.0373
-1.7385 7.8481 2.0373
-2.3645 7.6885 2.0373
-2.9761 7.4791 2.0373
-3.5694 7.2212 2.0373
-4.1404 6.9162 2.0373
-4.6854 6.5662 2.0373
-5.2009 6.1732 2.0373
-5.6834 5.7398 2.0373
-6.1298 5.2686 2.0373
-6.5370 4.7627 2.0373
-6.9023 4.2254 2.0373
-7.2233 3.6600 2.0373
-7.4978 3.0703 2.0373
-7.7240 2.4600 2.0373
-7.9002 1.8332 2.0373
-8.0252 1.1940 2.0373
-8.0982 0.5464 2.0373
-8.1186 -0.1051 2.0373
-8.0863 -0.7563 2.0373
-8.0014 -1.4030 2.0373
-7.8644 -2.0407 2.0373
-7.6762 -2.6654 2.0373
-7.4380 -3.2728 2.0373
-7.1515 -3.8590 2.0373
-6.8185 -4.4201 2.0373
-6.4412 -4.9523 2.0373
-6.0221 -5.4522 2.0373
-5.5640 -5.9165 2.0373
-5.0700 -6.3420 2.0373
-4.5434 -6.7262 2.0373
-3.9876 -7.0664 2.0373
-3.4063 -7.3604 2.0373
-2.8034 -7.6064 2.0373
-2.1830 -7.8029 2.0373
-1.5490 -7.9486 2.0373
-0.9056 -8.0426 2.0373
-0.1966 -6.1811 1.5577
0.2834 -5.8333 1.4719
0.7489 -5.7787 1.4696
1.2154 -5.7239 1.4768
1.6889 -5.6684 1.4937
2.9145 -7.5160 2.0373
3.5059 -7.2527 2.0373
4.0739 -6.9430 2.0373
4.6149 -6.5890 2.0373
5.1163 -6.1820 2.0337
5.1831 -5.3269 1.8849
5.5904 -4.8904 1.8849
5.9612 -4.4230 1.8849
6.2932 -3.9277 1.8849
6.5844 -3.4077 1.8849
6.8361 -2.8678 1.8857
7.0587 -2.3143 1.8906
7.2341 -1.7430 1.8947
7.3609 -1.1580 1.8981
7.4378 -0.5638 1.9008
7.4641 0.0354 1.9027
7.4395 0.6349 1.9039
7.3642 1.2302 1.9042
7.2387 1.8169 1.9038
7.0640 2.3906 1.9025
6.8415 2.9469 1.9005
6.5731 3.4817 1.8978
6.2611 3.9912 1.8943
5.9078 4.4717 1.8901
5.5162 4.9198 1.8852
5.1035 5.3471 1.8849
4.6588 5.7412 1.8849
4.1841 6.0987 1.8849
3.6821 6.4174 1.8849
3.1562 6.6951 1.8849
2.8206 7.4904 2.0373
2.2111 7.6965 2.0373
1.5869 7.8535 2.0373
0.9517 7.9601 2.0373
0.3097 8.0156 2.0373
-0.3350 8.0196 2.0373
-0.9785 7.9721 2.0373
0.7321 -5.7810 1.6453
1.1985 -5.7263 1.6529
1.6716 -5.6708 1.6714
2.5842 -6.7221 2.0373
3.1134 -6.4889 2.0373
3.6219 -6.2141 2.0373
4.1064 -5.8995 2.0373
4.5639 -5.5474 2.0373
4.9420 -5.1088 2.0171
4.9835 -4.3851 1.8849
5.3164 -3.9685 1.8849
5.6147 -3.5269 1.8849
5.8767 -3.0631 1.8849
6.1006 -2.5800 1.8849
6.2852 -2.0808 1.8849
6.4292 -1.5687 1.8849
6.5348 -1.0474 1.8857
6.6039 -0.5197 1.8881
6.6284 0.0124 1.8898
6.6079 0.5448 1.8909
6.5426 1.0737 1.8912
6.4330 1.5952 1.8909
6.2799 2.1053 1.8898
6.0845 2.6003 1.8881
5.8485 3.0766 1.8857
5.5805 3.5351 1.8849
5.2790 3.9723 1.8849
4.9436 4.3840 1.8849
4.5765 4.7678 1.8849
4.1798 5.1212 1.8849
3.7561 5.4419 1.8849
3.3080 5.7279 1.8849
3.0398 6.4014 2.0186
2.5402 6.6888 2.0373
1.9958 6.8743 2.0373
1.4380 7.0157 2.0373
0.8705 7.1122 2.0373
0.2968 7.1631 2.0373
-0.2794 7.1679 2.0373
-0.8545 7.1265 2.0373
-1.4248 7.0392 2.0373
-1.9865 6.9064 2.0373
-2.5361 6.7289 2.0373
-3.0700 6.5078 2.0373
-3.5847 6.2443 2.0373
-4.0770 5.9402 2.0373
-4.5434 5.5974 2.0373
-4.9811 5.2179 2.0373
-5.3870 4.8042 2.0373
-5.7585 4.3590 2.0373
-6.0931 3.8850 2.0373
-6.3886 3.3854 2.0373
-6.6430 2.8633 2.0373
-6.8546 2.3221 2.0373
-7.0219 1.7654 2.0373
-7.1437 1.1968 2.0373
-7.2192 0.6201 2.0373
-7.2480 0.0389 2.0373
-7.2296 -0.5429 2.0373
-7.1643 -1.1213 2.0373
-7.0524 -1.6928 2.0373
-6.8947 -2.2533 2.0373
-6.6922 -2.7993 2.0373
-6.4461 -3.3272 2.0373
-6.1582 -3.8335 2.0373
-5.8303 -4.3148 2.0373
-5.4646 -4.7679 2.0373
-5.0636 -5.1899 2.0373
-4.6298 -5.5781 2.0373
-4.1661 -5.9299 2.0373
-3.6757 -6.2429 2.0373
-3.1619 -6.5153 2.0373
-2.6278 -6.7452 2.0373
-2.0772 -6.9312 2.0373
-1.5136 -7.0720 2.0373
-0.9408 -7.1669 2.0373
-0.3625 -7.2154 2.0373
0.1762 -5.8462 1.6503
0.6424 -5.7915 1.6451
1.1082 -5.7368 1.6506
1.5795 -5.6816 1.6670
2.4800 -6.7622 2.0373
3.0128 -6.5372 2.0373
3.5256 -6.2702 2.0373
4.0150 -5.9632 2.0373
4.4779 -5.6181 2.0373
4.9115 -5.2373 2.0373
4.9154 -4.4624 1.8849
5.2548 -4.0509 1.8849
5.5600 -3.6139 1.8849
5.8291 -3.1541 1.8849
6.0605 -2.6745 1.8849
6.2527 -2.1782 1.8849
6.4047 -1.6684 1.8849
6.5164 -1.1484 1.8852
6.5941 -0.6220 1.8877
6.6272 -0.0904 1.8896
6.6153 0.4422 1.8907
6.5587 0.9721 1.8912
6.4575 1.4953 1.8910
6.3127 2.0079 1.8901
6.1254 2.5061 1.8885
5.8971 2.9863 1.8862
5.6346 3.4481 1.8849
5.3399 3.8898 1.8849
5.0109 4.3067 1.8849
4.6497 4.6961 1.8849
4.2585 5.0555 1.8849
3.8398 5.3827 1.8849
3.3962 5.6755 1.8849
3.0761 6.2268 1.9786
2.6434 6.6480 2.0373
2.1019 6.8419 2.0373
1.5465 6.9919 2.0373
0.9806 7.0972 2.0373
0.4078 7.1568 2.0373
-0.1682 7.1705 2.0373
-0.7438 7.1381 2.0373
-1.3153 7.0596 2.0373
-1.8790 6.9355 2.0373
-2.4312 6.7666 2.0373
-2.9684 6.5538 2.0373
-3.4871 6.2984 2.0373
-3.9839 6.0020 2.0373
-4.4556 5.6664 2.0373
-4.8990 5.2938 2.0373
-5.3113 4.8866 2.0373
-5.6896 4.4472 2.0373
-6.0316 3.9785 2.0373
-6.3348 3.4836 2.0373
-6.5972 2.9656 2.0373
-6.8172 2.4278 2.0373
-6.9931 1.8738 2.0373
-7.1238 1.3073 2.0373
-7.2083 0.7318 2.0373
-7.2461 0.1512 2.0373
-7.2368 -0.4308 2.0373
-7.1806 -1.0102 2.0373
-7.0776 -1.5832 2.0373
-6.9287 -2.1462 2.0373
-6.7347 -2.6953 2.0373
-6.4969 -3.2270 2.0373
-6.2169 -3.7377 2.0373
-5.8966 -4.2240 2.0373
-5.5380 -4.6828 2.0373
-5.1436 -5.1111 2.0373
-4.7159 -5.5060 2.0373
-4.2578 -5.8650 2.0373
-3.7723 -6.1857 2.0373
-3.2627 -6.4660 2.0373
-2.7322 -6.7042 2.0373
-2.1846 -6.8988 2.0373
-1.6232 -7.0484 2.0373
-1.0519 -7.1522 2.0373
-0.4743 -7.2097 2.0373
0.0858 -5.8568 1.6525
0.5527 -5.8020 1.6453
1.0181 -5.7474 1.6487
1.4879 -5.6923 1.6629
1.9684 -5.6360 1.6884
2.9115 -6.5839 2.0373
3.4284 -6.3249 2.0373
3.9225 -6.0255 2.0373
4.3908 -5.6876 2.0373
4.8302 -5.3134 2.0373
4.8777 -4.5680 1.8971
5.1919 -4.1324 1.8849
5.5038 -3.7001 1.8849
5.7800 -3.2445 1.8849
6.0188 -2.7685 1.8849
6.2187 -2.2751 1.8849
6.3785 -1.7676 1.8849
6.4964 -1.2490 1.8846
6.5825 -0.7240 1.8873
6.6243 -0.1932 1.8893
6.6211 0.3396 1.8906
6.5731 0.8703 1.8912
6.4805 1.3951 1.8911
6.3440 1.9100 1.8903
6.1648 2.4113 1.8888
5.9443 2.8953 1.8867
5.6842 3.3584 1.8839
5.3995 3.8064 1.8849
5.0769 4.2283 1.8849
4.7218 4.6232 1.8849
4.3362 4.9886 1.8849
3.9226 5.3222 1.8849
3.4836 5.6218 1.8849
3.1110 6.0590 1.9405
2.7460 6.6057 2.0373
2.2076 6.8079 2.0373
1.6546 6.9664 2.0373
1.0904 7.0804 2.0373
0.5187 7.1489 2.0373
-0.0570 7.1715 2.0373
-0.6330 7.1479 2.0373
-1.2056 7.0783 2.0373
-1.7710 6.9630 2.0373
-2.3257 6.8026 2.0373
-2.8661 6.5982 2.0373
-3.3886 6.3509 2.0373
-3.8899 6.0623 2.0373
-4.3667 5.7341 2.0373
-4.8158 5.3685 2.0373
-5.2343 4.9677 2.0373
-5.6194 4.5343 2.0373
-5.9686 4.0711 2.0373
-6.2794 3.5810 2.0373
-6.5499 3.0671 2.0373
-6.7781 2.5329 2.0373
-6.9626 1.9818 2.0373
-7.1021 1.4174 2.0373
-7.1956 0.8433 2.0373
-7.2424 0.2634 2.0373
-7.2423 -0.3186 2.0373
-7.1951 -0.8988 2.0373
-7.1011 -1.4734 2.0373
-6.9610 -2.0386 2.0373
-6.7756 -2.5906 2.0373
-6.5461 -3.1259 2.0373
-6.2741 -3.6409 2.0373
-5.9614 -4.1322 2.0373
-5.6101 -4.5966 2.0373
-5.2223 -5.0310 2.0373
-4.8008 -5.4325 2.0373
-4.3484 -5.7986 2.0373
-3.8679 -6.1269 2.0373
-3.3627 -6.4151 2.0373
-2.8360 -6.6616 2.0373
-2.2914 -6.8647 2.0373
-1.7324 -7.0231 2.0373
-1.1627 -7.1358 2.0373
-0.5860 -7.2022 2.0373
-0.0050 -5.8674 1.6552
0.4629 -5.8125 1.6458
0.9281 -5.7580 1.6472
1.3966 -5.7030 1.6593
1.8745 -5.6470 1.6826
2.8094 -6.6291 2.0373
3.3303 -6.3781 2.0373
3.8291 -6.0863 2.0373
4.3026 -5.7556 2.0373
4.7478 -5.3883 2.0373
4.8952 -4.7290 1.9320
5.1278 -4.2129 1.8849
5.4464 -3.7854 1.8849
5.7296 -3.3340 1.8849
5.9757 -2.8618 1.8849
6.1833 -2.3715 1.8849
6.3509 -1.8665 1.8849
6.4747 -1.3493 1.8840
6.5693 -0.8259 1.8868
6.6197 -0.2959 1.8889
6.6252 0.2368 1.8904
6.5858 0.7683 1.8911
6.5018 1.2945 1.8912
6.3737 1.8116 1.8905
6.2027 2.3158 1.8892
5.9900 2.8034 1.8871
5.7373 3.2708 1.8844
5.4577 3.7222 1.8849
5.1418 4.1490 1.8849
4.7927 4.5493 1.8849
4.4128 4.9205 1.8849
4.0044 5.2604 1.8849
3.5701 5.5667 1.8849
3.1446 5.8972 1.9042
2.8479 6.5617 2.0373
2.3127 6.7722 2.0373
1.7622 6.9393 2.0373
1.1999 7.0619 2.0373
0.6294 7.1392 2.0373
0.0542 7.1707 2.0373
-0.5220 7.1561 2.0373
-1.0955 7.0953 2.0373
-1.6626 6.9888 2.0373
-2.2197 6.8370 2.0373
-2.7631 6.6410 2.0373
-3.2894 6.4019 2.0373
-3.7950 6.1211 2.0373
-4.2768 5.8004 2.0373
-4.7315 5.4418 2.0373
-5.1561 5.0477 2.0373
-5.5478 4.6203 2.0373
-5.9041 4.1626 2.0373
-6.2225 3.6775 2.0373
-6.5009 3.1680 2.0373
-6.7375 2.6374 2.0373
-6.9305 2.0893 2.0373
-7.0788 1.5271 2.0373
-7.1812 0.9546 2.0373
-7.2371 0.3756 2.0373
-7.2460 -0.2063 2.0373
-7.2078 -0.7872 2.0373
-7.1228 -1.3631 2.0373
-6.9915 -1.9304 2.0373
-6.8148 -2.4853 2.0373
-6.5937 -3.0241 2.0373
-6.3298 -3.5433 2.0373
-6.0248 -4.0395 2.0373
-5.6807 -4.5093 2.0373
-5.2998 -4.9497 2.0373
-4.8846 -5.3578 2.0373
-4.4379 -5.7309 2.0373
-3.9626 -6.0666 2.0373
-3.4619 -6.3627 2.0373
-2.9392 -6.6174 2.0373
-2.3977 -6.8289 2.0373
-1.8412 -6.9960 2.0373
-1.2733 -7.1176 2.0373
-0.6976 -7.1930 2.0373
-0.0961 -5.8781 1.6582
0.3731 -5.8231 1.6468
0.8383 -5.7685 1.6461
1.3057 -5.7137 1.6562
1.7813 -5.6579 1.6772
2.7067 -6.6726 2.0373
3.2315 -6.4297 2.0373
3.7348 -6.1457 2.0373
4.2134 -5.8224 2.0373
4.6643 -5.4619 2.0373
4.9162 -4.8989 1.9698
5.0624 -4.2923 1.8849
5.3876 -3.8698 1.8849
5.6778 -3.4228 1.8849
5.9312 -2.9544 1.8849
6.1463 -2.4673 1.8849
6.3217 -1.9649 1.8849
6.4514 -1.4492 1.8834
6.5545 -0.9275 1.8863
6.6135 -0.3984 1.8886
6.6277 0.1340 1.8901
6.5969 0.6660 1.8910
6.5214 1.1936 1.8912
6.4018 1.7128 1.8907
6.2389 2.2198 1.8895
6.0341 2.7108 1.8876
5.7887 3.1822 1.8849
5.5147 3.6370 1.8849
5.2054 4.0686 1.8849
4.8625 4.4742 1.8849
4.4884 4.8513 1.8849
4.0853 5.1974 1.8849
3.6558 5.5103 1.8849
3.2025 5.7881 1.8849
2.9490 6.5163 2.0373
2.4172 6.7350 2.0373
1.8695 6.9105 2.0373
1.3092 7.0418 2.0373
0.7399 7.1279 2.0373
0.1653 7.1682 2.0373
-0.4110 7.1625 2.0373
-0.9853 7.1106 2.0373
-1.5539 7.0129 2.0373
-2.1132 6.8698 2.0373
-2.6595 6.6822 2.0373
-3.1894 6.4513 2.0373
-3.6992 6.1784 2.0373
-4.1859 5.8653 2.0373
-4.6460 5.5139 2.0373
-5.0767 5.1264 2.0373
-5.4750 4.7052 2.0373
-5.8383 4.2532 2.0373
-6.1641 3.7730 2.0373
-6.4504 3.2680 2.0373
-6.6952 2.7412 2.0373
-6.8967 2.1962 2.0373
-7.0537 1.6365 2.0373
-7.1650 1.0657 2.0373
-7.2299 0.4876 2.0373
-7.2479 -0.0940 2.0373
-7.2188 -0.6754 2.0373
-7.1429 -1.2526 2.0373
-7.0204 -1.8218 2.0373
-6.8524 -2.3794 2.0373
-6.6398 -2.9216 2.0373
-6.3840 -3.4449 2.0373
-6.0868 -3.9457 2.0373
-5.7501 -4.4208 2.0373
-5.3761 -4.8671 2.0373
-4.9673 -5.2817 2.0373
-4.5264 -5.6617 2.0373
-4.0564 -6.0049 2.0373
-3.5603 -6.3088 2.0373
-3.0416 -6.5716 2.0373
-2.5034 -6.7916 2.0373
-1.9495 -6.9673 2.0373
-1.3835 -7.0978 2.0373
-0.8091 -7.1821 2.0373
-0.1957 -6.1425 1.7333
0.2830 -5.8336 1.6482
0.7486 -5.7790 1.6454
1.2151 -5.7243 1.6534
1.6886 -5.6688 1.6722
2.6032 -6.7146 2.0373
3.1318 -6.4799 2.0373
3.6395 -6.2036 2.0373
4.1231 -5.8877 2.0373
4.5796 -5.5342 2.0373
4.9380 -5.0756 2.0096
4.9958 -4.3708 1.8849
5.3276 -3.9533 1.8849
5.6247 -3.5108 1.8849
5.8853 -3.0463 1.8849
6.1079 -2.5626 1.8849
6.2910 -2.0629 1.8849
6.4336 -1.5504 1.8849
6.5380 -1.0288 1.8858
6.6056 -0.5009 1.8882
6.6284 0.0312 1.8899
6.6063 0.5636 1.8909
6.5395 1.0923 1.8912
6.4283 1.6134 1.8908
6.2737 2.1231 1.8898
6.0769 2.6175 1.8880
5.8394 3.0931 1.8856
5.5704 3.5510 1.8849
5.2677 3.9873 1.8849
4.9312 4.3981 1.8849
4.5629 4.7809 1.8849
4.1652 5.1331 1.8849
3.7406 5.4526 1.8849
3.2917 5.7373 1.8849
3.0329 6.4342 2.0262
2.5212 6.6961 2.0373
1.9762 6.8800 2.0373
1.4181 7.0199 2.0373
0.8503 7.1148 2.0373
0.2764 7.1640 2.0373
-0.2998 7.1672 2.0373
-0.8748 7.1242 2.0373
0.7318 -5.7813 1.8240
1.1982 -5.7266 1.8323
1.7109 -5.8053 1.8965
2.3311 -6.0651 2.0373
2.8088 -5.8550 2.0373
3.2678 -5.6073 2.0373
3.7052 -5.3238 2.0373
4.1183 -5.0063 2.0373
4.5043 -4.6569 2.0373
4.7966 -4.2212 2.0103
4.7981 -3.5821 1.8849
5.0676 -3.1836 1.8849
5.3043 -2.7651 1.8849
5.5067 -2.3292 1.8849
5.6736 -1.8786 1.8849
5.8038 -1.4164 1.8849
5.8967 -0.9454 1.8849
5.9517 -0.4686 1.8849
5.9685 0.0110 1.8849
5.9469 0.4902 1.8849
5.8872 0.9660 1.8849
5.7897 1.4356 1.8849
5.6551 1.8958 1.8849
5.4843 2.3438 1.8849
5.2783 2.7767 1.8849
5.0384 3.1918 1.8849
4.7662 3.5864 1.8849
4.4633 3.9582 1.8849
4.1317 4.3046 1.8849
3.7734 4.6236 1.8849
3.3908 4.9130 1.8849
3.1869 5.5187 2.0116
2.7693 5.8323 2.0373
2.2928 6.0382 2.0373
1.8013 6.2054 2.0373
1.2977 6.3328 2.0373
0.7854 6.4196 2.0373
0.2675 6.4652 2.0373
-0.2526 6.4692 2.0373
-0.7716 6.4315 2.0373
-1.2861 6.3523 2.0373
-1.7930 6.2321 2.0373
-2.2888 6.0716 2.0373
-2.7704 5.8717 2.0373
-3.2347 5.6337 2.0373
-3.6786 5.3590 2.0373
-4.0992 5.0494 2.0373
-4.4937 4.7068 2.0373
-4.8597 4.3334 2.0373
-5.1945 3.9316 2.0373
-5.4961 3.5039 2.0373
-5.7623 3.0531 2.0373
-5.9915 2.5821 2.0373
-6.1820 2.0939 2.0373
-6.3326 1.5918 2.0373
-6.4422 1.0791 2.0373
-6.5101 0.5589 2.0373
-6.5358 0.0349 2.0373
-6.5192 -0.4897 2.0373
-6.4602 -1.0112 2.0373
-6.3592 -1.5264 2.0373
-6.2169 -2.0319 2.0373
-6.0343 -2.5242 2.0373
-5.8124 -3.0001 2.0373
-5.5528 -3.4566 2.0373
-5.2572 -3.8905 2.0373
-4.9276 -4.2992 2.0373
-4.5660 -4.6798 2.0373
-4.1750 -5.0299 2.0373
-3.7570 -5.3472 2.0373
-3.3149 -5.6297 2.0373
-2.8516 -5.8755 2.0373
-2.3702 -6.0830 2.0373
-1.8737 -6.2509 2.0373
-1.3655 -6.3783 2.0373
-0.8489 -6.4642 2.0373
-0.3273 -6.5082 2.0373
0.1759 -5.8465 1.8296
0.6421 -5.7918 1.8238
1.1079 -5.7372 1.8298
1.5792 -5.6820 1.8478
2.2371 -6.1012 2.0373
2.7180 -5.8985 2.0373
3.1808 -5.6579 2.0373
3.6226 -5.3812 2.0373
4.0406 -5.0701 2.0373
4.4321 -4.7267 2.0373
4.7946 -4.3532 2.0373
4.7424 -3.6564 1.8849
5.0181 -3.2621 1.8849
5.2613 -2.8473 1.8849
5.4704 -2.4145 1.8849
5.6442 -1.9665 1.8849
5.7816 -1.5063 1.8849
5.8818 -1.0368 1.8849
5.9441 -0.5609 1.8849
5.9682 -0.0816 1.8849
5.9541 0.3979 1.8849
5.9017 0.8747 1.8849
5.8114 1.3456 1.8849
5.6840 1.8079 1.8849
5.5200 2.2584 1.8849
5.3207 2.6944 1.8849
5.0873 3.1132 1.8849
4.8211 3.5120 1.8849
4.5240 3.8884 1.8849
4.1978 4.2399 1.8849
3.8445 4.5643 1.8849
3.4664 4.8596 1.8849
3.2168 5.3762 1.9777
2.8592 5.7883 2.0373
2.3860 6.0014 2.0373
1.8971 6.1762 2.0373
1.3956 6.3113 2.0373
0.8848 6.4060 2.0373
0.3677 6.4596 2.0373
-0.1522 6.4716 2.0373
-0.6717 6.4420 2.0373
-1.1874 6.3708 2.0373
-1.6960 6.2585 2.0373
-2.1942 6.1057 2.0373
-2.6788 5.9133 2.0373
-3.1466 5.6825 2.0373
-3.5947 5.4148 2.0373
-4.0200 5.1118 2.0373
-4.4198 4.7754 2.0373
-4.7914 4.4077 2.0373
-5.1324 4.0112 2.0373
-5.4406 3.5883 2.0373
-5.7138 3.1417 2.0373
-5.9502 2.6744 2.0373
-6.1483 2.1893 2.0373
-6.3067 1.6896 2.0373
-6.4243 1.1787 2.0373
-6.5003 0.6597 2.0373
-6.5342 0.1361 2.0373
-6.5257 -0.3886 2.0373
-6.4748 -0.9110 2.0373
-6.3819 -1.4277 2.0373
-6.2475 -1.9353 2.0373
-6.0726 -2.4304 2.0373
-5.8582 -2.9097 2.0373
-5.6058 -3.3702 2.0373
-5.3170 -3.8087 2.0373
-4.9937 -4.2225 2.0373
-4.6381 -4.6087 2.0373
-4.2526 -4.9648 2.0373
-3.8396 -5.2887 2.0373
-3.4020 -5.5780 2.0373
-2.9425 -5.8310 2.0373
-2.4643 -6.0460 2.0373
-1.9705 -6.2217 2.0373
-1.4643 -6.3569 2.0373
-0.9491 -6.4509 2.0373
-0.4282 -6.5030 2.0373
0.0854 -5.8572 1.8321
0.5524 -5.8024 1.8240
1.0178 -5.7478 1.8277
1.4876 -5.6927 1.8434
2.1425 -6.1358 2.0373
2.6265 -5.9405 2.0373
3.0931 -5.7072 2.0373
3.5392 -5.4373 2.0373
3.9619 -5.1327 2.0373
4.3587 -4.7953 2.0373
4.7270 -4.4275 2.0373
4.7422 -3.7749 1.9076
4.9674 -3.3399 1.8849
5.2170 -2.9288 1.8849
5.4328 -2.4992 1.8849
5.6135 -2.0540 1.8849
5.7580 -1.5959 1.8849
5.8654 -1.1279 1.8849
5.9350 -0.6530 1.8849
5.9666 -0.1742 1.8849
5.9598 0.3055 1.8849
5.9147 0.7830 1.8849
5.8318 1.2554 1.8849
5.7114 1.7195 1.8849
5.5545 2.1725 1.8849
5.3619 2.6116 1.8849
5.1349 3.0339 1.8849
4.8749 3.4368 1.8849
4.5837 3.8176 1.8849
4.2629 4.1741 1.8849
3.9147 4.5039 1.8849
3.5412 4.8050 1.8849
3.2457 5.2383 1.9454
2.9484 5.7428 2.0373
2.4786 5.9633 2.0373
1.9925 6.1455 2.0373
1.4932 6.2884 2.0373
0.9839 6.3910 2.0373
0.4678 6.4525 2.0373
-0.0519 6.4725 2.0373
-0.5717 6.4510 2.0373
-1.0883 6.3878 2.0373
-1.5986 6.2833 2.0373
-2.0990 6.1383 2.0373
-2.5865 5.9534 2.0373
-3.0578 5.7300 2.0373
-3.5099 5.4692 2.0373
-3.9398 5.1729 2.0373
-4.3448 4.8428 2.0373
-4.7220 4.4810 2.0373
-5.0691 4.0898 2.0373
-5.3838 3.6718 2.0373
-5.6639 3.2295 2.0373
-5.9075 2.7660 2.0373
-6.1131 2.2841 2.0373
-6.2793 1.7870 2.0373
-6.4048 1.2780 2.0373
-6.4889 0.7603 2.0373
-6.5309 0.2373 2.0373
-6.5306 -0.2874 2.0373
-6.4879 -0.8106 2.0373
-6.4031 -1.3286 2.0373
-6.2766 -1.8382 2.0373
-6.1094 -2.3360 2.0373
-5.9026 -2.8186 2.0373
-5.6573 -3.2830 2.0373
-5.3754 -3.7259 2.0373
-5.0587 -4.1447 2.0373
-4.7091 -4.5364 2.0373
-4.3292 -4.8986 2.0373
-3.9213 -5.2288 2.0373
-3.4882 -5.5249 2.0373
-3.0327 -5.7851 2.0373
-2.5579 -6.0075 2.0373
-2.0668 -6.1909 2.0373
-1.5628 -6.3340 2.0373
-1.0490 -6.4360 2.0373
-0.5289 -6.4962 2.0373
-0.0054 -5.8678 1.8351
0.4626 -5.8129 1.8246
0.9278 -5.7583 1.8261
1.3963 -5.7034 1.8394
1.9540 -5.8875 1.9444
2.5344 -5.9812 2.0373
3.0046 -5.7551 2.0373
3.4548 -5.4922 2.0373
3.8823 -5.1941 2.0373
4.2843 -4.8629 2.0373
4.6583 -4.5007 2.0373
4.7588 -3.9101 1.9383
4.9155 -3.4168 1.8849
5.1714 -3.0096 1.8849
5.3939 -2.5834 1.8849
5.5814 -2.1410 1.8849
5.7330 -1.6852 1.8849
5.8476 -1.2189 1.8849
5.9245 -0.7450 1.8849
5.9635 -0.2667 1.8849
5.9641 0.2130 1.8849
5.9264 0.6912 1.8849
5.8507 1.1648 1.8849
5.7375 1.6307 1.8849
5.5875 2.0861 1.8849
5.4017 2.5281 1.8849
5.1813 2.9538 1.8849
4.9276 3.3607 1.8849
4.6422 3.7460 1.8849
4.3270 4.1074 1.8849
3.9839 4.4425 1.8849
3.6151 4.7492 1.8849
3.2736 5.1047 1.9145
3.0369 5.6960 2.0373
2.5706 5.9237 2.0373
2.0874 6.1134 2.0373
1.5904 6.2639 2.0373
1.0828 6.3743 2.0373
0.5677 6.4438 2.0373
0.0485 6.4719 2.0373
-0.4715 6.4584 2.0373
-0.9891 6.4032 2.0373
-1.5008 6.3067 2.0373
-2.0034 6.1694 2.0373
-2.4936 5.9921 2.0373
-2.9683 5.7760 2.0373
-3.4243 5.5224 2.0373
-3.8587 5.2328 2.0373
-4.2687 4.9090 2.0373
-4.6515 4.5531 2.0373
-5.0046 4.1674 2.0373
-5.3257 3.7544 2.0373
-5.6126 3.3166 2.0373
-5.8635 2.8569 2.0373
-6.0765 2.3784 2.0373
-6.2504 1.8839 2.0373
-6.3838 1.3769 2.0373
-6.4759 0.8607 2.0373
-6.5261 0.3385 2.0373
-6.5340 -0.1862 2.0373
-6.4994 -0.7099 2.0373
-6.4227 -1.2292 2.0373
-6.3042 -1.7407 2.0373
-6.1448 -2.2410 2.0373
-5.9455 -2.7268 2.0373
-5.7076 -3.1949 2.0373
-5.4326 -3.6423 2.0373
-5.1224 -4.0659 2.0373
-4.7790 -4.4631 2.0373
-4.4047 -4.8311 2.0373
-4.0020 -5.1677 2.0373
-3.5736 -5.4706 2.0373
-3.1222 -5.7378 2.0373
-2.6509 -5.9676 2.0373
-2.1627 -6.1586 2.0373
-1.6609 -6.3096 2.0373
-1.1487 -6.4196 2.0373
-0.6296 -6.4879 2.0373
-0.0965 -5.8785 1.8385
0.3728 -5.8234 1.8257
0.8380 -5.7689 1.8249
1.3054 -5.7141 1.8359
1.8268 -5.8039 1.9069
2.4417 -6.0205 2.0373
2.9153 -5.8017 2.0373
3.3697 -5.5457 2.0373
3.8018 -5.2542 2.0373
4.2089 -4.9292 2.0373
4.5885 -4.5729 2.0373
4.7758 -4.0498 1.9703
4.8659 -3.4955 1.8862
5.1246 -3.0897 1.8849
5.3536 -2.6670 1.8849
5.5480 -2.2275 1.8849
5.7066 -1.7740 1.8849
5.8284 -1.3095 1.8849
5.9126 -0.8369 1.8849
5.9589 -0.3592 1.8849
5.9669 0.1205 1.8849
5.9366 0.5992 1.8849
5.8682 1.0739 1.8849
5.7622 1.5416 1.8849
5.6193 1.9992 1.8849
5.4403 2.4440 1.8849
5.2264 2.8731 1.8849
4.9790 3.2838 1.8849
4.6996 3.6734 1.8849
4.3900 4.0396 1.8849
4.0522 4.3800 1.8849
3.6881 4.6924 1.8849
3.3074 4.9848 1.8889
3.1247 5.6479 2.0373
2.6620 5.8826 2.0373
2.1818 6.0798 2.0373
1.6872 6.2380 2.0373
1.1814 6.3562 2.0373
0.6675 6.4336 2.0373
0.1488 6.4698 2.0373
-0.3713 6.4642 2.0373
-0.8896 6.4171 2.0373
-1.4027 6.3285 2.0373
-1.9073 6.1990 2.0373
-2.4001 6.0294 2.0373
-2.8781 5.8207 2.0373
-3.3379 5.5742 2.0373
-3.7768 5.2913 2.0373
-4.1917 4.9740 2.0373
-4.5799 4.6242 2.0373
-4.9389 4.2441 2.0373
-5.2664 3.8361 2.0373
-5.5600 3.4029 2.0373
-5.8180 2.9472 2.0373
-6.0384 2.4720 2.0373
-6.2199 1.9804 2.0373
-6.3613 1.4756 2.0373
-6.4614 0.9608 2.0373
-6.5197 0.4395 2.0373
-6.5358 -0.0850 2.0373
-6.5094 -0.6091 2.0373
-6.4408 -1.1296 2.0373
-6.3303 -1.6428 2.0373
-6.1787 -2.1455 2.0373
-5.9870 -2.6344 2.0373
-5.7564 -3.1062 2.0373
-5.4884 -3.5578 2.0373
-5.1849 -3.9862 2.0373
-4.8477 -4.3886 2.0373
-4.4792 -4.7625 2.0373
-4.0818 -5.1053 2.0373
-3.6581 -5.4149 2.0373
-3.2109 -5.6891 2.0373
-2.7432 -5.9263 2.0373
-2.2580 -6.1249 2.0373
-1.7586 -6.2836 2.0373
-1.2482 -6.4016 2.0373
-0.7301 -6.4780 2.0373
-0.2079 -6.5124 2.0373
0.2827 -5.8340 1.8273
0.7483 -5.7794 1.8241
1.2148 -5.7247 1.8328
1.7277 -5.8015 1.8969
2.3483 -6.0583 2.0373
2.8254 -5.8468 2.0373
3.2837 -5.5979 2.0373
3.7203 -5.3131 2.0373
4.1324 -4.9944 2.0373
4.5175 -4.6439 2.0373
4.7934 -4.1942 2.0040
4.8082 -3.5683 1.8849
5.0766 -3.1691 1.8849
5.3121 -2.7499 1.8849
5.5133 -2.3134 1.8849
5.6788 -1.8624 1.8849
5.8078 -1.3998 1.8849
5.8993 -0.9285 1.8849
5.9530 -0.4516 1.8849
5.9684 0.0280 1.8849
5.9454 0.5071 1.8849
5.8844 0.9828 1.8849
5.7856 1.4520 1.8849
5.6497 1.9119 1.8849
5.4776 2.3594 1.8849
5.2704 2.7917 1.8849
5.0293 3.2061 1.8849
4.7560 3.6000 1.8849
4.4520 3.9709 1.8849
4.1194 4.3164 1.8849
3.7603 4.6344 1.8849
3.3768 4.9227 1.8849
3.1813 5.5454 2.0180
2.7527 5.8402 2.0373
2.2756 6.0447 2.0373
1.7836 6.2106 2.0373
1.2797 6.3366 2.0373
0.7671 6.4219 2.0373
0.2491 6.4660 2.0373
-0.2710 6.4685 2.0373
-0.7899 6.4294 2.0373
0.7430 -5.8721 2.0373
1.2112 -5.7906 2.0373
1.6711 -5.6717 2.0373
0.7693 -2.0020 0.7394
2.5543 -5.3254 2.0373
2.9719 -5.1005 2.0373
3.3700 -4.8428 2.0373
3.7459 -4.5542 2.0373
4.0973 -4.2366 2.0373
4.4219 -3.8919 2.0373
4.6743 -3.4901 2.0185
4.6131 -2.8984 1.8860
4.8259 -2.5160 1.8849
5.0102 -2.1194 1.8849
5.1622 -1.7096 1.8849
5.2809 -1.2890 1.8849
5.3656 -0.8604 1.8849
5.4158 -0.4266 1.8849
5.4312 0.0098 1.8849
5.4116 0.4459 1.8849
5.3574 0.8790 1.8849
5.2687 1.3063 1.8849
5.1463 1.7251 1.8849
4.9908 2.1328 1.8849
4.8034 2.5268 1.8849
4.5850 2.9046 1.8849
4.3372 3.2638 1.8849
4.0616 3.6020 1.8849
3.7597 3.9173 1.8849
3.4372 4.2119 1.8869
3.3058 4.7902 2.0196
2.9368 5.0859 2.0373
2.5196 5.3070 2.0373
2.0860 5.4942 2.0373
1.6386 5.6461 2.0373
1.1804 5.7619 2.0373
0.7142 5.8406 2.0373
0.2430 5.8818 2.0373
-0.2301 5.8852 2.0373
-0.7023 5.8507 2.0373
-1.1703 5.7784 2.0373
-1.6313 5.6688 2.0373
-2.0822 5.5225 2.0373
-2.5202 5.3405 2.0373
-2.9423 5.1237 2.0373
-3.3459 4.8737 2.0373
-3.7282 4.5919 2.0373
-4.0868 4.2801 2.0373
-4.4194 3.9403 2.0373
-4.7237 3.5748 2.0373
-4.9977 3.1857 2.0373
-5.2395 2.7757 2.0373
-5.4477 2.3474 2.0373
-5.6207 1.9035 2.0373
-5.7574 1.4470 2.0373
-5.8569 0.9808 2.0373
-5.9185 0.5079 2.0373
-5.9417 0.0315 2.0373
-5.9264 -0.4453 2.0373
-5.8727 -0.9194 2.0373
-5.7809 -1.3877 2.0373
-5.6515 -1.8471 2.0373
-5.4854 -2.2946 2.0373
-5.2838 -2.7272 2.0373
-5.0478 -3.1422 2.0373
-4.7791 -3.5367 2.0373
-4.4795 -3.9082 2.0373
-4.1509 -4.2542 2.0373
-3.7955 -4.5725 2.0373
-3.4157 -4.8611 2.0373
-3.0139 -5.1180 2.0373
-2.5928 -5.3416 2.0373
-0.7791 -1.9993 0.7365
-1.7038 -5.6833 2.0373
-1.2419 -5.7993 2.0373
-0.7722 -5.8776 2.0373
-0.2980 -5.9179 2.0373
0.1778 -5.9199 2.0373
0.6519 -5.8835 2.0373
1.1214 -5.8092 2.0373
1.5832 -5.6975 2.0373
0.7382 -2.0137 0.7393
2.4717 -5.3650 2.0373
2.8928 -5.1465 2.0373
3.2948 -4.8950 2.0373
3.6752 -4.6122 2.0373
4.0315 -4.3000 2.0373
4.3615 -3.9604 2.0373
4.6631 -3.5957 2.0373
4.6146 -3.0002 1.9053
4.7867 -2.5908 1.8849
4.9772 -2.1971 1.8849
5.1355 -1.7895 1.8849
5.2606 -1.3708 1.8849
5.3519 -0.9436 1.8849
5.4088 -0.5105 1.8849
5.4309 -0.0744 1.8849
5.4181 0.3619 1.8849
5.3705 0.7958 1.8849
5.2885 1.2245 1.8849
5.1725 1.6451 1.8849
5.0234 2.0552 1.8849
4.8420 2.4520 1.8849
4.6295 2.8331 1.8849
4.3873 3.1960 1.8849
4.1168 3.5385 1.8849
3.8199 3.8584 1.8849
3.4983 4.1535 1.8849
3.3311 4.6702 1.9906
3.0151 5.0395 2.0373
2.6014 5.2670 2.0373
2.1708 5.4608 2.0373
1.7259 5.6196 2.0373
1.2695 5.7424 2.0373
0.8046 5.8283 2.0373
0.3342 5.8768 2.0373
-0.1388 5.8875 2.0373
-0.6114 5.8603 2.0373
-1.0805 5.7953 2.0373
-1.5431 5.6928 2.0373
-1.9962 5.5536 2.0373
-2.4368 5.3783 2.0373
-2.8622 5.1682 2.0373
-3.2696 4.9244 2.0373
-3.6562 4.6486 2.0373
-4.0196 4.3425 2.0373
-4.3574 4.0080 2.0373
-4.6673 3.6472 2.0373
-4.9472 3.2625 2.0373
-5.1955 2.8563 2.0373
-5.4102 2.4313 2.0373
-5.5901 1.9902 2.0373
-5.7339 1.5359 2.0373
-5.8407 1.0714 2.0373
-5.9096 0.5995 2.0373
-5.9403 0.1236 2.0373
-5.9324 -0.3534 2.0373
-5.8861 -0.8283 2.0373
-5.8015 -1.2980 2.0373
-5.6793 -1.7593 2.0373
-5.5203 -2.2094 2.0373
-5.3254 -2.6451 2.0373
-5.0959 -3.0636 2.0373
-4.8334 -3.4623 2.0373
-4.5397 -3.8384 2.0373
-4.2165 -4.1895 2.0373
-3.8661 -4.5134 2.0373
-3.4908 -4.8078 2.0373
-3.0930 -5.0710 2.0373
-2.6754 -5.3011 2.0373
-2.2407 -5.4968 2.0373
-1.7918 -5.6567 2.0373
-1.3317 -5.7798 2.0373
-0.8633 -5.8655 2.0373
-0.3897 -5.9131 2.0373
0.0860 -5.9225 2.0373
0.5607 -5.8935 2.0373
1.0313 -5.8265 2.0373
1.4948 -5.7219 2.0373
0.7069 -2.0248 0.7392
2.3885 -5.4032 2.0373
2.8130 -5.1912 2.0373
3.2189 -4.9460 2.0373
3.6036 -4.6691 2.0373
3.9647 -4.3624 2.0373
4.3000 -4.0280 2.0373
4.6072 -3.6679 2.0373
4.6284 -3.1123 1.9305
4.7464 -2.6649 1.8849
4.9429 -2.2742 1.8849
5.1075 -1.8691 1.8849
5.2391 -1.4524 1.8849
5.3370 -1.0265 1.8849
5.4005 -0.5944 1.8849
5.4294 -0.1587 1.8849
5.4233 0.2779 1.8849
5.3824 0.7124 1.8849
5.3070 1.1423 1.8849
5.1975 1.5647 1.8849
5.0547 1.9770 1.8849
4.8794 2.3766 1.8849
4.6728 2.7609 1.8849
4.4362 3.1276 1.8849
4.1711 3.4741 1.8849
3.8792 3.7985 1.8849
3.5622 4.0987 1.8849
3.3556 4.5534 1.9629
3.0927 4.9918 2.0373
2.6826 5.2257 2.0373
2.2550 5.4261 2.0373
1.8127 5.5917 2.0373
1.3583 5.7215 2.0373
0.8949 5.8147 2.0373
0.4252 5.8704 2.0373
