ply
format ascii 1.0
element vertex 2181
property float32 x
property float32 y
property float32 z
end_header
0.0281 -1.4476 0.7408
0.1441 -1.4407 0.7408
0.2593 -1.4246 0.7409
0.3728 -1.3993 0.7409
0.4839 -1.3650 0.7410
0.5919 -1.3219 0.7410
0.6961 -1.2703 0.7411
2.3830 -3.6244 2.2194
2.6661 -3.4215 2.2194
2.9320 -3.1965 2.2194
3.1791 -2.9510 2.2194
3.4056 -2.6864 2.2194
3.6101 -2.4045 2.2194
3.7914 -2.1071 2.2194
3.8708 -1.7609 2.1758
3.8859 -1.4036 2.1140
3.9060 -1.0655 2.0715
3.9701 -0.7471 2.0670
4.0172 -0.4261 2.0670
4.0385 -0.1024 2.0670
4.0337 0.2220 2.0670
4.0028 0.5449 2.0670
3.9462 0.8643 2.0670
3.9163 1.1940 2.0948
3.9095 1.5445 2.1508
3.8933 1.9123 2.2194
3.7273 2.2185 2.2194
3.5373 2.5105 2.2194
3.3245 2.7862 2.2194
3.0902 3.0439 2.2194
2.8361 3.2820 2.2194
2.5636 3.4990 2.2194
0.7643 1.2411 0.7458
0.6624 1.2986 0.7459
0.5561 1.3477 0.7460
0.4463 1.3881 0.7460
0.3335 1.4196 0.7461
0.2185 1.4418 0.7461
0.1021 1.4547 0.7462
-0.0149 1.4583 0.7462
-0.1319 1.4523 0.7462
-0.2480 1.4370 0.7461
-0.3624 1.4124 0.7461
-0.4745 1.3787 0.7460
-0.5836 1.3360 0.7459
-0.6888 1.2847 0.7458
-2.3497 3.6461 2.2194
-2.6347 3.4458 2.2194
-2.9026 3.2233 2.2194
-3.1519 2.9800 2.2194
-3.3808 2.7175 2.2194
-3.5879 2.4375 2.2194
-3.7719 2.1418 2.2194
-3.9316 1.8323 2.2194
-4.0660 1.5109 2.2194
-4.1741 1.1798 2.2194
-4.2553 0.8411 2.2194
-4.3090 0.4970 2.2194
-4.3350 0.1497 2.2194
-4.3331 -0.1986 2.2194
-4.3032 -0.5456 2.2194
-4.2455 -0.8891 2.2194
-4.1605 -1.2269 2.2194
-4.0486 -1.5567 2.2194
-3.9107 -1.8765 2.2194
-3.7475 -2.1843 2.2194
-3.5602 -2.4779 2.2194
-3.3499 -2.7555 2.2194
-3.1180 -3.0154 2.2194
-2.8660 -3.2559 2.2194
-2.5956 -3.4753 2.2194
-0.7709 -1.2265 0.7412
-0.6700 -1.2842 0.7411
-0.5647 -1.3337 0.7410
-0.4558 -1.3745 0.7409
-0.3440 -1.4066 0.7409
-0.2301 -1.4295 0.7408
-0.1146 -1.4433 0.7408
0.0015 -1.4479 0.7408
0.1177 -1.4431 0.7408
0.2331 -1.4291 0.7408
0.3470 -1.4058 0.7409
0.4588 -1.3736 0.7410
0.5675 -1.3325 0.7410
0.6727 -1.2828 0.7411
0.7736 -1.2249 0.7412
2.6030 -3.4698 2.2194
2.8730 -3.2498 2.2194
3.1244 -3.0088 2.2194
3.3558 -2.7484 2.2194
3.5655 -2.4703 2.2194
3.7522 -2.1763 2.2194
3.8669 -1.8454 2.1923
3.8828 -1.4835 2.1267
3.8985 -1.1407 2.0783
3.9557 -0.8196 2.0670
4.0087 -0.4996 2.0670
4.0359 -0.1764 2.0670
4.0370 0.1480 2.0670
4.0122 0.4714 2.0670
3.9614 0.7918 2.0670
3.9174 1.1163 2.0842
3.9113 1.4629 2.1366
3.9024 1.8288 2.2050
3.7674 2.1498 2.2194
3.5827 2.4452 2.2194
3.3750 2.7247 2.2194
3.1455 2.9868 2.2194
2.8957 3.2295 2.2194
2.6273 3.4514 2.2194
0.7869 1.2268 0.7457
0.6861 1.2862 0.7459
0.5807 1.3373 0.7459
0.4716 1.3797 0.7460
0.3594 1.4132 0.7461
0.2449 1.4375 0.7461
0.1288 1.4526 0.7462
0.0118 1.4583 0.7462
-0.1052 1.4545 0.7462
-0.2216 1.4413 0.7461
-0.3365 1.4188 0.7461
-0.4492 1.3872 0.7460
-0.5590 1.3465 0.7460
-0.6651 1.2972 0.7459
-0.7670 1.2394 0.7458
-2.5710 3.4935 2.2194
-2.8431 3.2760 2.2194
-3.0967 3.0373 2.2194
-3.3304 2.7790 2.2194
-3.5427 2.5029 2.2194
-3.7321 2.2106 2.2194
-3.8974 1.9040 2.2194
-4.0376 1.5852 2.2194
-4.1517 1.2561 2.2194
-4.2391 0.9190 2.2194
-4.2992 0.5759 2.2194
-4.3316 0.2291 2.2194
-4.3360 -0.1192 2.2194
-4.3124 -0.4667 2.2194
-4.2611 -0.8112 2.2194
-4.1823 -1.1504 2.2194
-4.0765 -1.4822 2.2194
-3.9444 -1.8045 2.2194
-3.7869 -2.1152 2.2194
-3.6050 -2.4122 2.2194
-3.3998 -2.6937 2.2194
-3.1728 -2.9578 2.2194
-2.9252 -3.2028 2.2194
-2.6588 -3.4272 2.2194
-2.3753 -3.6294 2.2194
-0.6934 -1.2718 0.7411
-0.5891 -1.3231 0.7410
-0.4810 -1.3660 0.7410
-0.3698 -1.4000 0.7409
-0.2562 -1.4251 0.7409
-0.1411 -1.4410 0.7408
-0.0250 -1.4477 0.7408
0.0912 -1.4450 0.7408
0.2069 -1.4331 0.7408
0.3212 -1.4119 0.7409
0.4335 -1.3817 0.7409
0.5430 -1.3426 0.7410
0.6491 -1.2949 0.7411
0.7510 -1.2388 0.7412
2.5389 -3.5169 2.2194
2.8129 -3.3019 2.2194
3.0688 -3.0655 2.2194
3.3048 -2.8094 2.2194
3.5196 -2.5352 2.2194
3.7116 -2.2447 2.2194
3.8628 -1.9311 2.2096
3.8794 -1.5643 2.1402
3.8929 -1.2169 2.0869
3.9400 -0.8921 2.0670
3.9989 -0.5730 2.0670
4.0320 -0.2503 2.0670
4.0391 0.0740 2.0670
4.0201 0.3978 2.0670
3.9752 0.7191 2.0670
3.9227 1.0405 2.0765
3.9129 1.3823 2.1233
3.9047 1.7433 2.1879
3.8061 2.0804 2.2194
3.6270 2.3791 2.2194
3.4244 2.6624 2.2194
3.1997 2.9286 2.2194
2.9545 3.1759 2.2194
2.6901 3.4027 2.2194
2.4085 3.6075 2.2194
0.7095 1.2734 0.7458
0.6051 1.3263 0.7459
0.4968 1.3708 0.7460
0.3853 1.4063 0.7461
0.2712 1.4328 0.7461
0.1554 1.4500 0.7461
0.0385 1.4578 0.7462
-0.0785 1.4562 0.7462
-0.1951 1.4452 0.7461
-0.3104 1.4248 0.7461
-0.4237 1.3952 0.7460
-0.5342 1.3566 0.7460
3.0575 2.6593 2.2194
2.8342 2.8960 2.2194
2.5928 3.1141 2.2194
0.7842 1.1126 0.7455
0.6925 1.1721 0.7456
0.5963 1.2240 0.7457
0.4963 1.2681 0.7458
0.3930 1.3039 0.7459
0.2871 1.3313 0.7459
0.1794 1.3501 0.7460
0.0705 1.3602 0.7460
-0.0389 1.3615 0.7460
-0.1480 1.3539 0.7460
-0.2561 1.3376 0.7459
-0.3626 1.3127 0.7459
-0.4667 1.2793 0.7458
-0.5678 1.2376 0.7458
-0.6652 1.1879 0.7457
-0.7582 1.1305 0.7456
-2.5198 3.1733 2.2194
-2.7663 2.9609 2.2194
-2.9950 2.7294 2.2194
-3.2043 2.4804 2.2194
-3.3930 2.2153 2.2194
-3.5598 1.9359 2.2194
-3.7036 1.6440 2.2194
-3.8236 1.3416 2.2194
-3.9189 1.0305 2.2194
-3.9889 0.7128 2.2194
-4.0333 0.3904 2.2194
-4.0516 0.0656 2.2194
-4.0438 -0.2597 2.2194
-4.0099 -0.5833 2.2194
-3.9502 -0.9032 2.2194
-3.8650 -1.2172 2.2194
-3.7549 -1.5233 2.2194
-3.6205 -1.8197 2.2194
-3.4629 -2.1043 2.2194
-3.2829 -2.3754 2.2194
-3.0817 -2.6311 2.2194
-2.8607 -2.8699 2.2194
-2.6212 -3.0901 2.2194
-2.3648 -3.2905 2.2194
-0.6992 -1.1590 0.7413
-0.6039 -1.2112 0.7412
-0.5047 -1.2556 0.7412
-0.4023 -1.2919 0.7411
-0.2973 -1.3199 0.7410
-0.1905 -1.3395 0.7410
-0.0824 -1.3504 0.7410
0.0262 -1.3526 0.7410
0.1347 -1.3462 0.7410
0.2423 -1.3311 0.7410
0.3483 -1.3075 0.7411
0.4521 -1.2754 0.7411
0.5530 -1.2351 0.7412
0.6504 -1.1869 0.7413
0.7437 -1.1311 0.7414
2.4906 -3.1963 2.2194
2.7391 -2.9862 2.2194
2.9698 -2.7568 2.2194
3.1814 -2.5096 2.2194
3.3725 -2.2463 2.2194
3.5419 -1.9684 2.2194
3.6884 -1.6779 2.2194
3.8111 -1.3766 2.2194
3.8737 -1.0567 2.1992
3.8835 -0.7307 2.1644
3.8908 -0.4127 2.1429
3.8956 -0.0988 2.1343
3.8981 0.2145 2.1382
3.8983 0.5307 2.1548
3.8961 0.8533 2.1845
3.8760 1.1817 2.2194
3.7687 1.4889 2.2194
3.6371 1.7865 2.2194
3.4820 2.0725 2.2194
3.3045 2.3452 2.2194
3.1057 2.6028 2.2194
2.8869 2.8435 2.2194
2.6494 3.0660 2.2194
2.3949 3.2687 2.2194
0.7139 1.1592 0.7456
0.6187 1.2129 0.7457
0.5194 1.2587 0.7458
0.4168 1.2965 0.7459
0.3114 1.3258 0.7459
0.2041 1.3466 0.7460
0.0954 1.3587 0.7460
-0.0139 1.3620 0.7460
-0.1232 1.3564 0.7460
-0.2316 1.3421 0.7459
-0.3385 1.3191 0.7459
-0.4432 1.2876 0.7458
-0.5450 1.2478 0.7458
-0.6433 1.1999 0.7457
-0.7374 1.1443 0.7456
-2.4612 3.2190 2.2194
-2.7116 3.0112 2.2194
-2.9444 2.7839 2.2194
-3.1583 2.5387 2.2194
-3.3518 2.2771 2.2194
-3.5237 2.0008 2.2194
-3.6729 1.7117 2.2194
-3.7983 1.4115 2.2194
-3.8993 1.1022 2.2194
-3.9752 0.7858 2.2194
-4.0254 0.4643 2.2194
-4.0497 0.1398 2.2194
-4.0479 -0.1856 2.2194
-4.0199 -0.5097 2.2194
-3.9661 -0.8306 2.2194
-3.8866 -1.1461 2.2194
-3.7822 -1.4543 2.2194
-3.6533 -1.7530 2.2194
-3.5009 -2.0405 2.2194
-3.3259 -2.3148 2.2194
-3.1294 -2.5742 2.2194
-2.9128 -2.8170 2.2194
-2.6774 -3.0416 2.2194
-2.4247 -3.2466 2.2194
-0.7203 -1.1460 0.7414
-0.6260 -1.1999 0.7413
-0.5276 -1.2461 0.7412
-0.4259 -1.2843 0.7411
-0.3215 -1.3143 0.7411
-0.2150 -1.3358 0.7410
-0.1071 -1.3487 0.7410
0.0014 -1.3529 0.7410
0.1100 -1.3484 0.7410
0.2178 -1.3353 0.7410
0.3243 -1.3136 0.7411
0.4287 -1.2834 0.7411
0.5303 -1.2450 0.7412
0.6286 -1.1986 0.7413
0.7228 -1.1445 0.7414
2.4316 -3.2414 2.2194
2.6839 -3.0359 2.2194
2.9188 -2.8107 2.2194
3.1349 -2.5675 2.2194
3.3308 -2.3077 2.2194
3.5052 -2.0330 2.2194
3.6570 -1.7453 2.2194
3.7853 -1.4462 2.2194
3.8711 -1.1326 2.2091
3.8815 -0.8043 2.1711
3.8894 -0.4847 2.1467
3.8947 -0.1702 2.1352
3.8978 0.1429 2.1362
3.8985 0.4581 2.1499
3.8969 0.7789 2.1765
3.8928 1.1093 2.2170
3.7953 1.4196 2.2194
3.6692 1.7195 2.2194
3.5194 2.0084 2.2194
3.3469 2.2842 2.2194
3.1529 2.5454 2.2194
2.9385 2.7902 2.2194
2.7052 3.0169 2.2194
2.4544 3.2242 2.2194
0.7350 1.1458 0.7456
0.6408 1.2013 0.7457
0.5424 1.2490 0.7458
0.4405 1.2886 0.7459
0.3357 1.3199 0.7459
0.2287 1.3426 0.7460
0.1203 1.3567 0.7460
0.0110 1.3620 0.7460
-0.0983 1.3585 0.7460
-0.2069 1.3462 0.7460
-0.3143 1.3251 0.7459
-0.4195 1.2956 0.7459
-0.5221 1.2576 0.7458
-0.6212 1.2115 0.7457
-0.7163 1.1576 0.7456
-2.4018 3.2636 2.2194
-2.6559 3.0604 2.2194
-2.8929 2.8374 2.2194
-3.1112 2.5961 2.2194
-3.3095 2.3382 2.2194
-3.4864 2.0651 2.2194
-3.6409 1.7787 2.2194
-3.7718 1.4809 2.2194
-3.8785 1.1735 2.2194
-3.9601 0.8585 2.2194
-4.0162 0.5380 2.2194
-4.0465 0.2140 2.2194
-4.0506 -0.1113 2.2194
-4.0286 -0.4360 2.2194
-3.9806 -0.7578 2.2194
-3.9070 -1.0747 2.2194
-3.8082 -1.3847 2.2194
-3.6848 -1.6858 2.2194
-3.5377 -1.9760 2.2194
-3.3677 -2.2535 2.2194
-3.1761 -2.5164 2.2194
-2.9639 -2.7631 2.2194
-2.7327 -2.9920 2.2194
-2.4838 -3.2016 2.2194
-0.7413 -1.1326 0.7414
-0.6479 -1.1883 0.7413
-0.5504 -1.2363 0.7412
-0.4494 -1.2763 0.7411
-0.3455 -1.3082 0.7411
-0.2394 -1.3316 0.7410
-0.1318 -1.3465 0.7410
-0.0234 -1.3527 0.7410
0.0852 -1.3502 0.7410
0.1933 -1.3391 0.7410
0.3001 -1.3193 0.7411
0.4050 -1.2911 0.7411
0.5074 -1.2545 0.7412
0.6065 -1.2099 0.7413
0.7017 -1.1575 0.7414
2.3718 -3.2855 2.2194
2.6278 -3.0846 2.2194
2.8668 -2.8638 2.2194
3.0873 -2.6245 2.2194
3.2879 -2.3684 2.2194
3.4673 -2.0969 2.2194
3.6244 -1.8120 2.2194
3.7581 -1.5154 2.2194
3.8676 -1.2089 2.2194
3.8794 -0.8783 2.1785
3.8878 -0.5571 2.1511
3.8937 -0.2418 2.1367
3.8973 0.0714 2.1349
3.8985 0.3858 2.1457
3.8974 0.7050 2.1693
3.8939 1.0328 2.2065
3.8207 1.3498 2.2194
3.7001 1.6520 2.2194
3.5556 1.9435 2.2194
3.3882 2.2225 2.2194
3.1990 2.4872 2.2194
2.9891 2.7358 2.2194
2.7600 2.9668 2.2194
2.5131 3.1787 2.2194
0.7558 1.1321 0.7456
0.6627 1.1893 0.7457
0.5652 1.2388 0.7458
0.4640 1.2803 0.7458
0.3598 1.3135 0.7459
0.2533 1.3382 0.7459
0.1451 1.3542 0.7460
0.0360 1.3615 0.7460
-0.0734 1.3600 0.7460
-0.1822 1.3497 0.7460
-0.2899 1.3307 0.7459
-0.3957 1.3031 0.7459
-0.4990 1.2670 0.7458
2.8631 2.4902 2.2194
2.6541 2.7119 2.2194
2.4279 2.9161 2.2194
0.7342 1.0417 0.7454
0.6484 1.0974 0.7455
0.5583 1.1460 0.7456
0.4646 1.1872 0.7457
0.3679 1.2208 0.7457
0.2688 1.2464 0.7458
0.1679 1.2640 0.7458
0.0660 1.2735 0.7458
-0.0364 1.2747 0.7458
-0.1386 1.2676 0.7458
-0.2398 1.2523 0.7458
-0.3395 1.2290 0.7457
-0.4370 1.1977 0.7457
-0.5316 1.1587 0.7456
-0.6228 1.1121 0.7455
-0.7099 1.0585 0.7454
-2.3597 2.9716 2.2194
-2.5905 2.7727 2.2194
-2.8046 2.5559 2.2194
-3.0006 2.3227 2.2194
-3.1773 2.0745 2.2194
-3.3335 1.8129 2.2194
-3.4682 1.5395 2.2194
-3.5805 1.2563 2.2194
-3.6698 0.9650 2.2194
-3.7354 0.6675 2.2194
-3.7769 0.3656 2.2194
-3.7940 0.0614 2.2194
-3.7867 -0.2432 2.2194
-3.7550 -0.5462 2.2194
-3.6991 -0.8457 2.2194
-3.6193 -1.1398 2.2194
-3.5162 -1.4265 2.2194
-3.3904 -1.7040 2.2194
-3.2428 -1.9706 2.2194
-3.0742 -2.2244 2.2194
-2.8858 -2.4639 2.2194
-2.6788 -2.6875 2.2194
-2.4546 -2.8937 2.2194
-0.7400 -1.0296 0.7416
-0.6549 -1.0855 0.7415
-0.5656 -1.1344 0.7414
-0.4727 -1.1760 0.7413
-0.3768 -1.2100 0.7412
-0.2785 -1.2363 0.7412
-0.1784 -1.2546 0.7412
-0.0772 -1.2648 0.7411
0.0246 -1.2669 0.7411
0.1261 -1.2609 0.7412
0.2269 -1.2468 0.7412
0.3262 -1.2246 0.7412
0.4235 -1.1946 0.7413
0.5180 -1.1569 0.7414
0.6092 -1.1117 0.7414
0.6965 -1.0594 0.7415
0.7794 -1.0002 0.7416
2.5650 -2.7963 2.2194
2.7810 -2.5815 2.2194
2.9792 -2.3501 2.2194
3.1581 -2.1035 2.2194
3.3167 -1.8433 2.2194
3.4539 -1.5713 2.2194
3.5689 -1.2891 2.2194
3.6608 -0.9986 2.2194
3.7291 -0.7017 2.2194
3.7734 -0.4002 2.2194
3.7933 -0.0962 2.2194
3.7888 0.2085 2.2194
3.7599 0.5118 2.2194
3.7067 0.8118 2.2194
3.6296 1.1066 2.2194
3.5291 1.3942 2.2194
3.4059 1.6729 2.2194
3.2607 1.9408 2.2194
3.0945 2.1961 2.2194
2.9083 2.4373 2.2194
2.7034 2.6628 2.2194
2.4810 2.8711 2.2194
0.7532 1.0280 0.7454
0.6684 1.0853 0.7455
0.5792 1.1355 0.7456
0.4863 1.1785 0.7457
0.3902 1.2138 0.7457
0.2916 1.2413 0.7458
0.1911 1.2607 0.7458
0.0893 1.2720 0.7458
-0.0130 1.2751 0.7458
-0.1153 1.2699 0.7458
-0.2168 1.2565 0.7458
-0.3169 1.2350 0.7457
-0.4150 1.2055 0.7457
-0.5103 1.1682 0.7456
-0.6023 1.1234 0.7455
-0.6904 1.0713 0.7454
-0.7740 1.0123 0.7453
-2.5392 2.8197 2.2194
-2.7573 2.6069 2.2194
-2.9575 2.3773 2.2194
-3.1387 2.1323 2.2194
-3.2997 1.8736 2.2194
-3.4394 1.6029 2.2194
-3.5569 1.3218 2.2194
-3.6515 1.0321 2.2194
-3.7225 0.7358 2.2194
-3.7696 0.4348 2.2194
-3.7923 0.1309 2.2194
-3.7906 -0.1737 2.2194
-3.7644 -0.4773 2.2194
-3.7140 -0.7778 2.2194
-3.6396 -1.0733 2.2194
-3.5417 -1.3618 2.2194
-3.4211 -1.6416 2.2194
-3.2783 -1.9108 2.2194
-3.1145 -2.1677 2.2194
-2.9305 -2.4105 2.2194
-2.7276 -2.6379 2.2194
-2.5072 -2.8482 2.2194
-0.7587 -1.0159 0.7416
-0.6747 -1.0733 0.7415
-0.5863 -1.1239 0.7414
-0.4942 -1.1672 0.7413
-0.3989 -1.2029 0.7413
-0.3011 -1.2310 0.7412
-0.2014 -1.2511 0.7412
-0.1003 -1.2632 0.7412
0.0013 -1.2672 0.7411
0.1030 -1.2630 0.7412
0.2040 -1.2507 0.7412
0.3037 -1.2304 0.7412
0.4015 -1.2021 0.7413
0.4967 -1.1661 0.7413
0.5887 -1.1226 0.7414
0.6770 -1.0719 0.7415
0.7609 -1.0143 0.7416
2.5133 -2.8429 2.2194
2.7333 -2.6321 2.2194
2.9356 -2.4043 2.2194
3.1191 -2.1610 2.2194
3.2824 -1.9038 2.2194
3.4246 -1.6343 2.2194
3.5446 -1.3543 2.2194
3.6419 -1.0655 2.2194
3.7156 -0.7699 2.2194
3.7654 -0.4693 2.2194
3.7909 -0.1657 2.2194
3.7920 0.1390 2.2194
3.7686 0.4428 2.2194
3.7209 0.7437 2.2194
3.6493 1.0399 2.2194
3.5541 1.3293 2.2194
3.4360 1.6102 2.2194
3.2957 1.8807 2.2194
3.1342 2.1390 2.2194
2.9525 2.3836 2.2194
2.7517 2.6128 2.2194
2.5332 2.8251 2.2194
0.7719 1.0140 0.7454
0.6881 1.0728 0.7455
0.5999 1.1247 0.7456
0.5078 1.1693 0.7456
0.4124 1.2064 0.7457
0.3143 1.2357 0.7458
0.2141 1.2570 0.7458
0.1126 1.2702 0.7458
0.0103 1.2751 0.7458
-0.0920 1.2718 0.7458
-0.1938 1.2603 0.7458
-0.2942 1.2406 0.7458
-0.3928 1.2130 0.7457
-0.4888 1.1774 0.7456
-0.5816 1.1343 0.7456
-0.6707 1.0838 0.7455
-0.7554 1.0264 0.7454
-2.4871 2.8658 2.2194
-2.7090 2.6570 2.2194
-2.9135 2.4311 2.2194
-3.0991 2.1895 2.2194
-3.2648 1.9338 2.2194
-3.4094 1.6656 2.2194
-3.5321 1.3867 2.2194
-3.6320 1.0989 2.2194
-3.7084 0.8039 2.2194
-3.7610 0.5038 2.2194
-3.7892 0.2004 2.2194
-3.7931 -0.1042 2.2194
-3.7725 -0.4082 2.2194
-3.7276 -0.7096 2.2194
-3.6587 -1.0064 2.2194
-3.5661 -1.2967 2.2194
-3.4506 -1.5786 2.2194
-3.3128 -1.8504 2.2194
-3.1537 -2.1102 2.2194
-2.9742 -2.3564 2.2194
-2.7755 -2.5874 2.2194
-2.5590 -2.8018 2.2194
-0.7772 -1.0018 0.7416
-0.6943 -1.0608 0.7415
-0.6068 -1.1130 0.7414
-0.5155 -1.1579 0.7413
-0.4209 -1.1955 0.7413
-0.3236 -1.2253 0.7412
-0.2243 -1.2472 0.7412
-0.1235 -1.2612 0.7412
-0.0219 -1.2670 0.7411
0.0798 -1.2647 0.7412
0.1811 -1.2542 0.7412
0.2811 -1.2357 0.7412
0.3794 -1.2092 0.7413
0.4752 -1.1750 0.7413
0.5680 -1.1332 0.7414
0.6572 -1.0841 0.7415
0.7422 -1.0280 0.7416
2.4607 -2.8885 2.2194
2.6845 -2.6817 2.2194
2.8911 -2.4577 2.2194
3.0789 -2.2178 2.2194
3.2469 -1.9637 2.2194
3.3940 -1.6968 2.2194
3.5192 -1.4190 2.2194
3.6217 -1.1321 2.2194
3.7009 -0.8379 2.2194
3.7562 -0.5383 2.2194
3.7873 -0.2351 2.2194
3.7939 0.0695 2.2194
3.7761 0.3736 2.2194
3.7340 0.6754 2.2194
3.6677 0.9728 2.2194
3.5779 1.2639 2.2194
3.4649 1.5470 2.2194
3.3296 1.8200 2.2194
3.1729 2.0812 2.2194
2.9957 2.3291 2.2194
2.7991 2.5619 2.2194
2.5846 2.7782 2.2194
0.7903 0.9996 0.7453
0.7077 1.0600 0.7454
0.6204 1.1135 0.7455
0.5291 1.1598 0.7456
0.4344 1.1986 0.7457
0.3369 1.2297 0.7457
0.2371 1.2529 0.7458
0.1359 1.2679 0.7458
0.0337 1.2747 0.7458
-0.0687 1.2733 0.7458
-0.1706 1.2637 0.7458
-0.2714 1.2459 0.7458
-0.3705 1.2200 0.7457
-0.4671 1.1862 0.7457
2.6866 2.3367 2.2194
2.4905 2.5447 2.2194
0.7650 0.9188 0.7452
0.6889 0.9773 0.7453
0.6083 1.0296 0.7454
0.5238 1.0752 0.7455
0.4359 1.1138 0.7455
0.3452 1.1453 0.7456
0.2522 1.1694 0.7456
0.1575 1.1859 0.7457
0.0619 1.1947 0.7457
-0.0342 1.1958 0.7457
-0.1300 1.1892 0.7457
-0.2250 1.1749 0.7456
-0.3185 1.1530 0.7456
-0.4100 1.1237 0.7455
-0.4987 1.0871 0.7455
-0.5843 1.0434 0.7454
-0.6660 0.9931 0.7453
-0.7435 0.9363 0.7452
-2.4308 2.6018 2.2194
-2.6317 2.3984 2.2194
-2.8156 2.1795 2.2194
-2.9814 1.9466 2.2194
-3.1280 1.7011 2.2194
-3.2544 1.4446 2.2194
-3.3598 1.1789 2.2194
-3.4436 0.9055 2.2194
-3.5051 0.6263 2.2194
-3.5441 0.3431 2.2194
-3.5602 0.0576 2.2194
-3.5533 -0.2282 2.2194
-3.5235 -0.5126 2.2194
-3.4711 -0.7936 2.2194
-3.3962 -1.0695 2.2194
-3.2994 -1.3386 2.2194
-3.1814 -1.5990 2.2194
-3.0429 -1.8491 2.2194
-2.8847 -2.0873 2.2194
-2.7079 -2.3120 2.2194
-2.5137 -2.5218 2.2194
-0.7698 -0.9076 0.7418
-0.6944 -0.9663 0.7417
-0.6146 -1.0187 0.7416
-0.5308 -1.0647 0.7415
-0.4436 -1.1037 0.7414
-0.3536 -1.1357 0.7414
-0.2614 -1.1603 0.7413
-0.1674 -1.1775 0.7413
-0.0724 -1.1871 0.7413
0.0231 -1.1891 0.7413
0.1184 -1.1834 0.7413
0.2130 -1.1701 0.7413
0.3062 -1.1493 0.7414
0.3974 -1.1211 0.7414
0.4861 -1.0857 0.7415
0.5717 -1.0433 0.7416
0.6537 -0.9942 0.7417
0.7315 -0.9387 0.7418
2.4068 -2.6240 2.2194
2.6096 -2.4224 2.2194
2.7955 -2.2052 2.2194
2.9635 -1.9738 2.2194
3.1123 -1.7297 2.2194
3.2410 -1.4744 2.2194
3.3489 -1.2096 2.2194
3.4351 -0.9370 2.2194
3.4992 -0.6584 2.2194
3.5408 -0.3755 2.2194
3.5595 -0.0902 2.2194
3.5553 0.1957 2.2194
3.5281 0.4803 2.2194
3.4782 0.7618 2.2194
3.4059 1.0384 2.2194
3.3116 1.3083 2.2194
3.1959 1.5698 2.2194
3.0597 1.8211 2.2194
2.9037 2.0607 2.2194
2.7290 2.2871 2.2194
2.5367 2.4987 2.2194
0.7816 0.9046 0.7451
0.7067 0.9645 0.7453
0.6271 1.0182 0.7454
0.5434 1.0654 0.7454
0.4562 1.1056 0.7455
0.3661 1.1388 0.7456
0.2736 1.1645 0.7456
0.1793 1.1828 0.7457
0.0838 1.1934 0.7457
-0.0122 1.1963 0.7457
-0.1082 1.1914 0.7457
-0.2034 1.1789 0.7456
-0.2973 1.1587 0.7456
-0.3893 1.1310 0.7456
-0.4787 1.0960 0.7455
-0.5651 1.0540 0.7454
-0.6477 1.0051 0.7453
-0.7262 0.9498 0.7452
-2.3827 2.6459 2.2194
-2.5873 2.4462 2.2194
-2.7752 2.2308 2.2194
-2.9453 2.0009 2.2194
-3.0963 1.7581 2.2194
-3.2274 1.5041 2.2194
-3.3376 1.2403 2.2194
-3.4264 0.9685 2.2194
-3.4930 0.6904 2.2194
-3.5372 0.4080 2.2194
-3.5585 0.1229 2.2194
-3.5569 -0.1630 2.2194
-3.5324 -0.4479 2.2194
-3.4850 -0.7299 2.2194
-3.4152 -1.0071 2.2194
-3.3234 -1.2779 2.2194
-3.2102 -1.5404 2.2194
-3.0762 -1.7930 2.2194
-2.9225 -2.0340 2.2194
-2.7498 -2.2620 2.2194
-2.5595 -2.4753 2.2194
-2.3526 -2.6727 2.2194
-0.7121 -0.9534 0.7417
-0.6332 -1.0073 0.7416
-0.5503 -1.0548 0.7415
-0.4638 -1.0954 0.7415
-0.3744 -1.1290 0.7414
-0.2826 -1.1553 0.7413
-0.1890 -1.1742 0.7413
-0.0942 -1.1856 0.7413
0.0013 -1.1893 0.7413
0.0967 -1.1854 0.7413
0.1915 -1.1738 0.7413
0.2851 -1.1547 0.7414
0.3768 -1.1282 0.7414
0.4662 -1.0944 0.7415
0.5525 -1.0536 0.7415
0.6353 -1.0060 0.7416
0.7141 -0.9519 0.7417
2.3583 -2.6676 2.2194
2.5648 -2.4698 2.2194
2.7547 -2.2561 2.2194
2.9268 -2.0278 2.2194
3.0801 -1.7864 2.2194
3.2135 -1.5336 2.2194
3.3261 -1.2708 2.2194
3.4174 -0.9999 2.2194
3.4866 -0.7224 2.2194
3.5333 -0.4403 2.2194
3.5572 -0.1554 2.2194
3.5582 0.1305 2.2194
3.5363 0.4155 2.2194
3.4916 0.6980 2.2194
3.4243 0.9758 2.2194
3.3350 1.2474 2.2194
3.2242 1.5109 2.2194
3.0925 1.7647 2.2194
2.9410 2.0072 2.2194
2.7705 2.2367 2.2194
2.5821 2.4517 2.2194
2.3770 2.6510 2.2194
0.7242 0.9513 0.7452
0.6456 1.0065 0.7453
0.5628 1.0552 0.7454
0.4764 1.0971 0.7455
0.3869 1.1318 0.7456
0.2949 1.1593 0.7456
0.2009 1.1793 0.7457
0.1056 1.1916 0.7457
0.0097 1.1963 0.7457
-0.0863 1.1932 0.7457
-0.1818 1.1824 0.7457
-0.2760 1.1639 0.7456
-0.3685 1.1380 0.7456
-0.4586 1.1047 0.7455
-0.5457 1.0642 0.7454
-0.6292 1.0169 0.7453
-0.7087 0.9630 0.7452
-2.3338 2.6892 2.2194
-2.5420 2.4932 2.2194
-2.7339 2.2812 2.2194
-2.9081 2.0546 2.2194
-3.0635 1.8146 2.2194
-3.1993 1.5630 2.2194
-3.3143 1.3012 2.2194
-3.4081 1.0311 2.2194
-3.4798 0.7544 2.2194
-3.5291 0.4727 2.2194
-3.5557 0.1881 2.2194
-3.5593 -0.0978 2.2194
-3.5400 -0.3831 2.2194
-3.4978 -0.6659 2.2194
-3.4331 -0.9443 2.2194
-3.3463 -1.2167 2.2194
-3.2379 -1.4813 2.2194
-3.1086 -1.7363 2.2194
-2.9593 -1.9801 2.2194
-2.7908 -2.2112 2.2194
-2.6044 -2.4279 2.2194
-2.4012 -2.6291 2.2194
-0.7294 -0.9402 0.7417
-0.6516 -0.9956 0.7416
-0.5695 -1.0445 0.7416
-0.4838 -1.0868 0.7415
-0.3950 -1.1220 0.7414
-0.3037 -1.1500 0.7414
-0.2105 -1.1706 0.7413
-0.1159 -1.1836 0.7413
-0.0205 -1.1891 0.7413
0.0749 -1.1869 0.7413
0.1699 -1.1771 0.7413
0.2638 -1.1597 0.7413
0.3561 -1.1349 0.7414
0.4460 -1.1028 0.7415
0.5331 -1.0635 0.7415
0.6168 -1.0175 0.7416
0.6965 -0.9648 0.7417
0.7718 -0.9060 0.7418
2.5191 -2.5164 2.2194
2.7128 -2.3062 2.2194
2.8891 -2.0811 2.2194
3.0468 -1.8426 2.2194
3.1848 -1.5922 2.2194
3.3023 -1.3316 2.2194
3.3985 -1.0623 2.2194
3.4727 -0.7862 2.2194
3.5246 -0.5050 2.2194
3.5538 -0.2207 2.2194
3.5600 0.0652 2.2194
3.5433 0.3507 2.2194
3.5038 0.6338 2.2194
3.4416 0.9129 2.2194
3.3573 1.1860 2.2194
3.2513 1.4516 2.2194
3.1244 1.7078 2.2194
2.9773 1.9529 2.2194
2.8110 2.1855 2.2194
2.6266 2.4040 2.2194
2.4252 2.6070 2.2194
0.7415 0.9379 0.7452
0.6639 0.9945 0.7453
0.5821 1.0447 0.7454
0.4964 1.0881 0.7455
0.4076 1.1245 0.7456
0.3161 1.1537 0.7456
0.2225 1.1754 0.7456
0.1275 1.1895 0.7457
0.0316 1.1959 0.7457
-0.0644 1.1946 0.7457
-0.1601 1.1855 0.7457
-0.2547 1.1688 0.7456
-0.3476 1.1446 0.7456
-0.4383 1.1129 0.7455
2.5254 2.1965 2.2194
0.7858 0.8029 0.7450
0.7190 0.8635 0.7451
0.6474 0.9185 0.7452
0.5717 0.9676 0.7453
0.4923 1.0105 0.7453
0.4097 1.0468 0.7454
0.3244 1.0764 0.7455
0.2370 1.0990 0.7455
0.1481 1.1145 0.7455
0.0582 1.1228 0.7455
-0.0321 1.1239 0.7455
-0.1222 1.1177 0.7455
-0.2114 1.1042 0.7455
-0.2993 1.0836 0.7455
-0.3853 1.0561 0.7454
-0.4687 1.0216 0.7454
-0.5491 0.9806 0.7453
-0.6260 0.9333 0.7452
-0.6987 0.8800 0.7451
-0.7670 0.8209 0.7450
-2.4738 2.2545 2.2194
-2.6467 2.0487 2.2194
-2.8025 1.8298 2.2194
-2.9403 1.5990 2.2194
-3.0591 1.3580 2.2194
-3.1582 1.1081 2.2194
-3.2369 0.8512 2.2194
-3.2948 0.5887 2.2194
-3.3314 0.3225 2.2194
-3.3465 0.0542 2.2194
-3.3401 -0.2145 2.2194
-3.3121 -0.4818 2.2194
-3.2627 -0.7460 2.2194
-3.1924 -1.0054 2.2194
-3.1014 -1.2582 2.2194
-2.9905 -1.5030 2.2194
-2.8602 -1.7381 2.2194
-2.7116 -1.9620 2.2194
-2.5454 -2.1732 2.2194
-2.3628 -2.3704 2.2194
-0.7237 -0.8532 0.7419
-0.6529 -0.9084 0.7418
-0.5778 -0.9578 0.7417
-0.4990 -1.0009 0.7416
-0.4171 -1.0376 0.7416
-0.3325 -1.0677 0.7415
-0.2457 -1.0909 0.7415
-0.1574 -1.1070 0.7414
-0.0681 -1.1160 0.7414
0.0217 -1.1179 0.7414
0.1113 -1.1126 0.7414
0.2002 -1.1001 0.7415
0.2879 -1.0805 0.7415
0.3736 -1.0540 0.7415
0.4570 -1.0207 0.7416
0.5375 -0.9809 0.7417
0.6146 -0.9347 0.7418
0.6877 -0.8825 0.7419
0.7564 -0.8246 0.7420
2.4530 -2.2770 2.2194
2.6278 -2.0729 2.2194
2.7856 -1.8554 2.2194
2.9255 -1.6259 2.2194
3.0465 -1.3859 2.2194
3.1479 -1.1370 2.2194
3.2290 -0.8808 2.2194
3.2892 -0.6189 2.2194
3.3283 -0.3530 2.2194
3.3459 -0.0848 2.2194
3.3419 0.1839 2.2194
3.3164 0.4515 2.2194
3.2694 0.7161 2.2194
3.2015 0.9761 2.2194
3.1128 1.2298 2.2194
3.0041 1.4756 2.2194
2.8760 1.7118 2.2194
2.7294 1.9371 2.2194
2.5652 2.1498 2.2194
2.3845 2.3487 2.2194
0.7346 0.8502 0.7450
0.6641 0.9065 0.7452
0.5894 0.9570 0.7452
0.5107 1.0013 0.7453
0.4288 1.0391 0.7454
0.3441 1.0702 0.7455
0.2571 1.0945 0.7455
0.1685 1.1116 0.7455
0.0787 1.1216 0.7455
-0.0115 1.1243 0.7455
-0.1017 1.1197 0.7455
-0.1912 1.1079 0.7455
-0.2794 1.0890 0.7455
-0.3659 1.0630 0.7454
-0.4499 1.0301 0.7454
-0.5311 0.9906 0.7453
-0.6088 0.9447 0.7452
-0.6825 0.8927 0.7451
-0.7518 0.8349 0.7450
-2.4320 2.2994 2.2194
-2.6087 2.0969 2.2194
-2.7685 1.8808 2.2194
-2.9105 1.6526 2.2194
-3.0337 1.4138 2.2194
-3.1373 1.1658 2.2194
-3.2208 0.9104 2.2194
-3.2834 0.6490 2.2194
-3.3249 0.3835 2.2194
-3.3449 0.1155 2.2194
-3.3434 -0.1533 2.2194
-3.3204 -0.4210 2.2194
-3.2759 -0.6860 2.2194
-3.2103 -0.9467 2.2194
-3.1240 -1.2012 2.2194
-3.0175 -1.4480 2.2194
-2.8916 -1.6854 2.2194
-2.7471 -1.9120 2.2194
-2.5848 -2.1262 2.2194
-2.4059 -2.3267 2.2194
-0.7393 -0.8398 0.7419
-0.6694 -0.8963 0.7418
-0.5953 -0.9470 0.7417
-0.5173 -0.9916 0.7416
-0.4360 -1.0298 0.7416
-0.3520 -1.0614 0.7415
-0.2657 -1.0862 0.7415
-0.1777 -1.1039 0.7414
-0.0885 -1.1146 0.7414
0.0012 -1.1181 0.7414
0.0909 -1.1144 0.7414
0.1800 -1.1036 0.7414
0.2680 -1.0856 0.7415
0.3543 -1.0607 0.7415
0.4382 -1.0289 0.7416
0.5194 -0.9905 0.7417
0.5973 -0.9458 0.7417
0.6713 -0.8949 0.7418
0.7411 -0.8383 0.7419
2.4108 -2.3216 2.2194
2.5893 -2.1207 2.2194
2.7511 -1.9061 2.2194
2.8952 -1.6792 2.2194
3.0206 -1.4415 2.2194
3.1265 -1.1946 2.2194
3.2123 -0.9398 2.2194
3.2773 -0.6791 2.2194
3.3212 -0.4139 2.2194
3.3437 -0.1461 2.2194
3.3447 0.1226 2.2194
3.3241 0.3906 2.2194
3.2820 0.6560 2.2194
3.2188 0.9172 2.2194
3.1348 1.1725 2.2194
3.0307 1.4202 2.2194
2.9069 1.6588 2.2194
2.7645 1.8867 2.2194
2.6042 2.1024 2.2194
2.4271 2.3046 2.2194
0.7501 0.8365 0.7450
0.6806 0.8941 0.7451
0.6068 0.9460 0.7452
0.5290 0.9917 0.7453
0.4478 1.0311 0.7454
0.3636 1.0637 0.7454
0.2771 1.0896 0.7455
0.1888 1.1083 0.7455
0.0993 1.1199 0.7455
0.0091 1.1243 0.7455
-0.0811 1.1214 0.7455
-0.1708 1.1112 0.7455
-0.2594 1.0939 0.7455
-0.3463 1.0695 0.7454
-0.4310 1.0382 0.7454
-0.5129 1.0002 0.7453
-0.5914 0.9557 0.7452
-0.6661 0.9050 0.7451
-0.7364 0.8486 0.7450
-2.3895 2.3436 2.2194
-2.5698 2.1443 2.2194
-2.7336 1.9313 2.2194
-2.8797 1.7057 2.2194
-3.0073 1.4692 2.2194
-3.1154 1.2231 2.2194
-3.2035 0.9692 2.2194
-3.2710 0.7091 2.2194
-3.3173 0.4444 2.2194
-3.3423 0.1768 2.2194
-3.3457 -0.0920 2.2194
-3.3275 -0.3601 2.2194
-3.2879 -0.6259 2.2194
-3.2271 -0.8877 2.2194
-3.1455 -1.1437 2.2194
-3.0436 -1.3924 2.2194
-2.9220 -1.6321 2.2194
-2.7817 -1.8613 2.2194
-2.6234 -2.0785 2.2194
-2.4481 -2.2822 2.2194
-0.7546 -0.8262 0.7420
-0.6858 -0.8839 0.7418
-0.6126 -0.9360 0.7418
-0.5354 -0.9820 0.7417
-0.4549 -1.0217 0.7416
-0.3714 -1.0548 0.7415
-0.2855 -1.0811 0.7415
-0.1979 -1.1005 0.7415
-0.1089 -1.1128 0.7414
-0.0193 -1.1179 0.7414
0.0705 -1.1159 0.7414
0.1598 -1.1067 0.7414
0.2480 -1.0903 0.7415
0.3347 -1.0670 0.7415
0.4193 -1.0368 0.7416
0.5012 -0.9999 0.7416
0.5798 -0.9565 0.7417
0.6548 -0.9070 0.7418
0.7256 -0.8517 0.7419
2.3679 -2.3654 2.2194
2.5500 -2.1678 2.2194
2.7157 -1.9562 2.2194
2.8639 -1.7320 2.2194
2.9937 -1.4966 2.2194
3.1041 -1.2516 2.2194
3.1945 -0.9986 2.2194
3.2643 -0.7390 2.2194
3.3131 -0.4748 2.2194
3.3405 -0.2074 2.2194
3.3464 0.0613 2.2194
3.3307 0.3296 2.2194
3.2935 0.5957 2.2194
3.2351 0.8581 2.2194
3.1558 1.1148 2.2194
3.0562 1.3645 2.2194
2.9369 1.6053 2.2194
2.7986 1.8357 2.2194
2.6423 2.0543 2.2194
2.4689 2.2597 2.2194
0.7652 0.8226 0.7450
0.6969 0.8815 0.7451
0.6240 0.9347 0.7452
0.5471 0.9818 0.7453
0.4666 1.0227 0.7454
0.3830 1.0569 0.7454
0.2970 1.0843 0.7455
0.2091 1.1047 0.7455
0.1198 1.1179 0.7455
0.0297 1.1239 0.7455
-0.0606 1.1227 0.7455
-0.1504 1.1142 0.7455
-0.2393 1.0985 0.7455
-0.3267 1.0757 0.7455
-0.4119 1.0459 0.7454
2.3773 2.0677 2.2194
0.7396 0.7557 0.7449
0.6767 0.8128 0.7450
0.6094 0.8645 0.7451
0.5381 0.9108 0.7452
0.4634 0.9511 0.7452
0.3856 0.9853 0.7453
0.3053 1.0131 0.7453
0.2231 1.0344 0.7454
0.1394 1.0490 0.7454
0.0547 1.0568 0.7454
-0.0302 1.0578 0.7454
-0.1150 1.0519 0.7454
-0.1990 1.0393 0.7454
-0.2817 1.0199 0.7454
-0.3626 0.9940 0.7453
-0.4412 0.9616 0.7452
-0.5169 0.9230 0.7452
-0.5892 0.8785 0.7451
-0.6577 0.8283 0.7450
-0.7219 0.7727 0.7449
-2.3287 2.1222 2.2194
-2.4914 1.9286 2.2194
-2.6381 1.7224 2.2194
-2.7678 1.5052 2.2194
-2.8797 1.2783 2.2194
-2.9730 1.0431 2.2194
-3.0471 0.8013 2.2194
-3.1015 0.5542 2.2194
-3.1360 0.3036 2.2194
-3.1502 0.0510 2.2194
-3.1442 -0.2019 2.2194
-3.1178 -0.4536 2.2194
-3.0714 -0.7022 2.2194
-3.0052 -0.9464 2.2194
-2.9195 -1.1845 2.2194
-2.8151 -1.4149 2.2194
-2.6925 -1.6362 2.2194
-2.5525 -1.8469 2.2194
-2.3961 -2.0458 2.2194
-0.7437 -0.7461 0.7421
-0.6814 -0.8033 0.7420
-0.6147 -0.8553 0.7419
-0.5440 -0.9017 0.7418
-0.4698 -0.9424 0.7417
-0.3927 -0.9769 0.7417
-0.3130 -1.0052 0.7416
-0.2313 -1.0270 0.7416
-0.1482 -1.0423 0.7416
-0.0641 -1.0508 0.7415
0.0204 -1.0525 0.7415
0.1048 -1.0475 0.7416
0.1885 -1.0357 0.7416
0.2710 -1.0173 0.7416
0.3518 -0.9924 0.7417
0.4303 -0.9610 0.7417
0.5061 -0.9235 0.7418
0.5786 -0.8800 0.7419
0.6474 -0.8308 0.7420
0.7121 -0.7763 0.7421
0.7722 -0.7168 0.7422
2.4737 -1.9513 2.2194
2.6223 -1.7465 2.2194
2.7539 -1.5305 2.2194
2.8679 -1.3046 2.2194
2.9633 -1.0703 2.2194
3.0396 -0.8291 2.2194
3.0963 -0.5826 2.2194
3.1331 -0.3323 2.2194
3.1496 -0.0798 2.2194
3.1459 0.1731 2.2194
3.1219 0.4250 2.2194
3.0777 0.6741 2.2194
3.0137 0.9188 2.2194
2.9303 1.1577 2.2194
2.8279 1.3890 2.2194
2.7074 1.6114 2.2194
2.5694 1.8235 2.2194
2.4148 2.0237 2.2194
0.7533 0.7420 0.7448
0.6915 0.8002 0.7450
0.6251 0.8532 0.7451
0.5547 0.9007 0.7451
0.4807 0.9424 0.7452
0.4036 0.9780 0.7453
0.3238 1.0073 0.7453
0.2420 1.0301 0.7454
0.1586 1.0462 0.7454
0.0741 1.0556 0.7454
-0.0108 1.0582 0.7454
-0.0957 1.0539 0.7454
-0.1799 1.0428 0.7454
-0.2630 1.0249 0.7454
-0.3444 1.0005 0.7453
-0.4235 0.9695 0.7453
-0.4999 0.9323 0.7452
-0.5730 0.8891 0.7451
-0.6424 0.8402 0.7450
-0.7077 0.7858 0.7449
-0.7683 0.7264 0.7448
-2.4557 1.9739 2.2194
-2.6061 1.7705 2.2194
-2.7398 1.5557 2.2194
-2.8558 1.3309 2.2194
-2.9533 1.0975 2.2194
-3.0319 0.8570 2.2194
-3.0909 0.6110 2.2194
-3.1299 0.3610 2.2194
-3.1488 0.1087 2.2194
-3.1474 -0.1443 2.2194
-3.1256 -0.3963 2.2194
-3.0838 -0.6458 2.2194
-3.0220 -0.8912 2.2194
-2.9408 -1.1308 2.2194
-2.8406 -1.3631 2.2194
-2.7220 -1.5866 2.2194
-2.5860 -1.7998 2.2194
-2.4332 -2.0015 2.2194
-0.7573 -0.7324 0.7421
-0.6960 -0.7907 0.7420
-0.6302 -0.8439 0.7419
-0.5604 -0.8916 0.7418
-0.4871 -0.9336 0.7418
-0.4105 -0.9696 0.7417
-0.3314 -0.9993 0.7416
-0.2501 -1.0226 0.7416
-0.1673 -1.0394 0.7416
-0.0833 -1.0494 0.7415
0.0011 -1.0527 0.7415
0.0856 -1.0492 0.7415
0.1695 -1.0390 0.7416
0.2523 -1.0221 0.7416
0.3335 -0.9986 0.7416
0.4126 -0.9687 0.7417
0.4890 -0.9326 0.7418
0.5624 -0.8904 0.7418
0.6321 -0.8425 0.7419
0.6977 -0.7892 0.7420
0.7589 -0.7308 0.7421
2.4375 -1.9963 2.2194
2.5898 -1.7943 2.2194
2.7254 -1.5808 2.2194
2.8435 -1.3570 2.2194
2.9432 -1.1245 2.2194
3.0239 -0.8847 2.2194
3.0851 -0.6393 2.2194
3.1265 -0.3897 2.2194
3.1477 -0.1376 2.2194
3.1485 0.1154 2.2194
3.1291 0.3677 2.2194
3.0895 0.6175 2.2194
3.0300 0.8634 2.2194
2.9510 1.1038 2.2194
2.8529 1.3370 2.2194
2.7365 1.5615 2.2194
2.6024 1.7761 2.2194
2.4515 1.9791 2.2194
0.7668 0.7281 0.7448
0.7060 0.7874 0.7449
0.6406 0.8416 0.7450
0.5711 0.8904 0.7451
0.4979 0.9334 0.7452
0.4214 0.9704 0.7453
0.3422 1.0012 0.7453
0.2608 1.0255 0.7454
0.1777 1.0432 0.7454
0.0934 1.0541 0.7454
0.0086 1.0582 0.7454
-0.0764 1.0555 0.7454
-0.1608 1.0459 0.7454
-0.2442 1.0296 0.7454
-0.3260 1.0066 0.7453
-0.4057 0.9772 0.7453
-0.4827 0.9414 0.7452
-0.5566 0.8995 0.7451
-0.6269 0.8519 0.7450
-0.6932 0.7987 0.7449
-0.7549 0.7404 0.7448
-2.4191 2.0186 2.2194
-2.5732 1.8180 2.2194
-2.7108 1.6057 2.2194
-2.8309 1.3830 2.2194
-2.9327 1.1514 2.2194
-3.0157 0.9124 2.2194
-3.0791 0.6675 2.2194
-3.1228 0.4183 2.2194
-3.1463 0.1664 2.2194
-3.1495 -0.0866 2.2194
-3.1324 -0.3390 2.2194
-3.0951 -0.5892 2.2194
-3.0378 -0.8356 2.2194
-2.9610 -1.0766 2.2194
-2.8651 -1.3107 2.2194
-2.7507 -1.5364 2.2194
-2.6185 -1.7521 2.2194
-2.4695 -1.9566 2.2194
-0.7706 -0.7184 0.7421
-0.7104 -0.7778 0.7420
-0.6456 -0.8322 0.7419
-0.5767 -0.8812 0.7419
-0.5041 -0.9245 0.7418
-0.4283 -0.9619 0.7417
-0.3497 -0.9931 0.7416
-0.2688 -1.0179 0.7416
-0.1863 -1.0361 0.7416
-0.1026 -1.0477 0.7415
-0.0182 -1.0526 0.7415
0.0663 -1.0506 0.7415
0.1504 -1.0419 0.7416
0.2335 -1.0265 0.7416
0.3152 -1.0046 0.7416
0.3948 -0.9761 0.7417
0.4719 -0.9414 0.7417
0.5459 -0.9006 0.7418
0.6165 -0.8540 0.7419
0.6831 -0.8019 0.7420
0.7453 -0.7446 0.7421
2.4005 -2.0407 2.2194
2.5565 -1.8415 2.2194
2.6960 -1.6304 2.2194
2.8181 -1.4089 2.2194
2.9221 -1.1782 2.2194
3.0072 -0.9400 2.2194
3.0729 -0.6957 2.2194
3.1188 -0.4469 2.2194
3.1446 -0.1952 2.2194
3.1501 0.0577 2.2194
3.1353 0.3102 2.2194
3.1003 0.5608 2.2194
3.0454 0.8077 2.2194
2.9707 1.0495 2.2194
2.8770 1.2844 2.2194
2.7646 1.5111 2.2194
2.6345 1.7281 2.2194
2.4873 1.9339 2.2194
0.7800 0.7139 0.7448
0.7203 0.7743 0.7449
0.6559 0.8297 0.7450
0.5873 0.8797 0.7451
0.5149 0.9241 0.7452
0.4391 0.9625 0.7453
0.3605 0.9947 0.7453
0.2796 1.0205 0.7454
0.1968 1.0397 0.7454
0.1127 1.0522 0.7454
0.0280 1.0579 0.7454
-0.0570 1.0567 0.7454
-0.1416 1.0487 0.7454
-0.2253 1.0339 0.7454
-0.3075 1.0124 0.7453
-0.3877 0.9844 0.7453
0.7518 0.6539 0.7447
0.6970 0.7122 0.7448
0.6377 0.7659 0.7449
0.5743 0.8147 0.7450
0.5071 0.8583 0.7451
0.4367 0.8963 0.7451
0.3634 0.9285 0.7452
0.2877 0.9547 0.7452
0.2102 0.9748 0.7453
0.1313 0.9885 0.7453
0.0516 0.9959 0.7453
-0.0285 0.9968 0.7453
-0.1084 0.9913 0.7453
-0.1875 0.9794 0.7453
-0.2655 0.9611 0.7452
-0.3417 0.9367 0.7452
-0.4158 0.9062 0.7451
-0.4871 0.8698 0.7451
-0.5552 0.8278 0.7450
-0.6198 0.7805 0.7449
-0.6803 0.7282 0.7448
-0.7365 0.6712 0.7447
-2.3482 1.8176 2.2194
-2.4864 1.6234 2.2194
-2.6087 1.4187 2.2194
-2.7141 1.2048 2.2194
-2.8020 0.9832 2.2194
-2.8718 0.7552 2.2194
-2.9232 0.5223 2.2194
-2.9557 0.2861 2.2194
-2.9691 0.0480 2.2194
-2.9634 -0.1903 2.2194
-2.9385 -0.4275 2.2194
-2.8948 -0.6619 2.2194
-2.8323 -0.8920 2.2194
-2.7516 -1.1163 2.2194
-2.6532 -1.3335 2.2194
-2.5377 -1.5421 2.2194
-2.4057 -1.7407 2.2194
-0.7553 -0.6449 0.7423
-0.7010 -0.7033 0.7422
-0.6423 -0.7572 0.7421
-0.5794 -0.8062 0.7420
-0.5128 -0.8500 0.7419
-0.4429 -0.8883 0.7418
-0.3702 -0.9209 0.7418
-0.2951 -0.9475 0.7417
-0.2181 -0.9681 0.7417
-0.1397 -0.9825 0.7417
-0.0604 -0.9905 0.7417
0.0192 -0.9921 0.7417
0.0988 -0.9874 0.7417
0.1777 -0.9763 0.7417
0.2555 -0.9590 0.7417
0.3316 -0.9354 0.7418
0.4056 -0.9059 0.7418
0.4770 -0.8705 0.7419
0.5454 -0.8295 0.7420
0.6103 -0.7831 0.7420
0.6712 -0.7318 0.7421
0.7279 -0.6756 0.7422
0.7798 -0.6152 0.7424
2.4714 -1.6461 2.2194
2.5956 -1.4425 2.2194
2.7029 -1.2296 2.2194
2.7929 -1.0088 2.2194
2.8648 -0.7815 2.2194
2.9183 -0.5491 2.2194
2.9529 -0.3132 2.2194
2.9685 -0.0752 2.2194
2.9650 0.1632 2.2194
2.9423 0.4005 2.2194
2.9007 0.6353 2.2194
2.8404 0.8660 2.2194
2.7618 1.0911 2.2194
2.6653 1.3092 2.2194
2.5517 1.5188 2.2194
2.4216 1.7186 2.2194
0.7636 0.6400 0.7447
0.7099 0.6993 0.7448
0.6516 0.7541 0.7449
0.5891 0.8040 0.7450
0.5227 0.8488 0.7450
0.4530 0.8881 0.7451
0.3803 0.9216 0.7452
0.3052 0.9493 0.7452
0.2280 0.9707 0.7453
0.1494 0.9859 0.7453
0.0698 0.9948 0.7453
-0.0102 0.9972 0.7453
-0.0902 0.9931 0.7453
-0.1696 0.9827 0.7453
-0.2478 0.9659 0.7453
-0.3245 0.9428 0.7452
-0.3991 0.9136 0.7452
-0.4711 0.8786 0.7451
-0.5400 0.8379 0.7450
-0.6054 0.7918 0.7449
-0.6669 0.7406 0.7448
-0.7241 0.6846 0.7447
-0.7765 0.6242 0.7446
-2.4563 1.6687 2.2194
-2.5822 1.4663 2.2194
-2.6915 1.2543 2.2194
-2.7835 1.0343 2.2194
-2.8575 0.8077 2.2194
-2.9131 0.5758 2.2194
-2.9499 0.3402 2.2194
-2.9677 0.1025 2.2194
-2.9664 -0.1360 2.2194
-2.9459 -0.3735 2.2194
-2.9064 -0.6087 2.2194
-2.8482 -0.8399 2.2194
-2.7716 -1.0657 2.2194
-2.6772 -1.2846 2.2194
-2.5655 -1.4953 2.2194
-2.4373 -1.6963 2.2194
-0.7670 -0.6310 0.7423
-0.7138 -0.6904 0.7422
-0.6561 -0.7453 0.7421
-0.5941 -0.7954 0.7420
-0.5283 -0.8404 0.7419
-0.4591 -0.8800 0.7419
-0.3870 -0.9140 0.7418
-0.3124 -0.9420 0.7417
-0.2358 -0.9640 0.7417
-0.1577 -0.9797 0.7417
-0.0786 -0.9892 0.7417
0.0011 -0.9923 0.7417
0.0807 -0.9890 0.7417
0.1598 -0.9794 0.7417
0.2378 -0.9635 0.7417
0.3144 -0.9413 0.7417
0.3889 -0.9131 0.7418
0.4610 -0.8791 0.7419
0.5301 -0.8393 0.7419
0.5958 -0.7942 0.7420
0.6577 -0.7439 0.7421
0.7153 -0.6888 0.7422
0.7684 -0.6293 0.7423
2.4409 -1.6911 2.2194
2.5687 -1.4898 2.2194
2.6799 -1.2789 2.2194
2.7739 -1.0598 2.2194
2.8500 -0.8338 2.2194
2.9077 -0.6025 2.2194
2.9467 -0.3673 2.2194
2.9666 -0.1297 2.2194
2.9675 0.1088 2.2194
2.9492 0.3465 2.2194
2.9119 0.5820 2.2194
2.8558 0.8138 2.2194
2.7813 1.0403 2.2194
2.6889 1.2601 2.2194
2.5791 1.4717 2.2194
2.4527 1.6739 2.2194
0.7752 0.6258 0.7446
0.7226 0.6861 0.7447
0.6653 0.7420 0.7448
0.6037 0.7931 0.7449
0.5382 0.8391 0.7450
0.4692 0.8796 0.7451
0.3971 0.9145 0.7452
0.3225 0.9435 0.7452
0.2458 0.9664 0.7453
0.1675 0.9830 0.7453
0.0881 0.9933 0.7453
0.0081 0.9972 0.7453
-0.0720 0.9946 0.7453
-0.1515 0.9856 0.7453
-0.2301 0.9702 0.7453
-0.3072 0.9486 0.7452
-0.3823 0.9208 0.7452
-0.4549 0.8871 0.7451
-0.5245 0.8477 0.7450
-0.5908 0.8028 0.7450
-0.6532 0.7527 0.7449
-0.7114 0.6978 0.7448
-0.7650 0.6383 0.7446
-2.4253 1.7134 2.2194
-2.5549 1.5133 2.2194
-2.6681 1.3035 2.2194
-2.7641 1.0852 2.2194
-2.8422 0.8599 2.2194
-2.9021 0.6291 2.2194
-2.9432 0.3942 2.2194
-2.9653 0.1568 2.2194
-2.9683 -0.0816 2.2194
-2.9522 -0.3195 2.2194
-2.9171 -0.5553 2.2194
-2.8631 -0.7875 2.2194
-2.7907 -1.0147 2.2194
-2.7003 -1.2354 2.2194
-2.5925 -1.4480 2.2194
-2.4679 -1.6514 2.2194
-0.7785 -0.6168 0.7423
-0.7264 -0.6772 0.7422
-0.6696 -0.7332 0.7421
-0.6086 -0.7844 0.7420
-0.5436 -0.8306 0.7419
-0.4752 -0.8715 0.7419
-0.4037 -0.9067 0.7418
-0.3296 -0.9361 0.7418
-0.2534 -0.9595 0.7417
-0.1756 -0.9767 0.7417
-0.0967 -0.9876 0.7417
-0.0171 -0.9922 0.7417
0.0625 -0.9904 0.7417
0.1418 -0.9822 0.7417
0.2201 -0.9677 0.7417
0.2971 -0.9469 0.7417
0.3721 -0.9201 0.7418
0.4448 -0.8873 0.7418
0.5146 -0.8489 0.7419
0.5811 -0.8049 0.7420
0.6439 -0.7558 0.7421
0.7026 -0.7018 0.7422
0.7567 -0.6433 0.7423
2.4095 -1.7356 2.2194
2.5409 -1.5367 2.2194
2.6560 -1.3279 2.2194
2.7540 -1.1105 2.2194
2.8342 -0.8860 2.2194
2.8962 -0.6557 2.2194
2.9394 -0.4212 2.2194
2.9638 -0.1840 2.2194
2.9690 0.0544 2.2194
2.9550 0.2924 2.2194
2.9220 0.5285 2.2194
2.8702 0.7613 2.2194
2.7999 0.9891 2.2194
2.7115 1.2106 2.2194
2.6056 1.4242 2.2194
2.4830 1.6287 2.2194
0.7865 0.6115 0.7446
0.7350 0.6727 0.7447
0.6788 0.7297 0.7448
0.6181 0.7819 0.7449
0.5535 0.8290 0.7450
0.4852 0.8709 0.7451
0.4138 0.9071 0.7452
0.3397 0.9374 0.7452
0.2635 0.9617 0.7453
0.1855 0.9798 0.7453
0.1062 0.9915 0.7453
0.0264 0.9969 0.7453
-0.0537 0.9958 0.7453
-0.1334 0.9882 0.7453
-0.2123 0.9743 0.7453
-0.2897 0.9541 0.7452
-0.3653 0.9277 0.7452
0.7092 0.6168 0.7446
0.6575 0.6718 0.7447
0.6016 0.7225 0.7448
0.5417 0.7685 0.7449
0.4784 0.8096 0.7450
0.4119 0.8454 0.7450
0.3428 0.8758 0.7451
0.2714 0.9006 0.7451
0.1983 0.9195 0.7452
0.1239 0.9324 0.7452
0.0487 0.9394 0.7452
-0.0269 0.9403 0.7452
-0.1022 0.9351 0.7452
-0.1769 0.9238 0.7452
-0.2504 0.9066 0.7451
-0.3224 0.8836 0.7451
-0.3922 0.8548 0.7450
-0.4595 0.8205 0.7450
-0.5238 0.7809 0.7449
-0.5847 0.7363 0.7448
-0.6418 0.6869 0.7447
-0.6947 0.6331 0.7446
-0.7432 0.5753 0.7445
-2.3457 1.5315 2.2194
-2.4610 1.3384 2.2194
-2.5605 1.1366 2.2194
-2.6434 0.9275 2.2194
-2.7093 0.7124 2.2194
-2.7578 0.4928 2.2194
-2.7884 0.2699 2.2194
-2.8011 0.0453 2.2194
-2.7957 -0.1795 2.2194
-2.7723 -0.4033 2.2194
-2.7310 -0.6244 2.2194
-2.6721 -0.8415 2.2194
-2.5959 -1.0532 2.2194
-2.5031 -1.2580 2.2194
-2.3941 -1.4548 2.2194
-0.7593 -0.5494 0.7425
-0.7126 -0.6084 0.7424
-0.6614 -0.6636 0.7423
-0.6060 -0.7144 0.7422
-0.5467 -0.7606 0.7421
-0.4838 -0.8020 0.7420
-0.4179 -0.8381 0.7419
-0.3493 -0.8689 0.7419
-0.2784 -0.8940 0.7418
-0.2058 -0.9135 0.7418
-0.1318 -0.9270 0.7418
-0.0570 -0.9346 0.7418
0.0182 -0.9361 0.7418
0.0932 -0.9317 0.7418
0.1677 -0.9212 0.7418
0.2410 -0.9048 0.7418
0.3129 -0.8826 0.7419
0.3827 -0.8547 0.7419
0.4501 -0.8213 0.7420
0.5146 -0.7826 0.7420
0.5758 -0.7389 0.7421
0.6333 -0.6904 0.7422
0.6867 -0.6375 0.7423
0.7358 -0.5804 0.7424
0.7801 -0.5196 0.7425
2.4487 -1.3609 2.2194
2.5500 -1.1600 2.2194
2.6348 -0.9517 2.2194
2.7027 -0.7372 2.2194
2.7531 -0.5180 2.2194
2.7858 -0.2955 2.2194
2.8005 -0.0710 2.2194
2.7972 0.1539 2.2194
2.7758 0.3779 2.2194
2.7366 0.5993 2.2194
2.6797 0.8170 2.2194
2.6055 1.0293 2.2194
2.5145 1.2351 2.2194
2.4073 1.4328 2.2194
0.7664 0.5439 0.7445
0.7204 0.6037 0.7446
0.6697 0.6596 0.7447
0.6147 0.7113 0.7448
0.5557 0.7585 0.7449
0.4931 0.8007 0.7450
0.4273 0.8377 0.7450
0.3587 0.8694 0.7451
0.2879 0.8954 0.7451
0.2151 0.9157 0.7452
0.1409 0.9300 0.7452
0.0659 0.9383 0.7452
-0.0096 0.9406 0.7452
-0.0851 0.9368 0.7452
-0.1599 0.9269 0.7452
-0.2338 0.9111 0.7452
-0.3061 0.8893 0.7451
-0.3765 0.8618 0.7451
-0.4443 0.8288 0.7450
-0.5094 0.7904 0.7449
-0.5711 0.7469 0.7448
-0.6291 0.6986 0.7448
-0.6830 0.6458 0.7447
-0.7325 0.5888 0.7446
-0.7773 0.5281 0.7444
-2.4361 1.3833 2.2194
-2.5392 1.1834 2.2194
-2.6260 0.9758 2.2194
-2.6958 0.7620 2.2194
-2.7483 0.5432 2.2194
-2.7830 0.3210 2.2194
-2.7998 0.0967 2.2194
-2.7985 -0.1283 2.2194
-2.7792 -0.3524 2.2194
-2.7419 -0.5742 2.2194
-2.6870 -0.7924 2.2194
-2.6148 -1.0054 2.2194
-2.5257 -1.2120 2.2194
-2.4203 -1.4107 2.2194
-0.7692 -0.5354 0.7425
-0.7237 -0.5953 0.7424
-0.6735 -0.6514 0.7423
-0.6190 -0.7032 0.7422
-0.5605 -0.7505 0.7421
-0.4984 -0.7930 0.7420
-0.4332 -0.8303 0.7419
-0.3651 -0.8623 0.7419
-0.2947 -0.8888 0.7418
-0.2225 -0.9095 0.7418
-0.1488 -0.9244 0.7418
-0.0741 -0.9334 0.7418
0.0010 -0.9363 0.7418
0.0761 -0.9332 0.7418
0.1507 -0.9241 0.7418
0.2244 -0.9091 0.7418
0.2966 -0.8882 0.7418
0.3670 -0.8616 0.7419
0.4349 -0.8294 0.7420
0.5001 -0.7919 0.7420
0.5621 -0.7493 0.7421
0.6205 -0.7019 0.7422
0.6749 -0.6499 0.7423
0.7250 -0.5938 0.7424
0.7704 -0.5338 0.7425
2.4233 -1.4055 2.2194
2.5283 -1.2066 2.2194
2.6169 -0.9998 2.2194
2.6887 -0.7866 2.2194
2.7432 -0.5684 2.2194
2.7799 -0.3465 2.2194
2.7988 -0.1223 2.2194
2.7996 0.1026 2.2194
2.7823 0.3269 2.2194
2.7471 0.5491 2.2194
2.6942 0.7677 2.2194
2.6239 0.9814 2.2194
2.5367 1.1888 2.2194
2.4331 1.3885 2.2194
0.7762 0.5297 0.7445
0.7313 0.5904 0.7446
0.6816 0.6472 0.7447
0.6276 0.6999 0.7448
0.5695 0.7481 0.7449
0.5077 0.7915 0.7449
0.4426 0.8297 0.7450
0.3746 0.8627 0.7451
0.3042 0.8900 0.7451
0.2318 0.9116 0.7452
0.1580 0.9273 0.7452
0.0831 0.9370 0.7452
0.0076 0.9406 0.7452
-0.0679 0.9382 0.7452
-0.1429 0.9297 0.7452
-0.2170 0.9152 0.7452
-0.2898 0.8948 0.7451
-0.3606 0.8686 0.7451
-0.4291 0.8368 0.7450
-0.4948 0.7996 0.7449
-0.5573 0.7573 0.7449
-0.6162 0.7100 0.7448
-0.6711 0.6582 0.7447
-0.7216 0.6022 0.7446
-0.7675 0.5422 0.7445
-2.4103 1.4277 2.2194
-2.5171 1.2297 2.2194
-2.6077 1.0238 2.2194
-2.6814 0.8113 2.2194
-2.7378 0.5935 2.2194
-2.7766 0.3720 2.2194
-2.7975 0.1480 2.2194
-2.8004 -0.0770 2.2194
-2.7852 -0.3014 2.2194
-2.7520 -0.5239 2.2194
-2.7011 -0.7430 2.2194
-2.6328 -0.9573 2.2194
-2.5475 -1.1655 2.2194
-2.4458 -1.3661 2.2194
-0.7790 -0.5212 0.7425
-0.7345 -0.5820 0.7424
-0.6854 -0.6389 0.7423
-0.6318 -0.6918 0.7422
-0.5742 -0.7401 0.7421
-0.5129 -0.7837 0.7420
-0.4483 -0.8223 0.7420
-0.3809 -0.8555 0.7419
-0.3110 -0.8833 0.7418
-0.2391 -0.9053 0.7418
-0.1657 -0.9215 0.7418
-0.0912 -0.9319 0.7418
-0.0162 -0.9361 0.7418
0.0590 -0.9344 0.7418
0.1338 -0.9267 0.7418
0.2077 -0.9130 0.7418
0.2803 -0.8935 0.7418
0.3511 -0.8681 0.7419
0.4197 -0.8372 0.7419
0.4855 -0.8009 0.7420
0.5483 -0.7595 0.7421
0.6075 -0.7131 0.7422
0.6629 -0.6622 0.7423
0.7139 -0.6069 0.7424
0.7605 -0.5478 0.7425
2.3971 -1.4497 2.2194
2.5057 -1.2527 2.2194
2.5982 -1.0476 2.2194
2.6738 -0.8358 2.2194
2.7323 -0.6186 2.2194
2.7731 -0.3974 2.2194
2.7960 -0.1736 2.2194
2.8010 0.0513 2.2194
2.7878 0.2759 2.2194
2.7567 0.4986 2.2194
2.7078 0.7182 2.2194
2.6415 0.9332 2.2194
2.5581 1.1421 2.2194
2.4582 1.3436 2.2194
0.7857 0.5154 0.7444
0.7420 0.5769 0.7445
0.6934 0.6346 0.7447
0.6403 0.6883 0.7448
0.5831 0.7375 0.7448
0.5221 0.7820 0.7449
0.4577 0.8215 0.7450
0.3904 0.8556 0.7451
0.3205 0.8842 0.7451
0.2485 0.9072 0.7452
0.1749 0.9242 0.7452
0.1002 0.9353 0.7452
0.0249 0.9403 0.7452
-0.0507 0.9393 0.7452
-0.1259 0.9322 0.7452
-0.2002 0.9190 0.7452
-0.2733 0.9000 0.7451
-0.3446 0.8751 0.7451
0.6695 0.5823 0.7446
0.6207 0.6342 0.7447
0.5679 0.6821 0.7447
0.5114 0.7255 0.7448
0.4516 0.7643 0.7449
0.3888 0.7981 0.7450
0.3236 0.8268 0.7450
0.2562 0.8501 0.7450
0.1872 0.8680 0.7451
0.1169 0.8802 0.7451
0.0459 0.8868 0.7451
-0.0254 0.8876 0.7451
-0.0965 0.8827 0.7451
-0.1670 0.8721 0.7451
-0.2364 0.8559 0.7451
-0.3043 0.8341 0.7450
-0.3702 0.8069 0.7450
-0.4337 0.7746 0.7449
-0.4944 0.7372 0.7448
-0.5519 0.6951 0.7448
-0.6059 0.6485 0.7447
-0.6558 0.5977 0.7446
-0.7016 0.5431 0.7445
-0.7428 0.4850 0.7444
-2.3236 1.2636 2.2194
-2.4175 1.0731 2.2194
-2.4958 0.8757 2.2194
-2.5580 0.6727 2.2194
-2.6037 0.4652 2.2194
-2.6326 0.2548 2.2194
-2.6446 0.0428 2.2194
-2.6395 -0.1695 2.2194
-2.6174 -0.3807 2.2194
-2.5784 -0.5895 2.2194
-2.5228 -0.7945 2.2194
-2.4509 -0.9943 2.2194
-2.3632 -1.1878 2.2194
-0.7563 -0.4596 0.7426
-0.7169 -0.5187 0.7425
-0.6729 -0.5745 0.7424
-0.6245 -0.6266 0.7423
-0.5722 -0.6746 0.7422
-0.5162 -0.7182 0.7422
-0.4568 -0.7573 0.7421
-0.3946 -0.7914 0.7420
-0.3298 -0.8204 0.7420
-0.2629 -0.8442 0.7419
-0.1943 -0.8625 0.7419
-0.1245 -0.8753 0.7419
-0.0538 -0.8825 0.7419
0.0171 -0.8839 0.7419
0.0880 -0.8797 0.7419
0.1583 -0.8698 0.7419
0.2276 -0.8544 0.7419
0.2954 -0.8334 0.7419
0.3614 -0.8071 0.7420
0.4250 -0.7755 0.7421
0.4859 -0.7390 0.7421
0.5437 -0.6977 0.7422
0.5980 -0.6519 0.7423
0.6484 -0.6019 0.7424
0.6947 -0.5480 0.7425
0.7366 -0.4906 0.7426
0.7737 -0.4300 0.7427
2.4075 -1.0952 2.2194
2.4876 -0.8985 2.2194
2.5517 -0.6960 2.2194
2.5993 -0.4891 2.2194
2.6302 -0.2789 2.2194
2.6441 -0.0670 2.2194
2.6409 0.1453 2.2194
2.6208 0.3568 2.2194
2.5837 0.5659 2.2194
2.5300 0.7713 2.2194
2.4599 0.9718 2.2194
2.3740 1.1661 2.2194
0.7622 0.4537 0.7443
0.7235 0.5135 0.7444
0.6801 0.5699 0.7445
0.6322 0.6227 0.7446
0.5803 0.6715 0.7447
0.5246 0.7160 0.7448
0.4655 0.7559 0.7449
0.4034 0.7908 0.7449
0.3387 0.8207 0.7450
0.2717 0.8453 0.7450
0.2031 0.8644 0.7451
0.1331 0.8779 0.7451
0.0622 0.8858 0.7451
-0.0091 0.8879 0.7451
-0.0803 0.8843 0.7451
-0.1510 0.8750 0.7451
-0.2207 0.8601 0.7451
-0.2890 0.8395 0.7450
-0.3554 0.8136 0.7450
-0.4195 0.7824 0.7449
-0.4809 0.7462 0.7448
-0.5391 0.7051 0.7448
-0.5939 0.6595 0.7447
-0.6448 0.6096 0.7446
-0.6915 0.5559 0.7445
-0.7338 0.4985 0.7444
-0.7713 0.4380 0.7443
-2.3974 1.1172 2.2194
-2.4793 0.9213 2.2194
-2.5452 0.7194 2.2194
-2.5947 0.5129 2.2194
-2.6275 0.3031 2.2194
-2.6434 0.0913 2.2194
-2.6422 -0.1211 2.2194
-2.6239 -0.3327 2.2194
-2.5888 -0.5422 2.2194
-2.5369 -0.7481 2.2194
-2.4687 -0.9492 2.2194
-2.3846 -1.1443 2.2194
-0.7647 -0.4457 0.7427
-0.7263 -0.5055 0.7425
-0.6833 -0.5621 0.7424
-0.6359 -0.6150 0.7423
-0.5845 -0.6640 0.7423
-0.5293 -0.7087 0.7422
-0.4707 -0.7488 0.7421
-0.4090 -0.7840 0.7420
-0.3448 -0.8143 0.7420
-0.2783 -0.8393 0.7419
-0.2101 -0.8588 0.7419
-0.1405 -0.8729 0.7419
-0.0700 -0.8813 0.7419
0.0009 -0.8841 0.7419
0.0719 -0.8812 0.7419
0.1423 -0.8726 0.7419
0.2119 -0.8584 0.7419
0.2801 -0.8387 0.7419
0.3465 -0.8135 0.7420
0.4107 -0.7832 0.7420
0.4723 -0.7478 0.7421
0.5308 -0.7075 0.7422
0.5859 -0.6627 0.7423
0.6373 -0.6137 0.7424
0.6845 -0.5606 0.7425
0.7274 -0.5040 0.7426
0.7656 -0.4441 0.7427
2.3870 -1.1392 2.2194
2.4707 -0.9440 2.2194
2.5385 -0.7427 2.2194
2.5899 -0.5366 2.2194
2.6246 -0.3271 2.2194
2.6424 -0.1155 2.2194
2.6432 0.0969 2.2194
2.6269 0.3087 2.2194
2.5936 0.5184 2.2194
2.5437 0.7248 2.2194
2.4773 0.9266 2.2194
2.3950 1.1224 2.2194
0.7704 0.4396 0.7443
0.7328 0.5001 0.7444
0.6904 0.5573 0.7445
0.6435 0.6110 0.7446
0.5925 0.6608 0.7447
0.5376 0.7062 0.7448
0.4793 0.7472 0.7449
0.4178 0.7833 0.7449
0.3536 0.8144 0.7450
0.2872 0.8402 0.7450
0.2189 0.8605 0.7451
0.1491 0.8753 0.7451
0.0784 0.8845 0.7451
0.0072 0.8880 0.7451
-0.0641 0.8857 0.7451
-0.1349 0.8777 0.7451
-0.2049 0.8640 0.7451
-0.2735 0.8447 0.7450
-0.3404 0.8200 0.7450
-0.4051 0.7900 0.7449
-0.4671 0.7549 0.7449
-0.5261 0.7149 0.7448
-0.5817 0.6703 0.7447
-0.6335 0.6214 0.7446
-0.6813 0.5685 0.7445
-0.7246 0.5119 0.7444
-0.7632 0.4521 0.7443
-2.3765 1.1610 2.2194
-2.4620 0.9666 2.2194
-2.5316 0.7660 2.2194
-2.5849 0.5604 2.2194
-2.6215 0.3512 2.2194
-2.6412 0.1397 2.2194
-2.6439 -0.0727 2.2194
-2.6296 -0.2846 2.2194
-2.5983 -0.4946 2.2194
-2.5502 -0.7015 2.2194
-2.4857 -0.9038 2.2194
-2.4052 -1.1004 2.2194
-0.7727 -0.4316 0.7427
-0.7355 -0.4921 0.7426
-0.6935 -0.5495 0.7425
-0.6471 -0.6033 0.7424
-0.5966 -0.6532 0.7423
-0.5422 -0.6988 0.7422
-0.4843 -0.7400 0.7421
-0.4233 -0.7764 0.7420
-0.3596 -0.8078 0.7420
-0.2937 -0.8340 0.7419
-0.2258 -0.8549 0.7419
-0.1565 -0.8702 0.7419
-0.0861 -0.8799 0.7419
-0.0153 -0.8840 0.7419
0.0557 -0.8824 0.7419
0.1263 -0.8751 0.7419
0.1961 -0.8621 0.7419
0.2647 -0.8436 0.7419
0.3315 -0.8197 0.7420
0.3963 -0.7906 0.7420
0.4585 -0.7563 0.7421
0.5177 -0.7171 0.7422
0.5736 -0.6734 0.7422
0.6259 -0.6252 0.7423
0.6741 -0.5731 0.7424
0.7180 -0.5172 0.7425
0.7573 -0.4580 0.7426
2.3658 -1.1827 2.2194
2.4530 -0.9891 2.2194
2.5245 -0.7891 2.2194
