ply
format ascii 1.0
element vertex 2180
property float32 x
property float32 y
property float32 z
end_header
-3.0800 5.0528 2.0376
-3.4781 4.7924 2.0376
-3.8542 4.5006 2.0376
-4.2058 4.1794 2.0376
-4.5305 3.8306 2.0376
-4.8262 3.4566 2.0376
-5.0909 3.0597 2.0376
-5.3228 2.6426 2.0376
-5.5204 2.2079 2.0376
-5.6822 1.7585 2.0376
-5.8073 1.2974 2.0376
-5.8947 0.8274 2.0376
-5.9439 0.3518 2.0376
-5.9544 -0.1263 2.0376
-5.9262 -0.6038 2.0376
-5.8594 -1.0775 2.0376
-5.7545 -1.5443 2.0376
-5.6122 -2.0011 2.0376
-5.4334 -2.4449 2.0376
-5.2192 -2.8728 2.0376
-4.9712 -3.2818 2.0376
-4.6909 -3.6694 2.0376
-4.3802 -4.0330 2.0376
-4.0412 -4.3702 2.0376
-3.6762 -4.6787 2.0376
-3.2875 -4.9567 2.0376
-2.8778 -5.2022 2.0376
-2.4498 -5.4138 2.0376
-0.7249 -2.0196 0.7362
-1.5503 -5.7299 2.0376
-1.0847 -5.8324 2.0376
-0.6126 -5.8970 2.0376
-0.1371 -5.9234 2.0376
0.3387 -5.9113 2.0376
0.8117 -5.8611 2.0376
1.2789 -5.7730 2.0376
1.7372 -5.6478 2.0376
2.1836 -5.4862 2.0376
2.6154 -5.2894 2.0376
3.0297 -5.0588 2.0376
3.4240 -4.7959 2.0376
3.7958 -4.5023 2.0376
4.1426 -4.1801 2.0376
4.4623 -3.8315 2.0376
4.7530 -3.4585 2.0376
4.8890 -2.9880 1.9873
4.8481 -2.4514 1.8852
5.0270 -2.0529 1.8852
5.1735 -1.6415 1.8852
5.2866 -1.2199 1.8852
5.3657 -0.7907 1.8852
5.4103 -0.3568 1.8852
5.4201 0.0792 1.8852
5.3952 0.5146 1.8852
5.3356 0.9465 1.8852
5.2418 1.3722 1.8852
5.1144 1.7891 1.8852
4.9542 2.1945 1.8852
4.7621 2.5859 1.8852
4.5395 2.9607 1.8852
4.2876 3.3167 1.8852
4.0081 3.6515 1.8852
3.7046 3.9649 1.8862
3.4532 4.3498 1.9299
3.2664 4.8728 2.0376
2.8655 5.1218 2.0376
2.4458 5.3381 2.0376
2.0099 5.5202 2.0376
1.5607 5.6670 2.0376
1.1009 5.7775 2.0376
0.6335 5.8508 2.0376
0.1615 5.8865 2.0376
-0.3121 5.8843 2.0376
-0.7843 5.8442 2.0376
-1.2521 5.7662 2.0376
-1.7123 5.6510 2.0376
-2.1622 5.4990 2.0376
-2.5986 5.3113 2.0376
-3.0187 5.0889 2.0376
-3.4199 4.8334 2.0376
-3.7995 4.5462 2.0376
-4.1548 4.2292 2.0376
-4.4837 3.8844 2.0376
-4.7839 3.5140 2.0376
-5.0533 3.1204 2.0376
-5.2903 2.7061 2.0376
-5.4931 2.2739 2.0376
-5.6603 1.8265 2.0376
-5.7910 1.3669 2.0376
-5.8841 0.8981 2.0376
-5.9390 0.4232 2.0376
-5.9553 -0.0548 2.0376
-5.9329 -0.5326 2.0376
-5.8718 -1.0071 2.0376
-5.7726 -1.4751 2.0376
-5.6358 -1.9336 2.0376
-5.4624 -2.3795 2.0376
-5.2534 -2.8099 2.0376
-5.0103 -3.2220 2.0376
-4.7347 -3.6129 2.0376
-4.4285 -3.9803 2.0376
-4.0936 -4.3215 2.0376
-3.7323 -4.6345 2.0376
-3.3470 -4.9172 2.0376
-2.9403 -5.1677 2.0376
-2.5149 -5.3844 2.0376
-0.7491 -2.0108 0.7361
-1.6191 -5.7113 2.0376
-1.1548 -5.8195 2.0376
-0.6835 -5.8898 2.0376
-0.2083 -5.9219 2.0376
0.2677 -5.9156 2.0376
0.7413 -5.8710 2.0376
1.2095 -5.7886 2.0376
1.6693 -5.6688 2.0376
0.7691 -2.0019 0.7400
2.5519 -5.3210 2.0376
2.9690 -5.0954 2.0376
3.3665 -4.8372 2.0376
3.7417 -4.5481 2.0376
4.0924 -4.2300 2.0376
4.4163 -3.8852 2.0376
4.7114 -3.5157 2.0376
4.9029 -3.0781 2.0077
4.8248 -2.5129 1.8876
5.0023 -2.1133 1.8852
5.1537 -1.7037 1.8852
5.2719 -1.2834 1.8852
5.3561 -0.8553 1.8852
5.4058 -0.4219 1.8852
5.4209 0.0140 1.8852
5.4011 0.4497 1.8852
5.3467 0.8822 1.8852
5.2580 1.3091 1.8852
5.1356 1.7274 1.8852
4.9802 2.1347 1.8852
4.7928 2.5283 1.8852
4.5747 2.9058 1.8852
4.3271 3.2647 1.8852
4.0516 3.6028 1.8852
3.7500 3.9180 1.8852
3.4727 4.2679 1.9120
3.3246 4.8329 2.0376
2.9267 5.0866 2.0376
2.5096 5.3079 2.0376
2.0760 5.4952 2.0376
1.6286 5.6474 2.0376
1.1702 5.7633 2.0376
0.7038 5.8422 2.0376
0.2323 5.8836 2.0376
-0.2413 5.8871 2.0376
-0.7139 5.8526 2.0376
-1.1825 5.7803 2.0376
-1.6441 5.6705 2.0376
-2.0957 5.5240 2.0376
-2.5343 5.3416 2.0376
-2.9571 5.1243 2.0376
-3.3613 4.8736 2.0376
-3.7442 4.5911 2.0376
-4.1034 4.2784 2.0376
-4.4363 3.9376 2.0376
-4.7409 3.5709 2.0376
-5.0151 3.1806 2.0376
-5.2570 2.7693 2.0376
-5.4650 2.3396 2.0376
-5.6376 1.8943 2.0376
-5.7738 1.4363 2.0376
-5.8726 0.9687 2.0376
-5.9332 0.4945 2.0376
-5.9553 0.0167 2.0376
-5.9387 -0.4613 2.0376
-5.8834 -0.9365 2.0376
-5.7899 -1.4057 2.0376
-5.6586 -1.8658 2.0376
-5.4906 -2.3138 2.0376
-5.2869 -2.7467 2.0376
-5.0488 -3.1617 2.0376
-4.7779 -3.5560 2.0376
-4.4761 -3.9270 2.0376
-4.1454 -4.2723 2.0376
-3.7879 -4.5896 2.0376
-3.4061 -4.8769 2.0376
-3.0024 -5.1323 2.0376
-2.5796 -5.3542 2.0376
-0.7732 -2.0017 0.7361
-1.6878 -5.6920 2.0376
-1.2247 -5.8057 2.0376
-0.7542 -5.8817 2.0376
-0.2794 -5.9195 2.0376
0.1966 -5.9190 2.0376
0.6708 -5.8801 2.0376
1.1400 -5.8033 2.0376
1.6012 -5.6891 2.0376
0.7449 -2.0110 0.7399
2.4880 -5.3519 2.0376
2.9078 -5.1312 2.0376
3.3084 -4.8778 2.0376
3.6871 -4.5932 2.0376
4.0416 -4.2794 2.0376
4.3697 -3.9383 2.0376
4.6692 -3.5724 2.0376
4.9170 -3.1701 2.0288
4.8267 -2.5882 1.9003
4.9769 -2.1735 1.8852
5.1332 -1.7657 1.8852
5.2563 -1.3468 1.8852
5.3457 -0.9197 1.8852
5.4006 -0.4869 1.8852
5.4208 -0.0512 1.8852
5.4063 0.3847 1.8852
5.3570 0.8179 1.8852
5.2734 1.2457 1.8852
5.1560 1.6656 1.8852
5.0055 2.0747 1.8852
4.8228 2.4705 1.8852
4.6092 2.8505 1.8852
4.3659 3.2124 1.8852
4.0945 3.5537 1.8852
3.7966 3.8724 1.8852
3.4945 4.1907 1.8962
3.3560 4.7550 2.0218
2.9874 5.0507 2.0376
2.5731 5.2770 2.0376
2.1417 5.4694 2.0376
1.6962 5.6269 2.0376
1.2393 5.7483 2.0376
0.7739 5.8328 2.0376
0.3030 5.8798 2.0376
-0.1705 5.8890 2.0376
-0.6435 5.8602 2.0376
-1.1129 5.7935 2.0376
-1.5757 5.6893 2.0376
-2.0289 5.5482 2.0376
-2.4697 5.3711 2.0376
-2.8950 5.1590 2.0376
-3.3021 4.9132 2.0376
-3.6884 4.6353 2.0376
-4.0513 4.3270 2.0376
-4.3883 3.9903 2.0376
-4.6973 3.6273 2.0376
-4.9761 3.2404 2.0376
-5.2229 2.8320 2.0376
-5.4361 2.4049 2.0376
-5.6141 1.9617 2.0376
-5.7558 1.5055 2.0376
-5.8602 1.0391 2.0376
-5.9266 0.5656 2.0376
-5.9545 0.0883 2.0376
-5.9436 -0.3899 2.0376
-5.8941 -0.8657 2.0376
-5.8063 -1.3360 2.0376
-5.6806 -1.7977 2.0376
-5.5180 -2.2477 2.0376
-5.3195 -2.6830 2.0376
-5.0865 -3.1009 2.0376
-4.8204 -3.4984 2.0376
-4.5231 -3.8731 2.0376
-4.1966 -4.2224 2.0376
-3.8430 -4.5440 2.0376
-3.4646 -4.8359 2.0376
-3.0640 -5.0962 2.0376
-2.6439 -5.3232 2.0376
-2.2070 -5.5155 2.0376
-1.7562 -5.6717 2.0376
-1.2945 -5.7911 2.0376
-0.8249 -5.8727 2.0376
-0.3506 -5.9163 2.0376
0.1255 -5.9215 2.0376
0.6001 -5.8883 2.0376
1.0703 -5.8172 2.0376
1.5329 -5.7085 2.0376
0.7207 -2.0198 0.7398
2.4238 -5.3820 2.0376
2.8463 -5.1663 2.0376
3.2498 -4.9177 2.0376
3.6320 -4.6376 2.0376
3.9903 -4.3280 2.0376
4.3224 -3.9910 2.0376
4.6263 -3.6286 2.0376
4.9002 -3.2433 2.0376
4.8395 -2.6705 1.9177
4.9507 -2.2333 1.8852
5.1119 -1.8274 1.8852
5.2401 -1.4100 1.8852
5.3345 -0.9839 1.8852
5.3946 -0.5518 1.8852
5.4200 -0.1164 1.8852
5.4107 0.3196 1.8852
5.3666 0.7534 1.8852
5.2881 1.1822 1.8852
5.1757 1.6034 1.8852
5.0300 2.0143 1.8852
4.8521 2.4122 1.8852
4.6430 2.7948 1.8852
4.4041 3.1595 1.8852
4.1368 3.5041 1.8852
3.8428 3.8263 1.8852
3.5239 4.1241 1.8852
3.3776 4.6655 2.0010
3.0478 5.0141 2.0376
2.6361 5.2452 2.0376
2.2072 5.4428 2.0376
1.7636 5.6056 2.0376
1.3082 5.7325 2.0376
0.8439 5.8225 2.0376
0.3736 5.8752 2.0376
-0.0997 5.8900 2.0376
-0.5729 5.8669 2.0376
-1.0430 5.8058 2.0376
-1.5070 5.7072 2.0376
-1.9619 5.5716 2.0376
-2.4047 5.3998 2.0376
-2.8325 5.1928 2.0376
-3.2425 4.9520 2.0376
-3.6321 4.6788 2.0376
-3.9986 4.3749 2.0376
-4.3397 4.0423 2.0376
-4.6530 3.6831 2.0376
-4.9364 3.2996 2.0376
-5.1881 2.8943 2.0376
-5.4064 2.4698 2.0376
-5.5898 2.0289 2.0376
-5.7370 1.5744 2.0376
-5.8470 1.1093 2.0376
-5.9191 0.6367 2.0376
-5.9528 0.1597 2.0376
-5.9477 -0.3185 2.0376
-5.9040 -0.7949 2.0376
-5.8218 -1.2662 2.0376
-5.7018 -1.7294 2.0376
4.9362 0.5307 1.8852
4.8769 0.9257 1.8852
4.7864 1.3147 1.8852
4.6651 1.6952 1.8852
4.5139 2.0648 1.8852
4.3336 2.4212 1.8852
4.1255 2.7621 1.8852
3.8908 3.0854 1.8852
3.6501 3.4068 1.8951
3.5351 3.8763 1.9907
3.2889 4.2471 2.0376
2.9380 4.4994 2.0376
2.5679 4.7230 2.0376
2.1810 4.9163 2.0376
0.6553 1.8697 0.7502
0.5030 1.9166 0.7500
0.3474 1.9511 0.7497
0.1895 1.9730 0.7493
0.0827 5.3924 2.0376
-0.3510 5.3849 2.0376
-0.2875 1.9615 0.7481
-0.4441 1.9321 0.7476
-0.5978 1.8901 0.7471
-0.7476 1.8359 0.7466
-2.4379 4.8337 2.0376
-2.8199 4.6253 2.0376
-3.1842 4.3867 2.0376
-3.5283 4.1194 2.0376
-3.8499 3.8252 2.0376
-4.1469 3.5058 2.0376
-4.4174 3.1633 2.0376
-4.6594 2.8000 2.0376
-4.8715 2.4182 2.0376
-5.0521 2.0203 2.0376
-5.2001 1.6090 2.0376
-5.3144 1.1870 2.0376
-5.3942 0.7570 2.0376
-5.4391 0.3218 2.0376
-5.4486 -0.1157 2.0376
-5.4227 -0.5526 2.0376
-5.3616 -0.9860 2.0376
-5.2656 -1.4131 2.0376
-5.1353 -1.8311 2.0376
-4.9717 -2.2372 2.0376
-4.7758 -2.6286 2.0376
-4.5489 -3.0029 2.0376
-4.2925 -3.3576 2.0376
-4.0083 -3.6904 2.0376
-3.6982 -3.9990 2.0376
-3.3643 -4.2814 2.0376
-3.0088 -4.5359 2.0376
-2.6340 -4.7608 2.0376
-2.2424 -4.9546 2.0376
-0.6641 -1.8499 0.7368
-0.5134 -1.8969 0.7370
-0.3594 -1.9317 0.7373
-0.2031 -1.9540 0.7377
-0.0456 -1.9638 0.7380
0.1122 -1.9610 0.7384
0.2693 -1.9456 0.7389
0.4246 -1.9177 0.7393
0.5773 -1.8774 0.7398
0.7262 -1.8251 0.7403
2.3943 -4.8433 2.0376
2.7738 -4.6324 2.0376
3.1350 -4.3918 2.0376
3.4756 -4.1232 2.0376
3.7934 -3.8284 2.0376
4.0864 -3.5092 2.0376
4.3528 -3.1677 2.0376
4.5909 -2.8063 2.0376
4.7683 -2.4114 2.0245
4.6902 -1.9156 1.9204
4.7387 -1.5038 1.8852
4.8424 -1.1176 1.8852
4.9150 -0.7245 1.8852
4.9560 -0.3270 1.8852
4.9651 0.0725 1.8852
4.9423 0.4713 1.8852
4.8878 0.8670 1.8852
4.8019 1.2570 1.8852
4.6852 1.6389 1.8852
4.5383 2.0103 1.8852
4.3624 2.3689 1.8852
4.1584 2.7122 1.8852
3.9276 3.0383 1.8852
3.6720 3.3455 1.8855
3.5526 3.8026 1.9747
3.3396 4.2070 2.0376
2.9917 4.4635 2.0376
2.6243 4.6914 2.0376
2.2398 4.8894 2.0376
0.6777 1.8616 0.7503
0.5260 1.9104 0.7500
0.3708 1.9468 0.7497
0.2132 1.9705 0.7494
0.1475 5.3905 2.0376
-0.2862 5.3883 2.0376
-0.2639 1.9648 0.7482
-0.4208 1.9373 0.7477
-0.5751 1.8972 0.7472
-0.7255 1.8448 0.7467
-2.3794 4.8622 2.0376
-2.7639 4.6584 2.0376
-3.1310 4.4243 2.0376
-3.4782 4.1612 2.0376
-3.8034 3.8708 2.0376
-4.1042 3.5551 2.0376
-4.3787 3.2159 2.0376
-4.6251 2.8556 2.0376
-4.8418 2.4764 2.0376
-5.0272 2.0807 2.0376
-5.1801 1.6713 2.0376
-5.2995 1.2507 2.0376
-5.3845 0.8217 2.0376
-5.4346 0.3871 2.0376
-5.4494 -0.0503 2.0376
-5.4288 -0.4874 2.0376
-5.3729 -0.9216 2.0376
-5.2821 -1.3498 2.0376
-5.1569 -1.7693 2.0376
-4.9983 -2.1773 2.0376
-4.8071 -2.5711 2.0376
-4.5847 -2.9482 2.0376
-4.3326 -3.3059 2.0376
-4.0525 -3.6421 2.0376
-3.7461 -3.9544 2.0376
-3.4157 -4.2409 2.0376
-3.0632 -4.4997 2.0376
-2.6911 -4.7291 2.0376
-2.3019 -4.9276 2.0376
-0.6863 -1.8418 0.7367
-0.5361 -1.8906 0.7370
-0.3826 -1.9272 0.7373
-0.2266 -1.9515 0.7376
-0.0692 -1.9632 0.7380
0.0886 -1.9622 0.7384
0.2459 -1.9487 0.7388
0.4016 -1.9227 0.7393
0.5547 -1.8842 0.7397
0.7043 -1.8337 0.7403
2.3361 -4.8722 2.0376
2.7182 -4.6658 2.0376
3.0823 -4.4296 2.0376
3.4261 -4.1651 2.0376
3.7474 -3.8740 2.0376
4.0442 -3.5584 2.0376
4.3147 -3.2201 2.0376
4.5571 -2.8615 2.0376
4.7700 -2.4848 2.0376
4.7015 -1.9866 1.9345
4.7205 -1.5608 1.8852
4.8289 -1.1758 1.8852
4.9062 -0.7836 1.8852
4.9519 -0.3866 1.8852
4.9657 0.0127 1.8852
4.9477 0.4118 1.8852
4.8979 0.8081 1.8852
4.8167 1.1992 1.8852
4.7045 1.5825 1.8852
4.5622 1.9556 1.8852
4.3905 2.3162 1.8852
4.1906 2.6620 1.8852
3.9637 2.9907 1.8852
3.7113 3.3004 1.8852
3.5698 3.7301 1.9593
3.3898 4.1664 2.0376
3.0450 4.4269 2.0376
2.6804 4.6592 2.0376
2.2983 4.8617 2.0376
0.7000 1.8533 0.7503
0.5489 1.9039 0.7500
0.3942 1.9421 0.7498
0.2369 1.9678 0.7494
0.2123 5.3879 2.0376
-0.2214 5.3908 2.0376
-0.2402 1.9678 0.7482
-0.3975 1.9422 0.7478
-0.5522 1.9040 0.7473
-0.7033 1.8534 0.7468
-2.3206 4.8900 2.0376
-2.7075 4.6909 2.0376
-3.0773 4.4611 2.0376
-3.4277 4.2023 2.0376
-3.7563 3.9159 2.0376
-4.0608 3.6038 2.0376
-4.3394 3.2680 2.0376
-4.5901 2.9107 2.0376
-4.8113 2.5341 2.0376
-5.0015 2.1408 2.0376
-5.1593 1.7333 2.0376
-5.2838 1.3141 2.0376
-5.3740 0.8862 2.0376
-5.4294 0.4523 2.0376
-5.4495 0.0152 2.0376
-5.4342 -0.4222 2.0376
-5.3835 -0.8570 2.0376
-5.2979 -1.2863 2.0376
-5.1778 -1.7073 2.0376
-5.0241 -2.1172 2.0376
-4.8377 -2.5133 2.0376
-4.6199 -2.8930 2.0376
-4.3721 -3.2538 2.0376
-4.0961 -3.5933 2.0376
-3.7935 -3.9093 2.0376
-3.4665 -4.1998 2.0376
-3.1172 -4.4628 2.0376
-2.7479 -4.6967 2.0376
-2.3611 -4.8999 2.0376
-0.7084 -1.8335 0.7367
-0.5588 -1.8841 0.7369
-0.4057 -1.9225 0.7372
-0.2500 -1.9486 0.7375
-0.0928 -1.9622 0.7379
0.0651 -1.9632 0.7383
0.2225 -1.9515 0.7387
0.3784 -1.9273 0.7392
0.5320 -1.8907 0.7397
0.6822 -1.8420 0.7402
2.2776 -4.9004 2.0376
2.6622 -4.6986 2.0376
3.0291 -4.4667 2.0376
3.3760 -4.2064 2.0376
3.7009 -3.9192 2.0376
4.0015 -3.6070 2.0376
4.2760 -3.2720 2.0376
4.5227 -2.9163 2.0376
4.7401 -2.5421 2.0376
4.7129 -2.0585 1.9492
4.7017 -1.6175 1.8852
4.8146 -1.2339 1.8852
4.8966 -0.8426 1.8852
4.9470 -0.4462 1.8852
4.9657 -0.0470 1.8852
4.9524 0.3523 1.8852
4.9074 0.7491 1.8852
4.8308 1.1411 1.8852
4.7232 1.5257 1.8852
4.5853 1.9005 1.8852
4.4180 2.2632 1.8852
4.2222 2.6113 1.8852
3.9993 2.9428 1.8852
3.7506 3.2554 1.8852
3.5868 3.6586 1.9444
3.4395 4.1251 2.0376
3.0979 4.3897 2.0376
2.7361 4.6264 2.0376
2.3564 4.8334 2.0376
0.7222 1.8447 0.7503
0.5717 1.8971 0.7501
0.4175 1.9372 0.7498
0.2605 1.9648 0.7495
0.2770 5.3845 2.0376
-0.1566 5.3926 2.0376
-0.2165 1.9706 0.7483
-0.3741 1.9469 0.7478
-0.5293 1.9105 0.7474
-0.6810 1.8617 0.7468
-2.2614 4.9171 2.0376
-2.6507 4.7226 2.0376
-3.0232 4.4974 2.0376
-3.3766 4.2428 2.0376
-3.7086 3.9604 2.0376
-4.0169 3.6520 2.0376
-4.2995 3.3196 2.0376
-4.5545 2.9654 2.0376
-4.7802 2.5916 2.0376
-4.9751 2.2006 2.0376
-5.1378 1.7950 2.0376
-5.2673 1.3774 2.0376
-5.3627 0.9506 2.0376
-5.4233 0.5174 2.0376
-5.4487 0.0806 2.0376
-5.4387 -0.3569 2.0376
-5.3933 -0.7923 2.0376
-5.3129 -1.2225 2.0376
-5.1979 -1.6450 2.0376
-5.0492 -2.0567 2.0376
-4.8676 -2.4550 2.0376
-4.6544 -2.8374 2.0376
-4.4110 -3.2011 2.0376
-4.1391 -3.5440 2.0376
-3.8404 -3.8637 2.0376
-3.5169 -4.1581 2.0376
-3.1707 -4.4253 2.0376
-2.8043 -4.6637 2.0376
-2.4199 -4.8716 2.0376
-0.7304 -1.8249 0.7367
-0.5814 -1.8773 0.7369
-0.4288 -1.9176 0.7372
-0.2734 -1.9455 0.7375
-0.1164 -1.9610 0.7378
0.0415 -1.9639 0.7382
0.1990 -1.9541 0.7387
0.3552 -1.9317 0.7391
0.5092 -1.8970 0.7396
0.6600 -1.8500 0.7401
2.2188 -4.9279 2.0376
2.6057 -4.7307 2.0376
2.9755 -4.5033 2.0376
3.3255 -4.2470 2.0376
3.6538 -3.9637 2.0376
3.9582 -3.6552 2.0376
4.2367 -3.3235 2.0376
4.4877 -2.9707 2.0376
4.7096 -2.5992 2.0376
4.7245 -2.1316 1.9643
4.6822 -1.6741 1.8852
4.7997 -1.2918 1.8852
4.8863 -0.9015 1.8852
4.9415 -0.5057 1.8852
4.9649 -0.1068 1.8852
4.9564 0.2927 1.8852
4.9161 0.6901 1.8852
4.8442 1.0830 1.8852
4.7413 1.4688 1.8852
4.6079 1.8452 1.8852
4.4448 2.2098 1.8852
4.2532 2.5603 1.8852
4.0343 2.8943 1.8852
3.7893 3.2100 1.8852
3.6034 3.5882 1.9299
3.4863 4.0804 2.0362
3.1503 4.3519 2.0376
2.7914 4.5928 2.0376
2.4142 4.8044 2.0376
0.7443 1.8358 0.7504
0.5945 1.8900 0.7501
0.4408 1.9320 0.7499
0.2841 1.9615 0.7495
0.3417 5.3803 2.0376
-0.0917 5.3936 2.0376
-0.1928 1.9730 0.7484
-0.3507 1.9512 0.7479
-0.5063 1.9167 0.7474
-0.6586 1.8698 0.7469
-2.2019 4.9434 2.0376
-2.5935 4.7537 2.0376
-2.9687 4.5330 2.0376
-3.3251 4.2826 2.0376
-3.6604 4.0043 2.0376
-3.9724 3.6997 2.0376
-4.2590 3.3708 2.0376
-4.5182 3.0196 2.0376
-4.7484 2.6486 2.0376
-4.9480 2.2600 2.0376
-5.1156 1.8564 2.0376
-5.2501 1.4405 2.0376
-5.3507 1.0149 2.0376
-5.4165 0.5825 2.0376
-5.4472 0.1460 2.0376
-5.4424 -0.2916 2.0376
-5.4023 -0.7274 2.0376
-5.3271 -1.1587 2.0376
-5.2173 -1.5824 2.0376
4.5463 0.4887 1.8852
4.4917 0.8525 1.8852
4.4084 1.2108 1.8852
4.2967 1.5613 1.8852
4.1574 1.9018 1.8852
3.9913 2.2300 1.8852
3.8183 2.5566 1.8945
3.7232 2.9527 1.9588
3.6144 3.3737 2.0376
3.3324 3.6543 2.0376
3.0288 3.9116 2.0376
2.7055 4.1438 2.0376
2.3646 4.3496 2.0376
0.7390 1.6662 0.7499
0.6028 1.7205 0.7497
0.4627 1.7637 0.7494
0.3195 1.7955 0.7492
0.1743 1.8156 0.7489
0.0278 1.8239 0.7485
-0.1188 1.8204 0.7481
-0.2647 1.8050 0.7477
-0.4088 1.7779 0.7473
-0.5503 1.7394 0.7468
-0.6882 1.6895 0.7463
-2.2445 4.4494 2.0376
-2.5961 4.2574 2.0376
-2.9313 4.0376 2.0376
-3.2479 3.7914 2.0376
-3.5438 3.5204 2.0376
-3.8170 3.2263 2.0376
-4.0657 2.9111 2.0376
-4.2883 2.5766 2.0376
-4.4833 2.2251 2.0376
-4.6494 1.8590 2.0376
-4.7854 1.4805 2.0376
-4.8904 1.0921 2.0376
-4.9638 0.6964 2.0376
-5.0050 0.2959 2.0376
-5.0136 -0.1066 2.0376
-4.9898 -0.5086 2.0376
-4.9335 -0.9074 2.0376
-4.8451 -1.3003 2.0376
-4.7253 -1.6849 2.0376
-4.5748 -2.0585 2.0376
-4.3945 -2.4187 2.0376
-4.1858 -2.7631 2.0376
-3.9499 -3.0895 2.0376
-3.6885 -3.3957 2.0376
-3.4033 -3.6797 2.0376
-3.0961 -3.9397 2.0376
-2.7690 -4.1740 2.0376
-2.4242 -4.3810 2.0376
-0.7466 -1.6494 0.7371
-0.6117 -1.7037 0.7373
-0.4729 -1.7469 0.7375
-0.3311 -1.7790 0.7378
-0.1872 -1.7996 0.7381
-0.0422 -1.8086 0.7385
0.1032 -1.8061 0.7388
0.2479 -1.7919 0.7392
0.3909 -1.7661 0.7397
0.5315 -1.7290 0.7401
0.6687 -1.6808 0.7406
2.2039 -4.4592 2.0376
2.5534 -4.2651 2.0376
2.8861 -4.0438 2.0376
3.1998 -3.7967 2.0376
3.4926 -3.5254 2.0376
3.7625 -3.2316 2.0376
4.0080 -2.9173 2.0376
4.2274 -2.5845 2.0376
4.4194 -2.2353 2.0376
4.5829 -1.8721 2.0376
4.5880 -1.4562 1.9820
4.5201 -1.0434 1.9108
4.5266 -0.6674 1.8852
4.5644 -0.3013 1.8852
4.5728 0.0666 1.8852
4.5519 0.4340 1.8852
4.5017 0.7984 1.8852
4.4227 1.1577 1.8852
4.3151 1.5095 1.8852
4.1799 1.8516 1.8852
4.0178 2.1818 1.8852
3.8360 2.5004 1.8881
3.7374 2.8913 1.9479
3.6385 3.3152 2.0287
3.3759 3.6138 2.0376
3.0754 3.8747 2.0376
2.7550 4.1107 2.0376
2.4166 4.3206 2.0376
0.7590 1.6571 0.7499
0.6235 1.7131 0.7497
0.4839 1.7580 0.7495
0.3411 1.7915 0.7492
0.1961 1.8133 0.7489
0.0497 1.8234 0.7486
-0.0969 1.8216 0.7482
-0.2430 1.8080 0.7478
-0.3874 1.7827 0.7474
-0.5293 1.7458 0.7469
-0.6678 1.6976 0.7464
-2.1907 4.4757 2.0376
-2.5445 4.2879 2.0376
-2.8823 4.0722 2.0376
-3.2018 3.8298 2.0376
-3.5009 3.5624 2.0376
-3.7776 3.2717 2.0376
-4.0301 2.9595 2.0376
-4.2568 2.6277 2.0376
-4.4560 2.2787 2.0376
-4.6264 1.9146 2.0376
-4.7670 1.5377 2.0376
-4.8767 1.1507 2.0376
-4.9549 0.7559 2.0376
-5.0009 0.3560 2.0376
-5.0144 -0.0464 2.0376
-4.9954 -0.4486 2.0376
-4.9439 -0.8481 2.0376
-4.8603 -1.2421 2.0376
-4.7452 -1.6280 2.0376
-4.5992 -2.0034 2.0376
-4.4233 -2.3658 2.0376
-4.2188 -2.7127 2.0376
-3.9869 -3.0419 2.0376
-3.7291 -3.3513 2.0376
-3.4474 -3.6387 2.0376
-3.1433 -3.9024 2.0376
-2.8191 -4.1406 2.0376
-2.4768 -4.3519 2.0376
-0.7664 -1.6404 0.7371
-0.6322 -1.6962 0.7373
-0.4939 -1.7412 0.7375
-0.3525 -1.7749 0.7378
-0.2088 -1.7973 0.7381
-0.0639 -1.8080 0.7384
0.0815 -1.8072 0.7388
0.2263 -1.7947 0.7392
0.3697 -1.7707 0.7396
0.5107 -1.7353 0.7400
0.6484 -1.6887 0.7405
2.1504 -4.4857 2.0376
2.5022 -4.2959 2.0376
2.8375 -4.0786 2.0376
3.1542 -3.8352 2.0376
3.4502 -3.5674 2.0376
3.7237 -3.2768 2.0376
3.9729 -2.9655 2.0376
4.1963 -2.6353 2.0376
4.3925 -2.2885 2.0376
4.5603 -1.9272 2.0376
4.5984 -1.5206 1.9942
4.5300 -1.1033 1.9204
4.5184 -0.7219 1.8852
4.5606 -0.3562 1.8852
4.5735 0.0116 1.8852
4.5569 0.3792 1.8852
4.5111 0.7442 1.8852
4.4363 1.1044 1.8852
4.3330 1.4575 1.8852
4.2019 1.8012 1.8852
4.0437 2.1333 1.8852
3.8595 2.4518 1.8852
3.7513 2.8306 1.9373
3.6540 3.2497 2.0154
3.4190 3.5728 2.0376
3.1217 3.8372 2.0376
2.8041 4.0771 2.0376
2.4682 4.2909 2.0376
0.7788 1.6478 0.7499
0.6440 1.7054 0.7497
0.5050 1.7520 0.7495
0.3626 1.7872 0.7493
0.2179 1.8108 0.7490
0.0717 1.8226 0.7486
-0.0750 1.8226 0.7483
-0.2212 1.8108 0.7479
-0.3660 1.7873 0.7474
-0.5083 1.7521 0.7470
-0.6474 1.7056 0.7465
-2.1366 4.5013 2.0376
-2.4926 4.3178 2.0376
-2.8329 4.1062 2.0376
-3.1553 3.8677 2.0376
-3.4576 3.6039 2.0376
-3.7378 3.3166 2.0376
-3.9940 3.0074 2.0376
-4.2246 2.6785 2.0376
-4.4280 2.3319 2.0376
-4.6028 1.9699 2.0376
-4.7479 1.5948 2.0376
-4.8623 1.2091 2.0376
-4.9452 0.8153 2.0376
-4.9961 0.4160 2.0376
-5.0145 0.0138 2.0376
-5.0003 -0.3886 2.0376
-4.9537 -0.7886 2.0376
-4.8749 -1.1836 2.0376
-4.7644 -1.5709 2.0376
-4.6229 -1.9481 2.0376
-4.4515 -2.3125 2.0376
-4.2511 -2.6619 2.0376
-4.0232 -2.9939 2.0376
-3.7692 -3.3064 2.0376
-3.4909 -3.5972 2.0376
-3.1901 -3.8646 2.0376
-2.8688 -4.1067 2.0376
-2.5290 -4.3220 2.0376
-0.7861 -1.6311 0.7371
-0.6525 -1.6886 0.7372
-0.5148 -1.7352 0.7375
-0.3738 -1.7706 0.7377
-0.2304 -1.7946 0.7380
-0.0856 -1.8072 0.7383
0.0598 -1.8080 0.7387
0.2047 -1.7973 0.7391
0.3484 -1.7750 0.7395
0.4898 -1.7413 0.7400
0.6281 -1.6964 0.7404
0.7623 -1.6405 0.7409
2.4506 -4.3261 2.0376
2.7885 -4.1128 2.0376
3.1081 -3.8732 2.0376
3.4074 -3.6089 2.0376
3.6843 -3.3216 2.0376
3.9373 -3.0133 2.0376
4.1646 -2.6858 2.0376
4.3650 -2.3413 2.0376
4.5371 -1.9820 2.0376
4.6089 -1.5859 2.0067
4.5401 -1.1638 1.9303
4.5096 -0.7762 1.8852
4.5647 -0.4118 1.8888
4.5734 -0.0434 1.8852
4.5613 0.3243 1.8852
4.5198 0.6899 1.8852
4.4493 1.0510 1.8852
4.3502 1.4052 1.8852
4.2232 1.7505 1.8852
4.0736 2.0868 1.8874
3.8887 2.4051 1.8852
3.7651 2.7706 1.9271
3.6691 3.1850 2.0026
3.4616 3.5311 2.0376
3.1675 3.7992 2.0376
2.8528 4.0429 2.0376
2.5195 4.2607 2.0376
2.1698 4.4512 2.0376
0.6645 1.6975 0.7498
0.5260 1.7457 0.7496
0.3841 1.7827 0.7493
0.2396 1.8080 0.7490
0.0936 1.8216 0.7487
-0.0531 1.8234 0.7483
-0.1994 1.8133 0.7479
-0.3444 1.7915 0.7475
-0.4872 1.7581 0.7470
-0.6268 1.7132 0.7466
-0.7624 1.6573 0.7461
-2.4403 4.3470 2.0376
-2.7832 4.1395 2.0376
-3.1083 3.9050 2.0376
-3.4137 3.6449 2.0376
-3.6974 3.3610 2.0376
-3.9573 3.0550 2.0376
-4.1918 2.7288 2.0376
-4.3994 2.3847 2.0376
-4.5785 2.0249 2.0376
-4.7282 1.6516 2.0376
-4.8472 1.2673 2.0376
-4.9349 0.8746 2.0376
-4.9905 0.4759 2.0376
-5.0138 0.0740 2.0376
-5.0045 -0.3285 2.0376
-4.9627 -0.7291 2.0376
-4.8887 -1.1250 2.0376
-4.7829 -1.5136 2.0376
-4.6460 -1.8925 2.0376
-4.4790 -2.2590 2.0376
-4.2828 -2.6107 2.0376
-4.0590 -2.9455 2.0376
-3.8088 -3.2610 2.0376
-3.5340 -3.5552 2.0376
-3.2364 -3.8262 2.0376
-2.9180 -4.0722 2.0376
-2.5809 -4.2916 2.0376
-2.2273 -4.4831 2.0376
-0.6727 -1.6807 0.7372
-0.5356 -1.7289 0.7374
-0.3950 -1.7660 0.7377
-0.2520 -1.7918 0.7380
-0.1073 -1.8060 0.7383
0.0380 -1.8087 0.7387
0.1831 -1.7997 0.7390
0.3270 -1.7791 0.7395
0.4688 -1.7471 0.7399
0.6076 -1.7038 0.7404
0.7425 -1.6496 0.7409
2.3986 -4.3556 2.0376
2.7391 -4.1464 2.0376
3.0616 -3.9106 2.0376
3.3640 -3.6499 2.0376
3.6444 -3.3660 2.0376
3.9010 -3.0606 2.0376
4.1323 -2.7359 2.0376
4.3368 -2.3938 2.0376
4.5132 -2.0366 2.0376
4.6195 -1.6519 2.0197
4.5502 -1.2249 1.9407
4.5001 -0.8305 1.8852
4.5510 -0.4659 1.8852
4.5727 -0.0985 1.8852
4.5649 0.2694 1.8852
4.5278 0.6355 1.8852
4.4617 0.9974 1.8852
4.3668 1.3528 1.8852
4.2439 1.6995 1.8852
4.0938 2.0353 1.8852
3.9173 2.3581 1.8852
3.7787 2.7111 1.9173
3.6841 3.1210 1.9902
3.5037 3.4894 2.0376
3.2128 3.7606 2.0376
2.9010 4.0080 2.0376
2.5704 4.2298 2.0376
2.2230 4.4245 2.0376
0.6848 1.6893 0.7498
0.5469 1.7392 0.7496
0.4055 1.7779 0.7493
0.2613 1.8050 0.7491
0.1155 1.8203 0.7487
-0.0312 1.8239 0.7484
-0.1776 1.8156 0.7480
-0.3229 1.7955 0.7476
-0.4661 1.7638 0.7471
-0.6062 1.7206 0.7466
-0.7424 1.6663 0.7461
-2.3877 4.3757 2.0376
-2.7330 4.1723 2.0376
-3.0609 3.9417 2.0376
-3.3694 3.6854 2.0376
-3.6564 3.4049 2.0376
-3.9200 3.1020 2.0376
-4.1584 2.7788 2.0376
-4.3701 2.4372 2.0376
-4.5536 2.0796 2.0376
-4.7077 1.7081 2.0376
-4.8314 1.3254 2.0376
-4.9238 0.9337 2.0376
-4.9842 0.5358 2.0376
-5.0124 0.1342 2.0376
-5.0080 -0.2684 2.0376
-4.9710 -0.6694 2.0376
-4.9018 -1.0662 2.0376
-4.8007 -1.4561 2.0376
4.2309 0.4547 1.8963
4.1695 0.7913 1.8914
4.0999 1.1261 1.8950
4.0262 1.4629 1.9094
3.9529 1.8082 1.9374
3.8748 2.1650 1.9782
3.7909 2.5383 2.0330
3.5833 2.8418 2.0376
3.3439 3.1214 2.0376
3.0829 3.3810 2.0376
2.8019 3.6189 2.0376
2.5027 3.8337 2.0376
2.1873 4.0240 2.0376
0.6831 1.5404 0.7494
0.5572 1.5907 0.7492
0.4277 1.6306 0.7490
0.2953 1.6599 0.7487
0.1610 1.6785 0.7485
0.0256 1.6862 0.7481
-0.1100 1.6829 0.7478
-0.2448 1.6687 0.7474
-0.3781 1.6437 0.7470
-0.5089 1.6081 0.7466
-0.6364 1.5620 0.7461
-0.7597 1.5057 0.7457
-2.4012 3.9369 2.0376
-2.7110 3.7335 2.0376
-3.0036 3.5057 2.0376
-3.2771 3.2550 2.0376
-3.5296 2.9830 2.0376
-3.7595 2.6914 2.0376
-3.9652 2.3821 2.0376
-4.1453 2.0571 2.0376
-4.2988 1.7185 2.0376
-4.4244 1.3685 2.0376
-4.5214 1.0094 2.0376
-4.5891 0.6436 2.0376
-4.6271 0.2734 2.0376
-4.6351 -0.0987 2.0376
-4.6130 -0.4703 2.0376
-4.5609 -0.8389 2.0376
-4.4792 -1.2021 2.0376
-4.3684 -1.5576 2.0376
-4.2293 -1.9030 2.0376
-4.0627 -2.2360 2.0376
-3.8698 -2.5544 2.0376
-3.6518 -2.8561 2.0376
-3.4102 -3.1392 2.0376
-3.1465 -3.4018 2.0376
-2.8626 -3.6423 2.0376
-2.5603 -3.8589 2.0376
-2.2416 -4.0504 2.0376
-0.6909 -1.5259 0.7376
-0.5661 -1.5762 0.7378
-0.4377 -1.6162 0.7380
-0.3065 -1.6459 0.7382
-0.1734 -1.6650 0.7385
-0.0391 -1.6733 0.7388
0.0953 -1.6709 0.7392
0.2292 -1.6578 0.7395
0.3615 -1.6340 0.7399
0.4916 -1.5997 0.7404
0.6185 -1.5550 0.7408
0.7414 -1.5004 0.7413
2.3614 -3.9451 2.0376
2.6692 -3.7406 2.0376
2.9595 -3.5121 2.0376
3.2304 -3.2612 2.0376
3.4802 -2.9896 2.0376
3.7074 -2.6989 2.0376
3.9105 -2.3911 2.0376
4.0883 -2.0682 2.0376
4.2396 -1.7322 2.0376
4.3635 -1.3852 2.0376
4.4593 -1.0296 2.0376
4.4275 -0.6530 1.9931
4.3641 -0.2882 1.9483
4.3009 0.0625 1.9165
4.2394 0.4041 1.8978
4.1792 0.7412 1.8916
4.1108 1.0760 1.8940
4.0369 1.4120 1.9062
3.9641 1.7560 1.9324
3.8868 2.1108 1.9712
3.8039 2.4813 2.0238
3.6171 2.7985 2.0376
3.3811 3.0808 2.0376
3.1232 3.3435 2.0376
2.8451 3.5848 2.0376
2.5485 3.8032 2.0376
2.2354 3.9972 2.0376
0.7016 1.5321 0.7494
0.5763 1.5838 0.7492
0.4472 1.6253 0.7490
0.3152 1.6562 0.7488
0.1811 1.6764 0.7485
0.0458 1.6857 0.7482
-0.0897 1.6841 0.7478
-0.2248 1.6716 0.7475
-0.3583 1.6482 0.7471
-0.4895 1.6141 0.7466
-0.6176 1.5695 0.7462
-0.7416 1.5148 0.7457
-2.3535 3.9651 2.0376
-2.6657 3.7655 2.0376
-2.9611 3.5413 2.0376
-3.2375 3.2939 2.0376
-3.4933 3.0250 2.0376
-3.7266 2.7362 2.0376
-3.9360 2.4294 2.0376
-4.1201 2.1066 2.0376
-4.2776 1.7699 2.0376
-4.4074 1.4215 2.0376
-4.5088 1.0636 2.0376
-4.5809 0.6986 2.0376
-4.6233 0.3290 2.0376
-4.6358 -0.0430 2.0376
-4.6182 -0.4149 2.0376
-4.5706 -0.7841 2.0376
-4.4933 -1.1483 2.0376
-4.3868 -1.5051 2.0376
-4.2518 -1.8521 2.0376
-4.0893 -2.1871 2.0376
-3.9002 -2.5078 2.0376
-3.6859 -2.8121 2.0376
-3.4477 -3.0981 2.0376
-3.1873 -3.3639 2.0376
-2.9063 -3.6078 2.0376
-2.6066 -3.8281 2.0376
-2.2902 -4.0234 2.0376
-0.7092 -1.5176 0.7376
-0.5850 -1.5693 0.7377
-0.4571 -1.6109 0.7379
-0.3262 -1.6421 0.7382
-0.1933 -1.6628 0.7385
-0.0592 -1.6728 0.7388
0.0752 -1.6720 0.7391
0.2092 -1.6604 0.7395
0.3419 -1.6382 0.7399
0.4723 -1.6054 0.7403
0.5997 -1.5624 0.7407
0.7233 -1.5092 0.7412
2.3140 -3.9736 2.0376
2.6242 -3.7727 2.0376
2.9173 -3.5477 2.0376
3.1912 -3.3001 2.0376
3.4443 -3.0314 2.0376
3.6749 -2.7435 2.0376
3.8817 -2.4381 2.0376
4.0634 -2.1173 2.0376
4.2187 -1.7831 2.0376
4.3468 -1.4377 2.0376
4.4468 -1.0831 2.0376
4.4371 -0.7091 2.0011
4.3735 -0.3418 1.9541
4.3104 0.0108 1.9205
4.2477 0.3534 1.8994
4.1887 0.6910 1.8920
4.1216 1.0260 1.8931
4.0474 1.3613 1.9033
3.9752 1.7040 1.9277
3.8987 2.0569 1.9646
3.8167 2.4247 2.0150
3.6504 2.7548 2.0376
3.4178 3.0398 2.0376
3.1631 3.3055 2.0376
2.8879 3.5502 2.0376
2.5940 3.7720 2.0376
2.2832 3.9698 2.0376
0.7200 1.5235 0.7494
0.5953 1.5767 0.7493
0.4667 1.6197 0.7491
0.3351 1.6523 0.7488
0.2013 1.6741 0.7485
0.0661 1.6850 0.7482
-0.0695 1.6850 0.7479
-0.2046 1.6741 0.7475
-0.3385 1.6523 0.7471
-0.4701 1.6198 0.7467
-0.5987 1.5768 0.7463
-0.7234 1.5236 0.7458
-2.3055 3.9928 2.0376
-2.6201 3.7969 2.0376
-2.9181 3.5763 2.0376
-3.1975 3.3323 2.0376
-3.4564 3.0665 2.0376
-3.6932 2.7805 2.0376
-3.9063 2.4763 2.0376
-4.0942 2.1558 2.0376
-4.2558 1.8210 2.0376
-4.3898 1.4742 2.0376
-4.4954 1.1176 2.0376
-4.5720 0.7536 2.0376
-4.6189 0.3844 2.0376
-4.6358 0.0126 2.0376
-4.6227 -0.3594 2.0376
-4.5796 -0.7291 2.0376
-4.5067 -1.0943 2.0376
-4.4045 -1.4523 2.0376
-4.2738 -1.8009 2.0376
-4.1153 -2.1378 2.0376
-3.9301 -2.4608 2.0376
-3.7195 -2.7678 2.0376
-3.4848 -3.0566 2.0376
-3.2275 -3.3256 2.0376
-2.9495 -3.5728 2.0376
-2.6525 -3.7967 2.0376
-2.3385 -3.9959 2.0376
-0.7274 -1.5090 0.7375
-0.6038 -1.5622 0.7377
-0.4764 -1.6053 0.7379
-0.3459 -1.6381 0.7382
-0.2133 -1.6604 0.7384
-0.0793 -1.6720 0.7387
0.0551 -1.6728 0.7391
0.1893 -1.6628 0.7394
0.3222 -1.6422 0.7398
0.4530 -1.6110 0.7402
0.5809 -1.5694 0.7407
0.7051 -1.5178 0.7411
2.2662 -4.0014 2.0376
2.5789 -3.8043 2.0376
2.8746 -3.5828 2.0376
3.1515 -3.3385 2.0376
3.4078 -3.0729 2.0376
3.6420 -2.7877 2.0376
3.8524 -2.4848 2.0376
4.0379 -2.1662 2.0376
4.1972 -1.8339 2.0376
4.3294 -1.4900 2.0376
4.4337 -1.1367 2.0376
4.4467 -0.7656 2.0093
4.3830 -0.3956 1.9603
4.3198 -0.0412 1.9247
4.2565 0.3026 1.9015
4.1980 0.6407 1.8926
4.1321 0.9760 1.8924
4.0578 1.3109 1.9007
3.9863 1.6523 1.9233
3.9105 2.0033 1.9582
3.8293 2.3685 2.0066
3.6832 2.7105 2.0376
3.4540 2.9984 2.0376
3.2025 3.2671 2.0376
2.9303 3.5150 2.0376
2.6390 3.7404 2.0376
2.3306 3.9418 2.0376
0.7382 1.5146 0.7495
0.6142 1.5694 0.7493
0.4862 1.6140 0.7491
0.3549 1.6481 0.7489
0.2214 1.6715 0.7486
0.0864 1.6841 0.7483
-0.0492 1.6857 0.7479
-0.1845 1.6765 0.7476
-0.3186 1.6563 0.7472
-0.4506 1.6254 0.7468
-0.5797 1.5839 0.7463
-0.7050 1.5322 0.7459
-2.2571 4.0199 2.0376
-2.5741 3.8278 2.0376
-2.8747 3.6108 2.0376
-3.1570 3.3702 2.0376
-3.4191 3.1075 2.0376
-3.6593 2.8245 2.0376
-3.8760 2.5229 2.0376
-4.0678 2.2046 2.0376
-4.2333 1.8719 2.0376
-4.3715 1.5267 2.0376
-4.4815 1.1714 2.0376
-4.5624 0.8084 2.0376
-4.6138 0.4398 2.0376
-4.6352 0.0683 2.0376
-4.6266 -0.3038 2.0376
-4.5879 -0.6741 2.0376
-4.5195 -1.0401 2.0376
-4.4216 -1.3993 2.0376
-4.2951 -1.7495 2.0376
-4.1407 -2.0883 2.0376
-3.9594 -2.4135 2.0376
-3.7525 -2.7230 2.0376
-3.5213 -3.0147 2.0376
-3.2674 -3.2867 2.0376
-2.9923 -3.5373 2.0376
-2.6980 -3.7648 2.0376
-2.3864 -3.9677 2.0376
-0.7454 -1.5002 0.7375
-0.6225 -1.5549 0.7377
-0.4956 -1.5995 0.7379
-0.3656 -1.6339 0.7381
-0.2332 -1.6577 0.7384
-0.0994 -1.6709 0.7387
0.0350 -1.6733 0.7390
0.1693 -1.6650 0.7394
0.3024 -1.6460 0.7398
0.4336 -1.6163 0.7402
0.5620 -1.5763 0.7406
0.6868 -1.5261 0.7411
2.2182 -4.0287 2.0376
2.5332 -3.8353 2.0376
2.8316 -3.6174 2.0376
3.1114 -3.3764 2.0376
3.3709 -3.1139 2.0376
3.6084 -2.8315 2.0376
3.8225 -2.5311 2.0376
4.0118 -2.2147 2.0376
4.1751 -1.8844 2.0376
4.3114 -1.5420 2.0376
4.4199 -1.1901 2.0376
4.4563 -0.8226 2.0179
4.3925 -0.4498 1.9667
4.3293 -0.0933 1.9292
4.2660 0.2515 1.9042
4.2072 0.5904 1.8933
4.1425 0.9260 1.8919
4.0694 1.2606 1.8989
3.9972 1.6007 1.9192
3.9221 1.9500 1.9522
3.8419 2.3128 1.9984
3.7154 2.6659 2.0376
3.4897 2.9565 2.0376
3.2414 3.2283 2.0376
2.9722 3.4793 2.0376
2.6837 3.7082 2.0376
2.3777 3.9133 2.0376
0.7563 1.5056 0.7495
0.6330 1.5618 0.7493
0.5055 1.6080 0.7491
0.3747 1.6437 0.7489
0.2415 1.6687 0.7486
0.1066 1.6829 0.7483
-0.0290 1.6862 0.7480
-0.1643 1.6785 0.7476
-0.2987 1.6600 0.7472
-0.4310 1.6307 0.7468
-0.5606 1.5908 0.7464
-0.6865 1.5406 0.7459
-2.2085 4.0464 2.0376
-2.5277 3.8581 2.0376
-2.8308 3.6448 2.0376
-3.1160 3.4076 2.0376
-3.3812 3.1481 2.0376
-3.6248 2.8680 2.0376
-3.8452 2.5690 2.0376
-4.0408 2.2532 2.0376
-4.2103 1.9225 2.0376
-4.3527 1.5790 2.0376
-4.4669 1.2251 2.0376
-4.5522 0.8630 2.0376
-4.6080 0.4952 2.0376
-4.6339 0.1239 2.0376
-4.6298 -0.2483 2.0376
-4.5956 -0.6190 2.0376
-4.5316 -0.9857 2.0376
-4.4381 -1.3461 2.0376
4.2031 0.4516 2.0283
4.1386 0.7854 2.0214
4.0720 1.1184 2.0265
3.9907 1.4501 2.0376
3.8612 1.7663 2.0376
3.7070 2.0713 2.0376
3.5288 2.3630 2.0376
3.3279 2.6395 2.0376
3.1055 2.8991 2.0376
2.8630 3.1402 2.0376
2.6020 3.3611 2.0376
2.3241 3.5606 2.0376
0.7467 1.3739 0.7491
0.6340 1.4298 0.7490
0.5171 1.4764 0.7488
0.3968 1.5134 0.7486
0.2739 1.5407 0.7484
0.1493 1.5579 0.7481
0.0236 1.5650 0.7478
-0.1022 1.5620 0.7475
-0.2274 1.5489 0.7471
-0.3511 1.5257 0.7468
-0.4725 1.4926 0.7464
-0.5908 1.4498 0.7459
-0.7053 1.3976 0.7455
-2.2295 3.6548 2.0376
-2.5171 3.4659 2.0376
-2.7887 3.2543 2.0376
-3.0425 3.0215 2.0376
-3.2768 2.7689 2.0376
-3.4900 2.4981 2.0376
-3.6809 2.2109 2.0376
-3.8480 1.9092 2.0376
-3.9903 1.5949 2.0376
-4.1068 1.2700 2.0376
-4.1968 0.9368 2.0376
-4.2596 0.5972 2.0376
-4.2948 0.2536 2.0376
-4.3021 -0.0917 2.0376
-4.2815 -0.4366 2.0376
-4.2332 -0.7787 2.0376
-4.1573 -1.1158 2.0376
-4.0545 -1.4457 2.0376
-3.9254 -1.7662 2.0376
-3.7708 -2.0753 2.0376
-3.5918 -2.3708 2.0376
-3.3895 -2.6508 2.0376
-3.1653 -2.9136 2.0376
-2.9207 -3.1574 2.0376
-2.6572 -3.3806 2.0376
-2.3767 -3.5817 2.0376
-0.7535 -1.3614 0.7379
-0.6417 -1.4172 0.7380
-0.5258 -1.4639 0.7382
-0.4066 -1.5011 0.7384
-0.2848 -1.5286 0.7386
-0.1611 -1.5464 0.7389
-0.0365 -1.5541 0.7392
0.0884 -1.5519 0.7395
0.2127 -1.5397 0.7398
0.3356 -1.5176 0.7402
0.4564 -1.4857 0.7406
0.5743 -1.4442 0.7410
0.6884 -1.3935 0.7414
2.1923 -3.6633 2.0376
2.4782 -3.4735 2.0376
2.7478 -3.2615 2.0376
2.9995 -3.0286 2.0376
3.2316 -2.7764 2.0376
3.4427 -2.5066 2.0376
3.6314 -2.2208 2.0376
3.7966 -1.9209 2.0376
3.9372 -1.6089 2.0376
4.0524 -1.2867 2.0376
4.1415 -0.9564 2.0376
4.2038 -0.6202 2.0376
4.2390 -0.2801 2.0376
4.2470 0.0616 2.0376
4.2126 0.4014 2.0304
4.1484 0.7356 2.0217
4.0822 1.0685 2.0250
4.0078 1.4020 2.0376
3.8822 1.7198 2.0376
3.7316 2.0265 2.0376
3.5569 2.3203 2.0376
3.3593 2.5992 2.0376
3.1401 2.8614 2.0376
2.9005 3.1054 2.0376
2.6422 3.3294 2.0376
2.3667 3.5322 2.0376
0.7631 1.3648 0.7491
0.6511 1.4220 0.7490
0.5348 1.4700 0.7488
0.4150 1.5085 0.7486
0.2924 1.5372 0.7484
0.1680 1.5560 0.7481
0.0424 1.5646 0.7478
-0.0834 1.5631 0.7475
-0.2088 1.5515 0.7472
-0.3327 1.5298 0.7468
-0.4545 1.4981 0.7464
-0.5734 1.4568 0.7460
-0.6885 1.4060 0.7456
-2.1853 3.6810 2.0376
-2.4751 3.4956 2.0376
-2.7492 3.2873 2.0376
-3.0057 3.0576 2.0376
-3.2430 2.8078 2.0376
-3.4595 2.5397 2.0376
-3.6538 2.2548 2.0376
-3.8246 1.9552 2.0376
-3.9706 1.6426 2.0376
-4.0911 1.3192 2.0376
-4.1851 0.9870 2.0376
-4.2519 0.6483 2.0376
-4.2913 0.3052 2.0376
-4.3028 -0.0401 2.0376
-4.2864 -0.3851 2.0376
-4.2421 -0.7278 2.0376
-4.1704 -1.0658 2.0376
-4.0716 -1.3969 2.0376
-3.9463 -1.7190 2.0376
-3.7955 -2.0299 2.0376
-3.6201 -2.3275 2.0376
-3.4212 -2.6100 2.0376
-3.2002 -2.8755 2.0376
-2.9585 -3.1222 2.0376
-2.6977 -3.3486 2.0376
-2.4196 -3.5531 2.0376
-0.7699 -1.3523 0.7379
-0.6587 -1.4094 0.7380
-0.5434 -1.4575 0.7381
-0.4246 -1.4961 0.7383
-0.3031 -1.5251 0.7386
-0.1797 -1.5443 0.7388
-0.0551 -1.5536 0.7391
0.0697 -1.5529 0.7394
0.1942 -1.5421 0.7398
0.3174 -1.5215 0.7401
0.4385 -1.4911 0.7405
0.5568 -1.4510 0.7409
0.6716 -1.4017 0.7414
0.7821 -1.3432 0.7418
2.4364 -3.5033 2.0376
2.7086 -3.2945 2.0376
2.9631 -3.0647 2.0376
3.1982 -2.8153 2.0376
3.4125 -2.5480 2.0376
3.6047 -2.2644 2.0376
3.7734 -1.9666 2.0376
3.9178 -1.6562 2.0376
4.0368 -1.3354 2.0376
4.1298 -1.0063 2.0376
4.1962 -0.6708 2.0376
4.2355 -0.3311 2.0376
4.2476 0.0105 2.0376
4.2221 0.3511 2.0327
4.1581 0.6859 2.0222
4.0922 1.0187 2.0237
4.0237 1.3534 2.0373
3.9026 1.6729 2.0376
3.7556 1.9814 2.0376
3.5845 2.2773 2.0376
3.3903 2.5585 2.0376
3.1742 2.8234 2.0376
2.9375 3.0701 2.0376
2.6819 3.2973 2.0376
2.4089 3.5033 2.0376
0.7795 1.3555 0.7491
0.6681 1.4140 0.7490
0.5524 1.4635 0.7489
0.4331 1.5034 0.7487
0.3109 1.5336 0.7484
0.1867 1.5538 0.7482
0.0612 1.5640 0.7479
-0.0646 1.5640 0.7476
-0.1901 1.5539 0.7472
-0.3143 1.5336 0.7469
-0.4365 1.5035 0.7465
-0.5558 1.4636 0.7461
-0.6716 1.4142 0.7456
-2.1407 3.7067 2.0376
-2.4327 3.5248 2.0376
-2.7093 3.3198 2.0376
-2.9686 3.0932 2.0376
-3.2088 2.8464 2.0376
-3.4286 2.5809 2.0376
-3.6262 2.2984 2.0376
-3.8006 2.0008 2.0376
-3.9504 1.6901 2.0376
-4.0747 1.3682 2.0376
-4.1727 1.0372 2.0376
-4.2437 0.6993 2.0376
-4.2871 0.3566 2.0376
-4.3028 0.0116 2.0376
-4.2906 -0.3336 2.0376
-4.2505 -0.6768 2.0376
-4.1828 -1.0157 2.0376
-4.0880 -1.3480 2.0376
-3.9667 -1.6715 2.0376
-3.8196 -1.9842 2.0376
-3.6478 -2.2839 2.0376
-3.4523 -2.5688 2.0376
-3.2345 -2.8370 2.0376
-2.9959 -3.0866 2.0376
-2.7379 -3.3161 2.0376
-2.4622 -3.5240 2.0376
-0.7861 -1.3430 0.7378
-0.6756 -1.4015 0.7380
-0.5609 -1.4509 0.7381
-0.4426 -1.4910 0.7383
-0.3214 -1.5214 0.7385
-0.1982 -1.5421 0.7388
-0.0738 -1.5529 0.7391
0.0511 -1.5536 0.7394
0.1756 -1.5444 0.7397
0.2991 -1.5252 0.7401
0.4206 -1.4962 0.7405
0.5394 -1.4576 0.7409
0.6547 -1.4096 0.7413
0.7659 -1.3525 0.7417
2.3943 -3.5327 2.0376
2.6690 -3.3271 2.0376
2.9262 -3.1003 2.0376
3.1643 -2.8538 2.0376
3.3818 -2.5890 2.0376
3.5774 -2.3078 2.0376
3.7497 -2.0119 2.0376
3.8978 -1.7033 2.0376
4.0207 -1.3840 2.0376
4.1176 -1.0559 2.0376
4.1880 -0.7212 2.0376
4.2314 -0.3821 2.0376
4.2475 -0.0406 2.0376
4.2316 0.3007 2.0354
4.1678 0.6360 2.0230
4.1022 0.9689 2.0227
4.0341 1.3031 2.0345
3.9224 1.6258 2.0376
3.7792 1.9361 2.0376
3.6116 2.2339 2.0376
3.4207 2.5175 2.0376
3.2078 2.7849 2.0376
2.9742 3.0345 2.0376
2.7213 3.2646 2.0376
2.4507 3.4739 2.0376
2.1642 3.6609 2.0376
0.6851 1.4059 0.7490
0.5700 1.4567 0.7489
0.4511 1.4980 0.7487
0.3293 1.5297 0.7485
0.2054 1.5514 0.7482
0.0800 1.5631 0.7479
-0.0458 1.5646 0.7476
-0.1714 1.5560 0.7473
-0.2958 1.5373 0.7469
-0.4184 1.5086 0.7465
-0.5382 1.4701 0.7461
-0.6545 1.4221 0.7457
-0.7666 1.3649 0.7453
-2.3900 3.5535 2.0376
-2.6690 3.3519 2.0376
-2.9310 3.1284 2.0376
-3.1742 2.8845 2.0376
-3.3971 2.6217 2.0376
-3.5981 2.3416 2.0376
-3.7761 2.0462 2.0376
-3.9296 1.7373 2.0376
-4.0578 1.4169 2.0376
-4.1598 1.0871 2.0376
-4.2348 0.7501 2.0376
-4.2824 0.4081 2.0376
-4.3023 0.0632 2.0376
-4.2942 -0.2821 2.0376
-4.2583 -0.6257 2.0376
-4.1947 -0.9654 2.0376
-4.1039 -1.2988 2.0376
-3.9865 -1.6238 2.0376
-3.8432 -1.9382 2.0376
-3.6750 -2.2400 2.0376
-3.4830 -2.5273 2.0376
-3.2685 -2.7980 2.0376
-3.0328 -3.0505 2.0376
-2.7776 -3.2831 2.0376
-2.5045 -3.4943 2.0376
-2.2153 -3.6828 2.0376
-0.6924 -1.3933 0.7379
-0.5783 -1.4441 0.7381
-0.4604 -1.4856 0.7383
-0.3397 -1.5175 0.7385
-0.2168 -1.5396 0.7387
-0.0925 -1.5519 0.7390
0.0324 -1.5541 0.7393
0.1571 -1.5464 0.7397
0.2807 -1.5287 0.7400
0.4026 -1.5012 0.7404
0.5218 -1.4640 0.7408
0.6377 -1.4174 0.7412
0.7495 -1.3616 0.7417
2.3519 -3.5615 2.0376
2.6290 -3.3592 2.0376
2.8889 -3.1355 2.0376
3.1300 -2.8918 2.0376
3.3507 -2.6297 2.0376
3.5496 -2.3508 2.0376
3.7255 -2.0570 2.0376
3.8773 -1.7502 2.0376
4.0040 -1.4323 2.0376
4.1048 -1.1054 2.0376
4.1792 -0.7716 2.0376
4.2266 -0.4330 2.0376
4.2468 -0.0918 2.0376
4.2397 0.2500 2.0376
4.1774 0.5862 2.0241
4.1122 0.9192 2.0220
4.0445 1.2529 2.0319
3.9417 1.5785 2.0376
3.8021 1.8905 2.0376
3.6381 2.1903 2.0376
3.4507 2.4761 2.0376
3.2410 2.7460 2.0376
3.0104 2.9983 2.0376
2.7602 3.2315 2.0376
2.4922 3.4440 2.0376
2.2080 3.6344 2.0376
0.7019 1.3975 0.7491
0.5874 1.4497 0.7489
0.4691 1.4925 0.7487
0.3477 1.5256 0.7485
0.2240 1.5488 0.7483
0.0988 1.5620 0.7480
-0.0270 1.5651 0.7477
-0.1527 1.5579 0.7473
-0.2773 1.5407 0.7470
-0.4002 1.5135 0.7466
-0.5205 1.4765 0.7462
-0.6374 1.4299 0.7458
-0.7501 1.3741 0.7453
-2.3470 3.5817 2.0376
-2.6283 3.3835 2.0376
-2.8930 3.1632 2.0376
-3.1391 2.9222 2.0376
-3.3651 2.6621 2.0376
-3.5695 2.3845 2.0376
-3.7510 2.0913 2.0376
-3.9082 1.7843 2.0376
-4.0403 1.4655 2.0376
-4.1462 1.1369 2.0376
-4.2253 0.8009 2.0376
-4.2771 0.4594 2.0376
-4.3011 0.1149 2.0376
-4.2972 -0.2305 2.0376
-4.2654 -0.5746 2.0376
-4.2059 -0.9150 2.0376
-4.1192 -1.2494 2.0376
3.9345 0.4227 2.0376
3.8874 0.7377 2.0376
3.8152 1.0478 2.0376
3.7186 1.3512 2.0376
3.5979 1.6460 2.0376
3.4542 1.9301 2.0376
3.2881 2.2019 2.0376
3.1009 2.4596 2.0376
2.8936 2.7015 2.0376
2.6676 2.9261 2.0376
2.4243 3.1319 2.0376
2.1653 3.3177 2.0376
0.6953 1.2795 0.7487
0.5903 1.3315 0.7486
0.4814 1.3749 0.7484
0.3694 1.4094 0.7482
0.2550 1.4348 0.7480
0.1389 1.4508 0.7478
0.0219 1.4575 0.7475
-0.0953 1.4547 0.7472
-0.2119 1.4424 0.7469
-0.3271 1.4208 0.7465
-0.4402 1.3900 0.7462
-0.5504 1.3502 0.7458
-0.6570 1.3016 0.7454
-0.7594 1.2446 0.7450
-2.3449 3.2281 2.0376
-2.5978 3.0310 2.0376
-2.8341 2.8140 2.0376
-3.0522 2.5787 2.0376
-3.2508 2.3265 2.0376
-3.4284 2.0590 2.0376
-3.5840 1.7779 2.0376
-3.7164 1.4852 2.0376
-3.8249 1.1826 2.0376
-3.9086 0.8722 2.0376
-3.9670 0.5560 2.0376
-3.9997 0.2361 2.0376
-4.0065 -0.0855 2.0376
-3.9873 -0.4067 2.0376
-3.9422 -0.7252 2.0376
-3.8716 -1.0391 2.0376
-3.7759 -1.3463 2.0376
-3.6556 -1.6448 2.0376
-3.5117 -1.9326 2.0376
-3.3450 -2.2078 2.0376
-3.1567 -2.4686 2.0376
-2.9479 -2.7133 2.0376
-2.7202 -2.9404 2.0376
-2.4749 -3.1483 2.0376
-2.2137 -3.3357 2.0376
-0.7023 -1.2686 0.7383
-0.5981 -1.3206 0.7384
-0.4901 -1.3640 0.7385
-0.3790 -1.3987 0.7387
-0.2655 -1.4244 0.7389
-0.1503 -1.4409 0.7392
-0.0341 -1.4482 0.7395
0.0822 -1.4461 0.7398
0.1981 -1.4347 0.7401
0.3126 -1.4141 0.7404
0.4251 -1.3844 0.7408
0.5349 -1.3458 0.7412
0.6413 -1.2984 0.7416
0.7436 -1.2428 0.7420
2.3084 -3.2362 2.0376
2.5597 -3.0388 2.0376
2.7943 -2.8219 2.0376
3.0106 -2.5870 2.0376
3.2073 -2.3356 2.0376
3.3833 -2.0694 2.0376
3.5373 -1.7900 2.0376
3.6684 -1.4993 2.0376
3.7758 -1.1991 2.0376
3.8588 -0.8914 2.0376
3.9170 -0.5780 2.0376
3.9499 -0.2612 2.0376
3.9574 0.0573 2.0376
3.9394 0.3753 2.0376
3.8960 0.6908 2.0376
3.8276 1.0019 2.0376
3.7345 1.3064 2.0376
3.6175 1.6025 2.0376
3.4771 1.8884 2.0376
3.3143 2.1621 2.0376
3.1301 2.4220 2.0376
2.9258 2.6664 2.0376
2.7025 2.8937 2.0376
2.4617 3.1024 2.0376
2.2050 3.2913 2.0376
0.7106 1.2710 0.7487
0.6062 1.3243 0.7486
0.4979 1.3690 0.7485
0.3863 1.4049 0.7483
0.2722 1.4316 0.7481
0.1563 1.4490 0.7478
0.0394 1.4571 0.7475
-0.0778 1.4557 0.7472
-0.1945 1.4448 0.7469
-0.3100 1.4246 0.7466
-0.4234 1.3952 0.7462
-0.5341 1.3567 0.7458
-0.6413 1.3094 0.7454
-0.7444 1.2536 0.7450
-2.3058 3.2558 2.0376
-2.5610 3.0618 2.0376
-2.7999 2.8477 2.0376
-3.0208 2.6150 2.0376
-3.2224 2.3652 2.0376
-3.4032 2.0999 2.0376
-3.5622 1.8207 2.0376
-3.6981 1.5296 2.0376
-3.8102 1.2284 2.0376
-3.8977 0.9190 2.0376
-3.9599 0.6036 2.0376
-3.9965 0.2841 2.0376
-4.0071 -0.0374 2.0376
-3.9918 -0.3588 2.0376
-3.9506 -0.6779 2.0376
-3.8838 -0.9926 2.0376
-3.7917 -1.3009 2.0376
-3.6751 -1.6008 2.0376
-3.5347 -1.8903 2.0376
-3.3713 -2.1675 2.0376
-3.1862 -2.4306 2.0376
-2.9804 -2.6778 2.0376
-2.7554 -2.9076 2.0376
-2.5126 -3.1185 2.0376
-2.2537 -3.3090 2.0376
-0.7175 -1.2601 0.7382
-0.6139 -1.3133 0.7384
-0.5065 -1.3581 0.7385
-0.3958 -1.3941 0.7387
-0.2826 -1.4212 0.7389
-0.1676 -1.4390 0.7391
-0.0515 -1.4477 0.7394
0.0649 -1.4470 0.7397
0.1808 -1.4370 0.7400
0.2956 -1.4178 0.7404
0.4085 -1.3894 0.7407
0.5187 -1.3521 0.7411
0.6257 -1.3061 0.7415
0.7286 -1.2516 0.7419
2.2695 -3.2640 2.0376
2.5232 -3.0695 2.0376
2.7603 -2.8555 2.0376
2.9795 -2.6232 2.0376
3.1792 -2.3742 2.0376
3.3583 -2.1101 2.0376
3.5157 -1.8325 2.0376
3.6503 -1.5434 2.0376
3.7613 -1.2445 2.0376
3.8480 -0.9378 2.0376
3.9099 -0.6252 2.0376
3.9466 -0.3087 2.0376
3.9579 0.0097 2.0376
3.9437 0.3279 2.0376
3.9041 0.6439 2.0376
3.8394 0.9557 2.0376
3.7500 1.2614 2.0376
3.6365 1.5589 2.0376
3.4995 1.8464 2.0376
3.3400 2.1220 2.0376
3.1590 2.3841 2.0376
2.9576 2.6309 2.0376
2.7370 2.8608 2.0376
2.4988 3.0724 2.0376
2.2443 3.2643 2.0376
0.7258 1.2623 0.7487
0.6221 1.3169 0.7486
0.5143 1.3629 0.7485
0.4032 1.4001 0.7483
0.2894 1.4282 0.7481
0.1737 1.4470 0.7479
0.0569 1.4565 0.7476
-0.0603 1.4565 0.7473
-0.1772 1.4471 0.7470
-0.2928 1.4282 0.7466
-0.4066 1.4002 0.7463
-0.5178 1.3630 0.7459
-0.6256 1.3170 0.7455
-0.7293 1.2625 0.7451
-2.2663 3.2830 2.0376
-2.5239 3.0921 2.0376
-2.7653 2.8809 2.0376
-2.9890 2.6509 2.0376
-3.1935 2.4036 2.0376
-3.3776 2.1404 2.0376
-3.5398 1.8633 2.0376
-3.6793 1.5738 2.0376
-3.7950 1.2740 2.0376
-3.8862 0.9657 2.0376
-3.9522 0.6511 2.0376
-3.9926 0.3320 2.0376
-4.0072 0.0107 2.0376
-3.9958 -0.3108 2.0376
-3.9584 -0.6304 2.0376
-3.8954 -0.9459 2.0376
-3.8071 -1.2553 2.0376
-3.6941 -1.5566 2.0376
-3.5572 -1.8478 2.0376
-3.3972 -2.1269 2.0376
-3.2152 -2.3922 2.0376
-3.0124 -2.6419 2.0376
-2.7902 -2.8744 2.0376
-2.5500 -3.0882 2.0376
-2.2933 -3.2819 2.0376
-0.7326 -1.2514 0.7382
-0.6297 -1.3059 0.7383
-0.5227 -1.3520 0.7385
-0.4125 -1.3893 0.7387
-0.2996 -1.4177 0.7389
-0.1848 -1.4370 0.7391
-0.0689 -1.4470 0.7394
0.0475 -1.4477 0.7397
0.1635 -1.4391 0.7400
0.2785 -1.4212 0.7403
0.3917 -1.3942 0.7407
0.5024 -1.3582 0.7410
0.6099 -1.3135 0.7414
0.7135 -1.2603 0.7418
2.2303 -3.2913 2.0376
2.4863 -3.0999 2.0376
2.7260 -2.8887 2.0376
2.9479 -2.6590 2.0376
3.1507 -2.4124 2.0376
3.3329 -2.1504 2.0376
3.4936 -1.8748 2.0376
3.6317 -1.5873 2.0376
3.7462 -1.2897 2.0376
3.8366 -0.9841 2.0376
3.9022 -0.6722 2.0376
3.9427 -0.3562 2.0376
3.9578 -0.0380 2.0376
3.9474 0.2804 2.0376
3.9116 0.5969 2.0376
3.8507 0.9094 2.0376
3.7649 1.2161 2.0376
3.6549 1.5150 2.0376
3.5214 1.8041 2.0376
3.3653 2.0817 2.0376
3.1874 2.3459 2.0376
2.9889 2.5950 2.0376
2.7712 2.8276 2.0376
2.5355 3.0420 2.0376
2.2833 3.2370 2.0376
0.7409 1.2535 0.7488
0.6379 1.3093 0.7487
0.5307 1.3566 0.7485
0.4200 1.3951 0.7483
0.3066 1.4246 0.7481
0.1911 1.4448 0.7479
0.0744 1.4557 0.7476
-0.0428 1.4571 0.7473
-0.1597 1.4491 0.7470
-0.2757 1.4316 0.7467
-0.3898 1.4049 0.7463
-0.5014 1.3691 0.7459
-0.6097 1.3244 0.7456
-0.7141 1.2712 0.7451
-2.2266 3.3098 2.0376
-2.4863 3.1219 2.0376
-2.7303 2.9137 2.0376
-2.9567 2.6864 2.0376
-3.1642 2.4416 2.0376
-3.3514 2.1807 2.0376
-3.5170 1.9055 2.0376
-3.6599 1.6178 2.0376
-3.7793 1.3194 2.0376
-3.8741 1.0123 2.0376
-3.9439 0.6984 2.0376
-3.9882 0.3799 2.0376
-4.0067 0.0588 2.0376
-3.9991 -0.2628 2.0376
-3.9656 -0.5828 2.0376
-3.9064 -0.8991 2.0376
-3.8219 -1.2095 2.0376
-3.7125 -1.5122 2.0376
-3.5791 -1.8050 2.0376
-3.4225 -2.0860 2.0376
-3.2437 -2.3535 2.0376
-3.0440 -2.6057 2.0376
-2.8246 -2.8408 2.0376
-2.5870 -3.0575 2.0376
-2.3327 -3.2542 2.0376
-0.7476 -1.2426 0.7382
-0.6453 -1.2983 0.7383
-0.5390 -1.3456 0.7385
-0.4292 -1.3843 0.7386
-0.3166 -1.4140 0.7388
-0.2021 -1.4347 0.7391
-0.0863 -1.4461 0.7393
0.0301 -1.4482 0.7396
0.1462 -1.4410 0.7399
0.2614 -1.4245 0.7403
0.3750 -1.3988 0.7406
0.4861 -1.3642 0.7410
0.5941 -1.3207 0.7414
0.6983 -1.2688 0.7418
2.1907 -3.3181 2.0376
2.4490 -3.1298 2.0376
2.6912 -2.9214 2.0376
2.9159 -2.6945 2.0376
3.1216 -2.4503 2.0376
3.3070 -2.1905 2.0376
3.4710 -1.9168 2.0376
3.6125 -1.6310 2.0376
3.7306 -1.3348 2.0376
3.8247 -1.0302 2.0376
3.8940 -0.7191 2.0376
3.9383 -0.4036 2.0376
3.9572 -0.0856 2.0376
3.9506 0.2329 2.0376
3.9186 0.5498 2.0376
3.8614 0.8630 2.0376
3.7793 1.1707 2.0376
3.6729 1.4709 2.0376
3.5429 1.7616 2.0376
3.3900 2.0410 2.0376
3.2153 2.3072 2.0376
3.0199 2.5588 2.0376
2.8049 2.7939 2.0376
2.5718 3.0112 2.0376
2.3220 3.2091 2.0376
0.7559 1.2444 0.7488
0.6536 1.3015 0.7487
0.5470 1.3501 0.7485
0.4367 1.3899 0.7484
0.3237 1.4207 0.7482
0.2085 1.4424 0.7479
0.0919 1.4546 0.7477
-0.0253 1.4575 0.7474
-0.1423 1.4509 0.7471
-0.2584 1.4348 0.7467
-0.3729 1.4095 0.7464
-0.4849 1.3750 0.7460
-0.5937 1.3317 0.7456
-0.6987 1.2797 0.7452
-2.1865 3.3360 2.0376
-2.4485 3.1513 2.0376
-2.6949 2.9461 2.0376
-2.9240 2.7216 2.0376
-3.1345 2.4792 2.0376
-3.3248 2.2207 2.0376
-3.4937 1.9475 2.0376
-3.6401 1.6615 2.0376
-3.7630 1.3646 2.0376
-3.8615 1.0587 2.0376
-3.9351 0.7457 2.0376
-3.9832 0.4277 2.0376
-4.0056 0.1069 2.0376
-4.0019 -0.2148 2.0376
-3.9723 -0.5352 2.0376
-3.9169 -0.8521 2.0376
-3.8361 -1.1636 2.0376
3.6764 0.3949 2.0376
3.6324 0.6892 2.0376
3.5650 0.9791 2.0376
3.4747 1.2626 2.0376
3.3619 1.5380 2.0376
3.2275 1.8036 2.0376
3.0724 2.0575 2.0376
2.8974 2.2983 2.0376
2.7036 2.5243 2.0376
2.4924 2.7342 2.0376
2.2651 2.9265 2.0376
0.7431 1.1387 0.7485
0.6493 1.1950 0.7484
0.5512 1.2436 0.7483
0.4495 1.2841 0.7481
0.3449 1.3163 0.7479
0.2380 1.3400 0.7477
0.1296 1.3550 0.7475
0.0203 1.3612 0.7472
-0.0892 1.3586 0.7470
-0.1980 1.3471 0.7467
-0.3056 1.3269 0.7463
-0.4112 1.2982 0.7460
-0.5142 1.2610 0.7456
-0.6138 1.2156 0.7452
-0.7094 1.1624 0.7449
-2.1907 3.0153 2.0376
-2.4269 2.8310 2.0376
-2.6475 2.6283 2.0376
-2.8512 2.4084 2.0376
-3.0365 2.1728 2.0376
-3.2024 1.9229 2.0376
-3.3476 1.6604 2.0376
-3.4713 1.3870 2.0376
-3.5725 1.1044 2.0376
-3.6506 0.8145 2.0376
-3.7051 0.5191 2.0376
-3.7356 0.2203 2.0376
-3.7419 -0.0800 2.0376
-3.7240 -0.3799 2.0376
-3.6819 -0.6774 2.0376
-3.6159 -0.9705 2.0376
-3.5265 -1.2574 2.0376
-3.4142 -1.5361 2.0376
-3.2798 -1.8049 2.0376
-3.1241 -2.0619 2.0376
-2.9483 -2.3055 2.0376
-2.7534 -2.5341 2.0376
-2.5407 -2.7461 2.0376
-2.3116 -2.9403 2.0376
-0.7494 -1.1291 0.7385
-0.6563 -1.1854 0.7386
-0.5590 -1.2340 0.7387
-0.4581 -1.2746 0.7389
-0.3543 -1.3070 0.7390
-0.2482 -1.3310 0.7392
-0.1405 -1.3464 0.7395
-0.0320 -1.3532 0.7397
0.0767 -1.3513 0.7400
0.1849 -1.3406 0.7403
0.2920 -1.3214 0.7406
0.3971 -1.2936 0.7410
0.4997 -1.2575 0.7413
0.5991 -1.2133 0.7417
0.6946 -1.1613 0.7421
2.1564 -3.0236 2.0376
2.3912 -2.8392 2.0376
2.6104 -2.6366 2.0376
2.8126 -2.4172 2.0376
2.9965 -2.1824 2.0376
3.1609 -1.9337 2.0376
3.3049 -1.6727 2.0376
3.4275 -1.4011 2.0376
3.5279 -1.1206 2.0376
3.6056 -0.8331 2.0376
