ply
format ascii 1.0
element vertex 2178
property float32 x
property float32 y
property float32 z
end_header
4.3832 0.5171 1.8841
4.3239 0.8655 1.8841
4.3205 1.2315 1.9217
4.3496 1.6266 1.9890
4.2993 2.0137 2.0365
4.1170 2.3476 2.0365
3.9081 2.6648 2.0365
3.6742 2.9633 2.0365
3.4170 3.2410 2.0365
3.1384 3.4962 2.0365
2.8405 3.7272 2.0365
2.5255 3.9328 2.0365
0.7959 1.4906 0.7383
0.6734 1.5492 0.7402
0.5465 1.5978 0.7421
0.4160 1.6359 0.7440
0.2830 1.6634 0.7458
0.1481 1.6800 0.7477
0.0123 1.6857 0.7496
-0.1235 1.6804 0.7514
-0.2584 1.6641 0.7531
-0.3916 1.6370 0.7548
-0.5221 1.5992 0.7564
-0.6491 1.5509 0.7580
-2.0699 4.0028 2.0365
-2.3810 3.8136 2.0365
-2.6756 3.6009 2.0365
-2.9521 3.3661 2.0365
-3.2089 3.1106 2.0365
-3.4444 2.8362 2.0365
-3.6575 2.5445 2.0365
-3.8468 2.2374 2.0365
-4.0113 1.9167 2.0365
-4.1501 1.5844 2.0365
-4.2625 1.2424 2.0365
-4.3478 0.8928 2.0365
-4.4054 0.5377 2.0365
-4.4352 0.1792 2.0365
-4.4369 -0.1807 2.0365
-4.4104 -0.5397 2.0365
-4.3559 -0.8958 2.0365
-4.2737 -1.2469 2.0365
-4.1641 -1.5907 2.0365
-4.0277 -1.9253 2.0365
-3.8652 -2.2486 2.0365
-3.6776 -2.5587 2.0365
-3.4658 -2.8534 2.0365
-3.2310 -3.1311 2.0365
-2.9746 -3.3899 2.0365
-2.6979 -3.6281 2.0365
-2.4025 -3.8440 2.0365
-0.7682 -1.4833 0.7484
-0.6463 -1.5410 0.7466
-0.5201 -1.5886 0.7447
-0.3906 -1.6260 0.7428
-0.2585 -1.6528 0.7410
-0.1247 -1.6690 0.7391
0.0099 -1.6744 0.7373
0.1446 -1.6690 0.7355
0.2784 -1.6528 0.7337
0.4105 -1.6260 0.7321
0.5400 -1.5886 0.7305
0.6662 -1.5410 0.7289
0.7881 -1.4833 0.7275
1.4532 -2.2740 1.1661
2.8546 -3.7635 2.0365
2.8985 -3.2944 2.0365
3.1587 -3.0571 2.0365
3.3988 -2.7988 2.0365
3.6171 -2.5213 2.0365
3.8119 -2.2264 2.0365
3.9697 -1.9103 2.0303
4.0164 -1.5505 1.9827
4.0592 -1.2040 1.9487
4.0987 -0.8661 1.9275
4.1355 -0.5331 1.9183
4.1700 -0.2006 1.9209
4.2025 0.1344 1.9354
4.2335 0.4764 1.9622
4.2633 0.8295 2.0020
4.2510 1.1869 2.0365
4.1372 1.5215 2.0365
3.9964 1.8451 2.0365
3.8295 2.1557 2.0365
3.6379 2.4510 2.0365
3.4230 2.7292 2.0365
3.1864 2.9884 2.0365
2.9298 3.2269 2.0365
2.6550 3.4432 2.0365
2.3642 3.6360 2.0365
0.7468 1.3796 0.7386
0.6333 1.4346 0.7403
0.5158 1.4803 0.7420
0.3949 1.5163 0.7438
0.2715 1.5425 0.7456
0.1464 1.5586 0.7473
0.0204 1.5645 0.7490
-0.1057 1.5602 0.7507
-0.2310 1.5458 0.7523
-0.3547 1.5213 0.7539
-0.4761 1.4868 0.7554
-0.5942 1.4427 0.7568
-0.7084 1.3892 0.7582
-2.1933 3.5576 2.0365
-2.4686 3.3617 2.0365
-2.7272 3.1450 2.0365
-2.9675 2.9089 2.0365
-3.1882 2.6551 2.0365
-3.3881 2.3850 2.0365
-3.5659 2.1003 2.0365
-3.7207 1.8029 2.0365
-3.8516 1.4944 2.0365
-3.9579 1.1768 2.0365
-4.0390 0.8520 2.0365
-4.0944 0.5218 2.0365
-4.1238 0.1884 2.0365
-4.1269 -0.1465 2.0365
-4.1039 -0.4806 2.0365
-4.0547 -0.8121 2.0365
-3.9796 -1.1390 2.0365
-3.8790 -1.4593 2.0365
-3.7534 -1.7710 2.0365
-3.6035 -2.0723 2.0365
-3.4302 -2.3612 2.0365
-3.2343 -2.6360 2.0365
-3.0169 -2.8949 2.0365
-2.7794 -3.1363 2.0365
-2.5230 -3.3585 2.0365
-2.2492 -3.5601 2.0365
-0.7199 -1.3739 0.7482
-0.6070 -1.4280 0.7465
-0.4901 -1.4729 0.7447
-0.3700 -1.5082 0.7430
-0.2475 -1.5338 0.7412
-0.1233 -1.5495 0.7395
0.0018 -1.5552 0.7378
0.1269 -1.5508 0.7362
0.2512 -1.5364 0.7345
0.3740 -1.5121 0.7330
0.4945 -1.4780 0.7315
0.6118 -1.4344 0.7301
0.7253 -1.3815 0.7287
1.4367 -2.2725 1.2528
2.6295 -3.5025 2.0365
2.9074 -3.2869 2.0365
3.1669 -3.0490 2.0365
3.4063 -2.7900 2.0365
3.6238 -2.5121 2.0365
3.8178 -2.2165 2.0365
3.9713 -1.8983 2.0286
4.0179 -1.5390 1.9814
4.0605 -1.1928 1.9479
4.1000 -0.8552 1.9270
4.1366 -0.5222 1.9182
4.1710 -0.1899 1.9212
4.2036 0.1455 1.9361
4.2345 0.4878 1.9633
4.2642 0.8413 2.0035
4.2477 1.1980 2.0365
4.1330 1.5322 2.0365
3.9913 1.8555 2.0365
3.8236 2.1656 2.0365
3.6312 2.4604 2.0365
3.4156 2.7380 2.0365
3.1783 2.9965 2.0365
2.9210 3.2343 2.0365
2.6458 3.4499 2.0365
2.3544 3.6419 2.0365
0.7431 1.3815 0.7386
0.6295 1.4363 0.7404
0.5119 1.4816 0.7421
0.3909 1.5173 0.7439
0.2674 1.5432 0.7456
0.1423 1.5589 0.7474
0.0163 1.5645 0.7491
-0.1098 1.5599 0.7508
-0.2351 1.5452 0.7524
-0.3587 1.5203 0.7540
-0.4800 1.4855 0.7555
-0.5980 1.4411 0.7569
-0.7121 1.3873 0.7582
-2.2026 3.5515 2.0365
-2.4774 3.3549 2.0365
-2.7354 3.1375 2.0365
-2.9751 2.9009 2.0365
-3.1951 2.6465 2.0365
-3.3942 2.3759 2.0365
-3.5713 2.0908 2.0365
-3.7254 1.7929 2.0365
-3.8555 1.4841 2.0365
-3.9610 1.1663 2.0365
-4.0412 0.8412 2.0365
-4.0958 0.5109 2.0365
-4.1243 0.1774 2.0365
-4.1266 -0.1574 2.0365
-4.1027 -0.4915 2.0365
-4.0526 -0.8229 2.0365
-3.9767 -1.1496 2.0365
-3.8753 -1.4696 2.0365
-3.7489 -1.7810 2.0365
-3.5982 -2.0819 2.0365
-3.4241 -2.3704 2.0365
-3.2275 -2.6448 2.0365
-3.0095 -2.9031 2.0365
-2.7713 -3.1439 2.0365
-2.5143 -3.3654 2.0365
-2.2400 -3.5663 2.0365
-0.7163 -1.3758 0.7481
-0.6033 -1.4296 0.7464
-0.4862 -1.4742 0.7447
-0.3660 -1.5092 0.7429
-0.2434 -1.5345 0.7412
-0.1192 -1.5499 0.7395
0.0059 -1.5552 0.7378
0.1309 -1.5505 0.7361
0.2553 -1.5358 0.7345
0.3780 -1.5112 0.7329
0.4984 -1.4768 0.7314
0.6156 -1.4328 0.7300
0.7290 -1.3796 0.7287
1.4457 -2.2735 1.2554
2.6389 -3.4958 2.0365
2.9162 -3.2795 2.0365
3.1751 -3.0408 2.0365
3.4138 -2.7812 2.0365
3.6306 -2.5025 2.0365
3.8238 -2.2065 2.0365
3.9729 -1.8862 2.0268
4.0193 -1.5275 1.9800
4.0619 -1.1816 1.9470
4.1012 -0.8442 1.9266
4.1378 -0.5111 1.9182
4.1721 -0.1789 1.9215
4.2046 0.1566 1.9368
4.2355 0.4992 1.9644
4.2652 0.8531 2.0051
4.2444 1.2091 2.0365
4.1288 1.5430 2.0365
3.9862 1.8659 2.0365
3.8177 2.1755 2.0365
3.6245 2.4698 2.0365
3.4081 2.7468 2.0365
3.1701 3.0047 2.0365
2.9123 3.2418 2.0365
2.6365 3.4566 2.0365
2.3446 3.6478 2.0365
0.7395 1.3835 0.7387
0.6257 1.4379 0.7404
0.5079 1.4830 0.7422
0.3869 1.5183 0.7439
0.2634 1.5438 0.7457
0.1382 1.5593 0.7474
0.0121 1.5645 0.7491
-0.1139 1.5596 0.7508
-0.2392 1.5445 0.7524
-0.3628 1.5193 0.7540
-0.4839 1.4842 0.7555
-0.6018 1.4395 0.7569
-0.7157 1.3854 0.7583
-2.2118 3.5454 2.0365
-2.4861 3.3481 2.0365
-2.7435 3.1301 2.0365
-2.9826 2.8928 2.0365
-3.2020 2.6379 2.0365
-3.4004 2.3667 2.0365
-3.5767 2.0812 2.0365
-3.7300 1.7830 2.0365
-3.8593 1.4738 2.0365
-3.9640 1.1557 2.0365
-4.0434 0.8305 2.0365
-4.0971 0.5001 2.0365
-4.1248 0.1664 2.0365
-4.1262 -0.1684 2.0365
-4.1015 -0.5024 2.0365
-4.0506 -0.8337 2.0365
-3.9738 -1.1602 2.0365
-3.8715 -1.4800 2.0365
-3.7443 -1.7911 2.0365
-3.5929 -2.0916 2.0365
-3.4180 -2.3797 2.0365
-3.2207 -2.6535 2.0365
-3.0020 -2.9113 2.0365
-2.7632 -3.1514 2.0365
-2.5056 -3.3723 2.0365
-2.2307 -3.5725 2.0365
-0.7127 -1.3777 0.7481
-0.5995 -1.4312 0.7464
-0.4824 -1.4755 0.7446
-0.3621 -1.5102 0.7429
-0.2394 -1.5352 0.7411
-0.1151 -1.5502 0.7394
0.0100 -1.5552 0.7377
0.1350 -1.5502 0.7360
0.2593 -1.5352 0.7344
0.3820 -1.5102 0.7329
0.5023 -1.4755 0.7314
0.6194 -1.4312 0.7300
0.7326 -1.3777 0.7286
1.4547 -2.2746 1.2580
2.6482 -3.4891 2.0365
2.6980 -3.0645 2.0365
2.9397 -2.8435 2.0365
3.1627 -2.6030 2.0365
3.3654 -2.3448 2.0365
3.5463 -2.0704 2.0365
3.7041 -1.7818 2.0365
3.8376 -1.4810 2.0365
3.9458 -1.1700 2.0365
4.0280 -0.8510 2.0365
4.0835 -0.5263 2.0365
4.1120 -0.1981 2.0365
4.1132 0.1313 2.0365
4.0872 0.4595 2.0365
4.0342 0.7843 2.0365
3.9547 1.1034 2.0365
3.8491 1.4146 2.0365
3.7185 1.7157 2.0365
3.5636 2.0047 2.0365
3.3858 2.2796 2.0365
3.1862 2.5387 2.0365
2.9665 2.7801 2.0365
2.7281 3.0024 2.0365
2.4728 3.2041 2.0365
0.7974 1.2252 0.7373
0.6962 1.2848 0.7389
0.5905 1.3360 0.7405
0.4810 1.3785 0.7421
0.3685 1.4121 0.7438
0.2535 1.4364 0.7454
0.1370 1.4514 0.7470
0.0197 1.4569 0.7486
-0.0977 1.4530 0.7502
-0.2144 1.4395 0.7517
-0.3297 1.4167 0.7532
-0.4427 1.3846 0.7546
-0.5527 1.3435 0.7559
-0.6591 1.2937 0.7572
-0.7610 1.2354 0.7583
-2.3009 3.1355 2.0365
-2.5423 2.9337 2.0365
-2.7668 2.7137 2.0365
-2.9730 2.4771 2.0365
-3.1597 2.2252 2.0365
-3.3258 1.9597 2.0365
-3.4704 1.6822 2.0365
-3.5928 1.3944 2.0365
-3.6921 1.0980 2.0365
-3.7678 0.7949 2.0365
-3.8195 0.4868 2.0365
-3.8469 0.1755 2.0365
-3.8498 -0.1369 2.0365
-3.8282 -0.4488 2.0365
-3.7821 -0.7581 2.0365
-3.7118 -1.0631 2.0365
-3.6177 -1.3619 2.0365
-3.5003 -1.6527 2.0365
-3.3601 -1.9336 2.0365
-3.1981 -2.2029 2.0365
-3.0150 -2.4590 2.0365
-2.8120 -2.7002 2.0365
-2.5901 -2.9250 2.0365
-2.3506 -3.1318 2.0365
-0.7710 -1.2215 0.7494
-0.6701 -1.2802 0.7479
-0.5649 -1.3307 0.7463
-0.4560 -1.3725 0.7446
-0.3441 -1.4054 0.7430
-0.2299 -1.4293 0.7414
-0.1142 -1.4439 0.7398
0.0023 -1.4492 0.7382
0.1189 -1.4451 0.7366
0.2348 -1.4317 0.7351
0.3492 -1.4091 0.7337
0.4614 -1.3773 0.7323
0.5708 -1.3366 0.7310
0.6765 -1.2873 0.7297
0.7780 -1.2296 0.7286
2.4480 -3.2584 2.0365
2.7062 -3.0576 2.0365
2.9473 -2.8359 2.0365
3.1697 -2.5949 2.0365
3.3717 -2.3360 2.0365
3.5519 -2.0612 2.0365
3.7088 -1.7722 2.0365
3.8415 -1.4710 2.0365
3.9489 -1.1597 2.0365
4.0302 -0.8405 2.0365
4.0848 -0.5156 2.0365
4.1124 -0.1873 2.0365
4.1128 0.1421 2.0365
4.0859 0.4702 2.0365
4.0321 0.7948 2.0365
3.9516 1.1137 2.0365
3.8453 1.4246 2.0365
3.7138 1.7253 2.0365
3.5581 2.0139 2.0365
3.3796 2.2883 2.0365
3.1793 2.5468 2.0365
2.9589 2.7877 2.0365
2.7200 3.0093 2.0365
2.4642 3.2104 2.0365
0.7941 1.2272 0.7374
0.6928 1.2866 0.7390
0.5870 1.3375 0.7406
0.4774 1.3798 0.7422
0.3647 1.4130 0.7438
0.2497 1.4371 0.7455
0.1332 1.4517 0.7471
0.0158 1.4570 0.7487
-0.1016 1.4527 0.7502
-0.2182 1.4389 0.7518
-0.3334 1.4158 0.7532
-0.4463 1.3834 0.7546
-0.5563 1.3420 0.7560
-0.6625 1.2919 0.7572
-0.7643 1.2334 0.7584
-2.3090 3.1292 2.0365
-2.5499 2.9267 2.0365
-2.7738 2.7062 2.0365
-2.9794 2.4691 2.0365
-3.1654 2.2167 2.0365
-3.3309 1.9508 2.0365
-3.4748 1.6730 2.0365
-3.5964 1.3848 2.0365
-3.6949 1.0882 2.0365
-3.7699 0.7849 2.0365
-3.8208 0.4766 2.0365
-3.8474 0.1653 2.0365
-3.8495 -0.1472 2.0365
-3.8270 -0.4590 2.0365
-3.7802 -0.7682 2.0365
-3.7091 -1.0730 2.0365
-3.6142 -1.3716 2.0365
-3.4960 -1.6620 2.0365
-3.3552 -1.9426 2.0365
-3.1924 -2.2116 2.0365
-3.0087 -2.4672 2.0365
-2.8050 -2.7079 2.0365
-2.5825 -2.9321 2.0365
-2.3425 -3.1383 2.0365
-0.7678 -1.2235 0.7494
-0.6668 -1.2820 0.7478
-0.5614 -1.3322 0.7462
-0.4524 -1.3737 0.7446
-0.3404 -1.4063 0.7430
-0.2262 -1.4299 0.7413
-0.1104 -1.4442 0.7397
0.0061 -1.4492 0.7381
0.1227 -1.4448 0.7366
0.2385 -1.4311 0.7351
0.3529 -1.4082 0.7336
0.4651 -1.3761 0.7322
0.5743 -1.3351 0.7309
0.6799 -1.2855 0.7297
0.7812 -1.2276 0.7285
2.4567 -3.2522 2.0365
2.7144 -3.0506 2.0365
2.9549 -2.8283 2.0365
3.1766 -2.5867 2.0365
3.3780 -2.3273 2.0365
3.5574 -2.0519 2.0365
3.7136 -1.7624 2.0365
3.8454 -1.4609 2.0365
3.9520 -1.1493 2.0365
4.0324 -0.8299 2.0365
4.0862 -0.5049 2.0365
4.1129 -0.1765 2.0365
4.1123 0.1528 2.0365
4.0846 0.4809 2.0365
4.0298 0.8054 2.0365
3.9485 1.1240 2.0365
3.8413 1.4346 2.0365
3.7090 1.7350 2.0365
3.5527 2.0231 2.0365
3.3733 2.2971 2.0365
3.1724 2.5550 2.0365
2.9514 2.7953 2.0365
2.7118 3.0163 2.0365
2.4555 3.2166 2.0365
0.7909 1.2293 0.7374
0.6894 1.2884 0.7390
0.5834 1.3390 0.7406
0.4737 1.3810 0.7422
0.3610 1.4140 0.7439
0.2460 1.4377 0.7455
0.1294 1.4521 0.7471
0.0120 1.4570 0.7487
-0.1054 1.4524 0.7503
-0.2220 1.4383 0.7518
-0.3372 1.4149 0.7533
-0.4500 1.3822 0.7547
-0.5598 1.3405 0.7560
-0.6659 1.2901 0.7572
-2.0611 3.3066 2.0365
-2.3172 3.1228 2.0365
-2.5576 2.9198 2.0365
-2.7809 2.6987 2.0365
-2.9858 2.4610 2.0365
-3.1712 2.2082 2.0365
-3.3359 1.9419 2.0365
-3.4791 1.6637 2.0365
-3.6000 1.3753 2.0365
-3.6978 1.0784 2.0365
-3.7719 0.7748 2.0365
-3.8221 0.4665 2.0365
-3.8479 0.1551 2.0365
-3.8491 -0.1574 2.0365
-3.8259 -0.4691 2.0365
-3.7782 -0.7783 2.0365
-3.7064 -1.0829 2.0365
-3.6107 -1.3812 2.0365
-3.4918 -1.6714 2.0365
-3.3502 -1.9516 2.0365
-3.1867 -2.2201 2.0365
-3.0023 -2.4753 2.0365
-2.7980 -2.7155 2.0365
-2.5749 -2.9391 2.0365
-2.3344 -3.1447 2.0365
-0.7645 -1.2256 0.7493
-0.6634 -1.2838 0.7478
-0.5579 -1.3337 0.7462
-0.4488 -1.3749 0.7445
-0.3367 -1.4073 0.7429
-0.2224 -1.4305 0.7413
-0.1066 -1.4445 0.7397
0.0100 -1.4492 0.7381
0.1265 -1.4445 0.7365
0.2423 -1.4305 0.7350
0.3566 -1.4073 0.7336
0.4687 -1.3749 0.7322
0.5778 -1.3337 0.7309
0.6833 -1.2838 0.7296
0.7845 -1.2256 0.7285
2.4654 -3.2459 2.0365
2.5189 -2.8592 2.0365
2.7441 -2.6528 2.0365
2.9519 -2.4283 2.0365
3.1408 -2.1872 2.0365
3.3093 -1.9312 2.0365
3.4562 -1.6620 2.0365
3.5806 -1.3814 2.0365
3.6814 -1.0913 2.0365
3.7580 -0.7939 2.0365
3.8097 -0.4910 2.0365
3.8363 -0.1850 2.0365
3.8375 0.1222 2.0365
3.8134 0.4283 2.0365
3.7642 0.7312 2.0365
3.6902 1.0288 2.0365
3.5920 1.3191 2.0365
3.4703 1.6001 2.0365
3.3262 1.8698 2.0365
3.1606 2.1265 2.0365
2.9747 2.3684 2.0365
2.7700 2.5940 2.0365
2.5478 2.8017 2.0365
2.3098 2.9904 2.0365
0.7454 1.1442 0.7377
0.6509 1.1999 0.7392
0.5522 1.2477 0.7407
0.4499 1.2874 0.7422
0.3448 1.3187 0.7438
0.2375 1.3415 0.7453
0.1286 1.3555 0.7468
0.0190 1.3606 0.7483
-0.0906 1.3569 0.7497
-0.1996 1.3444 0.7512
-0.3072 1.3230 0.7525
-0.4128 1.2931 0.7538
-0.5156 1.2547 0.7551
-0.6149 1.2082 0.7563
-0.7101 1.1538 0.7573
-2.1502 2.9324 2.0365
-2.3763 2.7439 2.0365
-2.5865 2.5384 2.0365
-2.7796 2.3172 2.0365
-2.9544 2.0817 2.0365
-3.1100 1.8334 2.0365
-3.2455 1.5738 2.0365
-3.3601 1.3046 2.0365
-3.4531 1.0273 2.0365
-3.5241 0.7436 2.0365
-3.5725 0.4553 2.0365
-3.5981 0.1640 2.0365
-3.6007 -0.1284 2.0365
-3.5804 -0.4202 2.0365
-3.5371 -0.7096 2.0365
-3.4712 -0.9949 2.0365
-3.3829 -1.2744 2.0365
-3.2728 -1.5463 2.0365
-3.1415 -1.8090 2.0365
-2.9896 -2.0608 2.0365
-2.8181 -2.3001 2.0365
-2.6279 -2.5255 2.0365
-2.4202 -2.7354 2.0365
-2.1960 -2.9284 2.0365
-0.7197 -1.1414 0.7490
-0.6255 -1.1963 0.7476
-0.5272 -1.2434 0.7461
-0.4254 -1.2825 0.7446
-0.3209 -1.3133 0.7430
-0.2142 -1.3356 0.7415
-0.1061 -1.3493 0.7400
0.0028 -1.3542 0.7385
0.1117 -1.3504 0.7371
0.2200 -1.3379 0.7357
0.3269 -1.3167 0.7343
0.4318 -1.2870 0.7330
0.5340 -1.2490 0.7318
0.6328 -1.2029 0.7306
0.7276 -1.1490 0.7295
2.2859 -3.0404 2.0365
2.5265 -2.8527 2.0365
2.7512 -2.6457 2.0365
2.9584 -2.4207 2.0365
3.1466 -2.1791 2.0365
3.3145 -1.9226 2.0365
3.4607 -1.6529 2.0365
3.5843 -1.3720 2.0365
3.6843 -1.0817 2.0365
3.7601 -0.7840 2.0365
3.8110 -0.4810 2.0365
3.8368 -0.1749 2.0365
3.8372 0.1322 2.0365
3.8122 0.4382 2.0365
3.7621 0.7410 2.0365
3.6873 1.0384 2.0365
3.5884 1.3285 2.0365
3.4660 1.6091 2.0365
3.3211 1.8785 2.0365
3.1548 2.1347 2.0365
2.9683 2.3761 2.0365
2.7629 2.6011 2.0365
2.5403 2.8082 2.0365
2.3018 2.9962 2.0365
0.7424 1.1462 0.7378
0.6477 1.2016 0.7392
0.5489 1.2491 0.7408
0.4465 1.2886 0.7423
0.3413 1.3196 0.7438
0.2339 1.3421 0.7453
0.1251 1.3558 0.7468
0.0154 1.3606 0.7483
-0.0942 1.3566 0.7498
-0.2032 1.3438 0.7512
-0.3107 1.3222 0.7526
-0.4162 1.2920 0.7539
-0.5189 1.2533 0.7551
-0.6181 1.2065 0.7563
-0.7132 1.1519 0.7574
-2.1579 2.9265 2.0365
-2.3834 2.7374 2.0365
-2.5931 2.5314 2.0365
-2.7856 2.3097 2.0365
-2.9598 2.0737 2.0365
-3.1148 1.8251 2.0365
-3.2496 1.5651 2.0365
-3.3635 1.2956 2.0365
-3.4558 1.0181 2.0365
-3.5260 0.7342 2.0365
-3.5737 0.4458 2.0365
-3.5985 0.1545 2.0365
-3.6004 -0.1379 2.0365
-3.5793 -0.4297 2.0365
-3.5353 -0.7190 2.0365
-3.4686 -1.0042 2.0365
-3.3797 -1.2835 2.0365
-3.2688 -1.5551 2.0365
-3.1368 -1.8174 2.0365
-2.9843 -2.0689 2.0365
-2.8122 -2.3077 2.0365
-2.6214 -2.5326 2.0365
-2.4131 -2.7419 2.0365
-2.1884 -2.9344 2.0365
-0.7167 -1.1433 0.7490
-0.6223 -1.1980 0.7475
-0.5239 -1.2448 0.7460
-0.4221 -1.2837 0.7445
-0.3174 -1.3142 0.7430
-0.2107 -1.3362 0.7415
-0.1025 -1.3496 0.7400
0.0064 -1.3542 0.7385
0.1153 -1.3502 0.7370
0.2235 -1.3373 0.7356
0.3304 -1.3159 0.7343
0.4352 -1.2859 0.7330
0.5373 -1.2476 0.7317
0.6360 -1.2013 0.7306
0.7306 -1.1471 0.7295
2.2940 -3.0346 2.0365
2.5341 -2.8463 2.0365
2.7583 -2.6386 2.0365
2.9649 -2.4130 2.0365
3.1524 -2.1709 2.0365
3.3196 -1.9140 2.0365
3.4651 -1.6439 2.0365
3.5879 -1.3626 2.0365
3.6872 -1.0720 2.0365
3.7621 -0.7742 2.0365
3.8122 -0.4711 2.0365
3.8372 -0.1649 2.0365
3.8367 0.1423 2.0365
3.8110 0.4482 2.0365
3.7601 0.7509 2.0365
3.6845 1.0481 2.0365
3.5847 1.3378 2.0365
3.4616 1.6181 2.0365
3.3160 1.8871 2.0365
3.1490 2.1428 2.0365
2.9619 2.3837 2.0365
2.7559 2.6082 2.0365
2.5327 2.8147 2.0365
2.2937 3.0020 2.0365
0.7393 1.1481 0.7378
0.6445 1.2032 0.7393
0.5456 1.2505 0.7408
0.4431 1.2897 0.7423
0.3378 1.3205 0.7439
0.2304 1.3427 0.7454
0.1215 1.3561 0.7469
0.0118 1.3607 0.7484
-0.0978 1.3564 0.7498
-0.2067 1.3432 0.7513
-0.3142 1.3213 0.7526
-0.4196 1.2908 0.7539
-0.5222 1.2519 0.7552
-0.6213 1.2049 0.7563
-0.7162 1.1500 0.7574
-2.1655 2.9206 2.0365
-2.3906 2.7309 2.0365
-2.5997 2.5243 2.0365
-2.7916 2.3022 2.0365
-2.9652 2.0658 2.0365
-3.1195 1.8167 2.0365
-3.2537 1.5565 2.0365
-3.3669 1.2866 2.0365
-3.4585 1.0089 2.0365
-3.5279 0.7248 2.0365
-3.5748 0.4363 2.0365
-3.5989 0.1449 2.0365
-3.6001 -0.1475 2.0365
-3.5782 -0.4392 2.0365
-3.5335 -0.7285 2.0365
-3.4661 -1.0134 2.0365
-3.3764 -1.2925 2.0365
-3.2649 -1.5639 2.0365
-3.1321 -1.8259 2.0365
-2.9790 -2.0769 2.0365
-2.8062 -2.3153 2.0365
-2.6148 -2.5397 2.0365
-2.4060 -2.7485 2.0365
-2.1808 -2.9404 2.0365
-0.7137 -1.1452 0.7489
-0.6192 -1.1996 0.7475
-0.5206 -1.2462 0.7460
-0.4187 -1.2848 0.7445
-0.3139 -1.3150 0.7429
-0.2071 -1.3368 0.7414
-0.0989 -1.3499 0.7399
0.0100 -1.3543 0.7384
0.1189 -1.3499 0.7370
0.2271 -1.3368 0.7356
0.3339 -1.3150 0.7342
0.4386 -1.2848 0.7329
0.5406 -1.2462 0.7317
0.6391 -1.1996 0.7305
0.7336 -1.1452 0.7295
2.3021 -3.0288 2.0365
2.3577 -2.6745 2.0365
2.5682 -2.4812 2.0365
2.7623 -2.2711 2.0365
2.9387 -2.0455 2.0365
3.0961 -1.8060 2.0365
3.2334 -1.5542 2.0365
3.3495 -1.2918 2.0365
3.4437 -1.0206 2.0365
3.5152 -0.7424 2.0365
3.5636 -0.4593 2.0365
3.5885 -0.1732 2.0365
3.5897 0.1140 2.0365
3.5672 0.4002 2.0365
3.5213 0.6834 2.0365
3.4523 0.9618 2.0365
3.3607 1.2333 2.0365
3.2471 1.4961 2.0365
3.1126 1.7485 2.0365
2.9579 1.9887 2.0365
2.7843 2.2152 2.0365
2.5930 2.4264 2.0365
2.3855 2.6211 2.0365
0.7825 1.0121 0.7367
0.6985 1.0712 0.7381
0.6100 1.1233 0.7395
0.5176 1.1681 0.7409
0.4219 1.2052 0.7423
0.3234 1.2346 0.7437
0.2230 1.2559 0.7452
0.1211 1.2690 0.7466
0.0185 1.2738 0.7480
-0.0842 1.2703 0.7493
-0.1863 1.2586 0.7507
-0.2870 1.2386 0.7520
-0.3858 1.2106 0.7532
-0.4821 1.1747 0.7543
-0.5751 1.1311 0.7554
-0.6642 1.0802 0.7564
-0.7490 1.0222 0.7574
-2.2261 2.5722 2.0365
-2.4234 2.3797 2.0365
-2.6046 2.1725 2.0365
-2.7687 1.9518 2.0365
-2.9148 1.7191 2.0365
-3.0420 1.4757 2.0365
-3.1495 1.2232 2.0365
-3.2369 0.9632 2.0365
-3.3034 0.6972 2.0365
-3.3488 0.4268 2.0365
-3.3728 0.1536 2.0365
-3.3752 -0.1206 2.0365
-3.3561 -0.3943 2.0365
-3.3154 -0.6657 2.0365
-3.2534 -0.9333 2.0365
-3.1705 -1.1953 2.0365
-3.0671 -1.4502 2.0365
-2.9437 -1.6963 2.0365
-2.8011 -1.9323 2.0365
-2.6401 -2.1565 2.0365
-2.4616 -2.3675 2.0365
-2.2666 -2.5639 2.0365
-0.7573 -1.0108 0.7500
-0.6735 -1.0691 0.7487
-0.5852 -1.1205 0.7473
-0.4931 -1.1647 0.7459
-0.3978 -1.2013 0.7445
-0.2999 -1.2302 0.7431
-0.2000 -1.2511 0.7416
-0.0987 -1.2639 0.7402
0.0033 -1.2685 0.7388
0.1053 -1.2649 0.7375
0.2067 -1.2532 0.7362
0.3068 -1.2334 0.7349
0.4051 -1.2055 0.7337
0.5008 -1.1699 0.7325
0.5933 -1.1267 0.7314
0.6821 -1.0763 0.7304
0.7665 -1.0188 0.7295
2.3648 -2.6684 2.0365
2.5748 -2.4746 2.0365
2.7684 -2.2639 2.0365
2.9442 -2.0379 2.0365
3.1009 -1.7979 2.0365
3.2375 -1.5457 2.0365
3.3530 -1.2830 2.0365
3.4464 -1.0115 2.0365
3.5172 -0.7332 2.0365
3.5648 -0.4500 2.0365
3.5889 -0.1638 2.0365
3.5893 0.1234 2.0365
3.5661 0.4095 2.0365
3.5194 0.6926 2.0365
3.4496 0.9708 2.0365
3.3573 1.2421 2.0365
3.2431 1.5046 2.0365
3.1078 1.7566 2.0365
2.9525 1.9964 2.0365
2.7783 2.2224 2.0365
2.5865 2.4331 2.0365
2.3784 2.6271 2.0365
0.7798 1.0142 0.7368
0.6957 1.0730 0.7381
0.6071 1.1249 0.7395
0.5145 1.1694 0.7409
0.4187 1.2063 0.7423
0.3202 1.2354 0.7438
0.2196 1.2564 0.7452
0.1177 1.2692 0.7466
0.0151 1.2738 0.7480
-0.0876 1.2701 0.7494
-0.1896 1.2580 0.7507
-0.2903 1.2378 0.7520
-0.3890 1.2095 0.7532
-0.4852 1.1733 0.7544
-0.5780 1.1295 0.7555
-0.6671 1.0784 0.7565
-0.7517 1.0202 0.7574
-2.2328 2.5662 2.0365
-2.4296 2.3732 2.0365
-2.6102 2.1655 2.0365
-2.7738 1.9444 2.0365
-2.9193 1.7113 2.0365
-3.0458 1.4676 2.0365
-3.1527 1.2148 2.0365
-3.2394 0.9546 2.0365
-3.3052 0.6884 2.0365
-3.3500 0.4178 2.0365
-3.3732 0.1446 2.0365
-3.3750 -0.1296 2.0365
-3.3551 -0.4032 2.0365
-3.3137 -0.6745 2.0365
-3.2510 -0.9419 2.0365
-3.1674 -1.2037 2.0365
-3.0633 -1.4584 2.0365
-2.9393 -1.7042 2.0365
-2.7961 -1.9398 2.0365
-2.6345 -2.1636 2.0365
-2.4554 -2.3741 2.0365
-2.2599 -2.5701 2.0365
-0.7546 -1.0128 0.7500
-0.6706 -1.0709 0.7486
-0.5823 -1.1221 0.7473
-0.4901 -1.1660 0.7459
-0.3947 -1.2024 0.7444
-0.2967 -1.2310 0.7430
-0.1967 -1.2516 0.7416
-0.0954 -1.2642 0.7402
0.0066 -1.2685 0.7388
0.1086 -1.2647 0.7374
0.2100 -1.2527 0.7361
0.3101 -1.2326 0.7349
0.4083 -1.2045 0.7336
0.5039 -1.1686 0.7325
0.5963 -1.1252 0.7314
0.6849 -1.0745 0.7304
0.7692 -1.0168 0.7295
2.3719 -2.6624 2.0365
2.5814 -2.4679 2.0365
2.7744 -2.2568 2.0365
2.9496 -2.0302 2.0365
3.1057 -1.7899 2.0365
3.2416 -1.5373 2.0365
3.3564 -1.2743 2.0365
3.4491 -1.0025 2.0365
3.5191 -0.7240 2.0365
3.5659 -0.4407 2.0365
3.5893 -0.1544 2.0365
3.5889 0.1328 2.0365
3.5649 0.4188 2.0365
3.5175 0.7018 2.0365
3.4470 0.9798 2.0365
3.3539 1.2508 2.0365
3.2390 1.5130 2.0365
3.1030 1.7646 2.0365
2.9471 2.0040 2.0365
2.7723 2.2295 2.0365
2.5799 2.4397 2.0365
2.3713 2.6332 2.0365
0.7772 1.0162 0.7368
0.6929 1.0748 0.7382
0.6041 1.1264 0.7396
0.5114 1.1707 0.7410
0.4155 1.2074 0.7424
0.3169 1.2362 0.7438
0.2163 1.2570 0.7453
0.1144 1.2695 0.7467
0.0117 1.2738 0.7481
-0.0909 1.2698 0.7494
-0.1929 1.2575 0.7508
-0.2936 1.2370 0.7520
-0.3922 1.2085 0.7533
-0.4883 1.1720 0.7544
-0.5810 1.1280 0.7555
-0.6699 1.0766 0.7565
-0.7544 1.0182 0.7574
-2.2395 2.5601 2.0365
-2.4357 2.3666 2.0365
-2.6159 2.1584 2.0365
-2.7788 1.9369 2.0365
-2.9237 1.7034 2.0365
-3.0496 1.4594 2.0365
-3.1559 1.2064 2.0365
-3.2419 0.9459 2.0365
-3.3070 0.6796 2.0365
-3.3511 0.4089 2.0365
-3.3736 0.1357 2.0365
-3.3747 -0.1386 2.0365
-3.3541 -0.4121 2.0365
-3.3120 -0.6834 2.0365
-3.2486 -0.9506 2.0365
-3.1643 -1.2122 2.0365
-3.0596 -1.4666 2.0365
-2.9349 -1.7121 2.0365
-2.7911 -1.9473 2.0365
-2.6289 -2.1707 2.0365
-2.4493 -2.3808 2.0365
-2.2533 -2.5763 2.0365
-0.7520 -1.0148 0.7499
-0.6678 -1.0727 0.7486
-0.5793 -1.1237 0.7472
-0.4870 -1.1673 0.7458
-0.3915 -1.2035 0.7444
-0.2934 -1.2318 0.7430
-0.1934 -1.2522 0.7416
-0.0920 -1.2644 0.7401
0.0100 -1.2685 0.7388
0.1120 -1.2644 0.7374
0.2133 -1.2522 0.7361
0.3133 -1.2318 0.7348
0.4114 -1.2035 0.7336
0.5069 -1.1673 0.7324
0.5992 -1.1237 0.7314
0.6878 -1.0727 0.7304
0.7719 -1.0148 0.7294
0.7923 -0.8982 0.7296
2.4088 -2.3258 2.0365
2.5905 -2.1287 2.0365
2.7557 -1.9172 2.0365
2.9031 -1.6926 2.0365
3.0316 -1.4566 2.0365
3.1403 -1.2106 2.0365
3.2285 -0.9565 2.0365
3.2954 -0.6959 2.0365
3.3407 -0.4306 2.0365
3.3641 -0.1625 2.0365
3.3653 0.1066 2.0365
3.3443 0.3748 2.0365
3.3014 0.6402 2.0365
3.2369 0.9010 2.0365
3.1512 1.1555 2.0365
3.0449 1.4019 2.0365
2.9190 1.6386 2.0365
2.7743 1.8639 2.0365
2.6118 2.0763 2.0365
2.4327 2.2746 2.0365
2.2383 2.4572 2.0365
0.7348 0.9495 0.7372
0.6560 1.0049 0.7384
0.5730 1.0538 0.7397
0.4862 1.0958 0.7410
0.3964 1.1307 0.7424
0.3041 1.1582 0.7437
0.2098 1.1781 0.7451
0.1142 1.1904 0.7464
0.0179 1.1949 0.7477
-0.0784 1.1917 0.7490
-0.1741 1.1807 0.7502
-0.2687 1.1619 0.7514
-0.3614 1.1357 0.7526
-0.4516 1.1020 0.7537
-0.5389 1.0611 0.7547
-0.6226 1.0133 0.7556
-0.7021 0.9590 0.7565
-2.0895 2.4160 2.0365
-2.2749 2.2353 2.0365
-2.4453 2.0408 2.0365
-2.5996 1.8336 2.0365
-2.7370 1.6150 2.0365
-2.8566 1.3864 2.0365
-2.9578 1.1492 2.0365
-3.0399 0.9048 2.0365
-3.1025 0.6549 2.0365
-3.1451 0.4008 2.0365
-3.1677 0.1441 2.0365
-3.1699 -0.1136 2.0365
-3.1518 -0.3707 2.0365
-3.1135 -0.6257 2.0365
-3.0551 -0.8771 2.0365
-2.9771 -1.1232 2.0365
-2.8797 -1.3626 2.0365
-2.7637 -1.5938 2.0365
-2.6295 -1.8153 2.0365
-2.4781 -2.0257 2.0365
-2.3102 -2.2237 2.0365
-2.1269 -2.4080 2.0365
-0.7101 -0.9487 0.7496
-0.6314 -1.0035 0.7484
-0.5486 -1.0517 0.7471
-0.4622 -1.0932 0.7458
-0.3728 -1.1276 0.7444
-0.2809 -1.1546 0.7431
-0.1871 -1.1743 0.7418
-0.0920 -1.1863 0.7404
0.0037 -1.1906 0.7391
0.0994 -1.1873 0.7379
0.1946 -1.1763 0.7366
0.2886 -1.1576 0.7354
0.3808 -1.1315 0.7343
0.4706 -1.0981 0.7332
0.5574 -1.0576 0.7322
0.6408 -1.0102 0.7312
0.7200 -0.9562 0.7304
0.7947 -0.8961 0.7296
2.4150 -2.3195 2.0365
2.5962 -2.1220 2.0365
2.7608 -1.9100 2.0365
2.9076 -1.6851 2.0365
3.0354 -1.4487 2.0365
3.1435 -1.2025 2.0365
3.2310 -0.9480 2.0365
3.2973 -0.6873 2.0365
3.3419 -0.4219 2.0365
3.3645 -0.1537 2.0365
3.3649 0.1154 2.0365
3.3433 0.3835 2.0365
3.2996 0.6488 2.0365
3.2344 0.9095 2.0365
3.1480 1.1637 2.0365
3.0411 1.4098 2.0365
2.9146 1.6461 2.0365
2.7692 1.8710 2.0365
2.6062 2.0831 2.0365
2.4266 2.2808 2.0365
2.2317 2.4630 2.0365
0.7323 0.9514 0.7372
0.6533 1.0066 0.7385
0.5702 1.0553 0.7398
0.4834 1.0970 0.7411
0.3934 1.1317 0.7424
0.3010 1.1589 0.7438
0.2067 1.1787 0.7451
0.1111 1.1907 0.7464
0.0148 1.1950 0.7477
-0.0815 1.1914 0.7490
-0.1772 1.1802 0.7503
-0.2717 1.1612 0.7515
-0.3644 1.1347 0.7526
-0.4546 1.1007 0.7537
-0.5417 1.0596 0.7547
-0.6252 1.0117 0.7557
-0.7046 0.9571 0.7565
-2.0958 2.4103 2.0365
-2.2807 2.2292 2.0365
-2.4506 2.0342 2.0365
-2.6044 1.8266 2.0365
-2.7412 1.6076 2.0365
-2.8602 1.3787 2.0365
-2.9608 1.1413 2.0365
-3.0422 0.8967 2.0365
-3.1042 0.6466 2.0365
-3.1462 0.3924 2.0365
-3.1681 0.1357 2.0365
-3.1696 -0.1220 2.0365
-3.1509 -0.3791 2.0365
-3.1119 -0.6340 2.0365
-3.0529 -0.8852 2.0365
-2.9742 -1.1312 2.0365
-2.8762 -1.3703 2.0365
-2.7595 -1.6012 2.0365
-2.6248 -1.8224 2.0365
-2.4728 -2.0324 2.0365
-2.3044 -2.2300 2.0365
-2.1206 -2.4138 2.0365
-0.7076 -0.9506 0.7496
-0.6288 -1.0052 0.7483
-0.5458 -1.0532 0.7470
-0.4593 -1.0944 0.7457
-0.3698 -1.1286 0.7444
-0.2778 -1.1554 0.7430
-0.1840 -1.1748 0.7417
-0.0889 -1.1865 0.7404
0.0068 -1.1906 0.7391
0.1026 -1.1870 0.7378
0.1977 -1.1758 0.7366
0.2916 -1.1569 0.7354
0.3838 -1.1305 0.7342
0.4735 -1.0969 0.7332
0.5602 -1.0561 0.7321
0.6434 -1.0085 0.7312
0.7225 -0.9544 0.7303
2.2250 -2.4957 2.0365
2.4211 -2.3133 2.0365
2.6019 -2.1153 2.0365
2.7659 -1.9028 2.0365
2.9121 -1.6775 2.0365
3.0393 -1.4408 2.0365
3.1467 -1.1942 2.0365
3.2335 -0.9396 2.0365
3.2991 -0.6786 2.0365
3.3430 -0.4131 2.0365
3.3648 -0.1449 2.0365
3.3646 0.1242 2.0365
3.3422 0.3922 2.0365
3.2978 0.6574 2.0365
3.2319 0.9179 2.0365
3.1448 1.1719 2.0365
3.0373 1.4177 2.0365
2.9101 1.6537 2.0365
2.7642 1.8782 2.0365
2.6006 2.0898 2.0365
2.4204 2.2870 2.0365
2.2251 2.4686 2.0365
0.7298 0.9533 0.7372
0.6507 1.0083 0.7385
0.5674 1.0567 0.7398
0.4805 1.0983 0.7411
0.3904 1.1327 0.7425
0.2979 1.1597 0.7438
0.2036 1.1792 0.7451
0.1079 1.1909 0.7465
0.0116 1.1950 0.7478
-0.0847 1.1912 0.7491
-0.1804 1.1797 0.7503
-0.2748 1.1604 0.7515
-0.3674 1.1337 0.7527
-0.4575 1.0995 0.7537
-0.5445 1.0582 0.7548
-0.6279 1.0100 0.7557
-0.7072 0.9552 0.7566
-2.1020 2.4046 2.0365
-2.2865 2.2230 2.0365
-2.4559 2.0276 2.0365
-2.6091 1.8196 2.0365
-2.7454 1.6003 2.0365
-2.8638 1.3711 2.0365
-2.9637 1.1334 2.0365
-3.0446 0.8886 2.0365
-3.1059 0.6384 2.0365
-3.1472 0.3840 2.0365
-3.1684 0.1273 2.0365
-3.1693 -0.1304 2.0365
-3.1499 -0.3875 2.0365
-3.1103 -0.6423 2.0365
-3.0506 -0.8934 2.0365
-2.9713 -1.1391 2.0365
-2.8727 -1.3780 2.0365
-2.7554 -1.6086 2.0365
-2.6201 -1.8294 2.0365
-2.4676 -2.0391 2.0365
-2.2986 -2.2362 2.0365
-2.1144 -2.4196 2.0365
-0.7051 -0.9525 0.7495
-0.6261 -1.0068 0.7483
-0.5431 -1.0547 0.7470
-0.4564 -1.0957 0.7457
-0.3668 -1.1296 0.7443
-0.2748 -1.1562 0.7430
-0.1809 -1.1753 0.7417
-0.0858 -1.1868 0.7403
0.0100 -1.1906 0.7390
0.1057 -1.1868 0.7378
0.2008 -1.1753 0.7365
0.2947 -1.1562 0.7353
0.3868 -1.1296 0.7342
0.4764 -1.0957 0.7331
0.5630 -1.0547 0.7321
0.6461 -1.0068 0.7312
0.7250 -0.9525 0.7303
0.7455 -0.8445 0.7304
2.2634 -2.1841 2.0365
2.4340 -1.9989 2.0365
2.5889 -1.8002 2.0365
2.7272 -1.5893 2.0365
2.8477 -1.3677 2.0365
2.9497 -1.1367 2.0365
3.0324 -0.8981 2.0365
3.0952 -0.6535 2.0365
3.1377 -0.4045 2.0365
3.1597 -0.1528 2.0365
3.1608 0.0998 2.0365
3.1412 0.3516 2.0365
3.1010 0.6008 2.0365
3.0406 0.8457 2.0365
2.9602 1.0847 2.0365
2.8607 1.3161 2.0365
2.7426 1.5384 2.0365
2.6069 1.7501 2.0365
2.4545 1.9497 2.0365
2.2865 2.1360 2.0365
0.7608 0.8345 0.7364
0.6912 0.8923 0.7375
0.6171 0.9444 0.7387
0.5391 0.9903 0.7399
0.4576 1.0298 0.7412
0.3732 1.0625 0.7424
0.2864 1.0884 0.7437
0.1978 1.1071 0.7450
0.1079 1.1187 0.7462
0.0175 1.1229 0.7474
-0.0731 1.1199 0.7486
-0.1630 1.1095 0.7498
-0.2519 1.0919 0.7509
-0.3390 1.0672 0.7520
-0.4239 1.0356 0.7531
-0.5059 0.9972 0.7540
-0.5845 0.9523 0.7549
-0.6593 0.9012 0.7557
-0.7296 0.8443 0.7565
-2.1390 2.1031 2.0365
-2.2994 1.9202 2.0365
-2.4448 1.7253 2.0365
-2.5742 1.5196 2.0365
-2.6868 1.3045 2.0365
-2.7821 1.0813 2.0365
-2.8594 0.8514 2.0365
-2.9184 0.6161 2.0365
-2.9586 0.3770 2.0365
-2.9798 0.1354 2.0365
-2.9818 -0.1071 2.0365
-2.9647 -0.3491 2.0365
-2.9286 -0.5891 2.0365
-2.8735 -0.8256 2.0365
-2.8000 -1.0572 2.0365
-2.7082 -1.2824 2.0365
-2.5988 -1.4999 2.0365
-2.4724 -1.7082 2.0365
-2.3298 -1.9060 2.0365
-2.1717 -2.0922 2.0365
-0.7366 -0.8347 0.7504
-0.6670 -0.8920 0.7492
-0.5930 -0.9435 0.7481
-0.5152 -0.9889 0.7468
-0.4339 -1.0278 0.7456
-0.3499 -1.0601 0.7444
-0.2634 -1.0856 0.7431
-0.1753 -1.1041 0.7419
-0.0859 -1.1154 0.7406
0.0041 -1.1194 0.7394
0.0941 -1.1163 0.7382
0.1836 -1.1059 0.7370
0.2719 -1.0884 0.7359
0.3586 -1.0639 0.7348
0.4430 -1.0324 0.7338
0.5247 -0.9943 0.7328
0.6030 -0.9498 0.7320
0.6775 -0.8991 0.7311
0.7477 -0.8425 0.7304
2.2693 -2.1782 2.0365
2.4393 -1.9926 2.0365
2.5937 -1.7935 2.0365
2.7314 -1.5822 2.0365
2.8513 -1.3602 2.0365
2.9527 -1.1290 2.0365
3.0348 -0.8902 2.0365
3.0969 -0.6454 2.0365
3.1388 -0.3962 2.0365
3.1600 -0.1445 2.0365
3.1605 0.1081 2.0365
3.1402 0.3598 2.0365
3.0994 0.6089 2.0365
3.0382 0.8536 2.0365
2.9573 1.0924 2.0365
2.8571 1.3235 2.0365
2.7384 1.5455 2.0365
2.6021 1.7568 2.0365
2.4492 1.9560 2.0365
2.2807 2.1419 2.0365
0.7586 0.8365 0.7364
0.6888 0.8941 0.7376
0.6146 0.9460 0.7388
0.5365 0.9917 0.7400
0.4549 1.0310 0.7412
0.3704 1.0635 0.7425
0.2835 1.0891 0.7437
0.1948 1.1076 0.7450
0.1050 1.1189 0.7462
0.0145 1.1230 0.7475
-0.0760 1.1197 0.7487
-0.1660 1.1091 0.7499
-0.2548 1.0912 0.7510
-0.3418 1.0663 0.7521
-0.4266 1.0344 0.7531
-0.5085 0.9958 0.7540
-0.5870 0.9507 0.7549
-0.6616 0.8994 0.7558
-0.7319 0.8423 0.7565
-2.1444 2.0974 2.0365
-2.3044 1.9140 2.0365
-2.4493 1.7187 2.0365
-2.5781 1.5127 2.0365
-2.6902 1.2973 2.0365
-2.7849 1.0739 2.0365
-2.8617 0.8438 2.0365
-2.9200 0.6084 2.0365
-2.9596 0.3691 2.0365
-2.9801 0.1275 2.0365
-2.9816 -0.1150 2.0365
-2.9638 -0.3570 2.0365
-2.9271 -0.5969 2.0365
-2.8714 -0.8333 2.0365
-2.7972 -1.0647 2.0365
-2.7049 -1.2897 2.0365
-2.5950 -1.5068 2.0365
-2.4680 -1.7149 2.0365
-2.3248 -1.9123 2.0365
-2.1662 -2.0981 2.0365
-0.7344 -0.8367 0.7504
-0.6646 -0.8938 0.7492
-0.5905 -0.9451 0.7480
-0.5126 -0.9902 0.7468
-0.4312 -1.0290 0.7456
-0.3471 -1.0611 0.7443
-0.2606 -1.0863 0.7431
-0.1724 -1.1045 0.7418
-0.0830 -1.1156 0.7406
0.0070 -1.1195 0.7393
0.0970 -1.1161 0.7381
0.1865 -1.1055 0.7370
0.2748 -1.0877 0.7359
0.3614 -1.0630 0.7348
0.4457 -1.0313 0.7338
0.5273 -0.9930 0.7328
0.6055 -0.9482 0.7319
0.6799 -0.8973 0.7311
0.7499 -0.8406 0.7304
2.2751 -2.1724 2.0365
2.4446 -1.9863 2.0365
2.5985 -1.7867 2.0365
2.7356 -1.5751 2.0365
2.8549 -1.3528 2.0365
2.9557 -1.1213 2.0365
3.0371 -0.8823 2.0365
3.0986 -0.6373 2.0365
3.1398 -0.3880 2.0365
3.1604 -0.1362 2.0365
3.1602 0.1163 2.0365
3.1392 0.3680 2.0365
3.0977 0.6169 2.0365
3.0359 0.8615 2.0365
2.9543 1.1001 2.0365
2.8535 1.3309 2.0365
2.7342 1.5526 2.0365
2.5974 1.7635 2.0365
2.4439 1.9623 2.0365
2.2750 2.1477 2.0365
0.7564 0.8384 0.7365
0.6865 0.8959 0.7376
0.6121 0.9476 0.7388
0.5338 0.9931 0.7400
0.4521 1.0321 0.7413
0.3676 1.0644 0.7425
0.2806 1.0898 0.7438
0.1919 1.1081 0.7450
0.1020 1.1192 0.7463
0.0115 1.1230 0.7475
-0.0790 1.1194 0.7487
-0.1689 1.1086 0.7499
-0.2577 1.0905 0.7510
-0.3447 1.0654 0.7521
-0.4293 1.0333 0.7531
-0.5111 0.9944 0.7541
-0.5895 0.9491 0.7550
-0.6640 0.8977 0.7558
-0.7341 0.8404 0.7565
-2.1499 2.0915 2.0365
-2.3094 1.9078 2.0365
-2.4537 1.7121 2.0365
-2.5821 1.5058 2.0365
-2.6936 1.2901 2.0365
-2.7877 1.0665 2.0365
-2.8639 0.8361 2.0365
-2.9216 0.6006 2.0365
-2.9605 0.3612 2.0365
-2.9805 0.1196 2.0365
-2.9813 -0.1230 2.0365
-2.9629 -0.3649 2.0365
-2.9255 -0.6047 2.0365
-2.8693 -0.8410 2.0365
-2.7945 -1.0722 2.0365
-2.7016 -1.2969 2.0365
-2.5911 -1.5138 2.0365
-2.4636 -1.7215 2.0365
-2.3199 -1.9186 2.0365
-2.1608 -2.1039 2.0365
-0.7322 -0.8386 0.7503
-0.6623 -0.8955 0.7492
-0.5880 -0.9466 0.7480
-0.5100 -0.9916 0.7468
-0.4285 -1.0302 0.7455
-0.3443 -1.0620 0.7443
-0.2577 -1.0870 0.7430
-0.1695 -1.1050 0.7418
-0.0800 -1.1158 0.7405
0.0100 -1.1195 0.7393
0.1000 -1.1158 0.7381
0.1894 -1.1050 0.7369
0.2777 -1.0870 0.7358
0.3642 -1.0620 0.7348
0.4485 -1.0301 0.7337
0.5299 -0.9916 0.7328
0.6080 -0.9466 0.7319
0.6822 -0.8955 0.7311
0.7024 -0.7951 0.7312
0.7642 -0.7369 0.7306
2.2905 -1.8799 2.0365
2.4361 -1.6930 2.0365
2.5660 -1.4946 2.0365
2.6792 -1.2862 2.0365
2.7750 -1.0690 2.0365
2.8527 -0.8447 2.0365
2.9118 -0.6146 2.0365
2.9518 -0.3805 2.0365
2.9724 -0.1439 2.0365
2.9735 0.0936 2.0365
2.9551 0.3303 2.0365
2.9174 0.5647 2.0365
2.8607 0.7950 2.0365
2.7853 1.0197 2.0365
2.6918 1.2374 2.0365
2.5809 1.4465 2.0365
2.4534 1.6457 2.0365
2.3102 1.8336 2.0365
0.7776 0.7258 0.7358
0.7167 0.7854 0.7368
0.6512 0.8398 0.7379
0.5814 0.8888 0.7390
0.5080 0.9320 0.7401
0.4313 0.9692 0.7413
0.3518 1.0000 0.7425
0.2701 1.0243 0.7437
0.1867 1.0420 0.7449
0.1022 1.0528 0.7460
0.0170 1.0568 0.7472
-0.0682 1.0540 0.7483
-0.1529 1.0442 0.7494
-0.2365 1.0277 0.7505
-0.3185 1.0044 0.7515
-0.3984 0.9746 0.7525
-0.4756 0.9385 0.7534
-0.5496 0.8963 0.7542
-0.6199 0.8482 0.7550
-0.6862 0.7946 0.7557
-0.7479 0.7359 0.7563
-2.1652 1.8092 2.0365
-2.3022 1.6256 2.0365
-2.4243 1.4318 2.0365
-2.5305 1.2292 2.0365
-2.6204 1.0189 2.0365
-2.6933 0.8022 2.0365
-2.7489 0.5805 2.0365
-2.7868 0.3551 2.0365
-2.8067 0.1274 2.0365
-2.8086 -0.1012 2.0365
-2.7925 -0.3292 2.0365
-2.7583 -0.5554 2.0365
-2.7064 -0.7783 2.0365
-2.6369 -0.9965 2.0365
-2.5503 -1.2086 2.0365
-2.4471 -1.4135 2.0365
-2.3279 -1.6096 2.0365
-2.1934 -1.7959 2.0365
-0.7539 -0.7269 0.7510
-0.6929 -0.7859 0.7500
-0.6274 -0.8399 0.7489
-0.5577 -0.8883 0.7478
-0.4844 -0.9311 0.7466
-0.4080 -0.9678 0.7455
-0.3288 -0.9982 0.7443
-0.2475 -1.0222 0.7431
-0.1644 -1.0396 0.7419
-0.0803 -1.0502 0.7408
0.0044 -1.0540 0.7396
0.0892 -1.0511 0.7385
0.1734 -1.0413 0.7374
0.2566 -1.0248 0.7363
0.3382 -1.0017 0.7353
0.4177 -0.9721 0.7344
0.4946 -0.9362 0.7335
0.5683 -0.8943 0.7326
0.6384 -0.8465 0.7319
0.7045 -0.7933 0.7312
0.7661 -0.7349 0.7305
2.2955 -1.8740 2.0365
2.4406 -1.6867 2.0365
2.5699 -1.4880 2.0365
2.6826 -1.2792 2.0365
2.7779 -1.0618 2.0365
2.8550 -0.8372 2.0365
2.9134 -0.6070 2.0365
2.9527 -0.3728 2.0365
2.9727 -0.1361 2.0365
2.9732 0.1014 2.0365
2.9542 0.3380 2.0365
2.9159 0.5723 2.0365
2.8585 0.8024 2.0365
2.7825 1.0270 2.0365
2.6884 1.2444 2.0365
2.5770 1.4532 2.0365
2.4490 1.6521 2.0365
2.3053 1.8396 2.0365
0.7757 0.7278 0.7358
0.7146 0.7872 0.7368
0.6489 0.8415 0.7379
0.5791 0.8903 0.7390
0.5055 0.9333 0.7402
0.4287 0.9703 0.7413
0.3492 1.0009 0.7425
0.2674 1.0250 0.7437
0.1840 1.0424 0.7449
0.0994 1.0531 0.7461
0.0142 1.0569 0.7472
-0.0710 1.0537 0.7484
-0.1556 1.0438 0.7495
-0.2392 1.0270 0.7505
-0.3212 1.0035 0.7516
-0.4009 0.9735 0.7525
-0.4780 0.9372 0.7534
-0.5519 0.8948 0.7543
-0.6222 0.8465 0.7550
-0.6883 0.7928 0.7557
-0.7498 0.7339 0.7563
-2.1699 1.8033 2.0365
-2.3065 1.6194 2.0365
-2.4280 1.4253 2.0365
-2.5337 1.2224 2.0365
-2.6230 1.0119 2.0365
-2.6954 0.7950 2.0365
-2.7504 0.5732 2.0365
-2.7877 0.3477 2.0365
-2.8071 0.1199 2.0365
-2.8084 -0.1086 2.0365
-2.7916 -0.3367 2.0365
-2.7569 -0.5628 2.0365
-2.7044 -0.7855 2.0365
-2.6344 -1.0035 2.0365
-2.5472 -1.2155 2.0365
-2.4435 -1.4200 2.0365
-2.3237 -1.6159 2.0365
-2.1887 -1.8019 2.0365
-0.7519 -0.7289 0.7510
-0.6908 -0.7878 0.7500
-0.6252 -0.8415 0.7489
-0.5554 -0.8898 0.7478
-0.4820 -0.9324 0.7466
-0.4054 -0.9689 0.7454
-0.3262 -0.9991 0.7443
-0.2448 -1.0229 0.7431
-0.1617 -1.0400 0.7419
-0.0775 -1.0504 0.7407
0.0072 -1.0541 0.7396
0.0919 -1.0509 0.7385
0.1762 -1.0409 0.7374
0.2593 -1.0242 0.7363
0.3408 -1.0009 0.7353
0.4203 -0.9710 0.7343
0.4970 -0.9349 0.7334
0.5706 -0.8928 0.7326
0.6407 -0.8449 0.7318
0.7066 -0.7915 0.7311
0.7681 -0.7329 0.7305
2.3005 -1.8681 2.0365
2.4451 -1.6803 2.0365
2.5739 -1.4813 2.0365
2.6860 -1.2722 2.0365
2.7807 -1.0545 2.0365
2.8572 -0.8298 2.0365
2.9150 -0.5994 2.0365
2.9537 -0.3650 2.0365
2.9730 -0.1283 2.0365
2.9729 0.1092 2.0365
2.9532 0.3458 2.0365
2.9143 0.5799 2.0365
2.8563 0.8099 2.0365
2.7797 1.0342 2.0365
2.6850 1.2514 2.0365
2.5730 1.4599 2.0365
2.4445 1.6584 2.0365
2.3003 1.8455 2.0365
0.7738 0.7299 0.7358
0.7125 0.7891 0.7369
0.6467 0.8432 0.7379
0.5767 0.8918 0.7391
0.5031 0.9346 0.7402
0.4262 0.9714 0.7414
0.3465 1.0018 0.7426
0.2647 1.0257 0.7438
0.1812 1.0429 0.7449
0.0966 1.0533 0.7461
0.0114 1.0569 0.7473
-0.0737 1.0535 0.7484
-0.1584 1.0433 0.7495
-0.2419 1.0263 0.7506
-0.3238 1.0027 0.7516
-0.4035 0.9724 0.7525
-0.4805 0.9359 0.7534
-0.5543 0.8933 0.7543
-0.6244 0.8448 0.7550
-0.6904 0.7909 0.7557
-0.7518 0.7318 0.7563
-2.1746 1.7975 2.0365
-2.3107 1.6132 2.0365
-2.4317 1.4188 2.0365
-2.5369 1.2156 2.0365
-2.6257 1.0049 2.0365
-2.6975 0.7878 2.0365
-2.7519 0.5658 2.0365
-2.7886 0.3402 2.0365
-2.8074 0.1125 2.0365
-2.8081 -0.1161 2.0365
-2.7908 -0.3441 2.0365
-2.7555 -0.5701 2.0365
-2.7024 -0.7927 2.0365
-2.6318 -1.0106 2.0365
-2.5441 -1.2223 2.0365
-2.4398 -1.4266 2.0365
-2.3196 -1.6222 2.0365
-2.1840 -1.8078 2.0365
-0.7500 -0.7309 0.7510
-0.6887 -0.7896 0.7499
-0.6229 -0.8432 0.7488
-0.5530 -0.8913 0.7477
-0.4795 -0.9337 0.7466
-0.4029 -0.9700 0.7454
-0.3235 -1.0000 0.7442
-0.2421 -1.0235 0.7430
-0.1590 -1.0405 0.7419
-0.0748 -1.0507 0.7407
0.0100 -1.0541 0.7395
0.0947 -1.0507 0.7384
0.1789 -1.0405 0.7373
0.2620 -1.0235 0.7363
0.3435 -1.0000 0.7353
0.4228 -0.9700 0.7343
0.4995 -0.9337 0.7334
0.5730 -0.8913 0.7326
0.6429 -0.8432 0.7318
0.6627 -0.7496 0.7319
0.7209 -0.6947 0.7313
0.7745 -0.6353 0.7308
2.2953 -1.5943 2.0365
2.4175 -1.4074 2.0365
2.5240 -1.2111 2.0365
2.6142 -1.0067 2.0365
2.6873 -0.7954 2.0365
2.7428 -0.5788 2.0365
2.7805 -0.3584 2.0365
2.7999 -0.1357 2.0365
2.8010 0.0879 2.0365
2.7837 0.3108 2.0365
2.7483 0.5314 2.0365
2.6950 0.7483 2.0365
2.6241 0.9599 2.0365
2.5362 1.1649 2.0365
2.4319 1.3619 2.0365
2.3120 1.5496 2.0365
0.7861 0.6234 0.7353
0.7334 0.6839 0.7362
0.6760 0.7400 0.7372
0.6142 0.7913 0.7382
0.5485 0.8375 0.7392
0.4793 0.8782 0.7403
0.4070 0.9132 0.7414
0.3321 0.9423 0.7425
0.2551 0.9652 0.7437
0.1765 0.9818 0.7448
0.0969 0.9921 0.7459
0.0166 0.9958 0.7470
-0.0637 0.9931 0.7481
-0.1435 0.9839 0.7491
-0.2223 0.9683 0.7501
-0.2996 0.9464 0.7511
-0.3748 0.9184 0.7520
-0.4476 0.8843 0.7528
-0.5173 0.8445 0.7536
-0.5836 0.7992 0.7543
-0.6461 0.7487 0.7550
-0.7042 0.6934 0.7556
-0.7577 0.6335 0.7561
-2.1704 1.5334 2.0365
-2.2856 1.3506 2.0365
-2.3859 1.1595 2.0365
-2.4708 0.9611 2.0365
-2.5396 0.7567 2.0365
-2.5921 0.5475 2.0365
-2.6278 0.3348 2.0365
-2.6466 0.1200 2.0365
-2.6484 -0.0957 2.0365
-2.6331 -0.3108 2.0365
-2.6008 -0.5242 2.0365
-2.5517 -0.7344 2.0365
-2.4861 -0.9403 2.0365
-2.4043 -1.1404 2.0365
-2.3069 -1.3335 2.0365
-2.1943 -1.5185 2.0365
-0.7628 -0.6252 0.7515
-0.7100 -0.6853 0.7506
-0.6525 -0.7409 0.7496
-0.5908 -0.7917 0.7486
-0.5252 -0.8374 0.7475
-0.4561 -0.8777 0.7465
-0.3840 -0.9123 0.7454
-0.3094 -0.9410 0.7443
-0.2327 -0.9636 0.7431
-0.1544 -0.9800 0.7420
-0.0751 -0.9900 0.7409
0.0047 -0.9937 0.7398
0.0846 -0.9909 0.7388
0.1640 -0.9817 0.7377
0.2425 -0.9661 0.7367
0.3194 -0.9443 0.7358
0.3943 -0.9164 0.7349
0.4667 -0.8826 0.7340
0.5363 -0.8430 0.7332
0.6024 -0.7980 0.7325
0.6647 -0.7478 0.7319
0.7227 -0.6928 0.7313
0.7762 -0.6333 0.7308
2.2995 -1.5883 2.0365
2.4212 -1.4012 2.0365
2.5272 -1.2046 2.0365
2.6168 -0.9998 2.0365
2.6894 -0.7884 2.0365
2.7444 -0.5717 2.0365
2.7814 -0.3512 2.0365
2.8002 -0.1283 2.0365
2.8007 0.0952 2.0365
2.7829 0.3180 2.0365
2.7468 0.5386 2.0365
2.6929 0.7553 2.0365
2.6215 0.9667 2.0365
2.5330 1.1715 2.0365
2.4282 1.3682 2.0365
2.3078 1.5555 2.0365
0.7844 0.6254 0.7353
0.7316 0.6858 0.7362
0.6740 0.7418 0.7372
0.6121 0.7929 0.7382
0.5463 0.8389 0.7393
0.4770 0.8795 0.7404
0.4046 0.9143 0.7415
0.3296 0.9431 0.7426
0.2526 0.9658 0.7437
0.1739 0.9823 0.7448
0.0942 0.9923 0.7459
0.0140 0.9958 0.7470
-0.0663 0.9929 0.7481
-0.1461 0.9835 0.7491
-0.2248 0.9677 0.7501
-0.3021 0.9456 0.7511
-0.3772 0.9173 0.7520
-0.4499 0.8831 0.7528
-0.5196 0.8431 0.7536
-0.5857 0.7977 0.7544
-0.6480 0.7470 0.7550
-0.7061 0.6915 0.7556
-0.7594 0.6315 0.7561
-2.1744 1.5275 2.0365
-2.2891 1.3445 2.0365
-2.3889 1.1531 2.0365
-2.4733 0.9545 2.0365
-2.5416 0.7499 2.0365
-2.5935 0.5406 2.0365
-2.6287 0.3278 2.0365
-2.6470 0.1130 2.0365
-2.6482 -0.1027 2.0365
-2.6323 -0.3179 2.0365
-2.5995 -0.5311 2.0365
-2.5498 -0.7413 2.0365
-2.4837 -0.9469 2.0365
-2.4014 -1.1468 2.0365
-2.3034 -1.3397 2.0365
-2.1903 -1.5244 2.0365
-0.7612 -0.6272 0.7515
-0.7082 -0.6872 0.7506
-0.6506 -0.7426 0.7496
-0.5887 -0.7933 0.7486
-0.5229 -0.8388 0.7475
-0.4538 -0.8789 0.7464
-0.3816 -0.9134 0.7453
-0.3069 -0.9419 0.7442
-0.2301 -0.9643 0.7431
-0.1518 -0.9804 0.7420
-0.0725 -0.9902 0.7409
0.0074 -0.9937 0.7398
0.0872 -0.9907 0.7387
0.1666 -0.9813 0.7377
0.2450 -0.9655 0.7367
0.3219 -0.9435 0.7358
0.3967 -0.9154 0.7349
0.4691 -0.8814 0.7340
0.5385 -0.8416 0.7332
0.6045 -0.7964 0.7325
0.6666 -0.7461 0.7318
0.7245 -0.6909 0.7313
0.7778 -0.6312 0.7308
2.3038 -1.5823 2.0365
2.4249 -1.3949 2.0365
2.5304 -1.1980 2.0365
2.6195 -0.9930 2.0365
2.6915 -0.7814 2.0365
2.7459 -0.5645 2.0365
2.7823 -0.3439 2.0365
2.8005 -0.1210 2.0365
2.8004 0.1025 2.0365
2.7820 0.3253 2.0365
2.7454 0.5457 2.0365
2.6909 0.7623 2.0365
2.6188 0.9736 2.0365
2.5298 1.1781 2.0365
2.4245 1.3745 2.0365
2.3036 1.5615 2.0365
0.7828 0.6275 0.7353
0.7298 0.6877 0.7363
0.6721 0.7435 0.7372
0.6100 0.7945 0.7383
0.5441 0.8403 0.7393
0.4746 0.8807 0.7404
0.4022 0.9153 0.7415
0.3271 0.9440 0.7426
0.2500 0.9665 0.7437
0.1713 0.9827 0.7449
0.0916 0.9925 0.7460
0.0114 0.9959 0.7471
-0.0689 0.9927 0.7481
-0.1487 0.9831 0.7492
-0.2274 0.9671 0.7502
-0.3046 0.9448 0.7511
-0.3797 0.9163 0.7520
-0.4522 0.8819 0.7529
-0.5218 0.8417 0.7537
-0.5878 0.7961 0.7544
-0.6500 0.7453 0.7550
-0.7079 0.6896 0.7556
-0.7611 0.6295 0.7561
-2.1784 1.5217 2.0365
-2.2926 1.3384 2.0365
-2.3920 1.1467 2.0365
-2.4758 0.9479 2.0365
-2.5435 0.7431 2.0365
-2.5949 0.5336 2.0365
-2.6296 0.3208 2.0365
-2.6473 0.1059 2.0365
-2.6479 -0.1098 2.0365
-2.6315 -0.3249 2.0365
-2.5981 -0.5381 2.0365
-2.5479 -0.7481 2.0365
-2.4812 -0.9536 2.0365
-2.3984 -1.1533 2.0365
-2.2999 -1.3459 2.0365
-2.1864 -1.5303 2.0365
-0.7595 -0.6292 0.7515
-0.7064 -0.6890 0.7505
-0.6486 -0.7444 0.7495
-0.5866 -0.7949 0.7485
-0.5207 -0.8402 0.7475
-0.4514 -0.8802 0.7464
-0.3792 -0.9144 0.7453
-0.3044 -0.9427 0.7442
-0.2276 -0.9649 0.7431
-0.1493 -0.9808 0.7420
-0.0699 -0.9905 0.7409
0.0100 -0.9937 0.7398
0.0898 -0.9905 0.7387
0.1692 -0.9808 0.7377
0.2475 -0.9649 0.7367
0.3243 -0.9427 0.7357
0.3991 -0.9144 0.7348
0.4714 -0.8802 0.7340
0.5407 -0.8402 0.7332
0.6066 -0.7949 0.7325
0.6258 -0.7073 0.7325
0.6807 -0.6555 0.7320
0.7313 -0.5995 0.7315
0.7772 -0.5395 0.7311
2.2801 -1.3267 2.0365
2.3804 -1.1417 2.0365
2.4653 -0.9489 2.0365
2.5342 -0.7498 2.0365
2.5865 -0.5457 2.0365
2.6220 -0.3380 2.0365
2.6403 -0.1281 2.0365
2.6413 0.0826 2.0365
2.6251 0.2927 2.0365
2.5918 0.5006 2.0365
2.5416 0.7050 2.0365
2.4749 0.9046 2.0365
2.3921 1.0978 2.0365
2.2939 1.2836 2.0365
0.7870 0.5270 0.7349
0.7421 0.5880 0.7357
0.6924 0.6451 0.7366
0.6382 0.6980 0.7375
0.5800 0.7464 0.7385
0.5180 0.7899 0.7395
0.4527 0.8283 0.7405
0.3845 0.8613 0.7415
0.3138 0.8888 0.7426
0.2412 0.9104 0.7436
0.1671 0.9261 0.7447
0.0919 0.9357 0.7457
0.0162 0.9393 0.7468
-0.0595 0.9367 0.7478
-0.1348 0.9280 0.7488
-0.2091 0.9133 0.7497
-0.2820 0.8927 0.7506
-0.3530 0.8662 0.7515
-0.4216 0.8341 0.7523
-0.4874 0.7966 0.7530
-0.5500 0.7538 0.7537
-0.6089 0.7062 0.7543
-0.6637 0.6540 0.7549
-0.7142 0.5976 0.7553
-0.7600 0.5372 0.7557
-2.1567 1.2752 2.0365
-2.2515 1.0947 2.0365
-2.3317 0.9074 2.0365
-2.3968 0.7144 2.0365
-2.4463 0.5168 2.0365
-2.4801 0.3160 2.0365
-2.4978 0.1131 2.0365
-2.4995 -0.0905 2.0365
-2.4850 -0.2937 2.0365
-2.4545 -0.4952 2.0365
-2.4080 -0.6937 2.0365
-2.3460 -0.8881 2.0365
-2.2687 -1.0770 2.0365
-2.1765 -1.2593 2.0365
-0.7643 -0.5294 0.7519
-0.7192 -0.5899 0.7511
-0.6693 -0.6466 0.7502
-0.6151 -0.6991 0.7493
-0.5568 -0.7471 0.7483
-0.4949 -0.7902 0.7473
-0.4298 -0.8282 0.7463
-0.3617 -0.8609 0.7453
-0.2913 -0.8880 0.7442
-0.2190 -0.9093 0.7432
-0.1451 -0.9247 0.7421
-0.0703 -0.9342 0.7411
0.0050 -0.9376 0.7400
0.0804 -0.9350 0.7390
0.1553 -0.9263 0.7381
0.2293 -0.9116 0.7371
0.3019 -0.8911 0.7362
0.3726 -0.8647 0.7354
0.4410 -0.8328 0.7346
0.5065 -0.7955 0.7338
0.5689 -0.7530 0.7331
0.6277 -0.7057 0.7325
0.6824 -0.6537 0.7320
0.7329 -0.5976 0.7315
0.7786 -0.5375 0.7311
2.2836 -1.3208 2.0365
2.3834 -1.1355 2.0365
2.4678 -0.9425 2.0365
2.5361 -0.7432 2.0365
2.5879 -0.5390 2.0365
2.6228 -0.3312 2.0365
2.6406 -0.1212 2.0365
2.6411 0.0895 2.0365
2.6243 0.2995 2.0365
2.5904 0.5074 2.0365
2.5397 0.7117 2.0365
2.4724 0.9110 2.0365
2.3892 1.1040 2.0365
2.2905 1.2895 2.0365
0.7856 0.5291 0.7349
0.7405 0.5899 0.7358
0.6907 0.6469 0.7366
0.6364 0.6997 0.7376
0.5780 0.7479 0.7385
0.5159 0.7913 0.7395
0.4505 0.8295 0.7405
0.3822 0.8623 0.7416
0.3115 0.8896 0.7426
0.2388 0.9110 0.7437
0.1646 0.9265 0.7447
0.0895 0.9359 0.7458
0.0138 0.9393 0.7468
-0.0620 0.9365 0.7478
-0.1372 0.9277 0.7488
-0.2115 0.9128 0.7497
-0.2844 0.8919 0.7506
-0.3553 0.8652 0.7515
-0.4238 0.8330 0.7523
-0.4895 0.7952 0.7531
-0.5520 0.7524 0.7537
-0.6107 0.7046 0.7544
-0.6655 0.6522 0.7549
-0.7158 0.5956 0.7554
-0.7614 0.5352 0.7558
-2.1601 1.2694 2.0365
-2.2544 1.0887 2.0365
-2.3341 0.9012 2.0365
-2.3986 0.7079 2.0365
-2.4477 0.5103 2.0365
-2.4809 0.3094 2.0365
-2.4982 0.1065 2.0365
-2.4993 -0.0972 2.0365
-2.4843 -0.3004 2.0365
-2.4532 -0.5018 2.0365
-2.4063 -0.7002 2.0365
-2.3437 -0.8943 2.0365
-2.2659 -1.0831 2.0365
-2.1733 -1.2651 2.0365
-0.7629 -0.5314 0.7519
-0.7176 -0.5918 0.7510
-0.6676 -0.6484 0.7501
-0.6133 -0.7008 0.7492
-0.5549 -0.7486 0.7483
-0.4928 -0.7916 0.7473
-0.4276 -0.8294 0.7463
-0.3595 -0.8619 0.7452
-0.2890 -0.8887 0.7442
-0.2166 -0.9099 0.7431
-0.1427 -0.9251 0.7421
-0.0679 -0.9344 0.7410
0.0075 -0.9376 0.7400
0.0829 -0.9348 0.7390
0.1578 -0.9259 0.7380
0.2317 -0.9111 0.7371
0.3043 -0.8903 0.7362
0.3749 -0.8638 0.7353
0.4431 -0.8317 0.7345
0.5086 -0.7942 0.7338
0.5709 -0.7515 0.7331
0.6295 -0.7040 0.7325
0.6842 -0.6520 0.7320
0.7345 -0.5956 0.7315
0.7801 -0.5355 0.7311
2.2871 -1.3149 2.0365
2.3864 -1.1293 2.0365
2.4703 -0.9361 2.0365
2.5381 -0.7366 2.0365
2.5893 -0.5322 2.0365
2.6237 -0.3243 2.0365
2.6409 -0.1143 2.0365
2.6408 0.0964 2.0365
2.6235 0.3064 2.0365
2.5890 0.5141 2.0365
2.5377 0.7183 2.0365
2.4699 0.9174 2.0365
2.3862 1.1102 2.0365
2.2870 1.2954 2.0365
0.7842 0.5311 0.7349
0.7390 0.5918 0.7358
0.6890 0.6487 0.7367
0.6345 0.7013 0.7376
0.5760 0.7494 0.7386
0.5138 0.7926 0.7395
0.4483 0.8307 0.7406
0.3799 0.8633 0.7416
0.3091 0.8904 0.7427
0.2364 0.9116 0.7437
0.1622 0.9269 0.7448
0.0870 0.9361 0.7458
0.0113 0.9393 0.7468
-0.0644 0.9363 0.7479
-0.1397 0.9273 0.7488
-0.2139 0.9122 0.7498
-0.2867 0.8911 0.7507
-0.3576 0.8643 0.7515
-0.4260 0.8318 0.7523
-0.4916 0.7939 0.7531
-0.5540 0.7509 0.7538
-0.6126 0.7029 0.7544
-0.6672 0.6504 0.7549
-0.7174 0.5937 0.7554
-0.7628 0.5331 0.7558
-2.1634 1.2636 2.0365
-2.2572 1.0826 2.0365
-2.3364 0.8949 2.0365
-2.4005 0.7015 2.0365
-2.4490 0.5037 2.0365
-2.4817 0.3028 2.0365
-2.4985 0.0998 2.0365
-2.4990 -0.1039 2.0365
-2.4835 -0.3070 2.0365
-2.4519 -0.5083 2.0365
-2.4045 -0.7066 2.0365
-2.3414 -0.9006 2.0365
-2.2631 -1.0891 2.0365
-2.1700 -1.2710 2.0365
-0.7615 -0.5335 0.7518
-0.7160 -0.5938 0.7510
-0.6659 -0.6502 0.7501
-0.6114 -0.7024 0.7492
-0.5529 -0.7501 0.7482
-0.4908 -0.7929 0.7472
-0.4254 -0.8305 0.7462
-0.3572 -0.8628 0.7452
-0.2866 -0.8895 0.7441
-0.2142 -0.9105 0.7431
-0.1403 -0.9255 0.7420
-0.0654 -0.9346 0.7410
0.0100 -0.9376 0.7400
0.0853 -0.9346 0.7390
0.1602 -0.9255 0.7380
0.2341 -0.9105 0.7371
0.3066 -0.8895 0.7362
0.3772 -0.8628 0.7353
0.4453 -0.8305 0.7345
0.5107 -0.7929 0.7338
0.5729 -0.7501 0.7331
0.5915 -0.6679 0.7331
0.6433 -0.6190 0.7326
0.6911 -0.5661 0.7322
0.7344 -0.5095 0.7318
0.7731 -0.4496 0.7315
2.2469 -1.0771 2.0365
