ply
format ascii 1.0
element vertex 2152
property float32 x
property float32 y
property float32 z
end_header
-15.4632 -5.8874 2.0373
-15.0353 -7.1594 2.0373
-14.5153 -8.4073 2.0373
-13.9033 -9.6260 2.0373
-13.1998 -10.8091 2.0373
-12.4055 -11.9503 2.0373
-11.5216 -13.0431 2.0373
-10.5496 -14.0808 2.0373
-9.4915 -15.0562 2.0373
-8.3500 -15.9621 2.0373
-7.1282 -16.7909 2.0373
-5.8300 -17.5351 2.0373
-4.4604 -18.1867 2.0373
-0.7910 -4.9001 0.5328
-0.4038 -5.0618 0.5376
0.0043 -5.1988 0.5429
0.4323 -5.3086 0.5486
0.8788 -5.3884 0.5546
4.5082 -18.2585 1.8849
6.1036 -18.2677 1.9050
7.7504 -18.1871 1.9304
5.9917 -9.4813 1.0691
6.9499 -9.2580 1.0913
6.8100 -3.2462 0.6785
7.6804 2.1930 0.7266
7.3842 2.7665 0.7227
11.9581 15.7362 1.9547
10.3812 16.2168 1.9297
8.8093 16.5548 1.9050
7.2721 16.7956 1.8849
5.8184 17.0880 1.8849
4.7189 18.6560 2.0373
3.1608 18.7165 2.0373
1.6242 18.6559 2.0373
0.1177 18.4792 2.0373
-1.3508 18.1919 2.0373
-2.7742 17.7999 2.0373
-4.1465 17.3092 2.0373
-5.4621 16.7257 2.0373
-6.7162 16.0556 2.0373
-7.9045 15.3050 2.0373
-9.0236 14.4796 2.0373
-10.0702 13.5855 2.0373
-11.0415 12.6284 2.0373
-11.9352 11.6137 2.0373
-12.7492 10.5469 2.0373
-13.4818 9.4334 2.0373
-14.1315 8.2782 2.0373
-14.6967 7.0863 2.0373
-15.1763 5.8629 2.0373
-15.5693 4.6127 2.0373
-15.8746 3.3403 2.0373
-16.0914 2.0507 2.0373
-16.2189 0.7486 2.0373
-16.2564 -0.5612 2.0373
-16.2033 -1.8739 2.0373
-16.0589 -3.1846 2.0373
-15.8230 -4.4880 2.0373
-15.4950 -5.7795 2.0373
-15.0749 -7.0528 2.0373
-14.5627 -8.3032 2.0373
-13.9584 -9.5245 2.0373
-13.2626 -10.7108 2.0373
-12.4760 -11.8558 2.0373
-11.5996 -12.9531 2.0373
-10.6349 -13.9956 2.0373
-9.5840 -14.9766 2.0373
-8.4493 -15.8886 2.0373
-7.2341 -16.7242 2.0373
-5.9423 -17.4758 2.0373
-4.5785 -18.1356 2.0373
-0.8227 -4.8855 0.5324
-0.4373 -5.0491 0.5372
-0.0309 -5.1883 0.5424
0.3955 -5.3005 0.5481
0.8405 -5.3829 0.5541
4.3794 -18.2680 1.8849
5.9665 -18.2681 1.9029
7.6104 -18.1994 1.9282
3.9714 -6.3796 0.7170
6.7853 -9.1675 1.0761
6.7930 -3.2947 0.6793
7.6387 2.1252 0.7209
7.3653 2.7027 0.7185
12.0907 15.6889 1.9569
10.5141 16.1819 1.9318
8.9413 16.5316 1.9071
7.3944 16.7654 1.8849
5.9411 17.0681 1.8849
4.8510 18.6452 2.0373
3.2915 18.7162 2.0373
1.7527 18.6655 2.0373
0.2433 18.4985 2.0373
-1.2286 18.2203 2.0373
-2.6562 17.8369 2.0373
-4.0329 17.3542 2.0373
-5.3535 16.7783 2.0373
-6.6129 16.1153 2.0373
-7.8070 15.3712 2.0373
-8.9320 14.5519 2.0373
-9.9848 13.6634 2.0373
-10.9626 12.7114 2.0373
-11.8629 11.7013 2.0373
-12.6837 10.6387 2.0373
-13.4233 9.5289 2.0373
-14.0799 8.3771 2.0373
-14.6523 7.1882 2.0373
-15.1392 5.9672 2.0373
-15.5395 4.7189 2.0373
-15.8523 3.4484 2.0373
-16.0766 2.1600 2.0373
-16.2116 0.8587 2.0373
-7.4216 11.5660 2.0373
-8.2698 10.8535 2.0373
-9.0581 10.0867 2.0373
-9.7839 9.2703 2.0373
-10.4450 8.4087 2.0373
-11.0394 7.5065 2.0373
-11.5654 6.5682 2.0373
-12.0213 5.5983 2.0373
-12.4058 4.6012 2.0373
-12.7178 3.5813 2.0373
-12.9563 2.5430 2.0373
-13.1204 1.4908 2.0373
-13.2093 0.4290 2.0373
-13.2226 -0.6380 2.0373
-13.1598 -1.7055 2.0373
-13.0206 -2.7690 2.0373
-12.8049 -3.8239 2.0373
-12.5128 -4.8655 2.0373
-12.1446 -5.8888 2.0373
-11.7008 -6.8889 2.0373
-11.1820 -7.8607 2.0373
-10.5893 -8.7991 2.0373
-9.9241 -9.6987 2.0373
-9.1880 -10.5540 2.0373
-8.3830 -11.3596 2.0373
-7.5117 -12.1097 2.0373
-6.5770 -12.7987 2.0373
-5.5824 -13.4209 2.0373
-4.5321 -13.9706 2.0373
-3.4306 -14.4422 2.0373
-0.6051 -3.9306 0.5400
-0.2926 -4.0397 0.5440
0.0335 -4.1271 0.5483
0.3720 -4.1909 0.5529
0.7213 -4.2294 0.5577
1.0797 -4.2407 0.5629
4.7934 -14.0087 1.8849
6.0034 -13.8108 1.8981
7.2313 -13.5442 1.9168
6.1718 -9.6133 1.4133
9.6500 -12.6658 1.9532
10.8141 -12.0503 1.9704
11.9291 -11.3175 1.9868
12.9798 -10.4704 2.0021
13.9515 -9.5139 2.0160
14.8294 -8.4552 2.0283
6.7088 -3.1412 0.8768
16.2499 -6.0724 2.0474
16.7693 -4.7737 2.0539
17.1492 -3.4237 2.0582
17.3837 -2.0391 2.0601
17.4693 -0.6376 2.0598
17.4054 0.7629 2.0571
17.1945 2.1447 2.0522
16.8413 3.4908 2.0451
7.5255 2.2021 0.9369
7.2461 2.7687 0.9322
15.0136 7.1653 2.0124
14.1856 8.2279 1.9983
13.2696 9.1940 1.9829
12.2797 10.0577 1.9665
11.2297 10.8150 1.9494
10.1331 11.4639 1.9316
9.0029 12.0041 1.9135
7.8513 12.4368 1.8951
6.7187 12.8200 1.8849
5.5875 13.1304 1.8785
4.8432 14.5219 2.0373
3.6211 14.7026 2.0373
2.4016 14.7843 2.0373
1.1926 14.7697 2.0373
0.0014 14.6618 2.0373
-1.1654 14.4641 2.0373
-2.3017 14.1805 2.0373
-3.4019 13.8151 2.0373
-4.4609 13.3722 2.0373
-5.4741 12.8563 2.0373
-6.4375 12.2718 2.0373
-7.3474 11.6234 2.0373
-8.2005 10.9157 2.0373
-8.9940 10.1533 2.0373
-9.7252 9.3409 2.0373
-10.3918 8.4829 2.0373
-10.9919 7.5840 2.0373
-11.5237 6.6486 2.0373
-11.9856 5.6812 2.0373
-12.3762 4.6862 2.0373
-12.6944 3.6681 2.0373
-12.9391 2.6312 2.0373
-13.1094 1.5799 2.0373
-13.2048 0.5187 2.0373
-13.2244 -0.5480 2.0373
-13.1680 -1.6156 2.0373
-13.0353 -2.6796 2.0373
-12.8260 -3.7355 2.0373
-12.5404 -4.7783 2.0373
-12.1786 -5.8033 2.0373
-11.7411 -6.8056 2.0373
-11.2286 -7.7800 2.0373
-10.6421 -8.7214 2.0373
-9.9829 -9.6245 2.0373
-9.2527 -10.4838 2.0373
-8.4534 -11.2937 2.0373
-7.5876 -12.0487 2.0373
-6.6581 -12.7431 2.0373
-5.6685 -13.3711 2.0373
-4.6226 -13.9272 2.0373
-3.5253 -14.4056 2.0373
-0.6308 -3.9204 0.5396
-0.3195 -4.0313 0.5436
0.0055 -4.1206 0.5479
0.3430 -4.1865 0.5525
0.6915 -4.2271 0.5573
1.0492 -4.2408 0.5624
4.6944 -14.0288 1.8849
5.8999 -13.8281 1.8965
7.1279 -13.5711 1.9152
6.1413 -9.7098 1.4224
9.5500 -12.7123 1.9517
10.7177 -12.1067 1.9690
11.8374 -11.3838 1.9855
12.8941 -10.5461 2.0008
13.8730 -9.5985 2.0149
14.7593 -8.5482 2.0273
6.6944 -3.1899 0.8780
7.5737 -2.8887 0.9569
16.7308 -4.8854 2.0534
17.1228 -3.5391 2.0579
17.3697 -2.1567 2.0600
17.4679 -0.7559 2.0599
17.4166 0.6453 2.0574
17.2178 2.0294 2.0527
16.8764 3.3791 2.0458
7.5924 2.1660 0.9430
7.2282 2.7060 0.9270
15.0790 7.0716 2.0135
14.2589 8.1420 1.9995
13.3499 9.1165 1.9843
12.3656 9.9890 1.9680
11.3202 10.7554 1.9509
10.2270 11.4134 1.9331
9.0992 11.9628 1.9150
7.9489 12.4044 1.8967
6.8116 12.7857 1.8849
5.6858 13.1139 1.8799
4.9461 14.5021 2.0373
3.7241 14.6912 2.0373
2.5041 14.7812 2.0373
1.2939 14.7746 2.0373
0.1009 14.6744 2.0373
-1.0682 14.4841 2.0373
-2.2073 14.2076 2.0373
-3.3107 13.8490 2.0373
-4.3733 13.4124 2.0373
-5.3906 12.9025 2.0373
-6.3583 12.3236 2.0373
-7.2729 11.6804 2.0373
-8.1309 10.9775 2.0373
-8.9295 10.2196 2.0373
-9.6660 9.4112 2.0373
-10.3382 8.5569 2.0373
-10.9440 7.6612 2.0373
-11.4816 6.7287 2.0373
-11.9494 5.7639 2.0373
-12.3460 4.7710 2.0373
-12.6704 3.7547 2.0373
-12.9213 2.7192 2.0373
-13.0980 1.6690 2.0373
-13.1996 0.6084 2.0373
-13.2257 -0.4580 2.0373
-13.1757 -1.5257 2.0373
-13.0494 -2.5902 2.0373
-12.8466 -3.6469 2.0373
-12.5674 -4.6910 2.0373
-12.2120 -5.7177 2.0373
-11.7809 -6.7221 2.0373
-11.2747 -7.6991 2.0373
-10.6944 -8.6435 2.0373
-10.0413 -9.5500 2.0373
-9.3169 -10.4132 2.0373
-8.5234 -11.2275 2.0373
-7.6631 -11.9873 2.0373
-6.7389 -12.6870 2.0373
-5.7541 -13.3209 2.0373
-4.7129 -13.8832 2.0373
-3.6196 -14.3684 2.0373
-0.6564 -3.9101 0.5393
-0.3463 -4.0228 0.5433
-0.0224 -4.1139 0.5475
0.3141 -4.1819 0.5521
0.6618 -4.2247 0.5569
1.0188 -4.2407 0.5620
4.5953 -14.0482 1.8849
5.7965 -13.8447 1.8949
7.0245 -13.5971 1.9136
3.9757 -6.3810 0.9315
9.4499 -12.7580 1.9502
10.6209 -12.1623 1.9676
11.7452 -11.4492 1.9841
12.8078 -10.6211 1.9996
13.7939 -9.6825 2.0137
14.6885 -8.6405 2.0263
6.6796 -3.2385 0.8792
7.4268 -2.8905 0.9410
16.6912 -4.9967 2.0530
17.0953 -3.6542 2.0576
17.3546 -2.2742 2.0600
17.4654 -0.8743 2.0600
17.4266 0.5276 2.0577
17.2402 1.9138 2.0531
16.9105 3.2671 2.0464
7.6602 2.1294 0.9492
7.2349 2.6528 0.9251
15.1437 6.9772 2.0146
14.3317 8.0553 2.0007
13.4296 9.0382 1.9856
12.4512 9.9195 1.9694
11.4103 10.6950 1.9523
10.3206 11.3622 1.9346
9.1953 11.9206 1.9166
8.0465 12.3713 1.8982
6.9043 12.7507 1.8849
5.7952 13.1219 1.8849
5.0490 14.4815 2.0373
3.8271 14.6791 2.0373
2.6066 14.7774 2.0373
1.3954 14.7788 2.0373
0.2007 14.6864 2.0373
-0.9707 14.5036 2.0373
-2.1125 14.2342 2.0373
-3.2192 13.8823 2.0373
-4.2854 13.4521 2.0373
-5.3067 12.9482 2.0373
-6.2787 12.3749 2.0373
-7.1979 11.7370 2.0373
-8.0608 11.0390 2.0373
-8.8645 10.2855 2.0373
-9.6064 9.4812 2.0373
-10.2841 8.6306 2.0373
-10.8955 7.7382 2.0373
-11.4389 6.8087 2.0373
-11.9127 5.8463 2.0373
-12.3154 4.8557 2.0373
-12.6458 3.8411 2.0373
-12.9030 2.8071 2.0373
-13.0860 1.7580 2.0373
-13.1940 0.6981 2.0373
-6.2073 9.6818 2.0373
-6.9252 9.0956 2.0373
-7.5937 8.4616 2.0373
-8.2102 7.7837 2.0373
-8.7725 7.0659 2.0373
-9.2784 6.3120 2.0373
-9.7264 5.5261 2.0373
-10.1147 4.7121 2.0373
-10.4420 3.8740 2.0373
-10.7072 3.0158 2.0373
-10.9092 2.1414 2.0373
-11.0473 1.2549 2.0373
-11.1207 0.3604 2.0373
-11.1290 -0.5382 2.0373
-11.0720 -1.4366 2.0373
-10.9495 -2.3307 2.0373
-10.7615 -3.2164 2.0373
-10.5083 -4.0892 2.0373
-10.1904 -4.9450 2.0373
-9.8085 -5.7792 2.0373
-9.3635 -6.5874 2.0373
-8.8566 -7.3652 2.0373
-8.2894 -8.1079 2.0373
-7.6637 -8.8110 2.0373
-6.9816 -9.4697 2.0373
-6.2457 -10.0796 2.0373
-5.4590 -10.6359 2.0373
-4.6247 -11.1342 2.0373
-3.7468 -11.5701 2.0373
-0.7519 -3.1725 0.5414
-0.5018 -3.2707 0.5445
-0.2410 -3.3512 0.5479
0.0294 -3.4128 0.5515
0.3083 -3.4541 0.5554
0.5942 -3.4738 0.5594
0.8855 -3.4709 0.5636
1.1803 -3.4441 0.5680
4.8608 -11.1689 1.8849
5.8067 -10.8653 1.8915
6.2367 -9.7062 1.7583
7.6910 -10.0873 1.9197
8.5890 -9.5645 1.9330
9.4437 -8.9544 1.9455
10.2450 -8.2600 1.9571
10.9824 -7.4857 1.9676
6.7945 -3.8724 1.1533
6.5884 -3.0838 1.0694
7.3612 -2.7499 1.1525
13.1091 -3.7309 1.9960
13.3972 -2.6744 1.9992
13.5777 -1.5930 2.0007
13.6483 -0.4990 2.0004
13.6083 0.5950 1.9985
13.4592 1.6768 1.9949
13.2040 2.7343 1.9897
7.4322 2.1731 1.1471
7.2626 2.7728 1.1570
11.8550 5.6536 1.9653
11.2349 6.5115 1.9546
10.5438 7.2998 1.9430
9.7912 8.0131 1.9305
8.9866 8.6476 1.9173
8.1396 9.2006 1.9035
7.2598 9.6707 1.8893
6.3903 10.1118 1.8849
5.5093 10.4998 1.8849
4.9394 11.5912 2.0209
3.9887 11.9394 2.0373
2.9894 12.1109 2.0373
1.9884 12.2011 2.0373
0.9924 12.2114 2.0373
0.0073 12.1440 2.0373
-0.9609 12.0010 2.0373
-1.9070 11.7853 2.0373
-2.8260 11.5000 2.0373
-3.7132 11.1481 2.0373
-4.5646 10.7333 2.0373
-5.3762 10.2590 2.0373
-6.1446 9.7289 2.0373
-6.8666 9.1469 2.0373
-7.5393 8.5168 2.0373
-8.1603 7.8425 2.0373
-8.7272 7.1278 2.0373
-9.2380 6.3769 2.0373
-9.6909 5.5935 2.0373
-10.0843 4.7818 2.0373
-10.4168 3.9455 2.0373
-10.6873 3.0888 2.0373
-10.8946 2.2156 2.0373
-11.0381 1.3300 2.0373
-11.1170 0.4360 2.0373
-11.1309 -0.4624 2.0373
-11.0794 -1.3610 2.0373
-10.9623 -2.2556 2.0373
-10.7799 -3.1422 2.0373
-10.5321 -4.0162 2.0373
-10.2197 -4.8736 2.0373
-9.8431 -5.7098 2.0373
-9.4034 -6.5204 2.0373
-8.9017 -7.3009 2.0373
-8.3395 -8.0468 2.0373
-7.7186 -8.7534 2.0373
-7.0412 -9.4160 2.0373
-6.3097 -10.0302 2.0373
-5.5272 -10.5912 2.0373
-4.6968 -11.0946 2.0373
-3.8224 -11.5358 2.0373
-0.7724 -3.1634 0.5411
-0.5233 -3.2631 0.5442
-0.2634 -3.3452 0.5476
0.0063 -3.4084 0.5512
0.2845 -3.4514 0.5550
0.5699 -3.4730 0.5591
0.8608 -3.4720 0.5633
1.1553 -3.4473 0.5677
4.7818 -11.1939 1.8849
5.7256 -10.8903 1.8903
6.6806 -10.5535 1.9046
7.6137 -10.1273 1.9186
8.5148 -9.6120 1.9319
9.3736 -9.0091 1.9445
10.1798 -8.3217 1.9561
10.9230 -7.5539 1.9667
11.5934 -6.7117 1.9761
6.5742 -3.1315 1.0708
7.2455 -2.7627 1.1375
13.0800 -3.8185 1.9956
13.3771 -2.7646 1.9990
13.5667 -1.6848 2.0006
13.6466 -0.5914 2.0005
13.6159 0.5031 1.9987
13.4759 1.5864 1.9953
13.2295 2.6464 1.9902
7.4695 2.1292 1.1502
7.2338 2.7059 1.1490
11.9038 5.5783 1.9661
11.2900 6.4418 1.9556
10.6046 7.2362 1.9440
9.8567 7.9560 1.9316
9.0562 8.5972 1.9184
8.2124 9.1571 1.9047
7.3350 9.6343 1.8905
6.4634 10.0757 1.8849
5.5845 10.4700 1.8849
4.9277 11.3498 1.9831
4.0726 11.9212 2.0373
3.0738 12.0996 2.0373
2.0727 12.1966 2.0373
1.0760 12.2136 2.0373
0.0898 12.1526 2.0373
-0.8801 12.0159 2.0373
-1.8282 11.8062 2.0373
-2.7497 11.5266 2.0373
-3.6398 11.1803 2.0373
-4.4943 10.7706 2.0373
-5.3094 10.3011 2.0373
-6.0816 9.7757 2.0373
-6.8076 9.1979 2.0373
-7.4845 8.5718 2.0373
-8.1101 7.9009 2.0373
-8.6816 7.1895 2.0373
-9.1972 6.4415 2.0373
-9.6550 5.6607 2.0373
-10.0535 4.8512 2.0373
-10.3912 4.0169 2.0373
-10.6669 3.1617 2.0373
-10.8796 2.2896 2.0373
-11.0285 1.4051 2.0373
-11.1129 0.5116 2.0373
-11.1322 -0.3866 2.0373
-11.0862 -1.2853 2.0373
-10.9747 -2.1805 2.0373
-10.7978 -3.0678 2.0373
-10.5555 -3.9432 2.0373
-10.2485 -4.8021 2.0373
-9.8773 -5.6401 2.0373
-9.4429 -6.4532 2.0373
-8.9463 -7.2364 2.0373
-8.3892 -7.9853 2.0373
-7.7732 -8.6954 2.0373
-7.1004 -9.3620 2.0373
-6.3734 -9.9804 2.0373
-5.5950 -10.5461 2.0373
-4.7685 -11.0545 2.0373
-3.8977 -11.5011 2.0373
-2.9867 -11.8818 2.0373
-0.5447 -3.2554 0.5440
-0.2857 -3.3390 0.5473
-0.0168 -3.4038 0.5509
0.2608 -3.4486 0.5547
0.5456 -3.4721 0.5587
0.8361 -3.4730 0.5629
1.1304 -3.4503 0.5673
4.7027 -11.2184 1.8849
5.6444 -10.9146 1.8890
3.9800 -6.3824 1.1477
7.5361 -10.1667 1.9174
8.4403 -9.6589 1.9308
9.3031 -9.0633 1.9435
10.1141 -8.3828 1.9552
10.8630 -7.6216 1.9659
11.5399 -6.7854 1.9754
6.6031 -3.2002 1.0792
7.1329 -2.7752 1.1230
13.0501 -3.9058 1.9953
13.3561 -2.8546 1.9987
13.5550 -1.7765 2.0005
13.6441 -0.6838 2.0006
13.6227 0.4111 1.9989
13.4919 1.4958 1.9956
13.2543 2.5582 1.9907
7.5069 2.0851 1.1534
7.2399 2.6525 1.1466
11.9519 5.5025 1.9670
11.3447 6.3716 1.9565
10.6649 7.1721 1.9450
9.9220 7.8983 1.9326
9.1254 8.5463 1.9195
8.2850 9.1131 1.9058
7.4101 9.5973 1.8917
6.5362 10.0389 1.8849
5.6595 10.4397 1.8849
4.9163 11.1169 1.9467
4.1565 11.9024 2.0373
3.1581 12.0877 2.0373
2.1570 12.1915 2.0373
1.1597 12.2152 2.0373
0.1724 12.1607 2.0373
-0.7991 12.0303 2.0373
-1.7493 11.8267 2.0373
-2.6731 11.5528 2.0373
-3.5661 11.2120 2.0373
-4.4238 10.8075 2.0373
-5.2423 10.3429 2.0373
-6.0182 9.8220 2.0373
-6.7482 9.2485 2.0373
-7.4295 8.6262 2.0373
-8.0594 7.9591 2.0373
-8.6355 7.2510 2.0373
-9.1559 6.5059 2.0373
-9.6187 5.7277 2.0373
-10.0222 4.9204 2.0373
-10.3651 4.0881 2.0373
-10.6461 3.2345 2.0373
-10.8641 2.3638 2.0373
-11.0184 1.4800 2.0373
-11.1083 0.5871 2.0373
-5.3261 8.3145 2.0373
-5.9476 7.8174 2.0373
-6.5271 7.2778 2.0373
-7.0621 6.6992 2.0373
-7.5505 6.0849 2.0373
-7.9904 5.4384 2.0373
-8.3799 4.7631 2.0373
-8.7176 4.0628 2.0373
-9.0021 3.3409 2.0373
-9.2324 2.6010 2.0373
-9.4074 1.8468 2.0373
-9.5264 1.0819 2.0373
-9.5888 0.3101 2.0373
-9.5942 -0.4650 2.0373
-9.5424 -1.2396 2.0373
-9.4334 -2.0099 2.0373
-9.2672 -2.7721 2.0373
-9.0443 -3.5223 2.0373
-8.7652 -4.2567 2.0373
-8.4307 -4.9712 2.0373
-8.0418 -5.6620 2.0373
-7.5998 -6.3252 2.0373
-7.1063 -6.9566 2.0373
-6.5630 -7.5523 2.0373
-5.9722 -8.1085 2.0373
-5.3362 -8.6211 2.0373
-4.6580 -9.0864 2.0373
-3.9406 -9.5007 2.0373
-3.1875 -9.8603 2.0373
-0.6428 -2.7186 0.5450
-0.4276 -2.7969 0.5478
-0.2042 -2.8595 0.5507
0.0266 -2.9054 0.5539
0.2634 -2.9336 0.5571
0.5050 -2.9432 0.5606
0.7499 -2.9335 0.5642
0.9965 -2.9036 0.5679
1.2431 -2.8530 0.5717
4.8725 -9.1081 1.8849
4.0574 -6.3091 1.3602
6.3850 -8.3681 1.8974
7.1138 -7.9166 1.9082
7.8048 -7.3961 1.9183
8.4503 -6.8094 1.9275
9.0426 -6.1606 1.9359
9.5744 -5.4545 1.9433
6.7596 -3.1627 1.3127
10.4309 -3.8955 1.9547
10.7445 -3.0573 1.9586
10.9760 -2.1909 1.9611
11.1224 -1.3052 1.9623
11.1821 -0.4096 1.9621
11.1547 0.4865 1.9606
11.0409 1.3739 1.9578
10.8429 2.2433 1.9537
7.5591 2.2083 1.3942
7.4222 2.8316 1.4119
9.7806 4.6607 1.9343
9.2874 5.3787 1.9258
8.7350 6.0429 1.9165
8.1303 6.6486 1.9064
7.4806 7.1924 1.8957
6.7929 7.6715 1.8845
6.1139 8.1363 1.8849
5.4017 8.5384 1.8849
4.7610 9.0626 1.9242
4.2219 9.8936 2.0373
3.3874 10.1222 2.0373
2.5435 10.2814 2.0373
1.6959 10.3717 2.0373
0.8501 10.3940 2.0373
0.0116 10.3497 2.0373
-0.8147 10.2406 2.0373
-1.6241 10.0685 2.0373
-2.4121 9.8360 2.0373
-3.1745 9.5454 2.0373
-3.9076 9.1996 2.0373
-4.6078 8.8016 2.0373
-5.2718 8.3543 2.0373
-5.8968 7.8610 2.0373
-6.4799 7.3249 2.0373
-7.0188 6.7494 2.0373
-7.5112 6.1380 2.0373
-7.9552 5.4940 2.0373
-8.3491 4.8211 2.0373
-8.6912 4.1227 2.0373
-8.9802 3.4025 2.0373
-9.2151 2.6640 2.0373
-9.3948 1.9108 2.0373
-9.5185 1.1467 2.0373
-9.5857 0.3753 2.0373
-9.5960 -0.3997 2.0373
-9.5490 -1.1745 2.0373
-9.4448 -1.9452 2.0373
-9.2834 -2.7082 2.0373
-9.0653 -3.4596 2.0373
-8.7909 -4.1955 2.0373
-8.4610 -4.9118 2.0373
-8.0766 -5.6048 2.0373
-7.6391 -6.2704 2.0373
-7.1498 -6.9047 2.0373
-6.6107 -7.5036 2.0373
-6.0238 -8.0632 2.0373
-5.3915 -8.5797 2.0373
-4.7167 -9.0492 2.0373
-4.0024 -9.4678 2.0373
-3.2522 -9.8322 2.0373
-0.6605 -2.7113 0.5448
-0.4461 -2.7909 0.5476
-0.2233 -2.8548 0.5505
0.0069 -2.9022 0.5536
0.2432 -2.9319 0.5569
0.4844 -2.9432 0.5603
0.7291 -2.9351 0.5639
0.9757 -2.9069 0.5676
1.2224 -2.8581 0.5714
4.8081 -9.1359 1.8849
3.9937 -6.3035 1.3538
6.3221 -8.4030 1.8965
7.0537 -7.9574 1.9073
7.7482 -7.4426 1.9174
8.3978 -6.8613 1.9268
8.9949 -6.2175 1.9353
9.5321 -5.5160 1.9427
6.7422 -3.2103 1.3138
10.4008 -3.9646 1.9543
10.7212 -3.1292 1.9583
10.9597 -2.2648 1.9609
11.1134 -1.3804 1.9622
11.1805 -0.4852 1.9622
11.1603 0.4112 1.9608
11.0538 1.2996 1.9581
10.8628 2.1709 1.9541
7.6115 2.1679 1.4007
7.3883 2.7615 1.4014
9.8192 4.5979 1.9350
9.3313 5.3202 1.9266
8.7837 5.9891 1.9173
8.1832 6.5999 1.9073
7.5369 7.1490 1.8966
6.8522 7.6337 1.8854
6.1725 8.0996 1.8849
5.4628 8.5069 1.8849
4.7567 8.9076 1.8968
4.2916 9.8711 2.0373
3.4582 10.1056 2.0373
2.6148 10.2706 2.0373
1.7673 10.3667 2.0373
0.9212 10.3947 2.0373
0.0819 10.3560 2.0373
-0.7457 10.2522 2.0373
-1.5566 10.0854 2.0373
-2.3466 9.8579 2.0373
-3.1113 9.5721 2.0373
-3.8470 9.2309 2.0373
-4.5501 8.8371 2.0373
-5.2173 8.3938 2.0373
-5.8457 7.9042 2.0373
-6.4324 7.3716 2.0373
-6.9751 6.7993 2.0373
-7.4715 6.1908 2.0373
-7.9197 5.5495 2.0373
-8.3178 4.8788 2.0373
-8.6644 4.1825 2.0373
-8.9579 3.4639 2.0373
-9.1974 2.7268 2.0373
-9.3818 1.9748 2.0373
-9.5103 1.2114 2.0373
-9.5823 0.4405 2.0373
-9.5973 -0.3343 2.0373
-9.5552 -1.1092 2.0373
-9.4558 -1.8805 2.0373
-9.2992 -2.6443 2.0373
-9.0858 -3.3968 2.0373
-8.8162 -4.1341 2.0373
-8.4909 -4.8523 2.0373
-8.1111 -5.5474 2.0373
-7.6780 -6.2154 2.0373
-7.1930 -6.8525 2.0373
-6.6580 -7.4546 2.0373
-6.0750 -8.0176 2.0373
-5.4465 -8.5379 2.0373
-4.7752 -9.0115 2.0373
-4.0641 -9.4346 2.0373
-3.3168 -9.8037 2.0373
-0.6782 -2.7039 0.5446
-0.4645 -2.7848 0.5473
-0.2424 -2.8501 0.5502
-0.0128 -2.8988 0.5533
0.2231 -2.9301 0.5566
0.4640 -2.9430 0.5600
0.7084 -2.9365 0.5636
0.9549 -2.9101 0.5673
1.2016 -2.8630 0.5710
1.4468 -2.7948 0.5749
3.9306 -6.2978 1.3476
6.2590 -8.4373 1.8956
6.9934 -7.9977 1.9064
7.6913 -7.4886 1.9166
8.3450 -6.9128 1.9260
8.9467 -6.2741 1.9346
9.4893 -5.5773 1.9421
6.7248 -3.2580 1.3149
10.3702 -4.0335 1.9539
10.6973 -3.2008 1.9580
10.9429 -2.3385 1.9608
11.1038 -1.4555 1.9622
11.1782 -0.5609 1.9623
11.1654 0.3358 1.9610
11.0660 1.2253 1.9584
10.8820 2.0983 1.9545
7.7120 2.1402 1.4161
7.3548 2.6925 1.3911
9.8574 4.5347 1.9357
9.3749 5.2613 1.9273
8.8320 5.9349 1.9181
8.2357 6.5507 1.9082
7.5929 7.1052 1.8975
6.9112 7.5953 1.8864
6.2310 8.0625 1.8849
5.5237 8.4749 1.8849
4.7898 8.8251 1.8849
4.3612 9.8482 2.0373
3.5289 10.0885 2.0373
2.6862 10.2594 2.0373
1.8388 10.3613 2.0373
0.9923 10.3950 2.0373
0.1522 10.3618 2.0373
-0.6765 10.2635 2.0373
-1.4890 10.1019 2.0373
-2.2809 9.8793 2.0373
-3.0479 9.5984 2.0373
-3.7862 9.2617 2.0373
-4.4922 8.8722 2.0373
-5.1625 8.4330 2.0373
-5.7943 7.9472 2.0373
-6.3846 7.4181 2.0373
-6.9311 6.8490 2.0373
-7.4315 6.2434 2.0373
-7.8838 5.6047 2.0373
-8.2862 4.9364 2.0373
-8.6372 4.2421 2.0373
-8.9353 3.5253 2.0373
-9.1793 2.7896 2.0373
-9.3684 2.0386 2.0373
-9.5016 1.2761 2.0373
-9.5784 0.5057 2.0373
-4.6565 7.2754 2.0373
-5.2036 6.8447 2.0373
-5.7143 6.3759 2.0373
-6.1863 5.8719 2.0373
-6.6174 5.3358 2.0373
-7.0059 4.7706 2.0373
-7.3500 4.1795 2.0373
-7.6484 3.5658 2.0373
-7.8997 2.9326 2.0373
-8.1028 2.2833 2.0373
-8.2570 1.6211 2.0373
-8.3614 0.9494 2.0373
-8.4156 0.2716 2.0373
-8.4192 -0.4090 2.0373
-8.3720 -1.0889 2.0373
-8.2740 -1.7645 2.0373
-8.1254 -2.4326 2.0373
-7.9266 -3.0895 2.0373
-7.6783 -3.7317 2.0373
-7.3812 -4.3558 2.0373
-7.0364 -4.9581 2.0373
-6.6452 -5.5351 2.0373
-6.2090 -6.0834 2.0373
-5.7297 -6.5995 2.0373
-5.2094 -7.0798 2.0373
-4.6503 -7.5212 2.0373
-4.0551 -7.9202 2.0373
-3.4267 -8.2738 2.0373
-2.7683 -8.5789 2.0373
-0.5603 -2.3751 0.5478
-0.3717 -2.4396 0.5503
-0.1765 -2.4901 0.5528
0.0244 -2.5258 0.5556
0.2299 -2.5458 0.5585
0.4387 -2.5496 0.5615
0.6497 -2.5365 0.5646
0.8614 -2.5061 0.5678
1.0722 -2.4578 0.5710
1.2807 -2.3915 0.5744
1.4850 -2.3071 0.5777
5.4607 -7.1514 1.8849
6.0627 -6.7425 1.8905
6.6413 -6.2898 1.8989
7.1803 -5.7830 1.9066
7.6739 -5.2256 1.9136
8.1164 -4.6219 1.9197
6.9548 -3.2529 1.5745
8.8282 -3.2959 1.9292
9.0889 -2.5856 1.9324
9.2819 -1.8525 1.9345
9.4049 -1.1039 1.9355
9.4565 -0.3470 1.9354
9.4363 0.4106 1.9341
9.3451 1.1614 1.9318
9.1843 1.8983 1.9284
7.7990 2.2765 1.6755
7.5794 2.8892 1.6785
8.3118 3.9577 1.9125
7.9039 4.5739 1.9054
7.4454 5.1467 1.8976
6.9416 5.6719 1.8892
6.4142 6.1619 1.8849
5.8649 6.6175 1.8849
5.2827 7.0234 1.8849
4.6724 7.3777 1.8849
4.3652 8.2992 2.0373
3.6603 8.5654 2.0373
2.9407 8.7721 2.0373
2.2114 8.9190 2.0373
1.4775 9.0062 2.0373
0.7437 9.0344 2.0373
0.0148 9.0045 2.0373
-0.7049 8.9178 2.0373
-1.4111 8.7759 2.0373
-2.0998 8.5806 2.0373
-2.7673 8.3339 2.0373
-3.4101 8.0383 2.0373
-4.0249 7.6961 2.0373
-4.6087 7.3099 2.0373
-5.1589 6.8825 2.0373
-5.6728 6.4168 2.0373
-6.1481 5.9156 2.0373
-6.5827 5.3821 2.0373
-6.9748 4.8193 2.0373
-7.3227 4.2303 2.0373
-7.6250 3.6183 2.0373
-7.8803 2.9867 2.0373
-8.0876 2.3385 2.0373
-8.2459 1.6773 2.0373
-8.3546 1.0063 2.0373
-8.4130 0.3288 2.0373
-8.4208 -0.3516 2.0373
-8.3779 -1.0317 2.0373
-8.2842 -1.7078 2.0373
-8.1398 -2.3767 2.0373
-7.9453 -3.0346 2.0373
-7.7011 -3.6782 2.0373
-7.4081 -4.3039 2.0373
-7.0673 -4.9082 2.0373
-6.6799 -5.4876 2.0373
-6.2475 -6.0384 2.0373
-5.7718 -6.5573 2.0373
-5.2548 -7.0408 2.0373
-4.6989 -7.4855 2.0373
-4.1066 -7.8883 2.0373
-3.4808 -8.2458 2.0373
-2.8249 -8.5551 2.0373
-0.5758 -2.3691 0.5476
-0.3878 -2.4347 0.5500
-0.1932 -2.4864 0.5526
0.0073 -2.5234 0.5553
0.2124 -2.5447 0.5582
0.4210 -2.5499 0.5612
0.6319 -2.5383 0.5643
0.8435 -2.5093 0.5675
1.0545 -2.4626 0.5708
1.2632 -2.3978 0.5741
1.4679 -2.3149 0.5774
5.4100 -7.1852 1.8849
6.0124 -6.7781 1.8898
6.5940 -6.3300 1.8982
7.1366 -5.8277 1.9060
7.6342 -5.2745 1.9131
8.0812 -4.6745 1.9193
6.9383 -3.3025 1.5761
8.8032 -3.3546 1.9289
9.0695 -2.6465 1.9321
9.2683 -1.9150 1.9343
9.3972 -1.1674 1.9354
9.4549 -0.4109 1.9354
9.4408 0.3469 1.9343
9.3555 1.0986 1.9320
9.2005 1.8369 1.9288
7.8316 2.2286 1.6787
7.5607 2.8237 1.6696
8.3437 3.9039 1.9130
7.9403 4.5236 1.9060
7.4858 5.1002 1.8983
6.9856 5.6295 1.8899
6.4588 6.1212 1.8849
5.9125 6.5810 1.8849
5.3329 6.9912 1.8849
4.7248 7.3497 1.8849
4.4238 8.2740 2.0373
3.7204 8.5453 2.0373
3.0018 8.7570 2.0373
2.2731 8.9089 2.0373
1.5394 9.0012 2.0373
0.8054 9.0343 2.0373
0.0759 9.0093 2.0373
-0.6447 8.9273 2.0373
-1.3522 8.7899 2.0373
-2.0425 8.5990 2.0373
-2.7119 8.3567 2.0373
-3.3569 8.0650 2.0373
-3.9742 7.7266 2.0373
-4.5608 7.3441 2.0373
-5.1139 6.9201 2.0373
-5.6309 6.4575 2.0373
-6.1095 5.9592 2.0373
-6.5477 5.4283 2.0373
-6.9435 4.8678 2.0373
-7.2952 4.2808 2.0373
-7.6013 3.6707 2.0373
-7.8606 3.0406 2.0373
-8.0720 2.3937 2.0373
-8.2345 1.7335 2.0373
-8.3473 1.0631 2.0373
-8.4100 0.3861 2.0373
-8.4221 -0.2942 2.0373
-8.3835 -0.9744 2.0373
-8.2940 -1.6511 2.0373
-8.1539 -2.3206 2.0373
-7.9636 -2.9797 2.0373
-7.7236 -3.6246 2.0373
-7.4347 -4.2520 2.0373
-7.0978 -4.8582 2.0373
-6.7143 -5.4398 2.0373
-6.2856 -5.9931 2.0373
-5.8135 -6.5149 2.0373
-5.2999 -7.0015 2.0373
-4.7472 -7.4496 2.0373
-4.1578 -7.8560 2.0373
-3.5348 -8.2175 2.0373
-2.8812 -8.5310 2.0373
-0.5913 -2.3629 0.5474
-0.4040 -2.4297 0.5498
-0.2098 -2.4826 0.5524
-0.0098 -2.5208 0.5551
0.1950 -2.5436 0.5580
0.4033 -2.5501 0.5610
0.6141 -2.5399 0.5640
0.8257 -2.5124 0.5672
1.0368 -2.4672 0.5705
1.2458 -2.4040 0.5738
1.4509 -2.3226 0.5772
5.3590 -7.2186 1.8849
5.9617 -6.8133 1.8890
6.5464 -6.3699 1.8975
7.0925 -5.8721 1.9054
7.5941 -5.3230 1.9125
8.0456 -4.7267 1.9188
6.9220 -3.3522 1.5777
8.7777 -3.4130 1.9285
9.0496 -2.7071 1.9319
9.2542 -1.9774 1.9342
9.3891 -1.2309 1.9354
9.4528 -0.4749 1.9354
9.4448 0.2831 1.9344
9.3654 1.0356 1.9323
9.2162 1.7754 1.9291
8.9992 2.4953 1.9249
7.5770 2.7716 1.6685
8.3752 3.8499 1.9136
7.9764 4.4730 1.9066
7.5260 5.0533 1.8990
7.0294 5.5868 1.8906
6.5032 6.0804 1.8849
5.9599 6.5441 1.8849
5.3830 6.9586 1.8849
4.7770 7.3216 1.8849
4.4822 8.2485 2.0373
3.7803 8.5247 2.0373
3.0628 8.7415 2.0373
2.3348 8.8984 2.0373
1.6013 8.9957 2.0373
0.8672 9.0338 2.0373
0.1371 9.0136 2.0373
-0.5844 8.9364 2.0373
-1.2931 8.8036 2.0373
-1.9850 8.6172 2.0373
-2.6564 8.3790 2.0373
-3.3036 8.0915 2.0373
-3.9233 7.7569 2.0373
-4.5126 7.3780 2.0373
-5.0686 6.9574 2.0373
-5.5888 6.4979 2.0373
-6.0707 6.0025 2.0373
-6.5124 5.4742 2.0373
-6.9118 4.9161 2.0373
-7.2673 4.3313 2.0373
-7.5773 3.7230 2.0373
-7.8406 3.0944 2.0373
-8.0561 2.4488 2.0373
-8.2227 1.7896 2.0373
-8.3398 1.1200 2.0373
-8.4067 0.4433 2.0373
-4.1297 6.4580 2.0373
-4.6177 6.0787 2.0373
-5.0736 5.6648 2.0373
-5.4952 5.2190 2.0373
-5.8805 4.7441 2.0373
-6.2278 4.2428 2.0373
-6.5356 3.7180 2.0373
-6.8025 3.1726 2.0373
-7.0272 2.6095 2.0373
-7.2087 2.0318 2.0373
-7.3463 1.4424 2.0373
-7.4392 0.8445 2.0373
-7.4870 0.2411 2.0373
-7.4893 -0.3647 2.0373
-7.4461 -0.9696 2.0373
-7.3573 -1.5706 2.0373
-7.2231 -2.1643 2.0373
-7.0441 -2.7477 2.0373
-6.8208 -3.3176 2.0373
-6.5540 -3.8707 2.0373
-6.2448 -4.4037 2.0373
-5.8944 -4.9138 2.0373
-5.5042 -5.3975 2.0373
-5.0761 -5.8520 2.0373
-4.6118 -6.2740 2.0373
-4.1137 -6.6607 2.0373
-3.5842 -7.0093 2.0373
-3.0260 -7.3170 2.0373
-0.6568 -2.0392 0.5480
-0.4955 -2.1058 0.5500
-0.3279 -2.1603 0.5522
-0.1549 -2.2021 0.5545
0.0227 -2.2307 0.5569
0.2039 -2.2453 0.5595
0.3876 -2.2456 0.5621
0.5726 -2.2309 0.5649
0.7577 -2.2010 0.5677
0.9601 -2.1980 0.5818
1.1906 -2.2211 0.6081
1.4475 -2.2469 0.6418
4.7876 -6.2652 1.8849
5.2963 -5.8862 1.8849
5.7713 -5.4625 1.8844
6.2330 -5.0174 1.8911
6.6551 -4.5297 1.8970
7.0332 -4.0033 1.9022
6.8984 -3.2252 1.7864
7.6406 -2.8517 1.9102
7.8633 -2.2364 1.9130
8.0284 -1.6022 1.9147
8.1342 -0.9549 1.9156
8.1795 -0.3007 1.9155
8.1641 0.3543 1.9145
8.0884 1.0040 1.9125
7.9536 1.6423 1.9097
7.7614 2.2635 1.9060
7.5145 2.8622 1.9014
7.2158 3.4332 1.8961
6.8690 3.9719 1.8901
6.4781 4.4745 1.8834
6.0754 4.9601 1.8849
5.6305 5.4044 1.8849
5.1522 5.8080 1.8849
4.6444 6.1688 1.8849
4.4437 7.0089 2.0373
3.8445 7.3002 2.0373
3.2269 7.5402 2.0373
2.5953 7.7281 2.0373
1.9542 7.8636 2.0373
1.3080 7.9466 2.0373
0.6610 7.9776 2.0373
0.0173 7.9571 2.0373
-0.6192 7.8862 2.0373
-1.2446 7.7660 2.0373
-1.8554 7.5983 2.0373
-2.4482 7.3847 2.0373
-3.0197 7.1270 2.0373
-3.5669 6.8275 2.0373
-4.0871 6.4884 2.0373
-4.5778 6.1120 2.0373
-5.0364 5.7009 2.0373
-5.4610 5.2578 2.0373
-5.8495 4.7852 2.0373
-6.2001 4.2861 2.0373
-6.5112 3.7631 2.0373
-6.7816 3.2193 2.0373
-7.0099 2.6576 2.0373
-7.1951 2.0810 2.0373
-7.3364 1.4925 2.0373
-7.4331 0.8951 2.0373
-7.4847 0.2921 2.0373
-7.4909 -0.3136 2.0373
-7.4515 -0.9187 2.0373
-7.3665 -1.5201 2.0373
-7.2362 -2.1146 2.0373
-7.0609 -2.6990 2.0373
-6.8413 -3.2702 2.0373
-6.5782 -3.8248 2.0373
-6.2725 -4.3597 2.0373
-5.9255 -4.8718 2.0373
-5.5386 -5.3579 2.0373
-5.1136 -5.8149 2.0373
-4.6523 -6.2397 2.0373
-4.1570 -6.6296 2.0373
-3.6300 -6.9815 2.0373
-3.0741 -7.2927 2.0373
-2.4921 -7.5608 2.0373
-0.5094 -2.1006 0.5498
-0.3423 -2.1562 0.5520
-0.1697 -2.1991 0.5543
0.0076 -2.2288 0.5567
0.1885 -2.2446 0.5593
0.3720 -2.2461 0.5619
0.5570 -2.2327 0.5646
0.7421 -2.2041 0.5675
0.9416 -2.1962 0.5799
1.1703 -2.2191 0.6057
1.4246 -2.2446 0.6387
4.7434 -6.2951 1.8849
5.2546 -5.9199 1.8849
5.7307 -5.4980 1.8839
6.1956 -5.0566 1.8905
6.6212 -4.5724 1.8965
7.0031 -4.0491 1.9018
6.9147 -3.2900 1.7966
7.6193 -2.9025 1.9100
7.8467 -2.2891 1.9128
8.0168 -1.6563 1.9146
8.1276 -1.0099 1.9156
8.1781 -0.3560 1.9156
8.1678 0.2992 1.9146
8.0971 0.9496 1.9127
7.9672 1.5891 1.9100
7.7798 2.2120 1.9063
7.5373 2.8127 1.9018
7.2429 3.3862 1.8966
6.9000 3.9279 1.8906
6.5126 4.4336 1.8840
6.1113 4.9209 1.8849
5.6693 5.3685 1.8849
5.1937 5.7756 1.8849
4.6883 6.1401 1.8849
4.4932 6.9821 2.0373
3.8958 7.2776 2.0373
3.2795 7.5220 2.0373
2.6489 7.7143 2.0373
2.0085 7.8542 2.0373
1.3626 7.9417 2.0373
0.7155 7.9769 2.0373
0.0713 7.9608 2.0373
-0.5659 7.8940 2.0373
-1.1924 7.7781 2.0373
-1.8046 7.6143 2.0373
-2.3990 7.4044 2.0373
-2.9724 7.1504 2.0373
-3.5218 6.8543 2.0373
-4.0444 6.5184 2.0373
-4.5376 6.1451 2.0373
-4.9991 5.7369 2.0373
-5.4266 5.2963 2.0373
-5.8182 4.8261 2.0373
-6.1720 4.3291 2.0373
-6.4866 3.8080 2.0373
-6.7604 3.2659 2.0373
-6.9923 2.7056 2.0373
-7.1812 2.1301 2.0373
-7.3262 1.5425 2.0373
-7.4267 0.9456 2.0373
-7.4821 0.3430 2.0373
-7.4921 -0.2625 2.0373
-7.4566 -0.8678 2.0373
-7.3754 -1.4697 2.0373
-7.2489 -2.0649 2.0373
-7.0774 -2.6502 2.0373
-6.8615 -3.2226 2.0373
-6.6020 -3.7787 2.0373
-6.2998 -4.3154 2.0373
-5.9563 -4.8296 2.0373
-5.5727 -5.3180 2.0373
-5.1508 -5.7775 2.0373
-4.6926 -6.2052 2.0373
-4.2000 -6.5981 2.0373
-3.6756 -6.9533 2.0373
-3.1220 -7.2681 2.0373
-2.5421 -7.5399 2.0373
-0.5232 -2.0954 0.5497
-0.3566 -2.1520 0.5518
-0.1844 -2.1960 0.5541
-0.0075 -2.2268 0.5565
0.1732 -2.2439 0.5590
0.3565 -2.2465 0.5617
0.5414 -2.2344 0.5644
0.7265 -2.2071 0.5672
0.9233 -2.1943 0.5780
1.1501 -2.2171 0.6032
1.4020 -2.2423 0.6356
4.6990 -6.3246 1.8849
5.2127 -5.9532 1.8849
5.6948 -5.5380 1.8849
6.1578 -5.0955 1.8900
6.5870 -4.6147 1.8961
6.9727 -4.0946 1.9014
7.3108 -3.5392 1.9060
7.5976 -2.9531 1.9097
7.8297 -2.3416 1.9126
8.0047 -1.7102 1.9145
8.1206 -1.0647 1.9155
8.1761 -0.4112 1.9156
8.1710 0.2441 1.9147
8.1054 0.8951 1.9129
7.9804 1.5358 1.9102
7.7977 2.1603 1.9067
7.5598 2.7630 1.9022
7.2696 3.3390 1.8971
6.9307 3.8835 1.8912
6.5469 4.3924 1.8846
6.1469 4.8814 1.8849
5.7079 5.3323 1.8849
5.2350 5.7429 1.8849
4.7319 6.1110 1.8849
4.5426 6.9548 2.0373
3.9469 7.2547 2.0373
3.3321 7.5034 2.0373
2.7025 7.7001 2.0373
2.0627 7.8445 2.0373
1.4171 7.9363 2.0373
0.7699 7.9760 2.0373
0.1254 7.9641 2.0373
-0.5126 7.9016 2.0373
-1.1401 7.7897 2.0373
-1.7536 7.6299 2.0373
-2.3496 7.4238 2.0373
-2.9249 7.1735 2.0373
-3.4765 6.8808 2.0373
-4.0014 6.5482 2.0373
-4.4972 6.1780 2.0373
-4.9615 5.7726 2.0373
-5.3919 5.3346 2.0373
-5.7866 4.8668 2.0373
-6.1437 4.3719 2.0373
-6.4616 3.8528 2.0373
-6.7389 3.3123 2.0373
-6.9744 2.7535 2.0373
-7.1669 2.1791 2.0373
-7.3157 1.5924 2.0373
-7.4200 0.9963 2.0373
-7.4792 0.3940 2.0373
-3.7038 5.7972 2.0373
-4.1436 5.4588 2.0373
-4.5547 5.0889 2.0373
-4.9351 4.6900 2.0373
-5.2829 4.2644 2.0373
-5.5966 3.8146 2.0373
-5.8746 3.3434 2.0373
-6.1156 2.8534 2.0373
-6.3185 2.3471 2.0373
-6.4824 1.8275 2.0373
-6.6064 1.2973 2.0373
-6.6900 0.7592 2.0373
-6.7326 0.2163 2.0373
-6.7341 -0.3287 2.0373
-6.6943 -0.8728 2.0373
-6.6132 -1.4131 2.0373
-6.4912 -1.9467 2.0373
-6.3286 -2.4707 2.0373
-6.1260 -2.9820 2.0373
-5.8843 -3.4779 2.0373
-5.6044 -3.9554 2.0373
-5.2876 -4.4116 2.0373
-4.9352 -4.8438 2.0373
-4.5488 -5.2490 2.0373
-4.1304 -5.6247 2.0373
-3.6819 -5.9683 2.0373
-3.2057 -6.2772 2.0373
-2.7043 -6.5490 2.0373
-0.6551 -2.0375 0.6121
-0.4823 -2.0546 0.6003
-0.3133 -2.0714 0.5926
-0.1457 -2.0881 0.5888
0.0226 -2.1048 0.5889
0.1938 -2.1219 0.5929
0.3704 -2.1395 0.6009
0.5550 -2.1579 0.6134
0.7507 -2.1775 0.6309
0.9615 -2.1986 0.6541
1.1922 -2.2217 0.6841
1.4492 -2.2475 0.7224
4.2564 -5.5657 1.8849
4.7062 -5.2268 1.8849
5.1271 -4.8498 1.8849
5.5156 -4.4375 1.8849
5.8662 -3.9908 1.8841
6.1954 -3.5250 1.8887
6.4824 -3.0296 1.8925
6.7242 -2.5088 1.8956
6.9181 -1.9671 1.8980
7.0621 -1.4092 1.8996
7.1547 -0.8401 1.9003
7.1951 -0.2650 1.9002
7.1829 0.3109 1.8994
7.1185 0.8825 1.8977
7.0028 1.4446 1.8952
6.8372 1.9923 1.8920
6.6239 2.5209 1.8880
6.3654 3.0261 1.8834
6.0862 3.5165 1.8849
5.7629 3.9773 1.8849
5.4033 4.4077 1.8849
5.0104 4.8051 1.8849
4.5876 5.1668 1.8849
4.4728 5.9348 2.0373
3.9621 6.2424 2.0373
3.4304 6.5058 2.0373
2.8816 6.7237 2.0373
2.3198 6.8956 2.0373
1.7488 7.0208 2.0373
1.1725 7.0993 2.0373
0.5948 7.1312 2.0373
0.0193 7.1171 2.0373
-0.5504 7.0578 2.0373
-1.1109 6.9542 2.0373
-1.6588 6.8077 2.0373
-2.1910 6.6197 2.0373
-2.7047 6.3919 2.0373
-3.1971 6.1261 2.0373
-3.6655 5.8243 2.0373
-4.1076 5.4886 2.0373
-4.5212 5.1213 2.0373
-4.9043 4.7247 2.0373
-5.2549 4.3012 2.0373
-5.5715 3.8534 2.0373
-5.8526 3.3839 2.0373
-6.0967 2.8953 2.0373
-6.3029 2.3904 2.0373
-6.4701 1.8717 2.0373
-6.5975 1.3423 2.0373
-6.6845 0.8048 2.0373
-6.7306 0.2622 2.0373
-6.7356 -0.2827 2.0373
-6.6993 -0.8270 2.0373
-6.6217 -1.3678 2.0373
-6.5031 -1.9021 2.0373
-6.3438 -2.4269 2.0373
-6.1446 -2.9395 2.0373
-5.9062 -3.4368 2.0373
-5.6294 -3.9159 2.0373
-5.3157 -4.3740 2.0373
-4.9662 -4.8083 2.0373
-4.5827 -5.2160 2.0373
-4.1669 -5.5943 2.0373
-3.7208 -5.9406 2.0373
-3.2469 -6.2525 2.0373
-2.7475 -6.5276 2.0373
-2.2253 -6.7636 2.0373
-0.4967 -2.0532 0.6012
-0.3275 -2.0700 0.5931
-0.1599 -2.0867 0.5890
0.0083 -2.1034 0.5888
0.1792 -2.1204 0.5924
0.3552 -2.1380 0.6001
0.5391 -2.1563 0.6122
0.7337 -2.1758 0.6292
0.9431 -2.1968 0.6519
1.1718 -2.2197 0.6813
1.4263 -2.2452 0.7188
4.2173 -5.5925 1.8849
4.6693 -5.2568 1.8849
5.0928 -4.8830 1.8849
5.4842 -4.4735 1.8849
5.8367 -4.0286 1.8837
6.1693 -3.5654 1.8883
6.4599 -3.0724 1.8922
6.7056 -2.5536 1.8954
6.9036 -2.0135 1.8978
7.0519 -1.4568 1.8995
7.1489 -0.8884 1.9003
7.1937 -0.3136 1.9003
7.1859 0.2625 1.8995
7.1259 0.8346 1.8978
7.0144 1.3977 1.8954
6.8531 1.9468 1.8923
6.6437 2.4772 1.8884
6.3889 2.9846 1.8838
6.1117 3.4764 1.8849
5.7916 3.9396 1.8849
5.4349 4.3727 1.8849
5.0448 4.7729 1.8849
4.6276 5.1414 1.8863
4.4945 5.8804 2.0282
4.0060 6.2182 2.0373
3.4759 6.4853 2.0373
2.9284 6.7071 2.0373
2.3675 6.8829 2.0373
1.7972 7.0120 2.0373
1.2212 7.0944 2.0373
0.6434 7.1303 2.0373
0.0676 7.1201 2.0373
-0.5027 7.0645 2.0373
-1.0641 6.9646 2.0373
-1.6131 6.8217 2.0373
-2.1468 6.6371 2.0373
-2.6622 6.4126 2.0373
-3.1565 6.1499 2.0373
-3.6270 5.8510 2.0373
-4.0714 5.5181 2.0373
-4.4875 5.1534 2.0373
-4.8732 4.7592 2.0373
-5.2266 4.3379 2.0373
-5.5462 3.8921 2.0373
-5.8303 3.4243 2.0373
-6.0776 2.9372 2.0373
-6.2870 2.4335 2.0373
-6.4575 1.9159 2.0373
-6.5883 1.3873 2.0373
-6.6788 0.8504 2.0373
-6.7283 0.3080 2.0373
-6.7368 -0.2368 2.0373
-6.7039 -0.7812 2.0373
-6.6298 -1.3224 2.0373
-6.5146 -1.8573 2.0373
-6.3588 -2.3831 2.0373
-6.1629 -2.8968 2.0373
-5.9277 -3.3955 2.0373
-5.6542 -3.8763 2.0373
-5.3435 -4.3363 2.0373
-4.9970 -4.7727 2.0373
-4.6163 -5.1827 2.0373
-4.2031 -5.5636 2.0373
-3.7596 -5.9128 2.0373
-3.2879 -6.2276 2.0373
-2.7905 -6.5059 2.0373
-2.2702 -6.7453 2.0373
-0.5111 -2.0518 0.6020
-0.3416 -2.0686 0.5936
-0.1740 -2.0853 0.5892
-0.0060 -2.1020 0.5886
0.1646 -2.1190 0.5919
0.3401 -2.1365 0.5993
0.5232 -2.1547 0.6110
0.7168 -2.1741 0.6276
0.9247 -2.1949 0.6498
1.1516 -2.2177 0.6785
1.4036 -2.2430 0.7152
4.1780 -5.6190 1.8849
4.6323 -5.2866 1.8849
5.0583 -4.9159 1.8849
5.4525 -4.5094 1.8849
5.8068 -4.0662 1.8833
6.1428 -3.6057 1.8880
6.4371 -3.1150 1.8919
6.6867 -2.5982 1.8952
6.8888 -2.0597 1.8977
7.0413 -1.5042 1.8993
7.1427 -0.9366 1.9002
7.1919 -0.3622 1.9003
7.1886 0.2140 1.8996
7.1330 0.7867 1.8980
7.0258 1.3507 1.8957
6.8685 1.9012 1.8926
6.6631 2.4333 1.8888
6.4120 2.9428 1.8843
6.1369 3.4360 1.8849
5.8200 3.9016 1.8849
5.4663 4.3374 1.8849
5.0789 4.7405 1.8849
4.6608 5.1084 1.8849
4.4915 5.7948 2.0082
4.0498 6.1936 2.0373
3.5213 6.4645 2.0373
2.9752 6.6902 2.0373
2.4152 6.8699 2.0373
1.8455 7.0030 2.0373
1.2698 7.0893 2.0373
0.6921 7.1291 2.0373
0.1160 7.1227 2.0373
-0.4549 7.0709 2.0373
-1.0172 6.9747 2.0373
-1.5674 6.8354 2.0373
-2.1025 6.6542 2.0373
-2.6195 6.4330 2.0373
-3.1157 6.1735 2.0373
-3.5883 5.8776 2.0373
-4.0350 5.5474 2.0373
-4.4536 5.1853 2.0373
-4.8419 4.7935 2.0373
-5.1981 4.3744 2.0373
-5.5206 3.9305 2.0373
-5.8077 3.4645 2.0373
-6.0582 2.9789 2.0373
-6.2709 2.4765 2.0373
-6.4447 1.9600 2.0373
-6.5788 1.4322 2.0373
-6.6727 0.8959 2.0373
-6.7257 0.3539 2.0373
-3.3519 5.2512 2.0373
-3.7516 4.9462 2.0373
-4.1253 4.6124 2.0373
-4.4714 4.2519 2.0373
-4.7879 3.8669 2.0373
-5.0734 3.4598 2.0373
-5.3265 3.0329 2.0373
-5.5459 2.5886 2.0373
-5.7306 2.1295 2.0373
-5.8797 1.6580 2.0373
-5.9925 1.1768 2.0373
-6.0683 0.6885 2.0373
-6.1068 0.1957 2.0373
-6.1077 -0.2988 2.0373
-6.0708 -0.7925 2.0373
-5.9964 -1.2826 2.0373
-5.8846 -1.7664 2.0373
-5.7359 -2.2411 2.0373
-5.5508 -2.7042 2.0373
-5.3302 -3.1530 2.0373
-5.0749 -3.5847 2.0373
-4.7862 -3.9967 2.0373
-4.4653 -4.3866 2.0373
-4.1139 -4.7517 2.0373
-3.7336 -5.0897 2.0373
-3.3264 -5.3982 2.0373
-2.8945 -5.6750 2.0373
-2.4400 -5.9180 2.0373
-0.6540 -2.0380 0.6779
-0.4813 -2.0552 0.6651
-0.3122 -2.0719 0.6569
-0.1446 -2.0886 0.6531
0.0237 -2.1053 0.6535
0.1950 -2.1224 0.6582
0.3716 -2.1400 0.6675
0.5563 -2.1585 0.6817
0.7521 -2.1781 0.7015
0.9630 -2.1992 0.7276
1.1938 -2.2224 0.7613
1.4509 -2.2482 0.8042
3.8258 -4.9988 1.8849
4.2282 -4.6927 1.8849
4.6046 -4.3529 1.8849
4.9518 -3.9817 1.8849
5.2672 -3.5815 1.8849
5.5480 -3.1552 1.8849
5.7921 -2.7060 1.8849
5.9944 -2.2358 1.8840
6.1658 -1.7528 1.8861
6.2932 -1.2557 1.8875
6.3755 -0.7488 1.8881
6.4118 -0.2366 1.8881
6.4019 0.2764 1.8873
6.3461 0.7858 1.8858
6.2450 1.2870 1.8837
6.1133 1.7798 1.8849
5.9366 2.2574 1.8849
5.7206 2.7174 1.8849
5.4674 3.1564 1.8849
5.1790 3.5714 1.8849
4.8580 3.9596 1.8849
4.5069 4.3184 1.8849
4.4259 4.9801 2.0206
4.0275 5.3386 2.0373
3.5697 5.6179 2.0373
3.0927 5.8579 2.0373
2.5998 6.0572 2.0373
2.0946 6.2151 2.0373
1.5807 6.3312 2.0373
1.0615 6.4052 2.0373
0.5404 6.4372 2.0373
0.0209 6.4276 2.0373
-0.4939 6.3770 2.0373
-1.0008 6.2864 2.0373
-1.4968 6.1567 2.0373
-1.9791 5.9892 2.0373
-2.4449 5.7854 2.0373
-2.8917 5.5469 2.0373
-3.3171 5.2755 2.0373
-3.7188 4.9730 2.0373
-4.0949 4.6416 2.0373
-4.4433 4.2833 2.0373
-4.7624 3.9003 2.0373
-5.0506 3.4949 2.0373
-5.3064 3.0696 2.0373
-5.5287 2.6266 2.0373
-5.7164 2.1686 2.0373
-5.8686 1.6981 2.0373
-5.9844 1.2177 2.0373
-6.0634 0.7299 2.0373
-6.1050 0.2374 2.0373
-6.1090 -0.2571 2.0373
-6.0754 -0.7510 2.0373
-6.0041 -1.2414 2.0373
-5.8955 -1.7259 2.0373
-5.7498 -2.2015 2.0373
-5.5678 -2.6657 2.0373
-5.3501 -3.1158 2.0373
-5.0977 -3.5490 2.0373
-4.8118 -3.9628 2.0373
-4.4936 -4.3546 2.0373
-4.1447 -4.7219 2.0373
-3.7668 -5.0623 2.0373
-3.3618 -5.3734 2.0373
-2.9318 -5.6530 2.0373
-2.4791 -5.8989 2.0373
-2.0063 -6.1092 2.0373
-0.4956 -2.0537 0.6660
-0.3264 -2.0705 0.6575
-0.1587 -2.0872 0.6532
0.0094 -2.1039 0.6533
0.1804 -2.1209 0.6576
0.3565 -2.1385 0.6665
0.5403 -2.1569 0.6803
0.7351 -2.1764 0.6996
0.9445 -2.1974 0.7251
1.1734 -2.2203 0.7581
1.4280 -2.2459 0.8002
3.7908 -5.0230 1.8849
4.1953 -4.7198 1.8849
4.5739 -4.3828 1.8849
4.9237 -4.0141 1.8849
5.2419 -3.6163 1.8849
5.5258 -3.1921 1.8849
5.7730 -2.7446 1.8849
5.9780 -2.2758 1.8838
6.1530 -1.7941 1.8859
6.2842 -1.2980 1.8874
6.3703 -0.7918 1.8881
6.4105 -0.2799 1.8881
6.4045 0.2332 1.8874
6.3525 0.7431 1.8860
6.2553 1.2452 1.8839
6.1263 1.7387 1.8849
5.9530 2.2178 1.8849
5.7403 2.6794 1.8849
5.4901 3.1203 1.8849
5.2046 3.5374 1.8849
4.8862 3.9279 1.8849
4.5376 4.2893 1.8849
4.4236 4.9102 2.0036
4.0651 5.3133 2.0373
3.6091 5.5959 2.0373
3.1335 5.8392 2.0373
2.6419 6.0420 2.0373
2.1376 6.2034 2.0373
1.6243 6.3230 2.0373
1.1054 6.4005 2.0373
0.5843 6.4361 2.0373
0.0645 6.4300 2.0373
-0.4508 6.3829 2.0373
-0.9585 6.2955 2.0373
-1.4555 6.1691 2.0373
-1.9390 6.0047 2.0373
-2.4063 5.8039 2.0373
-2.8548 5.5683 2.0373
-3.2821 5.2996 2.0373
-3.6859 4.9997 2.0373
-4.0642 4.6706 2.0373
-4.4150 4.3145 2.0373
-4.7367 3.9335 2.0373
-5.0275 3.5299 2.0373
-5.2861 3.1061 2.0373
-5.5113 2.6646 2.0373
-5.7020 2.2077 2.0373
-5.8571 1.7382 2.0373
-5.9761 1.2585 2.0373
-6.0581 0.7712 2.0373
-6.1029 0.2790 2.0373
-6.1101 -0.2154 2.0373
-6.0797 -0.7094 2.0373
-6.0116 -1.2003 2.0373
-5.9061 -1.6853 2.0373
-5.7635 -2.1618 2.0373
-5.5845 -2.6271 2.0373
-5.3698 -3.0784 2.0373
-5.1203 -3.5132 2.0373
-4.8372 -3.9287 2.0373
-4.5216 -4.3225 2.0373
-4.1752 -4.6920 2.0373
-3.7997 -5.0347 2.0373
-3.3969 -5.3484 2.0373
-2.9689 -5.6307 2.0373
-2.5181 -5.8795 2.0373
-2.0469 -6.0929 2.0373
-0.5101 -2.0523 0.6670
-0.3405 -2.0691 0.6580
-0.1729 -2.0858 0.6534
-0.0048 -2.1025 0.6531
0.1658 -2.1195 0.6571
0.3414 -2.1370 0.6656
0.5245 -2.1553 0.6789
0.7182 -2.1747 0.6977
0.9262 -2.1955 0.7227
1.1532 -2.2183 0.7550
1.4053 -2.2436 0.7962
3.7557 -5.0465 1.8849
4.1621 -4.7467 1.8849
4.5431 -4.4125 1.8849
4.8954 -4.0464 1.8849
5.2164 -3.6509 1.8849
5.5032 -3.2288 1.8849
5.7536 -2.7832 1.8849
5.9613 -2.3156 1.8836
6.1399 -1.8353 1.8858
6.2749 -1.3403 1.8873
6.3648 -0.8348 1.8881
6.4089 -0.3231 1.8881
6.4068 0.1901 1.8875
6.3587 0.7003 1.8861
6.2652 1.2033 1.8841
6.1391 1.6977 1.8849
5.9692 2.1781 1.8849
5.7597 2.6413 1.8849
5.5126 3.0840 1.8849
5.2300 3.5033 1.8849
4.9143 3.8961 1.8849
4.5681 4.2600 1.8849
4.4214 4.8415 1.9870
4.1025 5.2878 2.0373
3.6484 5.5736 2.0373
3.1743 5.8203 2.0373
2.6838 6.0265 2.0373
2.1805 6.1914 2.0373
1.6678 6.3146 2.0373
1.1492 6.3956 2.0373
0.6283 6.4347 2.0373
0.1082 6.4321 2.0373
-0.4076 6.3884 2.0373
-0.9160 6.3044 2.0373
-1.4141 6.1812 2.0373
-1.8989 6.0200 2.0373
-2.3676 5.8222 2.0373
-2.8178 5.5895 2.0373
-3.2470 5.3235 2.0373
-3.6528 5.0261 2.0373
-4.0334 4.6994 2.0373
-4.3866 4.3455 2.0373
-4.7107 3.9665 2.0373
-5.0042 3.5647 2.0373
-5.2656 3.1426 2.0373
-5.4937 2.7024 2.0373
-5.6872 2.2468 2.0373
-5.8454 1.7782 2.0373
-5.9674 1.2993 2.0373
-6.0526 0.8125 2.0373
-6.1006 0.3206 2.0373
-3.0558 4.7917 2.0373
-3.4215 4.5146 2.0373
-3.7636 4.2110 2.0373
-4.0805 3.8827 2.0373
-4.3705 3.5318 2.0373
-4.6321 3.1604 2.0373
-4.8640 2.7708 2.0373
-5.0651 2.3651 2.0373
-5.2344 1.9457 2.0373
-5.3709 1.5149 2.0373
-5.4741 1.0751 2.0373
-5.5434 0.6288 2.0373
-5.5784 0.1784 2.0373
-5.5788 -0.2736 2.0373
-5.5447 -0.7247 2.0373
-5.4760 -1.1724 2.0373
-5.3730 -1.6142 2.0373
-5.2362 -2.0476 2.0373
-5.0661 -2.4701 2.0373
-4.8634 -2.8792 2.0373
-4.6292 -3.2725 2.0373
-4.3644 -3.6476 2.0373
-4.0704 -4.0022 2.0373
-3.7485 -4.3339 2.0373
-3.4006 -4.6405 2.0373
-3.0282 -4.9200 2.0373
-2.6335 -5.1703 2.0373
-2.2187 -5.3896 2.0373
-0.6529 -2.0386 0.7448
-0.4802 -2.0557 0.7311
-0.3111 -2.0724 0.7224
-0.1435 -2.0891 0.7185
0.0249 -2.1058 0.7192
0.1962 -2.1229 0.7247
0.3729 -2.1406 0.7353
0.5576 -2.1590 0.7512
0.7030 -2.0325 0.7214
0.9645 -2.1998 0.8024
1.1954 -2.2230 0.8399
1.4526 -2.2489 0.8876
3.6715 -4.7934 1.9948
3.8327 -4.2507 1.8849
4.1724 -3.9419 1.8849
4.4858 -3.6049 1.8849
4.7702 -3.2420 1.8849
5.0235 -2.8556 1.8849
5.2436 -2.4487 1.8849
5.4287 -2.0242 1.8849
5.5773 -1.5851 1.8849
5.6881 -1.1348 1.8849
5.7604 -0.6767 1.8849
5.7936 -0.2142 1.8849
5.7875 0.2492 1.8849
5.7422 0.7101 1.8849
5.6582 1.1649 1.8849
5.5362 1.6103 1.8849
5.3774 2.0431 1.8849
5.1832 2.4601 1.8849
4.9552 2.8584 1.8849
4.6955 3.2353 1.8849
4.4061 3.5886 1.8849
4.3653 4.1789 2.0121
4.0507 4.5535 2.0373
3.6576 4.8432 2.0373
3.2435 5.0987 2.0373
2.8116 5.3187 2.0373
2.3650 5.5019 2.0373
1.9069 5.6478 2.0373
1.4404 5.7556 2.0373
0.9687 5.8253 2.0373
0.4950 5.8569 2.0373
0.0223 5.8506 2.0373
-0.4466 5.8069 2.0373
-0.9085 5.7265 2.0373
-1.3609 5.6105 2.0373
-1.8011 5.4598 2.0373
-2.2266 5.2758 2.0373
-2.6349 5.0599 2.0373
-3.0239 4.8138 2.0373
-3.3915 4.5390 2.0373
-3.7357 4.2376 2.0373
-4.0548 3.9113 2.0373
-4.3471 3.5622 2.0373
-4.6111 3.1925 2.0373
-4.8456 2.8043 2.0373
-5.0494 2.3999 2.0373
-5.2213 1.9815 2.0373
-5.3607 1.5516 2.0373
-5.4667 1.1125 2.0373
-5.5389 0.6666 2.0373
-5.5768 0.2164 2.0373
-5.5801 -0.2355 2.0373
-5.5489 -0.6868 2.0373
-5.4831 -1.1349 2.0373
-5.3830 -1.5773 2.0373
-5.2490 -2.0115 2.0373
-5.0817 -2.4350 2.0373
-4.8817 -2.8453 2.0373
-4.6501 -3.2401 2.0373
-4.3879 -3.6168 2.0373
-4.0962 -3.9731 2.0373
-3.7767 -4.3068 2.0373
-3.4309 -4.6157 2.0373
-3.0605 -4.8975 2.0373
-2.6676 -5.1504 2.0373
-2.2544 -5.3723 2.0373
-0.6673 -2.0357 0.7457
-0.4945 -2.0542 0.7321
-0.3253 -2.0710 0.7230
-0.1576 -2.0877 0.7186
0.0106 -2.1044 0.7190
0.1816 -2.1214 0.7241
0.3577 -2.1390 0.7342
0.5417 -2.1574 0.7497
0.6892 -2.0372 0.7217
0.9460 -2.1980 0.7997
1.1750 -2.2210 0.8364
1.4297 -2.2466 0.8831
3.6644 -4.8515 2.0092
3.8029 -4.2754 1.8849
4.1448 -3.9691 1.8849
4.4604 -3.6343 1.8849
4.7474 -3.2735 1.8849
5.0035 -2.8890 1.8849
5.2264 -2.4838 1.8849
5.4145 -2.0606 1.8849
5.5662 -1.6226 1.8849
5.6803 -1.1731 1.8849
5.7558 -0.7156 1.8849
5.7923 -0.2533 1.8849
5.7895 0.2102 1.8849
5.7475 0.6714 1.8849
5.6667 1.1269 1.8849
5.5479 1.5732 1.8849
5.3922 2.0072 1.8849
5.2009 2.4256 1.8849
4.9757 2.8256 1.8849
4.7185 3.2044 1.8849
4.4315 3.5594 1.8849
4.3634 4.1210 1.9978
4.0828 4.5277 2.0373
3.6915 4.8201 2.0373
3.2791 5.0786 2.0373
2.8486 5.3015 2.0373
2.4031 5.4879 2.0373
1.9459 5.6369 2.0373
1.4800 5.7480 2.0373
1.0086 5.8209 2.0373
0.5349 5.8557 2.0373
0.0620 5.8526 2.0373
-0.4073 5.8120 2.0373
-0.8699 5.7347 2.0373
-1.3233 5.6216 2.0373
-1.7646 5.4738 2.0373
-2.1914 5.2926 2.0373
-2.6012 5.0793 2.0373
-2.9919 4.8356 2.0373
-3.3614 4.5632 2.0373
-3.7077 4.2639 2.0373
-4.0289 3.9397 2.0373
-4.3235 3.5925 2.0373
-4.5900 3.2244 2.0373
-4.8270 2.8377 2.0373
-5.0334 2.4345 2.0373
-5.2081 2.0172 2.0373
-5.3502 1.5882 2.0373
-5.4591 1.1498 2.0373
-5.5341 0.7044 2.0373
-5.5749 0.2545 2.0373
-5.5812 -0.1974 2.0373
-5.5528 -0.6489 2.0373
-5.4900 -1.0973 2.0373
-5.3928 -1.5403 2.0373
-5.2616 -1.9753 2.0373
-5.0971 -2.3998 2.0373
-4.8998 -2.8113 2.0373
-4.6708 -3.2075 2.0373
-4.4111 -3.5858 2.0373
-4.1219 -3.9439 2.0373
-3.8047 -4.2796 2.0373
-3.4610 -4.5907 2.0373
-3.0926 -4.8749 2.0373
-2.7016 -5.1302 2.0373
-2.2899 -5.3549 2.0373
-0.6811 -2.0311 0.7460
-0.5090 -2.0528 0.7331
-0.3394 -2.0696 0.7236
-0.1717 -2.0863 0.7188
-0.0036 -2.1030 0.7188
0.1670 -2.1200 0.7235
0.3426 -2.1375 0.7331
0.5258 -2.1558 0.7481
0.6754 -2.0417 0.7219
0.9277 -2.1961 0.7970
1.1548 -2.2189 0.8329
1.4071 -2.2443 0.8787
3.6570 -4.9105 2.0239
3.7730 -4.2999 1.8849
4.1169 -3.9960 1.8849
4.4349 -3.6636 1.8849
4.7244 -3.3049 1.8849
4.9831 -2.9223 1.8849
5.2089 -2.5187 1.8849
5.4000 -2.0969 1.8849
5.5548 -1.6600 1.8849
5.6721 -1.2114 1.8849
5.7510 -0.7544 1.8849
5.7908 -0.2923 1.8849
5.7913 0.1712 1.8849
5.7526 0.6327 1.8849
5.6750 1.0888 1.8849
5.5594 1.5360 1.8849
5.4067 1.9712 1.8849
5.2184 2.3910 1.8849
4.9960 2.7927 1.8849
4.7414 3.1734 1.8849
4.4568 3.5304 1.8849
4.3616 4.0639 1.9837
4.1147 4.5014 2.0373
3.7254 4.7967 2.0373
3.3146 5.0581 2.0373
2.8855 5.2841 2.0373
2.4412 5.4736 2.0373
1.9848 5.6258 2.0373
1.5195 5.7401 2.0373
1.0485 5.8163 2.0373
0.5749 5.8542 2.0373
0.1018 5.8543 2.0373
-0.3679 5.8168 2.0373
-0.8313 5.7426 2.0373
-1.2855 5.6325 2.0373
-1.7279 5.4876 2.0373
-2.1560 5.3091 2.0373
-2.5674 5.0985 2.0373
-2.9598 4.8573 2.0373
-3.3311 4.5873 2.0373
-3.6794 4.2902 2.0373
-4.0028 3.9679 2.0373
-4.2998 3.6226 2.0373
-4.5687 3.2562 2.0373
-4.8082 2.8709 2.0373
-5.0172 2.4691 2.0373
-5.1946 2.0529 2.0373
-5.3395 1.6248 2.0373
-5.4512 1.1870 2.0373
-5.5291 0.7421 2.0373
-5.5728 0.2925 2.0373
-2.8028 4.3991 2.0373
-3.1393 4.1457 2.0373
-3.4543 3.8677 2.0373
-3.7461 3.5668 2.0373
-4.0132 3.2450 2.0373
-4.2542 2.9042 2.0373
-4.4679 2.5464 2.0373
-4.6532 2.1737 2.0373
-4.8092 1.7882 2.0373
-4.9350 1.3923 2.0373
-5.0300 0.9880 2.0373
-5.0937 0.5776 2.0373
-5.1257 0.1635 2.0373
-5.1258 -0.2520 2.0373
-5.0940 -0.6667 2.0373
-5.0303 -1.0781 2.0373
-4.9350 -1.4840 2.0373
-4.8085 -1.8820 2.0373
-4.6514 -2.2699 2.0373
-4.4643 -2.6452 2.0373
-4.2482 -3.0058 2.0373
-4.0041 -3.3495 2.0373
-3.7331 -3.6740 2.0373
-3.4368 -3.9774 2.0373
-3.1165 -4.2575 2.0373
-2.7741 -4.5125 2.0373
-2.4114 -4.7405 2.0373
-0.7456 -1.8141 0.7482
-0.5975 -1.8690 0.7453
-0.4454 -1.9118 0.7424
-0.2904 -1.9423 0.7395
-0.1335 -1.9604 0.7366
0.0243 -1.9658 0.7338
0.1821 -1.9586 0.7310
0.3388 -1.9387 0.7283
0.4934 -1.9064 0.7258
0.6450 -1.8619 0.7233
0.7925 -1.8053 0.7209
1.1970 -2.2237 0.9200
1.4544 -2.2496 0.9726
3.4249 -4.4678 2.0373
3.7217 -4.1247 2.0046
3.8085 -3.5958 1.8849
4.0935 -3.2878 1.8849
4.3521 -2.9563 1.8849
4.5824 -2.6037 1.8849
4.7825 -2.2325 1.8849
4.9507 -1.8453 1.8849
5.0858 -1.4451 1.8849
5.1867 -1.0347 1.8849
5.2526 -0.6172 1.8849
5.2830 -0.1957 1.8849
5.2778 0.2267 1.8849
5.2370 0.6467 1.8849
5.1610 1.0614 1.8849
5.0506 1.4677 1.8849
4.9067 1.8627 1.8849
4.7306 2.2434 1.8849
4.5237 2.6073 1.8849
4.3010 2.9609 1.8907
4.3118 3.5084 2.0194
4.0388 3.8629 2.0373
3.7029 4.1585 2.0373
3.3449 4.4245 2.0373
