ply
format ascii 1.0
element vertex 2168
property float32 x
property float32 y
property float32 z
end_header
-2.1816 5.4727 2.0386
-2.6121 5.2775 2.0386
-3.0255 5.0485 2.0386
-3.4191 4.7875 2.0386
-3.7904 4.4959 2.0386
-4.1372 4.1758 2.0386
-4.4572 3.8291 2.0386
-4.7485 3.4581 2.0386
-5.0092 3.0652 2.0386
-5.2376 2.6529 2.0386
-5.4325 2.2237 2.0386
-5.5925 1.7805 2.0386
-5.7167 1.3260 2.0386
-5.8043 0.8630 2.0386
-5.8547 0.3946 2.0386
-5.8676 -0.0764 2.0386
-5.8430 -0.5469 2.0386
-5.7809 -1.0140 2.0386
-5.6819 -1.4747 2.0386
-5.5464 -1.9261 2.0386
-5.3753 -2.3654 2.0386
-5.1698 -2.7898 2.0386
-4.9309 -3.1965 2.0386
-4.6603 -3.5830 2.0386
-4.3597 -3.9468 2.0386
-4.0308 -4.2856 2.0386
-3.6758 -4.5972 2.0386
-3.2969 -4.8795 2.0386
-2.8964 -5.1308 2.0386
-2.4770 -5.3493 2.0386
-0.7420 -2.0116 0.7411
-1.5918 -5.6827 2.0386
-1.1318 -5.7953 2.0386
-0.6639 -5.8707 2.0386
-0.1913 -5.9084 2.0386
0.2831 -5.9081 2.0386
0.4616 -3.5834 1.2446
0.7539 -3.5659 1.2548
1.0533 -3.5479 1.2735
0.7734 -2.0010 0.7378
1.6912 -3.5097 1.3391
2.0406 -3.4888 1.3886
2.4197 -3.4661 1.4517
3.7789 -4.5817 2.0386
4.1355 -4.2660 2.0386
4.4656 -3.9223 2.0386
4.7671 -3.5532 2.0386
5.0378 -3.1608 2.0386
5.1639 -2.6892 1.9953
5.1487 -2.1762 1.9152
5.2270 -1.7307 1.8862
5.3495 -1.3066 1.8862
5.4374 -0.8740 1.8862
5.4901 -0.4356 1.8862
5.5072 0.0055 1.8862
5.4887 0.4466 1.8862
5.4347 0.8848 1.8862
0.2961 5.4020 2.0386
-0.1378 5.4055 2.0386
-0.2093 1.9715 0.7479
-0.3666 1.9482 0.7482
-0.5216 1.9122 0.7484
-0.6731 1.8639 0.7487
-2.2329 4.9096 2.0386
-2.6182 4.7126 2.0386
-2.9865 4.4855 2.0386
-3.3352 4.2298 2.0386
-3.6624 3.9471 2.0386
-3.9658 3.6394 2.0386
-4.2436 3.3085 2.0386
-4.4941 2.9566 2.0386
-4.7157 2.5859 2.0386
-4.9069 2.1988 2.0386
-5.0667 1.7977 2.0386
-5.1940 1.3853 2.0386
-5.2880 0.9641 2.0386
-5.3481 0.5367 2.0386
-5.3739 0.1059 2.0386
-5.3654 -0.3256 2.0386
-5.3224 -0.7551 2.0386
-5.2454 -1.1798 2.0386
-5.1347 -1.5971 2.0386
-4.9911 -2.0043 2.0386
-4.8155 -2.3988 2.0386
-4.6089 -2.7782 2.0386
-4.3726 -3.1400 2.0386
-4.1081 -3.4818 2.0386
-3.8171 -3.8016 2.0386
-3.5013 -4.0972 2.0386
-3.1628 -4.3667 2.0386
-2.8038 -4.6084 2.0386
-2.4264 -4.8208 2.0386
-0.7394 -1.8193 0.7415
-0.5911 -1.8726 0.7410
-0.4391 -1.9139 0.7406
-0.2842 -1.9430 0.7402
-0.1275 -1.9596 0.7398
0.0300 -1.9636 0.7395
0.1873 -1.9550 0.7392
0.3434 -1.9340 0.7389
0.4974 -1.9005 0.7386
0.6482 -1.8549 0.7384
1.5560 -3.5181 1.4449
1.8955 -3.4978 1.4936
2.2616 -3.4759 1.5562
3.3195 -4.3034 2.0386
3.6550 -4.0251 2.0386
3.9671 -3.7207 2.0386
4.2538 -3.3920 2.0386
4.5132 -3.0412 2.0386
4.7435 -2.6706 2.0386
4.9432 -2.2825 2.0386
5.1086 -1.8787 2.0377
5.0927 -1.4216 1.9791
5.0754 -0.9866 1.9352
5.0566 -0.5679 1.9044
5.0454 -0.1598 1.8893
5.0336 0.2452 1.8862
5.0002 0.6471 1.8873
4.9641 1.0527 1.8997
4.9333 1.4671 1.9271
4.9006 1.8965 1.9679
4.8640 2.3463 2.0230
4.6952 2.7487 2.0386
4.4585 3.1151 2.0386
4.1931 3.4610 2.0386
3.9009 3.7843 2.0386
3.5836 4.0830 2.0386
3.2435 4.3551 2.0386
2.8828 4.5989 2.0386
2.5038 4.8127 2.0386
0.7712 1.8266 0.7454
0.6223 1.8827 0.7459
0.4695 1.9266 0.7463
0.3135 1.9580 0.7467
0.4245 5.3943 2.0386
-0.0093 5.4081 2.0386
-0.4426 5.3871 2.0386
-0.3202 1.9564 0.7481
-0.4760 1.9242 0.7484
-0.6286 1.8795 0.7486
-2.1158 4.9621 2.0386
-2.5058 4.7742 2.0386
-2.8793 4.5558 2.0386
-3.2341 4.3084 2.0386
-3.5678 4.0336 2.0386
-3.8785 3.7331 2.0386
-4.1641 3.4088 2.0386
-4.4228 3.0629 2.0386
-4.6531 2.6976 2.0386
-4.8535 2.3151 2.0386
-5.0227 1.9179 2.0386
-5.1597 1.5086 2.0386
-5.2636 1.0896 2.0386
-5.3338 0.6638 2.0386
-5.3698 0.2337 2.0386
-5.3715 -0.1978 2.0386
-5.3387 -0.6282 2.0386
-5.2717 -1.0546 2.0386
-5.1710 -1.4744 2.0386
-5.0371 -1.8849 2.0386
-4.8708 -2.2836 2.0386
-4.6732 -2.6675 2.0386
-4.4456 -3.0348 2.0386
-4.1893 -3.3827 2.0386
-3.9059 -3.7093 2.0386
-3.5973 -4.0122 2.0386
-3.2654 -4.2897 2.0386
-2.9122 -4.5398 2.0386
-2.5399 -4.7610 2.0386
-0.7825 -1.8013 0.7416
-0.6355 -1.8581 0.7412
-0.4844 -1.9030 0.7407
-0.3303 -1.9357 0.7403
-0.1741 -1.9560 0.7399
-0.0167 -1.9637 0.7396
0.1407 -1.9589 0.7393
0.2973 -1.9415 0.7389
0.4520 -1.9117 0.7387
0.6039 -1.8696 0.7384
0.7519 -1.8156 0.7382
1.7925 -3.5040 1.4778
2.1499 -3.4826 1.5360
2.5397 -3.4593 1.6099
3.5580 -4.1104 2.0386
3.8772 -3.8135 2.0386
4.1716 -3.4918 2.0386
4.4393 -3.1473 2.0386
4.6783 -2.7824 2.0386
4.8873 -2.3992 2.0386
5.0647 -2.0004 2.0386
5.0975 -1.5544 1.9949
5.0807 -1.1137 1.9468
5.0623 -0.6908 1.9122
5.0491 -0.2801 1.8926
5.0382 0.1248 1.8862
5.0116 0.5279 1.8862
4.9758 0.9318 1.8951
4.9423 1.3428 1.9175
4.9106 1.7675 1.9544
4.8753 2.2105 2.0051
4.7596 2.6366 2.0386
4.5317 3.0085 2.0386
4.2746 3.3607 2.0386
3.9901 3.6910 2.0386
3.6801 3.9972 2.0386
3.3465 4.2774 2.0386
2.9917 4.5297 2.0386
2.6178 4.7526 2.0386
2.2274 4.9446 2.0386
0.6669 1.8673 0.7458
0.5151 1.9149 0.7462
0.3600 1.9500 0.7466
0.2025 1.9726 0.7470
0.1193 5.4076 2.0386
-0.3144 5.3969 2.0386
-0.2736 1.9635 0.7480
-0.4301 1.9350 0.7483
-0.5838 1.8940 0.7485
-0.7336 1.8407 0.7488
-2.3918 4.8331 2.0386
-2.7705 4.6236 2.0386
-3.1310 4.3847 2.0386
-3.4713 4.1178 2.0386
-3.7890 3.8247 2.0386
-4.0822 3.5072 2.0386
-4.3491 3.1675 2.0386
-4.5880 2.8077 2.0386
-4.7973 2.4300 2.0386
-4.9759 2.0370 2.0386
-5.1225 1.6310 2.0386
-5.2363 1.2146 2.0386
-5.3166 0.7905 2.0386
-5.3627 0.3614 2.0386
-5.3746 -0.0700 2.0386
-5.3520 -0.5010 2.0386
-5.2951 -0.9288 2.0386
-5.2043 -1.3509 2.0386
-5.0801 -1.7644 2.0386
-4.9234 -2.1667 2.0386
-4.7350 -2.5554 2.0386
-4.5161 -2.9279 2.0386
-4.2681 -3.2818 2.0386
-3.9926 -3.6149 2.0386
-3.6913 -3.9251 2.0386
-3.3660 -4.2103 2.0386
-3.0189 -4.4687 2.0386
-2.6521 -4.6986 2.0386
-2.2679 -4.8985 2.0386
-0.6795 -1.8425 0.7413
-0.5296 -1.8909 0.7409
-0.3762 -1.9273 0.7404
-0.2205 -1.9512 0.7401
-0.0634 -1.9627 0.7397
0.0941 -1.9616 0.7394
0.2511 -1.9480 0.7390
0.4065 -1.9218 0.7387
0.5593 -1.8834 0.7385
0.7085 -1.8328 0.7383
1.6916 -3.5100 1.4632
2.0411 -3.4891 1.5173
2.4203 -3.4665 1.5862
3.4589 -4.1933 2.0386
3.7851 -3.9042 2.0386
4.0871 -3.5896 2.0386
4.3629 -3.2516 2.0386
4.6106 -2.8925 2.0386
4.8286 -2.5144 2.0386
5.0155 -2.1200 2.0386
5.1023 -1.6893 2.0120
5.0858 -1.2421 1.9596
5.0679 -0.8146 1.9211
5.0521 -0.4006 1.8968
5.0398 0.0050 1.8862
5.0229 0.4083 1.8862
4.9866 0.8117 1.8912
0.1000 1.8220 0.7469
-0.0464 1.8240 0.7472
-0.1925 1.8143 0.7475
-0.3373 1.7928 0.7478
-0.4798 1.7597 0.7480
-0.6193 1.7152 0.7483
-0.7547 1.6597 0.7485
-2.4106 4.3394 2.0386
-2.7497 4.1305 2.0386
-3.0710 3.8951 2.0386
-3.3723 3.6349 2.0386
-3.6519 3.3516 2.0386
-3.9078 3.0469 2.0386
-4.1386 2.7229 2.0386
-4.3427 2.3815 2.0386
-4.5189 2.0251 2.0386
-4.6661 1.6557 2.0386
-4.7833 1.2759 2.0386
-4.8699 0.8878 2.0386
-4.9253 0.4943 2.0386
-4.9491 0.0975 2.0386
-4.9412 -0.2998 2.0386
-4.9016 -0.6955 2.0386
-4.8306 -1.0866 2.0386
-4.7287 -1.4708 2.0386
-4.5963 -1.8459 2.0386
-4.4345 -2.2092 2.0386
-4.2441 -2.5586 2.0386
-4.0264 -2.8917 2.0386
-3.7828 -3.2064 2.0386
-3.5147 -3.5008 2.0386
-3.2238 -3.7729 2.0386
-2.9120 -4.0210 2.0386
-2.5813 -4.2434 2.0386
-2.2337 -4.4388 2.0386
-0.6808 -1.6755 0.7416
-0.5442 -1.7246 0.7412
-0.4042 -1.7626 0.7408
-0.2616 -1.7894 0.7405
-0.1173 -1.8047 0.7401
0.0277 -1.8084 0.7398
0.1726 -1.8005 0.7395
0.3164 -1.7811 0.7392
0.4582 -1.7503 0.7390
0.5971 -1.7082 0.7388
0.7322 -1.6552 0.7386
1.8960 -3.4981 1.6230
2.2621 -3.4763 1.6910
3.0553 -3.9604 2.0386
3.3640 -3.7043 2.0386
3.6512 -3.4240 2.0386
3.9149 -3.1215 2.0386
4.1535 -2.7986 2.0386
4.3653 -2.4575 2.0386
4.5490 -2.1004 2.0386
4.7034 -1.7296 2.0386
4.8274 -1.3475 2.0386
4.9202 -0.9566 2.0386
4.9812 -0.5595 2.0386
5.0079 -0.1587 2.0378
4.9858 0.2420 2.0303
4.9615 0.6420 2.0350
4.9024 1.0391 2.0386
4.8026 1.4282 2.0386
4.6719 1.8079 2.0386
4.5110 2.1757 2.0386
4.3211 2.5295 2.0386
4.1033 2.8666 2.0386
3.8592 3.1850 2.0386
3.5903 3.4827 2.0386
3.2985 3.7577 2.0386
2.9856 4.0083 2.0386
2.6537 4.2327 2.0386
2.3049 4.4298 2.0386
0.7098 1.6810 0.7453
0.5728 1.7325 0.7457
0.4322 1.7729 0.7461
0.2887 1.8018 0.7465
0.1433 1.8191 0.7468
-0.0030 1.8247 0.7471
-0.1493 1.8184 0.7474
-0.2945 1.8003 0.7477
-0.4379 1.7707 0.7480
-0.5784 1.7296 0.7482
-0.7151 1.6773 0.7484
-2.3070 4.3961 2.0386
-2.6510 4.1952 2.0386
-2.9778 3.9675 2.0386
-3.2852 3.7145 2.0386
-3.5714 3.4378 2.0386
-3.8345 3.1393 2.0386
-4.0729 2.8208 2.0386
-4.2850 2.4843 2.0386
-4.4697 2.1321 2.0386
-4.6256 1.7664 2.0386
-4.7518 1.3894 2.0386
-4.8475 1.0036 2.0386
-4.9122 0.6114 2.0386
-4.9454 0.2153 2.0386
-4.9469 -0.1823 2.0386
-4.9166 -0.5786 2.0386
-4.8549 -0.9713 2.0386
-4.7621 -1.3579 2.0386
-4.6387 -1.7359 2.0386
-4.4855 -2.1030 2.0386
-4.3034 -2.4567 2.0386
-4.0937 -2.7948 2.0386
-3.8576 -3.1152 2.0386
-3.5965 -3.4158 2.0386
-3.3122 -3.6947 2.0386
-3.0065 -3.9501 2.0386
-2.6812 -4.1803 2.0386
-2.3383 -4.3838 2.0386
-0.7205 -1.6589 0.7417
-0.5851 -1.7112 0.7413
-0.4460 -1.7525 0.7410
-0.3041 -1.7826 0.7406
-0.1602 -1.8013 0.7402
-0.0153 -1.8085 0.7399
0.1297 -1.8040 0.7396
0.2740 -1.7880 0.7393
0.4164 -1.7606 0.7390
0.5563 -1.7218 0.7388
0.6926 -1.6720 0.7386
1.7929 -3.5043 1.6058
2.1504 -3.4829 1.6691
2.5402 -3.4597 1.7495
3.2747 -3.7828 2.0386
3.5684 -3.5095 2.0386
3.8393 -3.2133 2.0386
4.0855 -2.8963 2.0386
4.3054 -2.5603 2.0386
4.4976 -2.2077 2.0386
4.6608 -1.8407 2.0386
4.7939 -1.4618 2.0386
4.8960 -1.0732 2.0386
4.9665 -0.6776 2.0386
5.0048 -0.2777 2.0386
4.9926 0.1236 2.0312
4.9690 0.5233 2.0323
4.9259 0.9224 2.0386
4.8355 1.3137 2.0386
4.7138 1.6965 2.0386
4.5618 2.0683 2.0386
4.3803 2.4263 2.0386
4.1707 2.7686 2.0386
3.9342 3.0928 2.0386
3.6725 3.3968 2.0386
3.3872 3.6787 2.0386
3.0804 3.9367 2.0386
2.7538 4.1690 2.0386
2.4098 4.3743 2.0386
0.7495 1.6636 0.7452
0.6138 1.7184 0.7456
0.4742 1.7621 0.7460
0.3314 1.7945 0.7463
0.1865 1.8152 0.7467
0.0404 1.8243 0.7470
-0.1060 1.8215 0.7474
-0.2517 1.8069 0.7476
-0.3957 1.7807 0.7479
-0.5371 1.7429 0.7481
-0.6750 1.6939 0.7483
-2.2020 4.4503 2.0386
-2.5508 4.2576 2.0386
-2.8829 4.0376 2.0386
-3.1963 3.7920 2.0386
-3.4890 3.5222 2.0386
-3.7591 3.2299 2.0386
-4.0049 2.9171 2.0386
-4.2250 2.5858 2.0386
-4.4179 2.2380 2.0386
-4.5824 1.8760 2.0386
-4.7175 1.5021 2.0386
-4.8224 1.1186 2.0386
-4.8963 0.7281 2.0386
-4.9388 0.3329 2.0386
-4.9497 -0.0645 2.0386
-4.9289 -0.4615 2.0386
-4.8765 -0.8555 2.0386
-4.7928 -1.2442 2.0386
-4.6784 -1.6249 2.0386
-4.5339 -1.9955 2.0386
-4.3603 -2.3534 2.0386
-4.1586 -2.6964 2.0386
-3.9302 -3.0222 2.0386
-3.6764 -3.3289 2.0386
-3.3988 -3.6144 2.0386
-3.0992 -3.8770 2.0386
-2.7795 -4.1148 2.0386
-2.4416 -4.3264 2.0386
-0.7597 -1.6413 0.7419
-0.6256 -1.6968 0.7415
-0.4876 -1.7414 0.7411
-0.3464 -1.7749 0.7407
-0.2030 -1.7970 0.7403
-0.0583 -1.8076 0.7400
0.0868 -1.8066 0.7397
0.2314 -1.7940 0.7394
0.3745 -1.7699 0.7391
0.5152 -1.7345 0.7389
0.6526 -1.6879 0.7387
1.6920 -3.5103 1.5899
2.0415 -3.4894 1.6487
2.4208 -3.4668 1.7237
3.1836 -3.8591 2.0386
3.4837 -3.5929 2.0386
3.7615 -3.3034 2.0386
4.0152 -2.9923 2.0386
4.2431 -2.6617 2.0386
4.4436 -2.3138 2.0386
4.6155 -1.9508 2.0386
4.7576 -1.5751 2.0386
4.8690 -1.1891 2.0386
4.9489 -0.7954 2.0386
4.9968 -0.3965 2.0386
4.9991 0.0050 2.0332
4.9762 0.4048 2.0307
4.9466 0.8051 2.0386
0.0926 1.6845 0.7466
-0.0428 1.6864 0.7469
-0.1778 1.6773 0.7472
-0.3117 1.6575 0.7475
-0.4435 1.6269 0.7477
-0.5725 1.5858 0.7479
-0.6976 1.5345 0.7481
-2.2296 4.0142 2.0386
-2.5434 3.8209 2.0386
-2.8406 3.6033 2.0386
-3.1195 3.3627 2.0386
-3.3781 3.1006 2.0386
-3.6150 2.8188 2.0386
-3.8285 2.5191 2.0386
-4.0174 2.2033 2.0386
-4.1805 1.8736 2.0386
-4.3167 1.5319 2.0386
-4.4253 1.1804 2.0386
-4.5054 0.8215 2.0386
-4.5566 0.4573 2.0386
-4.5787 0.0902 2.0386
-4.5713 -0.2775 2.0386
-4.5347 -0.6435 2.0386
-4.4690 -1.0054 2.0386
-4.3746 -1.3609 2.0386
-4.2521 -1.7078 2.0386
-4.1023 -2.0439 2.0386
-3.9261 -2.3671 2.0386
-3.7246 -2.6752 2.0386
-3.4991 -2.9663 2.0386
-3.2510 -3.2386 2.0386
-2.9819 -3.4902 2.0386
-2.6934 -3.7196 2.0386
-2.3874 -3.9253 2.0386
-0.7520 -1.4947 0.7421
-0.6297 -1.5501 0.7418
-0.5034 -1.5955 0.7414
-0.3738 -1.6307 0.7410
-0.2419 -1.6555 0.7407
-0.1084 -1.6696 0.7404
0.0258 -1.6730 0.7401
0.1598 -1.6657 0.7398
0.2928 -1.6478 0.7395
0.4240 -1.6193 0.7393
0.5525 -1.5803 0.7391
0.6775 -1.5313 0.7389
1.8964 -3.4984 1.7554
2.2626 -3.4766 1.8291
2.8253 -3.6618 2.0386
3.1106 -3.4249 2.0386
3.3760 -3.1657 2.0386
3.6198 -2.8860 2.0386
3.8403 -2.5874 2.0386
4.0361 -2.2720 2.0386
4.2059 -1.9418 2.0386
4.3485 -1.5990 2.0386
4.4631 -1.2457 2.0386
4.5489 -0.8844 2.0386
4.6053 -0.5172 2.0386
4.6319 -0.1467 2.0386
4.6286 0.2246 2.0386
4.5954 0.5945 2.0386
4.5325 0.9607 2.0386
4.4404 1.3204 2.0386
4.3195 1.6714 2.0386
4.1709 2.0115 2.0386
3.9953 2.3386 2.0386
3.7941 2.6503 2.0386
3.5685 2.9448 2.0386
3.3200 3.2201 2.0386
3.0502 3.4744 2.0386
2.7609 3.7062 2.0386
2.4541 3.9139 2.0386
0.7788 1.4964 0.7448
0.6564 1.5541 0.7452
0.5297 1.6018 0.7455
0.3997 1.6391 0.7459
0.2670 1.6659 0.7462
0.1326 1.6818 0.7466
-0.0027 1.6869 0.7469
-0.1379 1.6811 0.7471
-0.2722 1.6645 0.7474
-0.4047 1.6371 0.7476
-0.5346 1.5991 0.7478
-0.6610 1.5507 0.7480
-2.1337 4.0666 2.0386
-2.4520 3.8808 2.0386
-2.7544 3.6702 2.0386
-3.0389 3.4363 2.0386
-3.3037 3.1804 2.0386
-3.5472 2.9043 2.0386
-3.7678 2.6097 2.0386
-3.9641 2.2984 2.0386
-4.1350 1.9726 2.0386
-4.2792 1.6342 2.0386
-4.3960 1.2854 2.0386
-4.4846 0.9285 2.0386
-4.5445 0.5656 2.0386
-4.5752 0.1991 2.0386
-4.5766 -0.1686 2.0386
-4.5486 -0.5354 2.0386
-4.4915 -0.8987 2.0386
-4.4055 -1.2564 2.0386
-4.2913 -1.6061 2.0386
-4.1495 -1.9456 2.0386
-3.9810 -2.2728 2.0386
-3.7869 -2.5856 2.0386
-3.5684 -2.8820 2.0386
-3.3268 -3.1600 2.0386
-3.0637 -3.4179 2.0386
-2.7808 -3.6540 2.0386
-2.4798 -3.8669 2.0386
-2.1626 -4.0550 2.0386
-0.6664 -1.5347 0.7419
-0.5412 -1.5831 0.7415
-0.4125 -1.6214 0.7411
-0.2812 -1.6492 0.7408
-0.1481 -1.6665 0.7405
-0.0140 -1.6731 0.7402
0.1202 -1.6690 0.7399
0.2536 -1.6542 0.7396
0.3854 -1.6288 0.7394
0.5148 -1.5929 0.7392
0.6409 -1.5469 0.7390
0.7629 -1.4908 0.7388
2.1509 -3.4833 1.8054
2.7372 -3.7275 2.0386
3.0281 -3.4975 2.0386
3.2996 -3.2447 2.0386
3.5499 -2.9709 2.0386
3.7775 -2.6777 2.0386
3.9807 -2.3671 2.0386
4.1584 -2.0411 2.0386
4.3092 -1.7018 2.0386
4.4322 -1.3513 2.0386
4.5265 -0.9921 2.0386
4.5917 -0.6265 2.0386
4.6272 -0.2567 2.0386
4.6327 0.1145 2.0386
4.6084 0.4854 2.0386
4.5542 0.8529 2.0386
4.4707 1.2146 2.0386
4.3583 1.5684 2.0386
4.2178 1.9121 2.0386
4.0501 2.2432 2.0386
3.8563 2.5597 2.0386
3.6378 2.8595 2.0386
3.3959 3.1406 2.0386
3.1322 3.4014 2.0386
2.8486 3.6400 2.0386
2.5467 3.8549 2.0386
2.2287 4.0449 2.0386
0.6931 1.5381 0.7450
0.5677 1.5887 0.7454
0.4385 1.6292 0.7458
0.3065 1.6591 0.7461
0.1725 1.6782 0.7465
0.0375 1.6866 0.7468
-0.0979 1.6840 0.7471
-0.2325 1.6705 0.7473
-0.3657 1.6463 0.7476
-0.4965 1.6114 0.7478
-0.6240 1.5661 0.7480
-0.7474 1.5107 0.7481
-2.3593 3.9385 2.0386
-2.6666 3.7351 2.0386
-2.9566 3.5080 2.0386
-3.2274 3.2584 2.0386
-3.4774 2.9881 2.0386
-3.7049 2.6988 2.0386
-3.9085 2.3923 2.0386
-4.0871 2.0705 2.0386
-4.2393 1.7357 2.0386
-4.3643 1.3897 2.0386
-4.4614 1.0350 2.0386
-4.5298 0.6736 2.0386
-4.5692 0.3080 2.0386
-4.5792 -0.0597 2.0386
-4.5599 -0.4269 2.0386
-4.5114 -0.7915 2.0386
-4.4340 -1.1511 2.0386
-4.3280 -1.5034 2.0386
-4.1943 -1.8462 2.0386
-4.0336 -2.1773 2.0386
-3.8470 -2.4946 2.0386
-3.6356 -2.7960 2.0386
-3.4007 -3.0796 2.0386
-3.1438 -3.3437 2.0386
-2.8666 -3.5864 2.0386
-2.5708 -3.8063 2.0386
-2.2582 -4.0019 2.0386
-0.7027 -1.5184 0.7420
-0.5787 -1.5698 0.7416
-0.4509 -1.6111 0.7412
-0.3203 -1.6421 0.7409
-0.1876 -1.6625 0.7406
-0.0538 -1.6723 0.7403
0.0804 -1.6714 0.7400
0.2142 -1.6597 0.7397
0.3465 -1.6374 0.7394
0.4767 -1.6046 0.7392
0.6039 -1.5616 0.7390
0.7272 -1.5085 0.7389
2.0420 -3.4898 1.7833
2.6476 -3.7911 2.0386
2.9438 -3.5681 2.0386
3.2213 -3.3219 2.0386
3.4781 -3.0541 2.0386
3.7125 -2.7665 2.0386
3.9231 -2.4608 2.0386
4.1085 -2.1391 2.0386
4.2673 -1.8035 2.0386
4.3987 -1.4562 2.0386
4.5016 -1.0994 2.0386
4.5755 -0.7353 2.0386
4.6198 -0.3665 2.0386
4.6342 0.0045 2.0386
4.6187 0.3759 2.0386
4.5734 0.7442 2.0386
0.0860 1.5635 0.7464
-0.0396 1.5652 0.7467
-0.1649 1.5569 0.7470
-0.2892 1.5384 0.7472
-0.4116 1.5101 0.7474
-0.5312 1.4719 0.7476
-0.6474 1.4243 0.7477
-0.7594 1.3675 0.7479
-2.3616 3.5484 2.0386
-2.6377 3.3463 2.0386
-2.8967 3.1229 2.0386
-3.1370 2.8796 2.0386
-3.3570 2.6179 2.0386
-3.5554 2.3396 2.0386
-3.7309 2.0463 2.0386
-3.8824 1.7401 2.0386
-4.0090 1.4227 2.0386
-4.1098 1.0963 2.0386
-4.1842 0.7630 2.0386
-4.2318 0.4247 2.0386
-4.2523 0.0838 2.0386
-4.2455 -0.2578 2.0386
-4.2114 -0.5977 2.0386
-4.1504 -0.9338 2.0386
-4.0627 -1.2640 2.0386
-3.9489 -1.5862 2.0386
-3.8097 -1.8983 2.0386
-3.6460 -2.1984 2.0386
-3.4588 -2.4845 2.0386
-3.2493 -2.7548 2.0386
-3.0189 -3.0076 2.0386
-2.7688 -3.2412 2.0386
-2.5009 -3.4542 2.0386
-2.2167 -3.6451 2.0386
-0.6983 -1.3881 0.7422
-0.5847 -1.4396 0.7419
-0.4674 -1.4818 0.7415
-0.3471 -1.5145 0.7412
-0.2245 -1.5375 0.7409
-0.1006 -1.5506 0.7406
0.0241 -1.5538 0.7403
0.1485 -1.5470 0.7401
0.2721 -1.5304 0.7398
0.3939 -1.5039 0.7396
0.5132 -1.4677 0.7394
0.6293 -1.4221 0.7393
0.7414 -1.3674 0.7391
2.3413 -3.5970 2.0386
2.6229 -3.3991 2.0386
2.8877 -3.1791 2.0386
3.1340 -2.9385 2.0386
3.3602 -2.6787 2.0386
3.5648 -2.4016 2.0386
3.7465 -2.1088 2.0386
3.9040 -1.8023 2.0386
4.0364 -1.4841 2.0386
4.1427 -1.1562 2.0386
4.2223 -0.8208 2.0386
4.2746 -0.4801 2.0386
4.2994 -0.1362 2.0386
4.2963 0.2085 2.0386
4.2655 0.5518 2.0386
4.2072 0.8915 2.0386
4.1216 1.2255 2.0386
4.0096 1.5513 2.0386
3.8716 1.8670 2.0386
3.7087 2.1706 2.0386
3.5220 2.4600 2.0386
3.3127 2.7334 2.0386
3.0820 2.9890 2.0386
2.8317 3.2252 2.0386
2.5633 3.4404 2.0386
2.2785 3.6332 2.0386
0.7230 1.3890 0.7447
0.6094 1.4425 0.7450
0.4918 1.4868 0.7454
0.3711 1.5214 0.7457
0.2479 1.5462 0.7460
0.1232 1.5611 0.7463
-0.0023 1.5658 0.7466
-0.1279 1.5604 0.7469
-0.2525 1.5449 0.7471
-0.3755 1.5195 0.7473
-0.4961 1.4842 0.7475
-0.6134 1.4394 0.7477
-0.7267 1.3853 0.7478
-2.2768 3.6039 2.0386
-2.5576 3.4085 2.0386
-2.8219 3.1913 2.0386
-3.0679 2.9537 2.0386
-3.2941 2.6973 2.0386
-3.4990 2.4237 2.0386
-3.6814 2.1347 2.0386
-3.8401 1.8321 2.0386
-3.9741 1.5178 2.0386
-4.0827 1.1939 2.0386
-4.1650 0.8623 2.0386
-4.2206 0.5253 2.0386
-4.2491 0.1849 2.0386
-4.2504 -0.1567 2.0386
-4.2244 -0.4973 2.0386
-4.1713 -0.8347 2.0386
-4.0914 -1.1669 2.0386
-3.9853 -1.4917 2.0386
-3.8535 -1.8070 2.0386
-3.6970 -2.1109 2.0386
-3.5166 -2.4013 2.0386
-3.3136 -2.6765 2.0386
-3.0892 -2.9347 2.0386
-2.8449 -3.1741 2.0386
-2.5821 -3.3933 2.0386
-2.3025 -3.5909 2.0386
-0.7311 -1.3711 0.7423
-0.6188 -1.4253 0.7420
-0.5025 -1.4703 0.7416
-0.3830 -1.5058 0.7413
-0.2610 -1.5317 0.7410
-0.1374 -1.5478 0.7407
-0.0129 -1.5539 0.7404
0.1117 -1.5501 0.7401
0.2356 -1.5363 0.7399
0.3580 -1.5127 0.7397
0.4782 -1.4794 0.7395
0.5953 -1.4366 0.7393
0.7086 -1.3846 0.7392
2.2549 -3.6512 2.0386
2.5411 -3.4601 2.0386
2.8111 -3.2465 2.0386
3.0630 -3.0118 2.0386
3.2953 -2.7576 2.0386
3.5065 -2.4854 2.0386
3.6951 -2.1971 2.0386
3.8599 -1.8945 2.0386
3.9999 -1.5795 2.0386
4.1140 -1.2542 2.0386
4.2016 -0.9209 2.0386
4.2620 -0.5815 2.0386
4.2949 -0.2383 2.0386
4.3001 0.1064 2.0386
4.2775 0.4504 2.0386
4.2273 0.7914 2.0386
4.1498 1.1272 2.0386
4.0455 1.4557 2.0386
3.9151 1.7747 2.0386
3.7595 2.0820 2.0386
3.5798 2.3759 2.0386
3.3770 2.6542 2.0386
3.1525 2.9152 2.0386
2.9078 3.1573 2.0386
2.6446 3.3789 2.0386
2.3644 3.5785 2.0386
0.7558 1.3714 0.7446
0.6435 1.4276 0.7449
0.5270 1.4747 0.7453
0.4071 1.5122 0.7456
0.2846 1.5399 0.7459
0.1603 1.5577 0.7462
0.0349 1.5654 0.7465
-0.0907 1.5631 0.7468
-0.2157 1.5506 0.7471
-0.3393 1.5281 0.7473
-0.4607 1.4957 0.7475
-0.5790 1.4537 0.7477
-0.6936 1.4023 0.7478
-2.1907 3.6574 2.0386
-2.4761 3.4687 2.0386
-2.7454 3.2578 2.0386
-2.9970 3.0261 2.0386
-3.2292 2.7751 2.0386
-3.4406 2.5064 2.0386
-3.6298 2.2218 2.0386
-3.7956 1.9230 2.0386
-3.9371 1.6120 2.0386
-4.0532 1.2907 2.0386
-4.1433 0.9612 2.0386
-4.2069 0.6256 2.0386
-4.2435 0.2860 2.0386
-4.2528 -0.0555 2.0386
-4.2349 -0.3966 2.0386
-4.1898 -0.7352 2.0386
-4.1178 -1.0692 2.0386
-4.0194 -1.3964 2.0386
-3.8952 -1.7147 2.0386
-3.7459 -2.0222 2.0386
-3.5725 -2.3168 2.0386
-3.3761 -2.5967 2.0386
-3.1579 -2.8600 2.0386
-2.9193 -3.1052 2.0386
-2.6617 -3.3306 2.0386
-2.3869 -3.5347 2.0386
-0.7636 -1.3534 0.7424
-0.6525 -1.4102 0.7421
-0.5373 -1.4579 0.7417
-0.4187 -1.4963 0.7414
-0.2974 -1.5251 0.7411
-0.1742 -1.5440 0.7408
-0.0498 -1.5531 0.7405
0.0748 -1.5523 0.7402
0.1990 -1.5414 0.7400
0.3220 -1.5207 0.7397
0.4429 -1.4903 0.7395
0.5610 -1.4503 0.7394
0.6755 -1.4009 0.7392
2.1673 -3.7034 2.0386
2.4579 -3.5191 2.0386
2.7329 -3.3120 2.0386
2.9903 -3.0835 2.0386
3.2286 -2.8349 2.0386
3.4462 -2.5678 2.0386
3.6417 -2.2841 2.0386
3.8136 -1.9855 2.0386
3.9610 -1.6740 2.0386
4.0829 -1.3515 2.0386
4.1784 -1.0204 2.0386
4.2470 -0.6825 2.0386
4.2881 -0.3402 2.0386
4.3015 0.0042 2.0386
4.2871 0.3487 2.0386
4.2450 0.6908 2.0386
0.0802 1.4561 0.7462
-0.0367 1.4577 0.7465
-0.1535 1.4499 0.7467
-0.2692 1.4327 0.7469
-0.3832 1.4063 0.7471
-0.4946 1.3708 0.7473
-0.6029 1.3265 0.7475
-0.7072 1.2736 0.7476
-2.2001 3.3061 2.0386
-2.4574 3.1179 2.0386
-2.6988 2.9098 2.0386
-2.9227 2.6831 2.0386
-3.1278 2.4393 2.0386
-3.3127 2.1800 2.0386
-3.4762 1.9068 2.0386
-3.6174 1.6214 2.0386
-3.7354 1.3257 2.0386
-3.8293 1.0216 2.0386
-3.8987 0.7109 2.0386
-3.9431 0.3957 2.0386
-3.9622 0.0780 2.0386
-3.9558 -0.2402 2.0386
-3.9241 -0.5569 2.0386
-3.8671 -0.8701 2.0386
-3.7854 -1.1778 2.0386
-3.6793 -1.4781 2.0386
-3.5495 -1.7689 2.0386
-3.3970 -2.0485 2.0386
-3.2225 -2.3150 2.0386
-3.0273 -2.5669 2.0386
-2.8125 -2.8023 2.0386
-2.5795 -3.0199 2.0386
-2.3298 -3.2183 2.0386
-0.7522 -1.2371 0.7427
-0.6505 -1.2934 0.7423
-0.5447 -1.3414 0.7420
-0.4354 -1.3807 0.7417
-0.3233 -1.4112 0.7414
-0.2091 -1.4326 0.7411
-0.0936 -1.4449 0.7408
0.0225 -1.4478 0.7405
0.1385 -1.4415 0.7403
0.2536 -1.4260 0.7401
0.3671 -1.4013 0.7399
0.4783 -1.3676 0.7397
0.5865 -1.3251 0.7395
0.6909 -1.2741 0.7394
2.1809 -3.3502 2.0386
2.4431 -3.1658 2.0386
2.6897 -2.9608 2.0386
2.9190 -2.7367 2.0386
3.1296 -2.4947 2.0386
3.3202 -2.2366 2.0386
3.4893 -1.9639 2.0386
3.6360 -1.6785 2.0386
3.7592 -1.3821 2.0386
3.8582 -1.0768 2.0386
3.9324 -0.7644 2.0386
3.9811 -0.4471 2.0386
4.0041 -0.1269 2.0386
4.0013 0.1941 2.0386
3.9726 0.5139 2.0386
3.9183 0.8303 2.0386
3.8387 1.1412 2.0386
3.7343 1.4447 2.0386
3.6059 1.7387 2.0386
3.4543 2.0215 2.0386
3.2804 2.2910 2.0386
3.0855 2.5457 2.0386
2.8708 2.7838 2.0386
2.6377 3.0038 2.0386
2.3877 3.2043 2.0386
0.7749 1.2354 0.7443
0.6734 1.2936 0.7446
0.5676 1.3435 0.7449
0.4582 1.3846 0.7452
0.3457 1.4169 0.7456
0.2310 1.4400 0.7459
0.1148 1.4538 0.7461
-0.0021 1.4582 0.7464
-0.1190 1.4532 0.7466
-0.2351 1.4388 0.7469
-0.3496 1.4151 0.7471
-0.4619 1.3823 0.7473
-0.5712 1.3405 0.7474
-0.6767 1.2901 0.7475
-2.1210 3.3578 2.0386
-2.3827 3.1758 2.0386
-2.6290 2.9734 2.0386
-2.8583 2.7521 2.0386
-3.0690 2.5133 2.0386
-3.2600 2.2584 2.0386
-3.4300 1.9891 2.0386
-3.5780 1.7071 2.0386
-3.7029 1.4143 2.0386
-3.8040 1.1125 2.0386
-3.8808 0.8035 2.0386
-3.9326 0.4895 2.0386
-3.9592 0.1723 2.0386
-3.9603 -0.1460 2.0386
-3.9361 -0.4634 2.0386
-3.8866 -0.7778 2.0386
-3.8121 -1.0874 2.0386
-3.7132 -1.3900 2.0386
-3.5904 -1.6838 2.0386
-3.4445 -1.9669 2.0386
-3.2764 -2.2375 2.0386
-3.0872 -2.4939 2.0386
-2.8781 -2.7344 2.0386
-2.6503 -2.9574 2.0386
-2.4054 -3.1616 2.0386
-0.7815 -1.2189 0.7428
-0.6811 -1.2776 0.7424
-0.5765 -1.3280 0.7421
-0.4681 -1.3700 0.7418
-0.3567 -1.4031 0.7415
-0.2431 -1.4272 0.7412
-0.1279 -1.4422 0.7409
-0.0119 -1.4479 0.7406
0.1042 -1.4444 0.7404
0.2197 -1.4315 0.7401
0.3337 -1.4095 0.7399
0.4457 -1.3785 0.7397
0.5548 -1.3386 0.7396
0.6604 -1.2901 0.7395
0.7618 -1.2333 0.7393
2.3670 -3.2226 2.0386
2.6183 -3.0236 2.0386
2.8530 -2.8050 2.0386
3.0693 -2.5682 2.0386
3.2659 -2.3147 2.0386
3.4415 -2.0461 2.0386
3.5949 -1.7643 2.0386
3.7252 -1.4710 2.0386
3.8315 -1.1681 2.0386
3.9130 -0.8575 2.0386
3.9693 -0.5415 2.0386
4.0000 -0.2219 2.0386
4.0048 0.0991 2.0386
3.9838 0.4194 2.0386
3.9370 0.7370 2.0386
3.8649 1.0498 2.0386
3.7678 1.3557 2.0386
3.6464 1.6527 2.0386
3.5016 1.9390 2.0386
3.3342 2.2127 2.0386
3.1454 2.4719 2.0386
2.9364 2.7151 2.0386
2.7085 2.9406 2.0386
2.4634 3.1470 2.0386
2.2026 3.3330 2.0386
0.7040 1.2772 0.7445
0.5994 1.3296 0.7448
0.4909 1.3734 0.7452
0.3793 1.4083 0.7455
0.2652 1.4341 0.7458
0.1494 1.4507 0.7461
0.0326 1.4579 0.7463
-0.0844 1.4557 0.7466
-0.2008 1.4440 0.7468
-0.3159 1.4231 0.7470
-0.4289 1.3930 0.7472
-0.5392 1.3538 0.7474
-0.6459 1.3060 0.7475
-0.7484 1.2497 0.7476
-2.3067 3.2319 2.0386
-2.5577 3.0354 2.0386
-2.7922 2.8196 2.0386
-3.0086 2.5858 2.0386
-3.2056 2.3355 2.0386
-3.3819 2.0703 2.0386
-3.5365 1.7919 2.0386
-3.6683 1.5021 2.0386
-3.7766 1.2027 2.0386
-3.8606 0.8957 2.0386
-3.9198 0.5829 2.0386
-3.9539 0.2665 2.0386
-3.9626 -0.0517 2.0386
-3.9459 -0.3696 2.0386
-3.9039 -0.6851 2.0386
-3.8368 -0.9963 2.0386
-3.7450 -1.3012 2.0386
-3.6292 -1.5978 2.0386
-3.4901 -1.8843 2.0386
-3.3285 -2.1588 2.0386
-3.1454 -2.4195 2.0386
-2.9420 -2.6649 2.0386
-2.7197 -2.8932 2.0386
-2.4797 -3.1032 2.0386
-2.2236 -3.2933 2.0386
-0.7113 -1.2610 0.7425
-0.6079 -1.3140 0.7422
-0.5005 -1.3585 0.7419
-0.3900 -1.3942 0.7415
-0.2770 -1.4210 0.7412
-0.1622 -1.4387 0.7410
-0.0463 -1.4472 0.7407
0.0698 -1.4464 0.7404
0.1856 -1.4363 0.7402
0.3001 -1.4170 0.7400
0.4128 -1.3886 0.7398
0.5228 -1.3513 0.7396
0.6295 -1.3053 0.7395
0.7322 -1.2510 0.7394
2.2895 -3.2773 2.0386
2.5456 -3.0847 2.0386
2.7853 -2.8717 2.0386
3.0072 -2.6402 2.0386
3.2098 -2.3914 2.0386
3.3917 -2.1272 2.0386
3.5518 -1.8491 2.0386
3.6891 -1.5589 2.0386
3.8026 -1.2587 2.0386
3.8915 -0.9502 2.0386
3.9553 -0.6356 2.0386
3.9936 -0.3168 2.0386
4.0061 0.0040 2.0386
3.9927 0.3247 2.0386
3.9535 0.6433 2.0386
0.0751 1.3599 0.7460
-0.0342 1.3614 0.7463
-0.1432 1.3542 0.7465
-0.2513 1.3381 0.7467
-0.3578 1.3135 0.7469
-0.4619 1.2803 0.7471
-0.5630 1.2389 0.7472
-0.6604 1.1895 0.7473
-0.7535 1.1325 0.7474
-2.2958 2.9132 2.0386
-2.5214 2.7188 2.0386
-2.7306 2.5071 2.0386
-2.9223 2.2793 2.0386
-3.0951 2.0370 2.0386
-3.2480 1.7817 2.0386
-3.3799 1.5151 2.0386
-3.4902 1.2388 2.0386
-3.5780 0.9546 2.0386
-3.6429 0.6643 2.0386
-3.6843 0.3698 2.0386
-3.7021 0.0729 2.0386
-3.6962 -0.2245 2.0386
-3.6665 -0.5205 2.0386
-3.6133 -0.8131 2.0386
-3.5369 -1.1006 2.0386
-3.4377 -1.3811 2.0386
-3.3164 -1.6529 2.0386
-3.1738 -1.9141 2.0386
-3.0108 -2.1632 2.0386
-2.8283 -2.3984 2.0386
-2.6276 -2.6184 2.0386
-2.4098 -2.8217 2.0386
-2.1765 -3.0069 2.0386
-0.7027 -1.1560 0.7427
-0.6077 -1.2085 0.7424
-0.5089 -1.2534 0.7421
-0.4067 -1.2901 0.7418
-0.3020 -1.3186 0.7415
-0.1953 -1.3387 0.7412
-0.0874 -1.3501 0.7410
0.0212 -1.3529 0.7407
0.1295 -1.3470 0.7405
0.2371 -1.3324 0.7403
0.3432 -1.3094 0.7401
0.4470 -1.2779 0.7399
0.5481 -1.2382 0.7398
0.6457 -1.1905 0.7397
0.7391 -1.1352 0.7396
2.2822 -2.9570 2.0386
2.5124 -2.7654 2.0386
2.7266 -2.5560 2.0386
2.9233 -2.3300 2.0386
3.1012 -2.0889 2.0386
3.2591 -1.8342 2.0386
3.3961 -1.5676 2.0386
3.5112 -1.2908 2.0386
3.6036 -1.0056 2.0386
3.6728 -0.7139 2.0386
3.7183 -0.4176 2.0386
3.7398 -0.1185 2.0386
3.7371 0.1813 2.0386
3.7104 0.4799 2.0386
3.6597 0.7754 2.0386
3.5854 1.0658 2.0386
3.4879 1.3492 2.0386
3.3680 1.6239 2.0386
3.2265 1.8880 2.0386
3.0641 2.1398 2.0386
2.8821 2.3776 2.0386
2.6816 2.6000 2.0386
2.4639 2.8056 2.0386
2.2305 2.9929 2.0386
0.7238 1.1539 0.7442
0.6291 1.2082 0.7445
0.5303 1.2548 0.7448
0.4280 1.2932 0.7451
0.3230 1.3233 0.7454
0.2159 1.3449 0.7457
0.1074 1.3578 0.7460
-0.0018 1.3619 0.7462
-0.1110 1.3572 0.7464
-0.2194 1.3438 0.7466
-0.3264 1.3217 0.7468
-0.4313 1.2910 0.7470
-0.5334 1.2520 0.7472
-0.6319 1.2050 0.7473
-0.7264 1.1501 0.7474
-2.2260 2.9673 2.0386
-2.4562 2.7783 2.0386
-2.6704 2.5715 2.0386
-2.8674 2.3484 2.0386
-3.0459 2.1102 2.0386
-3.2048 1.8586 2.0386
-3.3431 1.5952 2.0386
-3.4598 1.3216 2.0386
-3.5544 1.0395 2.0386
-3.6261 0.7508 2.0386
-3.6745 0.4574 2.0386
-3.6993 0.1610 2.0386
-3.7004 -0.1364 2.0386
-3.6778 -0.4330 2.0386
-3.6315 -0.7269 2.0386
-3.5619 -1.0161 2.0386
-3.4694 -1.2989 2.0386
-3.3546 -1.5734 2.0386
-3.2183 -1.8379 2.0386
-3.0612 -2.0907 2.0386
-2.8843 -2.3302 2.0386
-2.6889 -2.5549 2.0386
-2.4760 -2.7633 2.0386
-2.2471 -2.9540 2.0386
-0.7301 -1.1389 0.7428
-0.6363 -1.1938 0.7425
-0.5385 -1.2409 0.7422
-0.4373 -1.2801 0.7419
-0.3332 -1.3111 0.7416
-0.2271 -1.3336 0.7413
-0.1194 -1.3476 0.7410
-0.0110 -1.3530 0.7408
0.0975 -1.3496 0.7406
0.2054 -1.3376 0.7404
0.3119 -1.3171 0.7402
0.4165 -1.2881 0.7400
0.5185 -1.2508 0.7398
0.6172 -1.2054 0.7397
0.7119 -1.1524 0.7396
2.2111 -3.0100 2.0386
2.4458 -2.8241 2.0386
2.6649 -2.6198 2.0386
2.8669 -2.3986 2.0386
3.0505 -2.1618 2.0386
3.2145 -1.9110 2.0386
3.3577 -1.6477 2.0386
3.4794 -1.3738 2.0386
3.5786 -1.0909 2.0386
3.6547 -0.8009 2.0386
3.7073 -0.5057 2.0386
3.7359 -0.2073 2.0386
3.7404 0.0925 2.0386
3.7208 0.3917 2.0386
3.6772 0.6883 2.0386
3.6098 0.9804 2.0386
3.5192 1.2661 2.0386
3.4059 1.5435 2.0386
3.2706 1.8109 2.0386
3.1143 2.0665 2.0386
2.9380 2.3087 2.0386
2.7429 2.5358 2.0386
2.5301 2.7465 2.0386
2.3012 2.9394 2.0386
0.7510 1.1363 0.7441
0.6576 1.1929 0.7444
0.5599 1.2418 0.7447
0.4586 1.2827 0.7450
0.3543 1.3153 0.7453
0.2478 1.3394 0.7456
0.1396 1.3549 0.7459
0.0306 1.3616 0.7461
-0.0787 1.3595 0.7464
-0.1874 1.3487 0.7466
-0.2949 1.3291 0.7468
-0.4005 1.3010 0.7470
-0.5035 1.2644 0.7471
-0.6031 1.2197 0.7472
-0.6989 1.1672 0.7473
-2.1550 3.0197 2.0386
-2.3896 2.8362 2.0386
-2.6087 2.6346 2.0386
-2.8109 2.4161 2.0386
-2.9950 2.1823 2.0386
-3.1598 1.9345 2.0386
-3.3043 1.6744 2.0386
-3.4275 1.4036 2.0386
-3.5287 1.1238 2.0386
-3.6072 0.8369 2.0386
-3.6626 0.5447 2.0386
-3.6944 0.2490 2.0386
-3.7026 -0.0483 2.0386
-3.6869 -0.3453 2.0386
-3.6476 -0.6402 2.0386
-3.5849 -0.9310 2.0386
-3.4992 -1.2159 2.0386
-3.3909 -1.4930 2.0386
-3.2609 -1.7607 2.0386
-3.1098 -2.0172 2.0386
-2.9387 -2.2608 2.0386
-2.7486 -2.4900 2.0386
-2.5408 -2.7033 2.0386
-2.3165 -2.8994 2.0386
-0.7570 -1.1213 0.7429
-0.6646 -1.1783 0.7426
-0.5679 -1.2278 0.7423
-0.4676 -1.2693 0.7420
-0.3643 -1.3028 0.7417
-0.2587 -1.3278 0.7414
-0.1514 -1.3444 0.7411
-0.0432 -1.3523 0.7409
0.0654 -1.3515 0.7406
0.1735 -1.3421 0.7404
0.2805 -1.3241 0.7402
0.3858 -1.2975 0.7400
0.4886 -1.2627 0.7399
0.5883 -1.2197 0.7398
0.6843 -1.1689 0.7396
0.7759 -1.1106 0.7396
2.3778 -2.8811 2.0386
2.6017 -2.6822 2.0386
2.8089 -2.4659 2.0386
2.9981 -2.2335 2.0386
3.1680 -1.9867 2.0386
3.3175 -1.7269 2.0386
3.4457 -1.4560 2.0386
3.5516 -1.1755 2.0386
3.6346 -0.8875 2.0386
3.6942 -0.5936 2.0386
3.7300 -0.2960 2.0386
3.7416 0.0036 2.0386
3.7291 0.3032 2.0386
3.6926 0.6008 2.0386
0.0704 1.2732 0.7459
-0.0319 1.2746 0.7461
-0.1340 1.2678 0.7463
-0.2352 1.2528 0.7465
-0.3348 1.2297 0.7467
-0.4323 1.1987 0.7468
-0.5270 1.1599 0.7470
-0.6182 1.1137 0.7471
-0.7054 1.0603 0.7471
-2.1499 2.7285 2.0386
-2.3613 2.5465 2.0386
-2.5573 2.3482 2.0386
-2.7368 2.1348 2.0386
-2.8987 1.9079 2.0386
-3.0419 1.6688 2.0386
-3.1656 1.4191 2.0386
-3.2688 1.1603 2.0386
-3.3511 0.8941 2.0386
-3.4119 0.6222 2.0386
-3.4507 0.3463 2.0386
-3.4674 0.0682 2.0386
-3.4618 -0.2103 2.0386
-3.4340 -0.4875 2.0386
-3.3841 -0.7616 2.0386
-3.3125 -1.0309 2.0386
-3.2196 -1.2937 2.0386
-3.1060 -1.5482 2.0386
-2.9724 -1.7928 2.0386
-2.8197 -2.0261 2.0386
-2.6487 -2.2464 2.0386
-2.4607 -2.4524 2.0386
-2.2567 -2.6427 2.0386
-0.7429 -1.0265 0.7431
-0.6581 -1.0827 0.7428
-0.5691 -1.1319 0.7425
-0.4765 -1.1739 0.7422
-0.3808 -1.2084 0.7419
-0.2827 -1.2351 0.7416
-0.1828 -1.2538 0.7414
-0.0817 -1.2646 0.7411
0.0199 -1.2672 0.7409
0.1214 -1.2616 0.7407
0.2222 -1.2480 0.7405
0.3215 -1.2264 0.7403
0.4188 -1.1969 0.7402
0.5135 -1.1597 0.7400
0.6048 -1.1151 0.7399
0.6924 -1.0633 0.7398
0.7755 -1.0046 0.7398
2.3526 -2.5892 2.0386
2.5531 -2.3931 2.0386
2.7372 -2.1815 2.0386
2.9037 -1.9557 2.0386
3.0515 -1.7172 2.0386
3.1797 -1.4676 2.0386
3.2874 -1.2085 2.0386
3.3740 -0.9415 2.0386
3.4387 -0.6684 2.0386
3.4813 -0.3910 2.0386
3.5015 -0.1110 2.0386
3.4990 0.1697 2.0386
3.4739 0.4493 2.0386
3.4265 0.7259 2.0386
3.3569 0.9978 2.0386
3.2658 1.2631 2.0386
3.1535 1.5203 2.0386
3.0210 1.7676 2.0386
2.8691 2.0033 2.0386
2.6987 2.2261 2.0386
2.5110 2.4343 2.0386
2.3072 2.6268 2.0386
0.7621 1.0225 0.7439
0.6778 1.0803 0.7442
0.5891 1.1312 0.7445
0.4966 1.1748 0.7447
0.4008 1.2108 0.7450
0.3025 1.2389 0.7453
0.2022 1.2591 0.7456
0.1006 1.2712 0.7458
-0.0016 1.2751 0.7460
-0.1038 1.2707 0.7462
-0.2053 1.2581 0.7464
-0.3055 1.2374 0.7466
-0.4037 1.2087 0.7468
-0.4993 1.1722 0.7469
-0.5916 1.1282 0.7470
-0.6800 1.0768 0.7471
-0.7640 1.0186 0.7472
-2.3002 2.6021 2.0386
-2.5009 2.4085 2.0386
-2.6854 2.1995 2.0386
-2.8527 1.9765 2.0386
-3.0015 1.7408 2.0386
-3.1310 1.4941 2.0386
-3.2404 1.2378 2.0386
-3.3290 0.9737 2.0386
-3.3961 0.7033 2.0386
-3.4415 0.4284 2.0386
-3.4648 0.1508 2.0386
-3.4658 -0.1278 2.0386
-3.4446 -0.4056 2.0386
-3.4012 -0.6808 2.0386
-3.3360 -0.9517 2.0386
-3.2493 -1.2166 2.0386
-3.1418 -1.4737 2.0386
-3.0140 -1.7215 2.0386
-2.8669 -1.9582 2.0386
-2.7012 -2.1825 2.0386
-2.5181 -2.3929 2.0386
-2.3187 -2.5880 2.0386
-0.7671 -1.0085 0.7431
-0.6837 -1.0667 0.7428
-0.5959 -1.1181 0.7425
-0.5043 -1.1623 0.7423
-0.4095 -1.1990 0.7420
-0.3120 -1.2280 0.7417
-0.2126 -1.2491 0.7414
-0.1118 -1.2622 0.7412
-0.0102 -1.2672 0.7410
0.0914 -1.2641 0.7408
0.1924 -1.2529 0.7406
0.2923 -1.2336 0.7404
0.3902 -1.2064 0.7402
0.4857 -1.1715 0.7401
0.5781 -1.1290 0.7400
0.6669 -1.0793 0.7399
0.7513 -1.0227 0.7398
2.2902 -2.6441 2.0386
2.4953 -2.4528 2.0386
2.6844 -2.2457 2.0386
2.8562 -2.0240 2.0386
3.0097 -1.7891 2.0386
3.1438 -1.5427 2.0386
3.2577 -1.2862 2.0386
3.3506 -1.0213 2.0386
3.4219 -0.7499 2.0386
3.4710 -0.4735 2.0386
3.4978 -0.1941 2.0386
3.5021 0.0866 2.0386
3.4837 0.3667 2.0386
3.4429 0.6443 2.0386
3.3798 0.9178 2.0386
3.2950 1.1853 2.0386
3.1889 1.4451 2.0386
3.0623 1.6954 2.0386
2.9161 1.9348 2.0386
2.7510 2.1615 2.0386
2.5684 2.3742 2.0386
2.3692 2.5715 2.0386
0.7862 1.0041 0.7438
0.7033 1.0639 0.7441
0.6158 1.1169 0.7444
0.5243 1.1626 0.7447
0.4295 1.2009 0.7449
0.3319 1.2314 0.7452
0.2321 1.2540 0.7455
0.1308 1.2685 0.7457
0.0287 1.2748 0.7460
-0.0736 1.2728 0.7462
-0.1754 1.2627 0.7464
-0.2760 1.2444 0.7466
-0.3749 1.2180 0.7467
-0.4713 1.1838 0.7469
-0.5646 1.1420 0.7470
-0.6542 1.0928 0.7471
-0.7396 1.0365 0.7472
-2.2378 2.6564 2.0386
-2.4430 2.4675 2.0386
-2.6325 2.2630 2.0386
-2.8050 2.0440 2.0386
-2.9594 1.8119 2.0386
-3.0947 1.5683 2.0386
-3.2101 1.3147 2.0386
-3.3049 1.0526 2.0386
-3.3785 0.7839 2.0386
-3.4304 0.5102 2.0386
-3.4602 0.2332 2.0386
-3.4678 -0.0453 2.0386
-3.4532 -0.3235 2.0386
-3.4163 -0.5997 2.0386
-3.3576 -0.8720 2.0386
-3.2772 -1.1389 2.0386
-3.1758 -1.3985 2.0386
-3.0540 -1.6491 2.0386
-2.9124 -1.8893 2.0386
-2.7521 -2.1175 2.0386
-2.5741 -2.3321 2.0386
-2.3794 -2.5319 2.0386
-2.1693 -2.7155 2.0386
-0.7089 -1.0502 0.7429
-0.6223 -1.1036 0.7426
-0.5318 -1.1499 0.7423
-0.4379 -1.1889 0.7421
-0.3411 -1.2202 0.7418
-0.2422 -1.2437 0.7415
-0.1417 -1.2592 0.7413
-0.0403 -1.2666 0.7410
0.0613 -1.2659 0.7408
0.1626 -1.2571 0.7406
0.2629 -1.2402 0.7404
0.3614 -1.2153 0.7403
0.4577 -1.1826 0.7401
0.5511 -1.1424 0.7400
0.6410 -1.0948 0.7399
0.7268 -1.0402 0.7398
2.2266 -2.6975 2.0386
2.4362 -2.5112 2.0386
2.6301 -2.3087 2.0386
2.8072 -2.0911 2.0386
2.9662 -1.8600 2.0386
3.1062 -1.6168 2.0386
3.2261 -1.3631 2.0386
3.3253 -1.1006 2.0386
3.4030 -0.8309 2.0386
3.4588 -0.5558 2.0386
3.4923 -0.2771 2.0386
3.5032 0.0034 2.0386
3.4915 0.2838 2.0386
3.4573 0.5624 2.0386
0.0661 1.1945 0.7457
-0.0298 1.1958 0.7459
-0.1256 1.1894 0.7461
-0.2206 1.1753 0.7463
-0.3140 1.1537 0.7465
-0.4055 1.1246 0.7466
-0.4943 1.0882 0.7467
-0.5799 1.0449 0.7468
-0.6617 0.9948 0.7469
-0.7392 0.9382 0.7470
-2.2158 2.3899 2.0386
-2.3998 2.2038 2.0386
-2.5683 2.0036 2.0386
-2.7203 1.7907 2.0386
-2.8547 1.5663 2.0386
-2.9708 1.3319 2.0386
-3.0677 1.0890 2.0386
-3.1450 0.8392 2.0386
-3.2020 0.5840 2.0386
-3.2385 0.3250 2.0386
-3.2541 0.0640 2.0386
-3.2489 -0.1974 2.0386
-3.2228 -0.4576 2.0386
-3.1760 -0.7149 2.0386
-3.1087 -0.9676 2.0386
-3.0215 -1.2142 2.0386
-2.9149 -1.4530 2.0386
-2.7894 -1.6826 2.0386
-2.6460 -1.9015 2.0386
-2.4856 -2.1083 2.0386
-2.3091 -2.3016 2.0386
-0.7722 -0.9044 0.7434
-0.6971 -0.9633 0.7431
-0.6175 -1.0161 0.7428
-0.5340 -1.0624 0.7425
-0.4471 -1.1018 0.7423
-0.3573 -1.1341 0.7420
-0.2653 -1.1592 0.7417
-0.1715 -1.1768 0.7415
-0.0766 -1.1868 0.7413
0.0188 -1.1893 0.7411
0.1141 -1.1841 0.7409
0.2086 -1.1713 0.7407
0.3019 -1.1510 0.7405
0.3932 -1.1233 0.7404
0.4820 -1.0884 0.7402
0.5677 -1.0465 0.7401
0.6499 -0.9979 0.7401
0.7279 -0.9428 0.7400
2.2075 -2.4292 2.0386
2.3955 -2.2452 2.0386
2.5682 -2.0466 2.0386
2.7244 -1.8348 2.0386
2.8631 -1.6111 2.0386
2.9833 -1.3769 2.0386
3.0844 -1.1338 2.0386
3.1655 -0.8833 2.0386
3.2263 -0.6271 2.0386
3.2662 -0.3668 2.0386
3.2851 -0.1041 2.0386
3.2828 0.1592 2.0386
3.2593 0.4214 2.0386
3.2148 0.6810 2.0386
3.1496 0.9360 2.0386
3.0641 1.1850 2.0386
2.9588 1.4263 2.0386
2.8345 1.6583 2.0386
2.6920 1.8795 2.0386
2.5322 2.0885 2.0386
2.3561 2.2839 2.0386
0.7896 0.8989 0.7436
0.7151 0.9593 0.7438
0.6360 1.0135 0.7441
0.5528 1.0613 0.7444
0.4660 1.1021 0.7447
0.3761 1.1359 0.7449
0.2839 1.1623 0.7452
0.1898 1.1813 0.7454
0.0945 1.1926 0.7457
-0.0014 1.1962 0.7459
-0.0973 1.1921 0.7461
-0.1925 1.1803 0.7463
-0.2865 1.1609 0.7464
-0.3786 1.1340 0.7466
-0.4683 1.0997 0.7467
-0.5549 1.0584 0.7468
-0.6379 1.0103 0.7469
-0.7167 0.9556 0.7470
-2.1585 2.4421 2.0386
-2.3469 2.2604 2.0386
-2.5201 2.0643 2.0386
-2.6771 1.8550 2.0386
-2.8168 1.6339 2.0386
-2.9384 1.4023 2.0386
-3.0411 1.1618 2.0386
-3.1242 0.9138 2.0386
-3.1872 0.6600 2.0386
-3.2298 0.4020 2.0386
-3.2517 0.1415 2.0386
-3.2526 -0.1200 2.0386
-3.2327 -0.3807 2.0386
-3.1920 -0.6390 2.0386
-3.1308 -0.8933 2.0386
-3.0494 -1.1419 2.0386
-2.9484 -1.3832 2.0386
-2.8285 -1.6157 2.0386
-2.6903 -1.8379 2.0386
-2.5348 -2.0484 2.0386
-2.3630 -2.2458 2.0386
-2.1758 -2.4289 2.0386
-0.7198 -0.9465 0.7432
-0.6415 -1.0011 0.7429
-0.5592 -1.0494 0.7426
-0.4732 -1.0908 0.7423
-0.3842 -1.1253 0.7421
-0.2927 -1.1525 0.7418
-0.1994 -1.1723 0.7416
-0.1048 -1.1847 0.7413
-0.0095 -1.1894 0.7411
0.0859 -1.1864 0.7409
0.1807 -1.1759 0.7407
0.2744 -1.1578 0.7406
0.3664 -1.1323 0.7404
0.4560 -1.0995 0.7403
0.5427 -1.0596 0.7402
0.6260 -1.0130 0.7401
0.7052 -0.9598 0.7400
0.7800 -0.9004 0.7400
2.3414 -2.3013 2.0386
2.5187 -2.1069 2.0386
2.6799 -1.8989 2.0386
2.8239 -1.6785 2.0386
2.9497 -1.4473 2.0386
3.0565 -1.2066 2.0386
3.1436 -0.9582 2.0386
3.2105 -0.7035 2.0386
3.2566 -0.4442 2.0386
3.2817 -0.1821 2.0386
3.2857 0.0812 2.0386
3.2685 0.3440 2.0386
3.2302 0.6045 2.0386
3.1711 0.8610 2.0386
3.0915 1.1120 2.0386
2.9920 1.3557 2.0386
2.8733 1.5906 2.0386
2.7361 1.8151 2.0386
2.5813 2.0279 2.0386
2.4099 2.2275 2.0386
2.2231 2.4126 2.0386
0.7377 0.9420 0.7438
0.6599 0.9981 0.7440
0.5778 1.0478 0.7443
0.4920 1.0908 0.7446
0.4030 1.1267 0.7449
0.3114 1.1553 0.7451
0.2178 1.1765 0.7454
0.1228 1.1900 0.7456
0.0270 1.1959 0.7458
-0.0689 1.1941 0.7460
-0.1644 1.1846 0.7462
-0.2589 1.1674 0.7464
-0.3516 1.1427 0.7465
-0.4420 1.1106 0.7467
-0.5296 1.0714 0.7468
-0.6137 1.0252 0.7469
-0.6938 0.9725 0.7469
-0.7694 0.9135 0.7470
-2.2926 2.3158 2.0386
-2.4704 2.1239 2.0386
-2.6323 1.9183 2.0386
-2.7772 1.7005 2.0386
-2.9043 1.4719 2.0386
-3.0126 1.2339 2.0386
-3.1016 0.9880 2.0386
-3.1707 0.7357 2.0386
-3.2194 0.4788 2.0386
-3.2474 0.2189 2.0386
-3.2545 -0.0425 2.0386
-3.2408 -0.3036 2.0386
-3.2062 -0.5629 2.0386
-3.1510 -0.8185 2.0386
-3.0756 -1.0689 2.0386
-2.9804 -1.3125 2.0386
-2.8660 -1.5478 2.0386
-2.7331 -1.7732 2.0386
-2.5827 -1.9873 2.0386
-2.4155 -2.1887 2.0386
-2.2328 -2.3762 2.0386
-0.7421 -0.9291 0.7432
-0.6652 -0.9856 0.7430
-0.5840 -1.0358 0.7427
-0.4990 -1.0793 0.7424
-0.4108 -1.1158 0.7421
-0.3201 -1.1452 0.7419
-0.2272 -1.1672 0.7416
-0.1329 -1.1818 0.7414
-0.0378 -1.1888 0.7412
0.0577 -1.1881 0.7410
0.1527 -1.1798 0.7408
0.2468 -1.1639 0.7406
0.3393 -1.1406 0.7405
0.4297 -1.1100 0.7403
0.5173 -1.0722 0.7402
0.6017 -1.0275 0.7401
0.6822 -0.9762 0.7400
0.7584 -0.9186 0.7400
2.2859 -2.3560 2.0386
2.4678 -2.1660 2.0386
2.6339 -1.9618 2.0386
2.7831 -1.7450 2.0386
2.9144 -1.5168 2.0386
3.0269 -1.2788 2.0386
3.1199 -1.0325 2.0386
3.1928 -0.7795 2.0386
3.2451 -0.5214 2.0386
3.2765 -0.2600 2.0386
3.2867 0.0032 2.0386
3.2758 0.2663 2.0386
3.2437 0.5276 2.0386
0.0622 1.1226 0.7456
-0.0280 1.1238 0.7458
-0.1180 1.1178 0.7460
-0.2072 1.1046 0.7461
-0.2951 1.0842 0.7463
-0.3810 1.0569 0.7464
-0.4645 1.0227 0.7465
-0.5449 0.9820 0.7466
-0.6218 0.9349 0.7467
-0.6947 0.8818 0.7468
-0.7630 0.8230 0.7468
-2.2559 2.0718 2.0386
-2.4144 1.8837 2.0386
-2.5572 1.6835 2.0386
-2.6837 1.4725 2.0386
-2.7928 1.2522 2.0386
-2.8840 1.0238 2.0386
-2.9566 0.7889 2.0386
-3.0102 0.5490 2.0386
-3.0445 0.3056 2.0386
-3.0592 0.0602 2.0386
-3.0543 -0.1856 2.0386
-3.0297 -0.4302 2.0386
-2.9857 -0.6721 2.0386
-2.9225 -0.9097 2.0386
-2.8404 -1.1416 2.0386
-2.7402 -1.3661 2.0386
-2.6222 -1.5819 2.0386
-2.4874 -1.7877 2.0386
-2.3365 -1.9821 2.0386
-2.1705 -2.1638 2.0386
-0.7258 -0.8502 0.7434
-0.6552 -0.9057 0.7431
-0.5805 -0.9553 0.7428
-0.5020 -0.9988 0.7426
-0.4202 -1.0358 0.7423
-0.3358 -1.0662 0.7421
-0.2493 -1.0898 0.7418
-0.1611 -1.1064 0.7416
-0.0719 -1.1158 0.7414
0.0178 -1.1181 0.7412
0.1073 -1.1132 0.7410
0.1962 -1.1012 0.7408
0.2839 -1.0821 0.7407
0.3697 -1.0561 0.7406
0.4532 -1.0233 0.7404
0.5339 -0.9839 0.7403
0.6111 -0.9381 0.7403
0.6844 -0.8864 0.7402
0.7533 -0.8289 0.7402
2.2516 -2.1101 2.0386
2.4139 -1.9235 2.0386
2.5607 -1.7244 2.0386
2.6910 -1.5141 2.0386
2.8040 -1.2940 2.0386
2.8989 -1.0655 2.0386
2.9752 -0.8301 2.0386
3.0323 -0.5893 2.0386
3.0698 -0.3447 2.0386
3.0876 -0.0979 2.0386
3.0854 0.1496 2.0386
3.0634 0.3960 2.0386
3.0215 0.6399 2.0386
2.9603 0.8797 2.0386
2.8799 1.1137 2.0386
2.7810 1.3404 2.0386
2.6642 1.5584 2.0386
2.5303 1.7664 2.0386
2.3801 1.9628 2.0386
2.2147 2.1465 2.0386
0.7422 0.8448 0.7435
0.6722 0.9016 0.7438
0.5979 0.9526 0.7441
0.5196 0.9974 0.7443
0.4380 1.0358 0.7446
0.3536 1.0675 0.7448
0.2669 1.0924 0.7451
0.1785 1.1102 0.7453
0.0889 1.1208 0.7455
-0.0012 1.1242 0.7457
-0.0913 1.1204 0.7459
-0.1809 1.1093 0.7461
-0.2692 1.0910 0.7463
-0.3558 1.0657 0.7464
-0.4400 1.0336 0.7465
-0.5214 0.9947 0.7466
-0.5994 0.9495 0.7467
-0.6735 0.8981 0.7467
-0.7432 0.8410 0.7468
-2.2061 2.1251 2.0386
-2.3690 1.9407 2.0386
-2.5166 1.7440 2.0386
-2.6480 1.5361 2.0386
-2.7623 1.3184 2.0386
-2.8589 1.0922 2.0386
-2.9370 0.8591 2.0386
-2.9963 0.6205 2.0386
-3.0364 0.3780 2.0386
-3.0569 0.1330 2.0386
-3.0578 -0.1128 2.0386
-3.0390 -0.3580 2.0386
-3.0007 -0.6008 2.0386
-2.9432 -0.8399 2.0386
-2.8667 -1.0736 2.0386
-2.7717 -1.3004 2.0386
-2.6590 -1.5190 2.0386
-2.5290 -1.7279 2.0386
-2.3828 -1.9258 2.0386
-2.2212 -2.1113 2.0386
-0.7458 -0.8327 0.7434
-0.6766 -0.8898 0.7432
-0.6030 -0.9412 0.7429
-0.5256 -0.9865 0.7427
-0.4448 -1.0255 0.7424
-0.3611 -1.0579 0.7422
-0.2751 -1.0835 0.7419
-0.1874 -1.1022 0.7417
-0.0984 -1.1138 0.7415
-0.0088 -1.1182 0.7413
0.0808 -1.1154 0.7411
0.1700 -1.1055 0.7409
0.2581 -1.0885 0.7407
0.3445 -1.0645 0.7406
0.4288 -1.0337 0.7405
0.5103 -0.9962 0.7404
0.5886 -0.9523 0.7403
0.6631 -0.9023 0.7402
0.7334 -0.8465 0.7402
2.2007 -2.1628 2.0386
2.3674 -1.9801 2.0386
2.5189 -1.7846 2.0386
2.6542 -1.5775 2.0386
2.7724 -1.3602 2.0386
2.8727 -1.1340 2.0386
2.9546 -0.9005 2.0386
3.0174 -0.6611 2.0386
3.0608 -0.4175 2.0386
3.0844 -0.1712 2.0386
3.0881 0.0763 2.0386
3.0720 0.3232 2.0386
3.0360 0.5680 2.0386
2.9804 0.8092 2.0386
2.9057 1.0450 2.0386
2.8122 1.2741 2.0386
2.7006 1.4948 2.0386
2.5717 1.7059 2.0386
2.4263 1.9059 2.0386
2.2652 2.0935 2.0386
0.7621 0.8269 0.7435
0.6934 0.8854 0.7437
0.6203 0.9381 0.7440
0.5432 0.9848 0.7443
0.4625 1.0251 0.7445
0.3789 1.0588 0.7448
0.2928 1.0858 0.7450
0.2048 1.1057 0.7452
0.1155 1.1184 0.7455
0.0255 1.1240 0.7457
-0.0647 1.1223 0.7459
-0.1544 1.1133 0.7460
-0.2432 1.0972 0.7462
-0.3303 1.0739 0.7464
-0.4153 1.0438 0.7465
-0.4976 1.0069 0.7466
-0.5767 0.9636 0.7467
-0.6520 0.9140 0.7467
-0.7231 0.8585 0.7468
-2.1551 2.1772 2.0386
-2.3223 1.9967 2.0386
-2.4745 1.8035 2.0386
-2.6108 1.5988 2.0386
-2.7302 1.3838 2.0386
-2.8321 1.1600 2.0386
-2.9158 0.9288 2.0386
-2.9807 0.6917 2.0386
-3.0265 0.4502 2.0386
-3.0529 0.2057 2.0386
-3.0596 -0.0400 2.0386
-3.0466 -0.2855 2.0386
-3.0141 -0.5292 2.0386
-2.9622 -0.7695 2.0386
-2.8913 -1.0050 2.0386
-2.8018 -1.2340 2.0386
-2.6942 -1.4552 2.0386
-2.5693 -1.6671 2.0386
-2.4278 -1.8684 2.0386
-2.2706 -2.0577 2.0386
-0.7655 -0.8147 0.7435
-0.6976 -0.8735 0.7433
-0.6252 -0.9266 0.7430
-0.5489 -0.9738 0.7427
-0.4690 -1.0147 0.7425
-0.3862 -1.0490 0.7422
-0.3008 -1.0767 0.7420
-0.2135 -1.0974 0.7418
-0.1249 -1.1111 0.7415
-0.0354 -1.1176 0.7413
0.0543 -1.1170 0.7411
0.1437 -1.1092 0.7409
0.2321 -1.0943 0.7408
0.3191 -1.0723 0.7406
0.4041 -1.0435 0.7405
0.4865 -1.0080 0.7404
0.5658 -0.9660 0.7403
0.6414 -0.9178 0.7402
0.7130 -0.8636 0.7402
0.7801 -0.8039 0.7402
2.3196 -2.0356 2.0386
2.4757 -1.8438 2.0386
2.6158 -1.6400 2.0386
2.7392 -1.4255 2.0386
2.8449 -1.2018 2.0386
2.9323 -0.9704 2.0386
3.0008 -0.7326 2.0386
3.0500 -0.4900 2.0386
3.0795 -0.2443 2.0386
3.0891 0.0029 2.0386
3.0788 0.2502 2.0386
3.0487 0.4958 2.0386
0.0587 1.0566 0.7455
-0.0262 1.0577 0.7457
-0.1109 1.0521 0.7458
-0.1949 1.0396 0.7460
-0.2776 1.0205 0.7461
-0.3585 0.9948 0.7463
-0.4371 0.9626 0.7464
-0.5128 0.9243 0.7465
-0.5852 0.8800 0.7465
-0.6537 0.8300 0.7466
-0.7181 0.7747 0.7466
-2.1237 1.9506 2.0386
-2.2729 1.7735 2.0386
-2.4074 1.5850 2.0386
-2.5265 1.3864 2.0386
-2.6292 1.1790 2.0386
-2.7151 0.9640 2.0386
-2.7835 0.7428 2.0386
-2.8340 0.5169 2.0386
-2.8662 0.2877 2.0386
-2.8801 0.0567 2.0386
-2.8754 -0.1748 2.0386
-2.8523 -0.4051 2.0386
-2.8109 -0.6328 2.0386
-2.7513 -0.8566 2.0386
-2.6741 -1.0748 2.0386
-2.5796 -1.2862 2.0386
-2.4686 -1.4894 2.0386
-2.3416 -1.6831 2.0386
-2.1995 -1.8661 2.0386
-0.7453 -0.7431 0.7436
-0.6832 -0.8005 0.7434
-0.6168 -0.8527 0.7431
-0.5464 -0.8994 0.7429
-0.4725 -0.9403 0.7426
-0.3956 -0.9752 0.7424
-0.3161 -1.0039 0.7422
-0.2346 -1.0261 0.7419
-0.1516 -1.0416 0.7417
-0.0676 -1.0506 0.7415
0.0168 -1.0527 0.7413
0.1012 -1.0481 0.7412
0.1848 -1.0368 0.7410
0.2674 -1.0188 0.7409
0.3482 -0.9943 0.7407
0.4268 -0.9634 0.7406
0.5027 -0.9263 0.7405
0.5754 -0.8832 0.7405
0.6444 -0.8345 0.7404
0.7093 -0.7804 0.7404
0.7697 -0.7213 0.7404
2.2723 -1.8104 2.0386
2.4104 -1.6230 2.0386
2.5330 -1.4251 2.0386
2.6393 -1.2179 2.0386
2.7287 -1.0029 2.0386
2.8005 -0.7813 2.0386
2.8542 -0.5547 2.0386
2.8895 -0.3245 2.0386
2.9062 -0.0921 2.0386
2.9042 0.1408 2.0386
2.8834 0.3727 2.0386
2.8441 0.6023 2.0386
2.7864 0.8279 2.0386
2.7108 1.0481 2.0386
2.6177 1.2616 2.0386
2.5078 1.4668 2.0386
2.3818 1.6625 2.0386
2.2405 1.8474 2.0386
0.7601 0.7366 0.7433
0.6987 0.7952 0.7435
0.6328 0.8486 0.7438
0.5628 0.8966 0.7440
0.4892 0.9388 0.7443
0.4124 0.9749 0.7445
0.3329 1.0048 0.7448
0.2513 1.0282 0.7450
0.1681 1.0449 0.7452
0.0838 1.0549 0.7454
-0.0011 1.0581 0.7456
-0.0859 1.0545 0.7458
-0.1701 1.0440 0.7459
-0.2533 1.0269 0.7461
-0.3348 1.0031 0.7462
-0.4141 0.9728 0.7463
-0.4907 0.9363 0.7464
-0.5641 0.8937 0.7465
-0.6338 0.8454 0.7466
-0.6995 0.7916 0.7466
-0.7606 0.7327 0.7466
-2.2301 1.8272 2.0386
-2.3691 1.6420 2.0386
-2.4928 1.4462 2.0386
-2.6005 1.2413 2.0386
-2.6914 1.0283 2.0386
-2.7650 0.8089 2.0386
-2.8209 0.5842 2.0386
-2.8586 0.3559 2.0386
-2.8779 0.1252 2.0386
-2.8788 -0.1063 2.0386
-2.8611 -0.3371 2.0386
-2.8250 -0.5657 2.0386
-2.7708 -0.7908 2.0386
-2.6988 -1.0108 2.0386
-2.6094 -1.2244 2.0386
-2.5032 -1.4302 2.0386
-2.3808 -1.6268 2.0386
-2.2431 -1.8131 2.0386
-0.7628 -0.7251 0.7437
-0.7021 -0.7840 0.7434
-0.6369 -0.8378 0.7432
-0.5676 -0.8861 0.7429
-0.4947 -0.9288 0.7427
-0.4186 -0.9655 0.7425
-0.3399 -0.9960 0.7422
-0.2589 -1.0202 0.7420
-0.1763 -1.0377 0.7418
-0.0926 -1.0486 0.7416
-0.0082 -1.0528 0.7414
0.0762 -1.0502 0.7412
0.1601 -1.0409 0.7410
0.2431 -1.0248 0.7409
0.3245 -1.0022 0.7408
0.4038 -0.9732 0.7407
0.4805 -0.9379 0.7406
0.5542 -0.8966 0.7405
0.6244 -0.8495 0.7404
0.6906 -0.7970 0.7404
0.7523 -0.7393 0.7404
2.2285 -1.8637 2.0386
2.3710 -1.6797 2.0386
2.4983 -1.4847 2.0386
2.6096 -1.2802 2.0386
2.7040 -1.0673 2.0386
2.7811 -0.8475 2.0386
2.8402 -0.6223 2.0386
2.8810 -0.3930 2.0386
2.9032 -0.1611 2.0386
2.9067 0.0718 2.0386
2.8915 0.3042 2.0386
