ply
format ascii 1.0
element vertex 2175
property float32 x
property float32 y
property float32 z
end_header
-5.2940 -7.1622 2.0301
-4.7138 -7.5853 2.0301
-4.1004 -7.9624 2.0301
-3.4574 -8.2906 2.0301
-2.7884 -8.5677 2.0301
-1.2449 -5.2180 1.2050
-0.8110 -5.2321 1.1855
-0.3855 -5.2459 1.1740
0.0371 -5.2596 1.1702
0.4623 -5.2734 1.1740
1.5339 -9.0542 2.0301
2.2629 -8.9296 2.0301
2.9814 -8.7457 2.0301
3.6845 -8.5032 2.0301
4.0395 -7.5874 1.8777
4.6478 -7.2584 1.8777
5.2284 -6.8796 1.8777
5.7736 -6.4493 1.8766
6.3146 -6.0056 1.8851
6.8180 -5.5138 1.8930
7.2790 -4.9771 1.9003
6.5105 -3.7231 1.6137
8.0558 -3.7846 1.9126
8.3637 -3.1378 1.9175
8.6135 -2.4643 1.9216
8.8023 -1.7695 1.9247
8.9282 -1.0595 1.9268
8.9898 -0.3405 1.9279
8.9864 0.3813 1.9280
8.9182 1.0996 1.9271
8.7859 1.8079 1.9252
8.5910 2.5003 1.9223
6.4090 2.4379 1.4751
8.0225 3.8138 1.9138
7.6551 4.4243 1.9082
7.2371 4.9974 1.9019
6.7729 5.5291 1.8948
6.2670 6.0157 1.8871
5.7243 6.4542 1.8787
5.1713 6.8706 1.8777
3.6367 5.7382 1.4876
3.9826 7.5659 1.8777
3.4682 8.1084 1.9426
2.9233 8.7101 2.0301
2.2076 8.8886 2.0301
1.4819 9.0084 2.0301
0.7512 9.0692 2.0301
0.0202 9.0711 2.0301
-0.7064 9.0148 2.0301
-1.4240 8.9011 2.0301
-2.1282 8.7311 2.0301
-2.8147 8.5065 2.0301
-3.4794 8.2291 2.0301
-4.1184 7.9010 2.0301
-4.7281 7.5246 2.0301
-5.3049 7.1026 2.0301
-5.8456 6.6377 2.0301
-6.3473 6.1332 2.0301
-6.8072 5.5920 2.0301
-7.2228 5.0177 2.0301
-7.5919 4.4138 2.0301
-7.9125 3.7839 2.0301
-8.1831 3.1317 2.0301
-8.4020 2.4611 2.0301
-8.5683 1.7760 2.0301
-8.6809 1.0803 2.0301
-8.7394 0.3782 2.0301
-8.7434 -0.3265 2.0301
-8.6927 -1.0295 2.0301
-8.5877 -1.7270 2.0301
-8.4289 -2.4147 2.0301
-8.2170 -3.0888 2.0301
-7.9530 -3.7452 2.0301
-7.6383 -4.3801 2.0301
-7.2746 -4.9896 2.0301
-6.8636 -5.5699 2.0301
-6.4077 -6.1176 2.0301
-5.9091 -6.6290 2.0301
-5.3707 -7.1008 2.0301
-4.7953 -7.5300 2.0301
-4.1863 -7.9135 2.0301
-3.5471 -8.2487 2.0301
-2.8814 -8.5329 2.0301
-1.3053 -5.2161 1.2083
-0.8698 -5.2302 1.1877
-0.4435 -5.2440 1.1751
-0.0208 -5.2577 1.1702
0.4037 -5.2715 1.1730
0.8357 -5.2855 1.1835
2.1635 -8.9502 2.0301
2.8838 -8.7743 2.0301
3.5893 -8.5398 2.0301
3.9543 -7.6285 1.8777
4.5660 -7.3064 1.8777
5.1507 -6.9343 1.8777
5.7041 -6.5144 1.8777
6.2426 -6.0692 1.8839
6.7514 -5.5838 1.8919
7.2185 -5.0531 1.8993
6.5478 -3.8405 1.6337
8.0093 -3.8707 1.9119
8.3250 -3.2281 1.9169
8.5828 -2.5579 1.9211
8.7801 -1.8657 1.9243
8.9147 -1.1574 1.9265
8.9852 -0.4393 1.9278
8.9908 0.2825 1.9280
8.9314 1.0016 1.9273
8.8078 1.7117 1.9255
8.6213 2.4066 1.9228
6.4264 2.3640 1.4728
8.0687 3.7276 1.9145
7.7085 4.3428 1.9091
7.2972 4.9213 1.9028
6.8390 5.4589 1.8958
6.3386 5.9519 1.8882
5.8006 6.3971 1.8799
5.2486 6.8158 1.8777
3.6386 5.6040 1.4625
4.0673 7.5247 1.8777
3.4793 7.8928 1.8993
3.0203 8.6811 2.0301
2.3063 8.8676 2.0301
1.5817 8.9955 2.0301
0.8514 9.0643 2.0301
0.1202 9.0743 2.0301
-0.6073 9.0259 2.0301
-1.3264 8.9200 2.0301
-2.0327 8.7576 2.0301
-2.7219 8.5404 2.0301
-3.3898 8.2701 2.0301
-4.0326 7.9488 2.0301
-4.6465 7.5789 2.0301
-5.2280 7.1630 2.0301
-5.7738 6.7038 2.0301
-6.2810 6.2045 2.0301
-6.7468 5.6682 2.0301
-7.1686 5.0982 2.0301
-7.5441 4.4981 2.0301
-7.8715 3.8715 2.0301
-8.1490 3.2222 2.0301
-8.3751 2.5539 2.0301
-8.5486 1.8705 2.0301
-8.6687 1.1761 2.0301
-8.7346 0.4746 2.0301
-8.7460 -0.2300 2.0301
-8.7029 -0.9335 2.0301
-8.6053 -1.6319 2.0301
-8.4538 -2.3213 2.0301
-8.2491 -2.9975 2.0301
-7.9922 -3.6565 2.0301
-7.6844 -4.2946 2.0301
-7.3272 -4.9078 2.0301
-6.9226 -5.4923 2.0301
-6.4727 -6.0446 2.0301
-5.9798 -6.5612 2.0301
-5.4466 -7.0387 2.0301
-4.8762 -7.4739 2.0301
-4.2715 -7.8638 2.0301
-3.6362 -8.2057 2.0301
-2.9740 -8.4971 2.0301
-2.2886 -8.7356 2.0301
-0.9287 -5.2283 1.1900
-0.5015 -5.2421 1.1764
-0.0787 -5.2558 1.1705
0.3452 -5.2696 1.1722
0.7759 -5.2836 1.1816
2.0640 -8.9697 2.0301
2.7859 -8.8019 2.0301
3.4937 -8.5753 2.0301
3.8736 -7.6785 1.8801
4.4837 -7.3535 1.8777
5.0724 -6.9882 1.8777
5.6303 -6.5746 1.8777
6.1699 -6.1320 1.8828
6.6841 -5.6531 1.8909
7.1572 -5.1283 1.8983
6.7287 -4.0467 1.6902
7.0609 -3.5086 1.6949
8.2851 -3.3179 1.9163
8.5510 -2.6511 1.9206
8.7568 -1.9616 1.9239
8.9000 -1.2552 1.9263
8.9794 -0.5380 1.9277
8.9938 0.1837 1.9281
8.9433 0.9035 1.9275
8.8285 1.6152 1.9258
8.6505 2.3126 1.9232
6.4440 2.2903 1.4706
8.1138 3.6407 1.9152
7.7609 4.2606 1.9099
7.3564 4.8444 1.9037
6.9044 5.3879 1.8968
6.4094 5.8871 1.8892
5.8763 6.3390 1.8811
5.3252 6.7602 1.8777
3.6443 5.4798 1.4399
4.1515 7.4825 1.8777
3.5269 7.7682 1.8777
3.1170 8.6510 2.0301
2.4048 8.8455 2.0301
1.6814 8.9814 2.0301
0.9516 9.0584 2.0301
0.2202 9.0764 2.0301
-0.5081 9.0360 2.0301
-1.2286 8.9378 2.0301
-1.9369 8.7831 2.0301
-2.6287 8.5733 2.0301
-3.2997 8.3102 2.0301
-3.9462 7.9957 2.0301
-4.5642 7.6323 2.0301
-5.1504 7.2225 2.0301
-5.7013 6.7691 2.0301
-6.2139 6.2751 2.0301
-6.6855 5.7437 2.0301
-7.1135 5.1781 2.0301
-7.4955 4.5819 2.0301
-7.8296 3.9588 2.0301
-8.1140 3.3123 2.0301
-8.3472 2.6464 2.0301
-8.5280 1.9648 2.0301
-8.6554 1.2717 2.0301
-8.7288 0.5709 2.0301
-8.7477 -0.1335 2.0301
-8.7120 -0.8374 2.0301
-8.6219 -1.5368 2.0301
-8.4777 -2.2276 2.0301
-8.2802 -2.9058 2.0301
-8.0304 -3.5674 2.0301
-7.7295 -4.2086 2.0301
-7.3790 -4.8254 2.0301
-6.9808 -5.4141 2.0301
-6.5369 -5.9710 2.0301
-6.0497 -6.4927 2.0301
-5.5219 -6.9757 2.0301
-4.9564 -7.4169 2.0301
-4.3562 -7.8132 2.0301
-3.7249 -8.1618 2.0301
-3.0661 -8.4602 2.0301
-2.3837 -8.7061 2.0301
-0.9879 -5.2264 1.1925
-0.5596 -5.2402 1.1778
-0.1366 -5.2539 1.1708
0.2869 -5.2677 1.1715
0.7163 -5.2816 1.1798
1.9644 -8.9880 2.0301
2.6878 -8.8284 2.0301
3.3978 -8.6098 2.0301
3.7826 -7.7077 1.8777
4.4010 -7.3997 1.8777
4.9935 -7.0411 1.8777
5.5559 -6.6340 1.8777
6.0966 -6.1938 1.8816
6.6160 -5.7214 1.8898
7.0950 -5.2028 1.8974
6.7214 -4.1436 1.7000
7.0087 -3.5793 1.6920
8.2441 -3.4071 1.9156
8.5181 -2.7439 1.9200
8.7322 -2.0571 1.9235
8.8842 -1.3527 1.9260
8.9723 -0.6366 1.9276
8.9957 0.0848 1.9281
8.9541 0.8053 1.9276
8.8480 1.5185 1.9261
8.6785 2.2181 1.9236
6.5012 2.2305 1.4778
8.1579 3.5533 1.9159
7.8124 4.1777 1.9106
7.4147 4.7668 1.9046
6.9689 5.3160 1.8978
6.4796 5.8215 1.8903
5.9514 6.2800 1.8822
5.4012 6.7037 1.8777
3.6971 5.4287 1.4365
4.2353 7.4394 1.8777
3.6137 7.7322 1.8777
3.2134 8.6198 2.0301
2.5031 8.8223 2.0301
1.7809 8.9663 2.0301
1.0517 9.0513 2.0301
0.3203 9.0774 2.0301
-0.4087 9.0450 2.0301
-1.1305 8.9547 2.0301
-1.8408 8.8076 2.0301
-2.5351 8.6053 2.0301
-3.2092 8.3493 2.0301
-3.8592 8.0418 2.0301
-4.4814 7.6849 2.0301
-5.0721 7.2813 2.0301
-5.6280 6.8337 2.0301
-6.1461 6.3451 2.0301
-6.6234 5.8186 2.0301
-7.0575 5.2575 2.0301
-7.4460 4.6653 2.0301
-7.7868 4.0456 2.0301
-8.0781 3.4021 2.0301
-8.3184 2.7386 2.0301
-8.5064 2.0590 2.0301
-8.6412 1.3671 2.0301
-8.7220 0.6672 2.0301
-8.7483 -0.0369 2.0301
-8.7201 -0.7411 2.0301
-8.6374 -1.4414 2.0301
-8.5006 -2.1336 2.0301
-8.3104 -2.8138 2.0301
-8.0677 -3.4779 2.0301
-7.7736 -4.1221 2.0301
-7.4299 -4.7425 2.0301
-7.0380 -5.3353 2.0301
-6.6003 -5.8968 2.0301
-6.1189 -6.4235 2.0301
-5.5965 -6.9120 2.0301
-5.0360 -7.3590 2.0301
-4.4403 -7.7617 2.0301
-3.8131 -8.1170 2.0301
-3.1578 -8.4224 2.0301
-2.4784 -8.6756 2.0301
-1.0472 -5.2244 1.1951
-0.6179 -5.2383 1.1793
-0.1944 -5.2521 1.1713
0.2287 -5.2658 1.1709
0.6569 -5.2797 1.1782
1.8645 -9.0053 2.0301
2.5894 -8.8537 2.0301
3.3015 -8.6432 2.0301
3.7154 -7.7863 1.8875
4.3177 -7.4449 1.8777
4.9140 -7.0931 1.8777
5.4808 -6.6925 1.8777
6.0226 -6.2548 1.8805
6.5471 -5.7890 1.8887
7.0320 -5.2764 1.8964
7.4723 -4.7206 1.9033
6.6605 -3.4943 1.6174
8.2021 -3.4958 1.9149
8.4841 -2.8362 1.9195
8.7065 -2.1524 1.9231
8.8671 -1.4500 1.9257
8.9641 -0.7351 1.9274
8.9963 -0.0141 1.9281
8.9636 0.7069 1.9277
8.8663 1.4214 1.9264
8.7054 2.1233 1.9240
6.5662 2.1724 1.4868
6.4611 2.7301 1.5099
7.8629 4.0942 1.9114
7.4721 4.6883 1.9055
7.0326 5.2433 1.8988
6.5490 5.7550 1.8914
6.0258 6.2201 1.8834
5.4766 6.6463 1.8777
3.7815 5.4234 1.4455
4.3186 7.3953 1.8777
3.7001 7.6951 1.8777
3.3095 8.5876 2.0301
2.6012 8.7980 2.0301
1.8804 8.9501 2.0301
1.1518 9.0432 2.0301
0.4204 9.0773 2.0301
-0.3092 9.0528 2.0301
-1.0323 8.9704 2.0301
-1.7444 8.8311 2.0301
-2.4411 8.6362 2.0301
-3.1182 8.3874 2.0301
-3.7718 8.0868 2.0301
-4.3980 7.7366 2.0301
-4.9932 7.3392 2.0301
-5.5541 6.8975 2.0301
-6.0775 6.4143 2.0301
-6.5606 5.8928 2.0301
-7.0007 5.3362 2.0301
-7.3955 4.7481 2.0301
-7.7430 4.1319 2.0301
-8.0412 3.4915 2.0301
-8.2885 2.8305 2.0301
-8.4838 2.1528 2.0301
-8.6259 1.4625 2.0301
-8.7141 0.7634 2.0301
-8.7480 0.0596 2.0301
-8.7272 -0.6448 2.0301
-8.6520 -1.3459 2.0301
-8.5225 -2.0394 2.0301
-8.3396 -2.7215 2.0301
-8.1040 -3.3881 2.0301
-7.8169 -4.0352 2.0301
-7.4798 -4.6591 2.0301
-7.0945 -5.2558 2.0301
-6.6629 -5.8219 2.0301
-6.1873 -6.3535 2.0301
-5.6704 -6.8475 2.0301
-5.1149 -7.3004 2.0301
-4.5238 -7.7093 2.0301
-3.9007 -8.0712 2.0301
-3.2491 -8.3836 2.0301
-2.5728 -8.6441 2.0301
-1.1068 -5.2225 1.1979
-0.6762 -5.2364 1.1810
-0.2522 -5.2502 1.1720
0.1706 -5.2639 1.1705
0.5978 -5.2778 1.1767
1.7645 -9.0214 2.0301
2.4908 -8.8780 2.0301
3.2049 -8.6755 2.0301
3.7064 -7.9925 1.9283
4.2340 -7.4892 1.8777
4.8340 -7.1442 1.8777
5.4051 -6.7502 1.8777
5.9479 -6.3147 1.8793
6.4776 -5.8556 1.8876
6.9681 -5.3492 1.8954
7.4148 -4.7992 1.9024
6.5881 -3.5493 1.6095
8.1590 -3.5839 1.9143
8.4489 -2.9281 1.9189
8.6797 -2.2472 1.9226
8.8488 -1.5470 1.9254
8.9546 -0.8335 1.9272
8.9957 -0.1129 1.9280
8.9719 0.6084 1.9278
8.8834 1.3242 1.9266
8.7311 2.0282 1.9244
6.6322 2.1136 1.4961
6.4227 2.6310 1.4938
7.9124 4.0100 1.9122
7.5286 4.6092 1.9063
7.0955 5.1697 1.8997
6.6177 5.6876 1.8924
6.0996 6.1593 1.8845
5.5514 6.5881 1.8777
3.8693 5.4212 1.4556
4.4014 7.3502 1.8777
3.7861 7.6571 1.8777
3.4052 8.5543 2.0301
2.6990 8.7727 2.0301
1.9796 8.9327 2.0301
1.2519 9.0339 2.0301
0.5205 9.0761 2.0301
-0.2095 9.0596 2.0301
-0.9338 8.9851 2.0301
-1.6477 8.8535 2.0301
-2.3467 8.6661 2.0301
-3.0268 8.4246 2.0301
-3.6838 8.1310 2.0301
-4.3140 7.7874 2.0301
-4.9136 7.3964 2.0301
-5.4794 6.9605 2.0301
-6.0081 6.4828 2.0301
-6.4969 5.9663 2.0301
-6.9431 5.4144 2.0301
-7.3442 4.8304 2.0301
-7.6983 4.2178 2.0301
-8.0033 3.5805 2.0301
-8.2577 2.9221 2.0301
-8.4602 2.2465 2.0301
-8.6096 1.5576 2.0301
-8.7052 0.8595 2.0301
-8.7465 0.1561 2.0301
-8.7333 -0.5485 2.0301
-8.6655 -1.2502 2.0301
-8.5434 -1.9451 2.0301
-8.3678 -2.6289 2.0301
-8.1393 -3.2979 2.0301
-7.8592 -3.9479 2.0301
-7.5289 -4.5752 2.0301
-7.1500 -5.1759 2.0301
-6.7246 -5.7463 2.0301
-6.2549 -6.2829 2.0301
-5.7435 -6.7822 2.0301
-5.1931 -7.2409 2.0301
-4.6068 -7.6560 2.0301
-3.9878 -8.0245 2.0301
-3.3399 -8.3439 2.0301
-2.6667 -8.6116 2.0301
-1.1667 -5.2206 1.2009
-0.7346 -5.2346 1.1829
-0.3101 -5.2483 1.1728
0.1125 -5.2620 1.1703
0.5388 -5.2759 1.1754
1.6644 -9.0364 2.0301
2.3919 -8.9011 2.0301
3.1080 -8.7067 2.0301
3.7014 -8.2173 1.9733
4.1498 -7.5325 1.8777
4.7535 -7.1944 1.8777
5.3288 -6.8070 1.8777
5.8726 -6.3738 1.8781
6.4072 -5.9213 1.8865
6.9034 -5.4213 1.8943
7.3564 -4.8769 1.9015
6.5286 -3.6104 1.6048
8.1149 -3.6714 1.9135
8.4126 -3.0195 1.9183
8.6517 -2.3417 1.9222
8.8294 -1.6439 1.9251
8.9439 -0.9318 1.9270
8.9940 -0.2118 1.9280
8.9790 0.5098 1.9279
8.8993 1.2268 1.9268
8.7557 1.9327 1.9248
6.8486 2.1000 1.5394
6.3864 2.5345 1.4785
7.9609 3.9252 1.9129
7.5841 4.5293 1.9072
7.1576 5.0954 1.9007
6.6856 5.6193 1.8935
6.1728 6.0975 1.8856
5.6240 6.5271 1.8772
3.9584 5.4189 1.4661
4.4838 7.3043 1.8777
3.8717 7.6181 1.8777
3.4528 8.4034 2.0024
2.7966 8.7462 2.0301
2.0788 8.9143 2.0301
1.3518 9.0235 2.0301
0.6208 9.0738 2.0301
-0.1098 9.0654 2.0301
-0.8351 8.9987 2.0301
-1.5507 8.8748 2.0301
-2.2520 8.6950 2.0301
-2.9350 8.4608 2.0301
-3.5954 8.1742 2.0301
-4.2294 7.8373 2.0301
-4.8334 7.4526 2.0301
-5.4041 7.0227 2.0301
-5.9380 6.5506 2.0301
-6.4324 6.0392 2.0301
-6.8846 5.4919 2.0301
-7.2920 4.9121 2.0301
-7.6527 4.3033 2.0301
-7.9645 3.6691 2.0301
-8.2259 3.0133 2.0301
-8.4355 2.3399 2.0301
-8.5923 1.6526 2.0301
-8.6953 0.9555 2.0301
-8.7441 0.2526 2.0301
-8.7383 -0.4521 2.0301
-8.6780 -1.1544 2.0301
-8.5633 -1.8504 2.0301
-8.3950 -2.5361 2.0301
-8.1737 -3.2073 2.0301
-7.9006 -3.8601 2.0301
-7.5770 -4.4907 2.0301
-7.2047 -5.0953 2.0301
-6.7856 -5.6701 2.0301
-6.3218 -6.2115 2.0301
-5.8159 -6.7161 2.0301
-5.2707 -7.1806 2.0301
-4.6891 -7.6018 2.0301
-4.0744 -7.9769 2.0301
-3.4302 -8.3031 2.0301
-2.7602 -8.5781 2.0301
-1.2267 -5.2186 1.2040
-0.7932 -5.2327 1.1849
-0.3680 -5.2464 1.1737
0.0546 -5.2601 1.1702
0.4800 -5.2739 1.1743
1.5642 -9.0503 2.0301
2.2928 -8.9232 2.0301
3.0108 -8.7368 2.0301
3.6960 -8.4526 2.0207
4.0651 -7.5748 1.8777
4.6724 -7.2437 1.8777
5.2518 -6.8629 1.8777
5.7967 -6.4319 1.8769
6.3362 -5.9862 1.8854
6.8379 -5.4924 1.8933
7.2970 -4.9540 1.9006
6.5147 -3.6968 1.6116
8.0697 -3.7584 1.9128
8.3753 -3.1104 1.9177
8.6225 -2.4359 1.9217
8.8087 -1.7404 1.9248
8.9320 -1.0299 1.9268
8.9909 -0.3106 1.9279
8.9849 0.4112 1.9280
8.9140 1.1291 1.9270
8.7791 1.8369 1.9251
8.5816 2.5285 1.9222
6.4037 2.4603 1.4758
8.0084 3.8398 1.9136
7.6388 4.4488 1.9080
7.2188 5.0203 1.9016
6.7527 5.5502 1.8945
6.2452 6.0349 1.8867
5.7011 6.4712 1.8784
4.0522 5.4211 1.4781
3.6361 5.7797 1.4954
3.9569 7.5781 1.8777
3.4647 8.1753 1.9562
2.8940 8.7186 2.0301
2.1777 8.8947 2.0301
1.4518 9.0121 2.0301
0.7209 9.0704 2.0301
-0.0100 9.0700 2.0301
-0.7363 9.0112 2.0301
-1.4534 8.8951 2.0301
-2.1570 8.7229 2.0301
-2.8427 8.4960 2.0301
-3.5064 8.2165 2.0301
-4.1443 7.8863 2.0301
-4.7526 7.5080 2.0301
-5.3280 7.0842 2.0301
-5.8672 6.6176 2.0301
-6.3672 6.1115 2.0301
-6.8253 5.5689 2.0301
-7.2390 4.9933 2.0301
-7.6061 4.3882 2.0301
-7.9247 3.7573 2.0301
-8.1931 3.1043 2.0301
-8.4099 2.4330 2.0301
-8.5740 1.7474 2.0301
-8.6844 1.0514 2.0301
-8.7407 0.3491 2.0301
-8.7423 -0.3556 2.0301
-8.6895 -1.0585 2.0301
-8.5822 -1.7557 2.0301
-8.4212 -2.4429 2.0301
-8.2071 -3.1164 2.0301
-7.9410 -3.7719 2.0301
-7.6242 -4.4059 2.0301
-7.2585 -5.0142 2.0301
-6.8456 -5.5933 2.0301
-6.3879 -6.1395 2.0301
-5.8876 -6.6493 2.0301
-5.3476 -7.1195 2.0301
-4.7707 -7.5468 2.0301
-4.1604 -7.9284 2.0301
-3.5200 -8.2615 2.0301
-2.8534 -8.5435 2.0301
-1.2870 -5.2167 1.2073
-0.8520 -5.2308 1.1870
-0.4260 -5.2446 1.1748
-0.0034 -5.2583 1.1702
0.4214 -5.2720 1.1733
0.8538 -5.2861 1.1841
2.1936 -8.9441 2.0301
2.9133 -8.7658 2.0301
3.6181 -8.5288 2.0301
3.9801 -7.6162 1.8777
4.5908 -7.2920 1.8777
5.1743 -6.9179 1.8777
5.7262 -6.4960 1.8777
6.2644 -6.0501 1.8843
6.7716 -5.5628 1.8923
7.2369 -5.0302 1.8996
6.5220 -3.7963 1.6240
8.0235 -3.8448 1.9121
8.3368 -3.2009 1.9171
8.5922 -2.5296 1.9212
8.7869 -1.8367 1.9244
8.9189 -1.1279 1.9266
8.9867 -0.4094 1.9278
8.9896 0.3124 1.9280
8.9275 1.0312 1.9272
8.8013 1.7408 1.9254
8.6123 2.4350 1.9227
6.4211 2.3863 1.4734
8.0548 3.7537 1.9143
7.6924 4.3675 1.9088
7.2791 4.9444 1.9025
6.8191 5.4802 1.8955
6.3170 5.9713 1.8878
5.7776 6.4144 1.8795
5.2253 6.8325 1.8777
3.6381 5.6441 1.4700
4.0417 7.5372 1.8777
3.4760 7.9574 1.9122
2.9910 8.6900 2.0301
2.2765 8.8741 2.0301
1.5516 8.9995 2.0301
0.8211 9.0659 2.0301
0.0900 9.0735 2.0301
-0.6372 9.0227 2.0301
-1.3559 8.9144 2.0301
-2.0616 8.7497 2.0301
-2.7500 8.5303 2.0301
-3.4169 8.2578 2.0301
-4.0586 7.9345 2.0301
-4.6712 7.5626 2.0301
-5.2513 7.1448 2.0301
-5.7956 6.6839 2.0301
-6.3011 6.1830 2.0301
-6.7651 5.6452 2.0301
-7.1850 5.0739 2.0301
-7.5587 4.4727 2.0301
-7.8840 3.8451 2.0301
-8.1594 3.1949 2.0301
-8.3833 2.5258 2.0301
-8.5547 1.8420 2.0301
-8.6725 1.1472 2.0301
-8.7362 0.4454 2.0301
-8.7453 -0.2591 2.0301
-8.6999 -0.9625 2.0301
-8.6001 -1.6607 2.0301
-8.4464 -2.3495 2.0301
-8.2395 -3.0251 2.0301
-7.9804 -3.6834 2.0301
-7.6706 -4.3205 2.0301
-7.3114 -4.9325 2.0301
-6.9049 -5.5158 2.0301
-6.4531 -6.0668 2.0301
-5.9585 -6.5818 2.0301
-5.4237 -7.0576 2.0301
-4.8518 -7.4909 2.0301
-4.2458 -7.8789 2.0301
-3.6094 -8.2188 2.0301
-2.9460 -8.5080 2.0301
-2.2599 -8.7443 2.0301
-0.9109 -5.2288 1.1893
-0.4840 -5.2427 1.1760
-0.0612 -5.2564 1.1704
0.3629 -5.2701 1.1724
0.7939 -5.2841 1.1821
2.0941 -8.9639 2.0301
2.8155 -8.7937 2.0301
3.5226 -8.5647 2.0301
3.8946 -7.6566 1.8777
4.5087 -7.3394 1.8777
5.0961 -6.9720 1.8777
5.6527 -6.5565 1.8777
6.1920 -6.1131 1.8831
6.7045 -5.6322 1.8912
7.1758 -5.1057 1.8986
6.7395 -4.0228 1.6894
7.0901 -3.4939 1.6990
8.2973 -3.2908 1.9165
8.5607 -2.6230 1.9207
8.7639 -1.9326 1.9240
8.9046 -1.2257 1.9264
8.9812 -0.5081 1.9277
8.9930 0.2136 1.9281
8.9399 0.9332 1.9274
8.8223 1.6444 1.9257
8.6418 2.3410 1.9231
6.4386 2.3126 1.4713
8.1003 3.6670 1.9150
7.7452 4.2855 1.9096
7.3386 4.8677 1.9034
6.8847 5.4094 1.8965
6.3881 5.9068 1.8889
5.8535 6.3567 1.8807
5.3021 6.7771 1.8777
3.6399 5.5128 1.4456
4.1261 7.4953 1.8777
3.5006 7.7789 1.8777
3.0878 8.6602 2.0301
2.3751 8.8523 2.0301
1.6513 8.9858 2.0301
0.9213 9.0603 2.0301
0.1899 9.0759 2.0301
-0.5380 9.0331 2.0301
-1.2581 8.9326 2.0301
-1.9659 8.7755 2.0301
-2.6568 8.5635 2.0301
-3.3270 8.2982 2.0301
-3.9723 7.9817 2.0301
-4.5891 7.6163 2.0301
-5.1738 7.2047 2.0301
-5.7232 6.7495 2.0301
-6.2343 6.2539 2.0301
-6.7041 5.7209 2.0301
-7.1302 5.1541 2.0301
-7.5103 4.5567 2.0301
-7.8424 3.9325 2.0301
-8.1247 3.2851 2.0301
-8.3557 2.6185 2.0301
-8.5343 1.9364 2.0301
-8.6595 1.2428 2.0301
-8.7307 0.5418 2.0301
-8.7473 -0.1626 2.0301
-8.7094 -0.8664 2.0301
-8.6170 -1.5655 2.0301
-8.4706 -2.2559 2.0301
-8.2709 -2.9335 2.0301
-8.0190 -3.5944 2.0301
-7.7159 -4.2346 2.0301
-7.3634 -4.8503 2.0301
-6.9633 -5.4378 2.0301
-6.5176 -5.9933 2.0301
-6.0287 -6.5135 2.0301
-5.4993 -6.9948 2.0301
-4.9322 -7.4342 2.0301
-4.3307 -7.8286 2.0301
-3.6982 -8.1752 2.0301
-3.0384 -8.4714 2.0301
-2.3551 -8.7151 2.0301
-0.9700 -5.2269 1.1917
-0.5421 -5.2408 1.1773
-0.1191 -5.2545 1.1707
0.3045 -5.2682 1.1717
0.7343 -5.2822 1.1803
1.9945 -8.9826 2.0301
2.7175 -8.8205 2.0301
3.4268 -8.5995 2.0301
3.8086 -7.6960 1.8777
4.4260 -7.3858 1.8777
5.0174 -7.0252 1.8777
5.5784 -6.6162 1.8777
6.1188 -6.1752 1.8820
6.6367 -5.7009 1.8901
7.1139 -5.1803 1.8977
6.7109 -4.1065 1.6938
7.0192 -3.5554 1.6916
8.2566 -3.3802 1.9158
8.5282 -2.7159 1.9202
8.7397 -2.0283 1.9236
8.8891 -1.3232 1.9261
8.9746 -0.6068 1.9276
8.9953 0.1148 1.9281
8.9510 0.8350 1.9276
8.8422 1.5477 1.9260
8.6702 2.2467 1.9235
6.4817 2.2479 1.4751
8.1447 3.5797 1.9157
7.7969 4.2028 1.9104
7.3971 4.7903 1.9043
6.9495 5.3377 1.8975
6.4585 5.8414 1.8900
5.9287 6.2980 1.8819
5.3783 6.7209 1.8777
3.6751 5.4350 1.4352
4.2100 7.4525 1.8777
3.5875 7.7432 1.8777
3.1843 8.6294 2.0301
2.4735 8.8294 2.0301
1.7509 8.9710 2.0301
1.0215 9.0536 2.0301
0.2900 9.0772 2.0301
-0.4387 9.0424 2.0301
-1.1602 8.9497 2.0301
-1.8699 8.8003 2.0301
-2.5634 8.5957 2.0301
-3.2366 8.3376 2.0301
-3.8856 8.0279 2.0301
-4.5065 7.6691 2.0301
-5.0958 7.2636 2.0301
-5.6502 6.8143 2.0301
-6.1667 6.3240 2.0301
-6.6423 5.7960 2.0301
-7.0745 5.2336 2.0301
-7.4610 4.6402 2.0301
-7.7998 4.0194 2.0301
-8.0890 3.3750 2.0301
-8.3272 2.7108 2.0301
-8.5130 2.0306 2.0301
-8.6456 1.3383 2.0301
-8.7241 0.6381 2.0301
-8.7483 -0.0661 2.0301
-8.7178 -0.7702 2.0301
-8.6328 -1.4702 2.0301
-8.4938 -2.1620 2.0301
-8.3014 -2.8416 2.0301
-8.0565 -3.5050 2.0301
-7.7604 -4.1483 2.0301
-7.4146 -4.7676 2.0301
-7.0208 -5.3591 2.0301
-6.5812 -5.9193 2.0301
-6.0981 -6.4445 2.0301
-5.5740 -6.9314 2.0301
-5.0120 -7.3766 2.0301
-4.4150 -7.7773 2.0301
-3.7865 -8.1307 2.0301
-3.1301 -8.4340 2.0301
-2.4499 -8.6849 2.0301
-1.0293 -5.2250 1.1943
-0.6002 -5.2389 1.1788
-0.1769 -5.2526 1.1712
0.2463 -5.2664 1.1711
0.6748 -5.2803 1.1787
1.8947 -9.0002 2.0301
2.6191 -8.8462 2.0301
3.3307 -8.6332 2.0301
3.7237 -7.7375 1.8785
4.3429 -7.4313 1.8777
4.9381 -7.0775 1.8777
5.5035 -6.6749 1.8777
6.0450 -6.2364 1.8808
6.5680 -5.7686 1.8891
7.0511 -5.2543 1.8967
7.4895 -4.6968 1.9036
6.7018 -3.4877 1.6245
8.2149 -3.4690 1.9151
8.4945 -2.8084 1.9196
8.7144 -2.1236 1.9232
8.8724 -1.4206 1.9258
8.9667 -0.7053 1.9275
8.9963 0.0158 1.9281
8.9609 0.7367 1.9277
8.8609 1.4508 1.9263
8.6974 2.1521 1.9239
6.5465 2.1900 1.4840
6.4800 2.7635 1.5166
7.8477 4.1195 1.9112
7.4548 4.7121 1.9052
7.0135 5.2653 1.8985
6.5281 5.7752 1.8911
6.0034 6.2383 1.8830
5.4539 6.6637 1.8777
3.7553 5.4241 1.4425
4.2935 7.4087 1.8777
3.6740 7.7064 1.8777
3.2805 8.5975 2.0301
2.5716 8.8055 2.0301
1.8503 8.9551 2.0301
1.1216 9.0458 2.0301
0.3902 9.0775 2.0301
-0.3392 9.0506 2.0301
-1.0620 8.9658 2.0301
-1.7736 8.8241 2.0301
-2.4695 8.6270 2.0301
-3.1458 8.3760 2.0301
-3.7983 8.0733 2.0301
-4.4233 7.7211 2.0301
-5.0171 7.3218 2.0301
-5.5765 6.8783 2.0301
-6.0983 6.3935 2.0301
-6.5797 5.8704 2.0301
-7.0180 5.3125 2.0301
-7.4109 4.7231 2.0301
-7.7563 4.1059 2.0301
-8.0524 3.4645 2.0301
-8.2976 2.8028 2.0301
-8.4907 2.1245 2.0301
-8.6306 1.4337 2.0301
-8.7166 0.7344 2.0301
-8.7482 0.0304 2.0301
-8.7252 -0.6740 2.0301
-8.6477 -1.3748 2.0301
-8.5160 -2.0679 2.0301
-8.3309 -2.7494 2.0301
-8.0931 -3.4153 2.0301
-7.8039 -4.0616 2.0301
-7.4648 -4.6843 2.0301
-7.0775 -5.2799 2.0301
-6.6440 -5.8446 2.0301
-6.1667 -6.3748 2.0301
-5.6481 -6.8670 2.0301
-5.0911 -7.3182 2.0301
-4.4987 -7.7252 2.0301
-3.8743 -8.0852 2.0301
-3.2216 -8.3954 2.0301
-2.5443 -8.6537 2.0301
-1.0888 -5.2231 1.1971
-0.6585 -5.2370 1.1805
-0.2348 -5.2507 1.1718
0.1881 -5.2645 1.1706
0.6156 -5.2783 1.1772
1.7948 -9.0166 2.0301
2.5206 -8.8708 2.0301
3.2342 -8.6658 2.0301
3.7079 -7.9265 1.9151
4.2593 -7.4759 1.8777
4.8583 -7.1289 1.8777
5.4280 -6.7329 1.8777
5.9705 -6.2967 1.8797
6.4986 -5.8355 1.8880
6.9875 -5.3273 1.8957
7.4322 -4.7755 1.9027
6.6099 -3.5327 1.6118
8.1721 -3.5573 1.9145
8.4596 -2.9004 1.9191
8.6879 -2.2186 1.9228
8.8545 -1.5177 1.9255
8.9576 -0.8038 1.9273
8.9961 -0.0830 1.9280
8.9695 0.6382 1.9278
8.8783 1.3537 1.9265
8.7235 2.0570 1.9243
6.6122 2.1315 1.4932
6.4342 2.6607 1.4986
7.8975 4.0355 1.9119
7.5116 4.6332 1.9061
7.0766 5.1920 1.8994
6.5970 5.7080 1.8921
6.0774 6.1778 1.8841
5.5289 6.6057 1.8777
3.8427 5.4219 1.4525
4.3765 7.3640 1.8777
3.7601 7.6687 1.8777
3.3763 8.5645 2.0301
2.6695 8.7805 2.0301
1.9496 8.9381 2.0301
1.2217 9.0368 2.0301
0.4903 9.0766 2.0301
-0.2397 9.0577 2.0301
-0.9636 8.9808 2.0301
-1.6769 8.8468 2.0301
-2.3753 8.6572 2.0301
-3.0545 8.4135 2.0301
-3.7105 8.1177 2.0301
-4.3394 7.7722 2.0301
-4.9377 7.3792 2.0301
-5.5020 6.9416 2.0301
-6.0292 6.4622 2.0301
-6.5162 5.9442 2.0301
-6.9606 5.3908 2.0301
-7.3598 4.8055 2.0301
-7.7119 4.1919 2.0301
-8.0148 3.5536 2.0301
-8.2671 2.8944 2.0301
-8.4674 2.2182 2.0301
-8.6146 1.5288 2.0301
-8.7080 0.8305 2.0301
-8.7471 0.1269 2.0301
-8.7316 -0.5776 2.0301
-8.6615 -1.2792 2.0301
-8.5372 -1.9736 2.0301
-8.3593 -2.6569 2.0301
-8.1287 -3.3252 2.0301
-7.8465 -3.9743 2.0301
-7.5142 -4.6006 2.0301
-7.1333 -5.2001 2.0301
-6.7060 -5.7692 2.0301
-6.2346 -6.3043 2.0301
-5.7215 -6.8020 2.0301
-5.1695 -7.2590 2.0301
-4.5818 -7.6722 2.0301
-3.9616 -8.0387 2.0301
-3.3125 -8.3560 2.0301
-2.6383 -8.6215 2.0301
-1.1485 -5.2212 1.2000
-0.7170 -5.2351 1.1823
-0.2926 -5.2489 1.1725
0.1301 -5.2626 1.1703
0.5566 -5.2764 1.1758
1.6947 -9.0320 2.0301
2.4218 -8.8943 2.0301
3.1374 -8.6974 2.0301
3.7029 -8.1482 1.9595
4.1753 -7.5195 1.8777
4.7779 -7.1793 1.8777
5.3519 -6.7899 1.8777
5.8955 -6.3560 1.8785
6.4285 -5.9015 1.8869
6.9230 -5.3996 1.8946
7.3741 -4.8535 1.9018
6.5382 -3.5874 1.6042
8.1283 -3.6451 1.9138
8.4237 -2.9919 1.9185
8.6602 -2.3132 1.9223
8.8354 -1.6147 1.9252
8.9473 -0.9021 1.9271
8.9946 -0.1819 1.9280
8.9770 0.5397 1.9279
8.8946 1.2562 1.9268
8.7484 1.9616 1.9247
6.7593 2.0972 1.5209
6.3964 2.5632 1.4829
7.9463 3.9509 1.9127
7.5674 4.5535 1.9069
7.1389 5.1180 1.9004
6.6651 5.6401 1.8932
6.1508 6.1163 1.8853
5.6006 6.5438 1.8768
3.9313 5.4196 1.4629
4.4590 7.3183 1.8777
3.8459 7.6300 1.8777
3.4491 8.4745 2.0168
2.7672 8.7543 2.0301
2.0488 8.9200 2.0301
1.3217 9.0268 2.0301
0.5905 9.0746 2.0301
-0.1400 9.0637 2.0301
-0.8650 8.9947 2.0301
-1.5800 8.8685 2.0301
-2.2807 8.6864 2.0301
-2.9628 8.4500 2.0301
-3.6221 8.1613 2.0301
-4.2550 7.8223 2.0301
-4.8577 7.4357 2.0301
-5.4269 7.0040 2.0301
-5.9593 6.5302 2.0301
-6.4520 6.0173 2.0301
-6.9023 5.4686 2.0301
-7.3079 4.8874 2.0301
-7.6665 4.2775 2.0301
-7.9763 3.6424 2.0301
-8.2356 2.9858 2.0301
-8.4431 2.3116 2.0301
-8.5976 1.6239 2.0301
-8.6984 0.9265 2.0301
-8.7450 0.2234 2.0301
-8.7369 -0.4812 2.0301
-8.6743 -1.1834 2.0301
-8.5574 -1.8790 2.0301
-8.3868 -2.5642 2.0301
-8.1634 -3.2347 2.0301
-7.8882 -3.8867 2.0301
-7.5626 -4.5163 2.0301
-7.1883 -5.1197 2.0301
-6.7672 -5.6932 2.0301
-6.3017 -6.2331 2.0301
-5.7941 -6.7362 2.0301
-5.2473 -7.1989 2.0301
-4.6643 -7.6183 2.0301
-4.0483 -7.9914 2.0301
-3.4029 -8.3155 2.0301
-2.7320 -8.5883 2.0301
-1.2086 -5.2192 1.2030
-0.7755 -5.2332 1.1842
-0.3505 -5.2470 1.1734
0.0721 -5.2607 1.1702
0.4977 -5.2745 1.1746
1.5945 -9.0462 2.0301
2.3228 -8.9166 2.0301
3.0402 -8.7278 2.0301
3.6977 -8.3804 2.0062
4.0908 -7.5621 1.8777
4.6970 -7.2289 1.8777
-4.8271 6.1764 2.0301
-5.2977 5.7566 2.0301
-5.7331 5.3020 2.0301
-6.1310 4.8154 2.0301
-6.4891 4.3001 2.0301
-6.8055 3.7592 2.0301
-7.0784 3.1958 2.0301
-7.3065 2.6135 2.0301
-7.4883 2.0156 2.0301
-7.6231 1.4056 2.0301
-7.7100 0.7872 2.0301
-7.7486 0.1640 2.0301
-7.7386 -0.4604 2.0301
-7.6801 -1.0823 2.0301
-7.5733 -1.6982 2.0301
-7.4188 -2.3044 2.0301
-7.2173 -2.8972 2.0301
-6.9699 -3.4733 2.0301
-6.6780 -4.0290 2.0301
-6.3429 -4.5610 2.0301
-5.9666 -5.0661 2.0301
-5.5511 -5.5409 2.0301
-5.0986 -5.9826 2.0301
-4.6117 -6.3881 2.0301
-4.0932 -6.7549 2.0301
-3.5459 -7.0802 2.0301
-2.9732 -7.3619 2.0301
-2.3784 -7.5978 2.0301
-1.1524 -5.0834 1.3254
-0.7510 -5.2343 1.3408
-0.3263 -5.2481 1.3295
0.0963 -5.2618 1.3268
0.5124 -5.1746 1.3073
1.4424 -7.9687 2.0301
2.0832 -7.8489 2.0301
2.7137 -7.6770 2.0301
3.3297 -7.4540 2.0301
3.6919 -6.7509 1.9086
4.1632 -6.3440 1.8777
4.6692 -6.0031 1.8777
5.1464 -5.6210 1.8777
5.5914 -5.2002 1.8777
6.0101 -4.7507 1.8806
6.4026 -4.2742 1.8868
6.4194 -3.5770 1.7987
7.0598 -3.2216 1.8973
7.3180 -2.6535 1.9014
7.5256 -2.0634 1.9048
7.6805 -1.4561 1.9073
7.7812 -0.8367 1.9090
7.8266 -0.2104 1.9099
7.8162 0.4175 1.9098
7.7502 1.0417 1.9090
7.6294 1.6570 1.9072
6.8633 2.0789 1.7535
6.5666 2.5800 1.7272
6.9527 3.3984 1.8971
6.6302 3.9285 1.8922
6.2642 4.4266 1.8867
5.8582 4.8890 1.8805
5.4278 5.3241 1.8777
4.9719 5.7294 1.8777
3.9689 5.3932 1.6615
3.6089 5.8325 1.7061
3.4932 6.8134 1.9096
3.1119 7.4977 2.0301
2.4931 7.7019 2.0301
1.8614 7.8550 2.0301
1.2211 7.9563 2.0301
0.5765 8.0057 2.0301
-0.0683 8.0033 2.0301
-0.7091 7.9493 2.0301
-1.3418 7.8447 2.0301
-1.9626 7.6905 2.0301
-2.5676 7.4880 2.0301
-3.1533 7.2388 2.0301
-3.7160 6.9448 2.0301
-4.2527 6.6081 2.0301
-4.7600 6.2311 2.0301
-5.2352 5.8162 2.0301
-5.6757 5.3662 2.0301
-6.0788 4.8838 2.0301
-6.4425 4.3723 2.0301
-6.7647 3.8347 2.0301
-7.0437 3.2742 2.0301
-7.2779 2.6942 2.0301
-7.4662 2.0982 2.0301
-7.6075 1.4897 2.0301
-7.7010 0.8723 2.0301
-7.7462 0.2495 2.0301
-7.7429 -0.3749 2.0301
-7.6910 -0.9974 2.0301
-7.5908 -1.6144 2.0301
-7.4427 -2.2221 2.0301
-7.2476 -2.8170 2.0301
-7.0065 -3.3955 2.0301
-6.7205 -3.9542 2.0301
-6.3913 -4.4897 2.0301
-6.0205 -4.9986 2.0301
-5.6102 -5.4778 2.0301
-5.1626 -5.9242 2.0301
-4.6803 -6.3348 2.0301
-4.1659 -6.7070 2.0301
-3.6225 -7.0382 2.0301
-3.0531 -7.3260 2.0301
-2.4611 -7.5683 2.0301
-1.2157 -5.1014 1.3340
-0.8097 -5.2324 1.3431
-0.3842 -5.2462 1.3305
0.0384 -5.2599 1.3267
0.4574 -5.2027 1.3135
1.3541 -7.9810 2.0301
1.9959 -7.8684 2.0301
2.6281 -7.7036 2.0301
3.2464 -7.4875 2.0301
3.6874 -6.9226 1.9462
4.0919 -6.3874 1.8777
4.6015 -6.0523 1.8777
5.0829 -5.6757 1.8777
5.5325 -5.2601 1.8777
5.9533 -4.8131 1.8797
6.3513 -4.3416 1.8860
6.7082 -3.8351 1.8917
7.0206 -3.2975 1.8966
7.2856 -2.7327 1.9009
7.5002 -2.1454 1.9044
7.6625 -1.5401 1.9070
7.7707 -0.9221 1.9088
7.8237 -0.2964 1.9098
7.8209 0.3316 1.9099
7.7625 0.9567 1.9091
7.6491 1.5735 1.9075
7.4818 2.1768 1.9050
7.0805 2.6925 1.8541
6.9933 3.3235 1.8977
6.6770 3.8577 1.8929
6.3167 4.3604 1.8875
5.9160 4.8279 1.8813
5.4877 5.2657 1.8777
5.0362 5.6761 1.8777
4.0608 5.3928 1.6745
3.6114 5.6955 1.6770
3.5123 6.6687 1.8791
3.1954 7.4658 2.0301
2.5787 7.6769 2.0301
1.9485 7.8371 2.0301
1.3091 7.9455 2.0301
0.6649 8.0020 2.0301
0.0199 8.0066 2.0301
-0.6217 7.9597 2.0301
-1.2558 7.8620 2.0301
-1.8784 7.7145 2.0301
-2.4858 7.5185 2.0301
-3.0743 7.2756 2.0301
-3.6404 6.9877 2.0301
-4.1808 6.6567 2.0301
-4.6924 6.2850 2.0301
-5.1722 5.8751 2.0301
-5.6175 5.4298 2.0301
-6.0259 4.9517 2.0301
-6.3951 4.4440 2.0301
-6.7231 3.9097 2.0301
-7.0081 3.3521 2.0301
-7.2485 2.7747 2.0301
-7.4432 2.1807 2.0301
-7.5909 1.5737 2.0301
-7.6910 0.9573 2.0301
-7.7429 0.3350 2.0301
-7.7462 -0.2894 2.0301
-7.7009 -0.9124 2.0301
-7.6073 -1.5303 2.0301
-7.4658 -2.1395 2.0301
-7.2771 -2.7364 2.0301
-7.0422 -3.3174 2.0301
-6.7623 -3.8790 2.0301
-6.4389 -4.4179 2.0301
-6.0737 -4.9306 2.0301
-5.6687 -5.4141 2.0301
-5.2261 -5.8650 2.0301
-4.7483 -6.2808 2.0301
-4.2382 -6.6584 2.0301
-3.6985 -6.9954 2.0301
-3.1324 -7.2892 2.0301
-2.5434 -7.5379 2.0301
-1.2880 -5.1521 1.3515
-0.8685 -5.2305 1.3455
-0.4422 -5.2443 1.3317
-0.0195 -5.2580 1.3267
0.4042 -5.2611 1.3276
0.8371 -5.2859 1.3427
1.9085 -7.8869 2.0301
2.5423 -7.7292 2.0301
3.1627 -7.5201 2.0301
3.6828 -7.1010 1.9855
4.0201 -6.4299 1.8777
4.5333 -6.1007 1.8777
5.0187 -5.7296 1.8777
5.4729 -5.3192 1.8777
5.8958 -4.8748 1.8788
6.2991 -4.4083 1.8852
6.6619 -3.9064 1.8909
6.9806 -3.3728 1.8960
7.2522 -2.8115 1.9003
7.4739 -2.2269 1.9039
7.6434 -1.6239 1.9067
7.7591 -1.0073 1.9086
7.8197 -0.3823 1.9097
7.8246 0.2457 1.9099
7.7738 0.8714 1.9093
7.6679 1.4897 1.9078
7.5079 2.0951 1.9054
7.1226 2.6192 1.8572
7.0330 3.2481 1.8983
6.7230 3.7863 1.8936
6.3686 4.2936 1.8882
5.9732 4.7661 1.8822
5.5469 5.2065 1.8777
5.1000 5.6222 1.8777
4.6216 5.9990 1.8777
3.6137 5.5629 1.6490
3.5841 6.6275 1.8777
3.2786 7.4330 2.0301
2.6640 7.6510 2.0301
2.0354 7.8182 2.0301
1.3971 7.9337 2.0301
0.7532 7.9974 2.0301
0.1081 8.0091 2.0301
-0.5342 7.9692 2.0301
-1.1695 7.8784 2.0301
-1.7940 7.7376 2.0301
-2.4037 7.5482 2.0301
-2.9950 7.3116 2.0301
-3.5644 7.0297 2.0301
-4.1085 6.7045 2.0301
-4.6241 6.3382 2.0301
-5.1084 5.9334 2.0301
-5.5586 5.4927 2.0301
-5.9722 5.0190 2.0301
-6.3469 4.5151 2.0301
-6.6807 3.9843 2.0301
-6.9716 3.4298 2.0301
-7.2183 2.8548 2.0301
-7.4193 2.2629 2.0301
-7.5735 1.6574 2.0301
-7.6801 1.0421 2.0301
-7.7386 0.4204 2.0301
-7.7486 -0.2039 2.0301
-7.7100 -0.8273 2.0301
-7.6230 -1.4462 2.0301
-7.4880 -2.0567 2.0301
-7.3057 -2.6555 2.0301
-7.0770 -3.2389 2.0301
-6.8032 -3.8034 2.0301
-6.4857 -4.3455 2.0301
-6.1261 -4.8620 2.0301
-5.7264 -5.3497 2.0301
-5.2888 -5.8053 2.0301
-4.8157 -6.2261 2.0301
-4.3098 -6.6091 2.0301
-3.7740 -6.9517 2.0301
-3.2114 -7.2516 2.0301
-2.6253 -7.5066 2.0301
-2.0191 -7.7146 2.0301
-0.9199 -5.1862 1.3371
-0.5002 -5.2424 1.3331
-0.0774 -5.2562 1.3269
0.3466 -5.2699 1.3293
0.7773 -5.2839 1.3404
1.8209 -7.9044 2.0301
2.4562 -7.7539 2.0301
3.0787 -7.5517 2.0301
3.6779 -7.2866 2.0267
3.9478 -6.4717 1.8777
4.4646 -6.1483 1.8777
4.9540 -5.7828 1.8777
5.4127 -5.3776 1.8777
5.8371 -4.9352 1.8777
6.2462 -4.4743 1.8843
6.6147 -3.9771 1.8902
6.9397 -3.4476 1.8954
7.2179 -2.8898 1.8998
7.4466 -2.3082 1.9035
7.6234 -1.7074 1.9064
7.7465 -1.0923 1.9084
7.8147 -0.4682 1.9096
7.8272 0.1597 1.9100
7.7840 0.7861 1.9094
7.6856 1.4056 1.9080
7.5329 2.0131 1.9058
7.3276 2.6036 1.9028
7.0718 3.1722 1.8989
6.7681 3.7144 1.8943
6.4196 4.2261 1.8890
6.0296 4.7036 1.8831
5.6019 5.1435 1.8765
5.1631 5.5675 1.8777
4.6888 5.9498 1.8777
3.6240 5.4466 1.6256
3.6640 6.6020 1.8808
3.3615 7.3992 2.0301
2.7491 7.6241 2.0301
2.1222 7.7983 2.0301
1.4849 7.9210 2.0301
0.8416 7.9917 2.0301
0.1964 8.0105 2.0301
-0.4466 7.9777 2.0301
-1.0831 7.8938 2.0301
-1.7093 7.7598 2.0301
-2.3212 7.5769 2.0301
-2.9152 7.3467 2.0301
-3.4878 7.0709 2.0301
-4.0356 6.7515 2.0301
-4.5553 6.3907 2.0301
-5.0441 5.9910 2.0301
-5.4991 5.5551 2.0301
-5.9178 5.0857 2.0301
-6.2980 4.5858 2.0301
-6.6375 4.0585 2.0301
-6.9344 3.5070 2.0301
-7.1872 2.9346 2.0301
-7.3945 2.3448 2.0301
-7.5552 1.7410 2.0301
-7.6684 1.1268 2.0301
-7.7335 0.5058 2.0301
-7.7501 -0.1184 2.0301
-7.7181 -0.7422 2.0301
-7.6377 -1.3618 2.0301
-7.5093 -1.9738 2.0301
-7.3334 -2.5743 2.0301
-7.1111 -3.1600 2.0301
-6.8433 -3.7273 2.0301
-6.5317 -4.2727 2.0301
-6.1777 -4.7929 2.0301
-5.7834 -5.2847 2.0301
-5.3509 -5.7450 2.0301
-4.8825 -6.1706 2.0301
-4.3810 -6.5589 2.0301
-3.8491 -6.9073 2.0301
-3.2899 -7.2132 2.0301
-2.7068 -7.4744 2.0301
-2.1032 -7.6890 2.0301
-0.9690 -5.1333 1.3267
-0.5583 -5.2406 1.3346
-0.1352 -5.2543 1.3272
0.2882 -5.2680 1.3284
0.7085 -5.2143 1.3212
1.7332 -7.9210 2.0301
2.3699 -7.7776 2.0301
2.9944 -7.5825 2.0301
3.6024 -7.3365 2.0301
3.8752 -6.5125 1.8777
4.3953 -6.1951 1.8777
4.8888 -5.8353 1.8777
5.3518 -5.4354 1.8777
5.7788 -4.9959 1.8770
6.1925 -4.5397 1.8835
6.5667 -4.0472 1.8894
6.8979 -3.5219 1.8947
7.1827 -2.9677 1.8992
7.4183 -2.3891 1.9030
7.6023 -1.7906 1.9060
7.7328 -1.1772 1.9082
7.8086 -0.5540 1.9095
7.8288 0.0737 1.9100
7.7933 0.7006 1.9095
7.7023 1.3214 1.9083
7.5570 1.9308 1.9062
7.3588 2.5239 1.9032
7.1097 3.0958 1.8995
6.8124 3.6418 1.8950
6.4698 4.1580 1.8898
6.0853 4.6403 1.8839
5.6625 5.0856 1.8775
5.2257 5.5121 1.8777
4.7555 5.8998 1.8777
3.6818 5.4036 1.6242
3.7317 6.5515 1.8777
3.4439 7.3645 2.0301
2.8339 7.5963 2.0301
2.2087 7.7775 2.0301
1.5726 7.9072 2.0301
0.9299 7.9851 2.0301
0.2847 8.0110 2.0301
-0.3588 7.9852 2.0301
-0.9964 7.9083 2.0301
-1.6243 7.7811 2.0301
-2.2384 7.6048 2.0301
-2.8351 7.3810 2.0301
-3.4108 7.1113 2.0301
-3.9621 6.7977 2.0301
-4.4859 6.4425 2.0301
-4.9791 6.0480 2.0301
-5.4389 5.6169 2.0301
-5.8627 5.1519 2.0301
-6.2483 4.6560 2.0301
-6.5934 4.1322 2.0301
-6.8963 3.5838 2.0301
-7.1552 3.0141 2.0301
-7.3688 2.4265 2.0301
-7.5360 1.8244 2.0301
-7.6557 1.2114 2.0301
-7.7274 0.5911 2.0301
-7.7507 -0.0329 2.0301
-7.7254 -0.6569 2.0301
-7.6516 -1.2773 2.0301
-7.5297 -1.8905 2.0301
-7.3603 -2.4929 2.0301
-7.1442 -3.0808 2.0301
-6.8826 -3.6508 2.0301
-6.5769 -4.1995 2.0301
-6.2286 -4.7233 2.0301
-5.8397 -5.2192 2.0301
-5.4123 -5.6839 2.0301
-4.9487 -6.1145 2.0301
-4.4515 -6.5081 2.0301
-3.9236 -6.8620 2.0301
-3.3680 -7.1738 2.0301
-2.7879 -7.4413 2.0301
-2.1869 -7.6624 2.0301
-1.0213 -5.1017 1.3218
-0.6166 -5.2387 1.3363
-0.1931 -5.2524 1.3277
0.2300 -5.2661 1.3277
0.6454 -5.1767 1.3103
1.6452 -7.9365 2.0301
2.2833 -7.8003 2.0301
2.9097 -7.6122 2.0301
3.5203 -7.3732 2.0301
3.8020 -6.5526 1.8777
4.3256 -6.2411 1.8777
4.8229 -5.8870 1.8777
5.2903 -5.4924 1.8777
5.7245 -5.0599 1.8777
6.1381 -4.6044 1.8826
6.5180 -4.1167 1.8887
6.8552 -3.5956 1.8940
7.1465 -3.0452 1.8987
7.3890 -2.4696 1.9026
7.5802 -1.8736 1.9057
7.7182 -1.2619 1.9079
7.8015 -0.6398 1.9094
7.8293 -0.0124 1.9099
7.8014 0.6150 1.9097
7.7180 1.2369 1.9085
7.5800 1.8482 1.9065
6.7672 2.2382 1.7435
6.4908 2.7418 1.7256
6.8559 3.5687 1.8956
6.5193 4.0892 1.8905
6.1403 4.5764 1.8848
5.7225 5.0269 1.8784
5.2876 5.4560 1.8777
4.8217 5.8490 1.8777
3.7661 5.3987 1.6346
3.8050 6.5124 1.8777
3.4709 7.2143 1.9984
2.9185 7.5675 2.0301
2.2951 7.7557 2.0301
1.6602 7.8925 2.0301
1.0181 7.9775 2.0301
0.3730 8.0105 2.0301
-0.2709 7.9918 2.0301
-0.9096 7.9218 2.0301
-1.5390 7.8014 2.0301
-2.1552 7.6318 2.0301
-2.7545 7.4144 2.0301
-3.3333 7.1509 2.0301
-3.8882 6.8432 2.0301
-4.4159 6.4935 2.0301
-4.9134 6.1042 2.0301
-5.3780 5.6780 2.0301
-5.8069 5.2174 2.0301
-6.1978 4.7256 2.0301
-6.5486 4.2055 2.0301
-6.8574 3.6602 2.0301
-7.1224 3.0933 2.0301
-7.3423 2.5079 2.0301
-7.5158 1.9076 2.0301
-7.6421 1.2959 2.0301
-7.7205 0.6764 2.0301
-7.7504 0.0527 2.0301
-7.7317 -0.5716 2.0301
-7.6646 -1.1927 2.0301
-7.5492 -1.8071 2.0301
-7.3863 -2.4112 2.0301
-7.1765 -3.0013 2.0301
-6.9211 -3.5739 2.0301
-6.6213 -4.1257 2.0301
-6.2788 -4.6532 2.0301
-5.8953 -5.1531 2.0301
-5.4730 -5.6222 2.0301
-5.0142 -6.0576 2.0301
-4.5215 -6.4565 2.0301
-3.9976 -6.8160 2.0301
-3.4456 -7.1337 2.0301
-2.8687 -7.4074 2.0301
-2.2703 -7.6349 2.0301
-1.0763 -5.0849 1.3210
-0.6749 -5.2368 1.3382
-0.2509 -5.2505 1.3284
0.1719 -5.2642 1.3272
0.5863 -5.1647 1.3061
1.5572 -7.9511 2.0301
2.1965 -7.8220 2.0301
2.8248 -7.6410 2.0301
3.4378 -7.4089 2.0301
3.7285 -6.5919 1.8777
4.2554 -6.2863 1.8777
4.7565 -5.9379 1.8777
5.2282 -5.5488 1.8777
5.6671 -5.1213 1.8777
6.0830 -4.6684 1.8818
6.4684 -4.1855 1.8879
6.4820 -3.4913 1.8017
7.1094 -3.1221 1.8981
7.3588 -2.5498 1.9021
7.5571 -1.9562 1.9053
7.7025 -1.3464 1.9077
7.7934 -0.7254 1.9092
7.8288 -0.0984 1.9099
7.8085 0.5293 1.9097
7.7327 1.1523 1.9087
7.6021 1.7653 1.9068
6.7727 2.1577 1.7384
6.4900 2.6578 1.7172
6.8985 3.4951 1.8963
6.5680 4.0198 1.8913
6.1946 4.5118 1.8856
5.7819 4.9675 1.8793
5.3489 5.3992 1.8777
4.8873 5.7975 1.8777
3.8533 5.3964 1.6460
3.8777 6.4724 1.8777
3.4809 7.0357 1.9587
3.0027 7.5378 2.0301
2.3812 7.7330 2.0301
1.7477 7.8769 2.0301
1.1063 7.9690 2.0301
0.4614 8.0091 2.0301
-0.1830 7.9974 2.0301
-0.8226 7.9344 2.0301
-1.4535 7.8208 2.0301
-2.0717 7.6579 2.0301
-2.6736 7.4469 2.0301
-3.2554 7.1896 2.0301
-3.8137 6.8878 2.0301
-4.3454 6.5438 2.0301
-4.8472 6.1598 2.0301
-5.3164 5.7384 2.0301
-5.7504 5.2824 2.0301
-6.1466 4.7947 2.0301
-6.5030 4.2782 2.0301
-6.8176 3.7363 2.0301
-7.0888 3.1721 2.0301
-7.3149 2.5890 2.0301
-7.4949 1.9905 2.0301
-7.6277 1.3802 2.0301
-7.7126 0.7615 2.0301
-7.7492 0.1382 2.0301
-7.7372 -0.4862 2.0301
-7.6766 -1.1080 2.0301
-7.5678 -1.7235 2.0301
-7.4114 -2.3292 2.0301
-7.2080 -2.9215 2.0301
-6.9587 -3.4967 2.0301
-6.6649 -4.0515 2.0301
-6.3282 -4.5825 2.0301
-5.9502 -5.0863 2.0301
-5.5331 -5.5599 2.0301
-5.0791 -6.0001 2.0301
-4.5909 -6.4041 2.0301
-4.0711 -6.7692 2.0301
-3.5227 -7.0928 2.0301
-2.9490 -7.3726 2.0301
-2.3534 -7.6066 2.0301
-1.1343 -5.0815 1.3238
-0.7333 -5.2349 1.3402
-0.3088 -5.2486 1.3292
0.1139 -5.2624 1.3269
0.5293 -5.1699 1.3063
1.4691 -7.9647 2.0301
2.1095 -7.8428 2.0301
2.7396 -7.6688 2.0301
3.3548 -7.4436 2.0301
3.6932 -6.7002 1.8976
4.1847 -6.3308 1.8777
4.6895 -5.9881 1.8777
5.1655 -5.6044 1.8777
5.6091 -5.1820 1.8777
6.0271 -4.7317 1.8809
6.4180 -4.2537 1.8871
6.4291 -3.5544 1.7980
7.0715 -3.1986 1.8975
7.3276 -2.6295 1.9016
7.5331 -2.0386 1.9049
7.6858 -1.4307 1.9074
7.7842 -0.8109 1.9091
7.8273 -0.1844 1.9099
7.8146 0.4434 1.9098
7.7463 1.0674 1.9089
7.6232 1.6821 1.9071
6.8293 2.0934 1.7467
6.5359 2.5930 1.7215
6.9403 3.4209 1.8969
6.6159 3.9498 1.8920
6.2481 4.4465 1.8864
5.8406 4.9073 1.8802
5.4096 5.3416 1.8777
4.9524 5.7453 1.8777
3.9419 5.3939 1.6578
3.9501 6.4316 1.8777
3.4904 6.8640 1.9207
3.0866 7.5071 2.0301
2.4671 7.7093 2.0301
1.8350 7.8602 2.0301
1.1945 7.9594 2.0301
0.5498 8.0066 2.0301
-0.0949 8.0020 2.0301
-0.7354 7.9460 2.0301
-1.3678 7.8393 2.0301
-1.9880 7.6831 2.0301
-2.5923 7.4786 2.0301
-3.1770 7.2275 2.0301
-3.7388 6.9317 2.0301
-4.2743 6.5933 2.0301
-4.7804 6.2146 2.0301
-5.2542 5.7982 2.0301
-5.6931 5.3468 2.0301
-6.0947 4.8632 2.0301
-6.4566 4.3506 2.0301
-6.7771 3.8119 2.0301
-7.0543 3.2505 2.0301
-7.2866 2.6698 2.0301
-7.4730 2.0733 2.0301
-7.6123 1.4643 2.0301
-7.7038 0.8466 2.0301
-7.7470 0.2237 2.0301
-7.7417 -0.4007 2.0301
-7.6878 -1.0231 2.0301
-7.5856 -1.6397 2.0301
-7.4356 -2.2470 2.0301
-7.2386 -2.8413 2.0301
-6.9955 -3.4191 2.0301
-6.7078 -3.9769 2.0301
-6.3767 -4.5113 2.0301
-6.0043 -5.0191 2.0301
-5.5924 -5.4969 2.0301
-5.1434 -5.9419 2.0301
-4.6596 -6.3510 2.0301
-4.1440 -6.7216 2.0301
-3.5994 -7.0510 2.0301
-3.0290 -7.3369 2.0301
-2.4361 -7.5773 2.0301
-1.1960 -5.0937 1.3308
-0.7919 -5.2330 1.3424
-0.3667 -5.2468 1.3302
0.0559 -5.2605 1.3267
0.4738 -5.1919 1.3110
1.3808 -7.9774 2.0301
2.0223 -7.8626 2.0301
2.6540 -7.6957 2.0301
3.2716 -7.4775 2.0301
3.6888 -6.8701 1.9347
4.1135 -6.3744 1.8777
4.6220 -6.0375 1.8777
5.1021 -5.6593 1.8777
5.5503 -5.2421 1.8777
5.9706 -4.7943 1.8800
6.3669 -4.3213 1.8863
6.4356 -3.6510 1.8113
7.0326 -3.2746 1.8968
7.2954 -2.7088 1.9010
7.5080 -2.1206 1.9045
7.6680 -1.5148 1.9071
7.7740 -0.8963 1.9089
7.8247 -0.2704 1.9098
7.8196 0.3576 1.9099
7.7589 0.9824 1.9091
7.6432 1.5987 1.9074
7.4738 2.2014 1.9049
7.0994 2.7267 1.8615
6.9811 3.3462 1.8975
6.6629 3.8792 1.8927
6.3009 4.3805 1.8872
5.8986 4.8465 1.8811
5.4696 5.2834 1.8777
5.0169 5.6923 1.8777
4.0318 5.3914 1.6700
3.6107 5.7364 1.6857
3.5040 6.7070 1.8868
3.1702 7.4755 2.0301
2.5528 7.6846 2.0301
1.9222 7.8426 2.0301
1.2825 7.9489 2.0301
0.6381 8.0033 2.0301
-0.0068 8.0057 2.0301
-0.6481 7.9567 2.0301
-1.2818 7.8569 2.0301
-1.9039 7.7074 2.0301
-2.5106 7.5094 2.0301
-3.0982 7.2646 2.0301
-3.6633 6.9748 2.0301
-4.2026 6.6421 2.0301
-4.7129 6.2688 2.0301
-5.1913 5.8574 2.0301
-5.6351 5.4106 2.0301
-6.0420 4.9312 2.0301
-6.4095 4.4224 2.0301
-6.7357 3.8871 2.0301
-7.0189 3.3286 2.0301
-7.2575 2.7504 2.0301
-7.4502 2.1558 2.0301
-7.5960 1.5483 2.0301
-7.6941 0.9316 2.0301
-7.7440 0.3092 2.0301
-7.7453 -0.3153 2.0301
-7.6980 -0.9381 2.0301
-7.6024 -1.5558 2.0301
-7.4589 -2.1645 2.0301
-7.2683 -2.7608 2.0301
-7.0315 -3.3410 2.0301
-6.7498 -3.9018 2.0301
-6.4246 -4.4396 2.0301
-6.0577 -4.9512 2.0301
-5.6511 -5.4334 2.0301
-5.2070 -5.8830 2.0301
-4.7278 -6.2972 2.0301
-4.2164 -6.6732 2.0301
-3.6756 -7.0084 2.0301
-3.1085 -7.3004 2.0301
-2.5185 -7.5472 2.0301
-1.2645 -5.1307 1.3446
-0.8507 -5.2311 1.3447
-0.4247 -5.2449 1.3313
-0.0020 -5.2586 1.3267
0.4200 -5.2382 1.3220
1.2924 -7.9890 2.0301
1.9350 -7.8814 2.0301
2.5683 -7.7216 2.0301
3.1881 -7.5103 2.0301
3.6842 -7.0464 1.9735
4.0418 -6.4172 1.8777
4.5540 -6.0861 1.8777
5.0382 -5.7134 1.8777
5.4910 -5.3014 1.8777
5.9133 -4.8562 1.8791
6.3149 -4.3882 1.8854
6.6759 -3.8849 1.8912
6.9928 -3.3501 1.8962
7.2624 -2.7877 1.9005
7.4819 -2.2023 1.9041
7.6493 -1.5986 1.9068
7.7627 -0.9816 1.9087
7.8210 -0.3564 1.9097
7.8236 0.2717 1.9099
7.7705 0.8972 1.9092
7.6623 1.5150 1.9077
7.5001 2.1198 1.9053
7.1023 2.6386 1.8543
7.0211 3.2709 1.8981
6.7092 3.8080 1.8934
6.3530 4.3138 1.8880
5.9559 4.7849 1.8819
5.5290 5.2245 1.8777
5.0808 5.6386 1.8777
4.6011 6.0137 1.8777
3.6130 5.6026 1.6573
3.5617 6.6384 1.8777
3.2535 7.4430 2.0301
2.6383 7.6590 2.0301
2.0092 7.8240 2.0301
1.3705 7.9374 2.0301
0.7265 7.9989 2.0301
0.0814 8.0084 2.0301
-0.5606 7.9664 2.0301
-1.1956 7.8735 2.0301
-1.8195 7.7307 2.0301
-2.4286 7.5393 2.0301
-3.0190 7.3008 2.0301
-3.5874 7.0170 2.0301
-4.1304 6.6901 2.0301
-4.6448 6.3222 2.0301
-5.1278 5.9159 2.0301
-5.5765 5.4738 2.0301
-5.9885 4.9987 2.0301
-6.3616 4.4937 2.0301
-6.6936 3.9618 2.0301
-6.9827 3.4063 2.0301
-7.2275 2.8306 2.0301
-7.4266 2.2380 2.0301
-7.5789 1.6322 2.0301
-7.6835 1.0165 2.0301
-7.7400 0.3946 2.0301
-7.7480 -0.2298 2.0301
-7.7074 -0.8531 2.0301
-7.6183 -1.4716 2.0301
-7.4814 -2.0818 2.0301
-7.2972 -2.6800 2.0301
-7.0666 -3.2626 2.0301
-6.7909 -3.8263 2.0301
-6.4716 -4.3674 2.0301
-6.1103 -4.8828 2.0301
-5.7090 -5.3692 2.0301
-5.2699 -5.8235 2.0301
-4.7954 -6.2427 2.0301
-4.2883 -6.6241 2.0301
-3.7513 -6.9650 2.0301
-3.1876 -7.2631 2.0301
-2.6005 -7.5161 2.0301
-1.9937 -7.7222 2.0301
-0.9062 -5.2096 1.3422
-0.4827 -5.2430 1.3327
-0.0599 -5.2567 1.3268
0.3642 -5.2705 1.3295
0.7953 -5.2845 1.3411
1.8474 -7.8992 2.0301
2.4822 -7.7465 2.0301
3.1041 -7.5423 2.0301
3.6794 -7.2297 2.0140
3.9697 -6.4591 1.8777
4.4854 -6.1340 1.8777
4.9737 -5.7668 1.8777
5.4310 -5.3600 1.8777
5.8553 -4.9174 1.8782
6.2623 -4.4544 1.8846
6.6291 -3.9558 1.8904
6.9521 -3.4251 1.8956
7.2284 -2.8662 1.9000
7.4549 -2.2837 1.9036
7.6295 -1.6822 1.9065
7.7504 -1.0667 1.9085
7.8163 -0.4423 1.9096
7.8266 0.1857 1.9099
7.7811 0.8119 1.9094
7.6803 1.4310 1.9080
7.5255 2.0380 1.9057
7.3180 2.6276 1.9026
7.0602 3.1951 1.8987
6.7546 3.7362 1.8941
6.4042 4.2466 1.8888
6.0126 4.7225 1.8828
5.5834 5.1608 1.8762
5.1441 5.5841 1.8777
4.6685 5.9647 1.8777
3.6161 5.4741 1.6304
3.6358 6.6012 1.8777
3.3365 7.4095 2.0301
2.7234 7.6324 2.0301
2.0960 7.8044 2.0301
1.4584 7.9249 2.0301
0.8149 7.9935 2.0301
0.1697 8.0102 2.0301
-0.4730 7.9752 2.0301
-1.1092 7.8892 2.0301
-1.7349 7.7532 2.0301
-2.3461 7.5684 2.0301
-2.9394 7.3362 2.0301
-3.5110 7.0585 2.0301
-4.0577 6.7373 2.0301
-4.5761 6.3750 2.0301
-5.0636 5.9737 2.0301
-5.5172 5.5363 2.0301
-5.9344 5.0656 2.0301
-6.3128 4.5645 2.0301
-6.6506 4.0362 2.0301
-6.9457 3.4837 2.0301
-7.1967 2.9105 2.0301
-7.4021 2.3201 2.0301
-7.5608 1.7158 2.0301
-7.6720 1.1012 2.0301
-7.7351 0.4800 2.0301
-7.7497 -0.1442 2.0301
-7.7158 -0.7679 2.0301
-7.6334 -1.3873 2.0301
-7.5029 -1.9989 2.0301
-7.3252 -2.5989 2.0301
-7.1009 -3.1839 2.0301
-6.8313 -3.7503 2.0301
-6.5179 -4.2948 2.0301
-6.1622 -4.8139 2.0301
-5.7663 -5.3044 2.0301
-5.3322 -5.7633 2.0301
-4.8624 -6.1874 2.0301
-4.3596 -6.5742 2.0301
-3.8265 -6.9208 2.0301
-3.2662 -7.2249 2.0301
-2.6822 -7.4842 2.0301
-2.0778 -7.6968 2.0301
-0.9537 -5.1464 1.3291
-0.5408 -5.2411 1.3341
-0.1177 -5.2548 1.3271
0.3058 -5.2686 1.3287
0.7291 -5.2359 1.3271
1.7597 -7.9161 2.0301
2.3960 -7.7705 2.0301
3.0199 -7.5733 2.0301
3.6271 -7.3255 2.0301
3.8972 -6.5003 1.8777
4.4163 -6.1810 1.8777
4.9085 -5.8195 1.8777
5.3703 -5.4180 1.8777
5.7967 -4.9778 1.8773
6.2088 -4.5200 1.8838
6.5813 -4.0261 1.8897
6.9106 -3.4995 1.8949
7.1934 -2.9442 1.8994
7.4269 -2.3647 1.9032
7.6087 -1.7655 1.9061
7.7371 -1.1516 1.9083
7.8106 -0.5281 1.9095
7.8284 0.0997 1.9100
7.7906 0.7264 1.9095
7.6974 1.3469 1.9082
7.5498 1.9558 1.9061
7.3495 2.5480 1.9031
7.0984 3.1189 1.8993
6.7991 3.6638 1.8948
6.4547 4.1786 1.8896
6.0686 4.6595 1.8837
5.6443 5.1031 1.8772
5.2068 5.5289 1.8777
4.7354 5.9150 1.8777
3.6599 5.4100 1.6227
3.7096 6.5631 1.8777
3.4191 7.3751 2.0301
2.8083 7.6049 2.0301
2.1826 7.7839 2.0301
1.5461 7.9115 2.0301
0.9032 7.9872 2.0301
0.2579 8.0110 2.0301
-0.3853 7.9830 2.0301
-1.0226 7.9040 2.0301
-1.6500 7.7747 2.0301
-2.2635 7.5965 2.0301
-2.8593 7.3707 2.0301
-3.4341 7.0992 2.0301
-3.9844 6.7838 2.0301
-4.5070 6.4269 2.0301
-4.9988 6.0309 2.0301
-5.4571 5.5983 2.0301
-5.8795 5.1319 2.0301
-6.2634 4.6348 2.0301
-6.6068 4.1100 2.0301
-6.9079 3.5606 2.0301
-7.1650 2.9901 2.0301
-7.3767 2.4019 2.0301
-7.5419 1.7992 2.0301
-7.6596 1.1859 2.0301
-7.7293 0.5653 2.0301
-7.7506 -0.0587 2.0301
-7.7233 -0.6827 2.0301
-7.6475 -1.3029 2.0301
-7.5236 -1.9157 2.0301
-7.3523 -2.5175 2.0301
-7.1343 -3.1048 2.0301
-6.8708 -3.6740 2.0301
-6.5633 -4.2217 2.0301
-6.2134 -4.7444 2.0301
-5.8228 -5.2391 2.0301
-5.3938 -5.7024 2.0301
-4.9287 -6.1315 2.0301
-4.4303 -6.5235 2.0301
-3.9011 -6.8758 2.0301
-3.3444 -7.1858 2.0301
-2.7634 -7.4514 2.0301
-2.1617 -7.6705 2.0301
-1.0052 -5.1095 1.3228
-0.5989 -5.2393 1.3358
-0.1756 -5.2530 1.3275
0.2476 -5.2667 1.3279
0.6639 -5.1845 1.3127
1.6718 -7.9319 2.0301
2.3094 -7.7935 2.0301
2.9353 -7.6033 2.0301
3.5451 -7.3622 2.0301
3.8242 -6.5401 1.8777
4.3467 -6.2273 1.8777
4.8428 -5.8715 1.8777
5.3090 -5.4753 1.8777
5.7374 -5.0375 1.8763
6.1546 -4.5849 1.8829
6.5328 -4.0957 1.8889
6.8682 -3.5734 1.8942
7.1575 -3.0218 1.8988
7.3979 -2.4454 1.9027
7.5870 -1.8485 1.9058
7.7227 -1.2363 1.9080
7.8038 -0.6138 1.9094
7.8293 0.0136 1.9100
7.7991 0.6409 1.9096
7.7134 1.2625 1.9084
7.5732 1.8733 1.9064
6.7795 2.2673 1.7487
6.5041 2.7729 1.7317
6.8429 3.5909 1.8954
6.5044 4.1101 1.8903
6.1238 4.5958 1.8845
5.7045 5.0447 1.8781
5.2689 5.4730 1.8777
4.8018 5.8644 1.8777
3.7400 5.3994 1.6312
3.7829 6.5243 1.8777
3.4678 7.2696 2.0107
2.8930 7.5763 2.0301
2.2690 7.7624 2.0301
1.6338 7.8971 2.0301
0.9914 7.9799 2.0301
0.3463 8.0108 2.0301
-0.2975 7.9899 2.0301
-0.9359 7.9178 2.0301
-1.5648 7.7954 2.0301
-2.1804 7.6237 2.0301
-2.7789 7.4044 2.0301
-3.3568 7.1390 2.0301
-3.9106 6.8295 2.0301
-4.4371 6.4782 2.0301
-4.9333 6.0873 2.0301
-5.3965 5.6596 2.0301
-5.8239 5.1977 2.0301
-6.2131 4.7046 2.0301
-6.5622 4.1834 2.0301
-6.8692 3.6372 2.0301
-7.1324 3.0693 2.0301
-7.3504 2.4833 2.0301
-7.5220 1.8825 2.0301
-7.6463 1.2703 2.0301
-7.7227 0.6506 2.0301
-7.7506 0.0268 2.0301
-7.7299 -0.5974 2.0301
-7.6607 -1.2183 2.0301
-7.5434 -1.8323 2.0301
-7.3785 -2.4359 2.0301
-7.1669 -3.0254 2.0301
-6.9096 -3.5973 2.0301
-6.6080 -4.1480 2.0301
-6.2637 -4.6744 2.0301
-5.8786 -5.1731 2.0301
-5.4547 -5.6409 2.0301
-4.9945 -6.0749 2.0301
-4.5004 -6.4721 2.0301
-3.9753 -6.8300 2.0301
-3.4222 -7.1459 2.0301
-2.8443 -7.4177 2.0301
-2.2452 -7.6433 2.0301
-1.0594 -5.0886 1.3209
-0.6572 -5.2374 1.3376
-0.2335 -5.2511 1.3282
0.1895 -5.2648 1.3274
0.6039 -5.1664 1.3068
1.5839 -7.9468 2.0301
2.2227 -7.8156 2.0301
2.8505 -7.6324 2.0301
3.4627 -7.3982 2.0301
3.7508 -6.5801 1.8777
4.2766 -6.2728 1.8777
4.7766 -5.9226 1.8777
5.2471 -5.5318 1.8777
5.6845 -5.1029 1.8777
6.0997 -4.6492 1.8820
6.4834 -4.1648 1.8881
6.5141 -3.4807 1.8073
7.1207 -3.0989 1.8982
7.3680 -2.5256 1.9022
7.5642 -1.9313 1.9054
7.7073 -1.3209 1.9078
